4.937353293409467436e-02 1.715538041252035184e-01 -8.232860005377773405e-01
1.622279598297378736e-02 7.339546213439029909e-02 -5.258658243003150323e-01
-1.782514735380396897e-01 -4.565483215234579506e-02 -1.635071701776074082e-01
-1.511973679012354466e-01 -6.710518100142907894e-02 -9.887620940341113052e-02
2.739410568962029613e-01 6.279938255315389850e-02 -4.965303196786422513e-01
1.113979895548141696e-01 2.026398636320191349e-01 -9.180232416002277462e-01
4.360703457028940466e-01 -8.995306939626405984e-02 -3.595592480723877604e-02
-5.109222305989440382e-01 -2.709081061945390334e-01 5.217319888887825829e-01
-3.486236074456785378e-02 -3.769670188301696978e-01 8.376632218012470821e-01
1.093318008895860782e-01 -2.855176241002165827e-01 5.593697094157554783e-01
-4.964295926417137128e-01 -1.424421716043389463e-01 1.327860587775330226e-01
-1.521837813566074005e-01 -1.126659370459629356e-01 3.902036942898901017e-02
1.192717060174533356e-01 1.429240686073891993e-02 -3.480876577769168589e-01
2.143228421843387799e-02 -7.530391695662673468e-02 -7.589384403299104243e-02
-3.800302000133256031e-01 -1.470386133350857875e-02 -2.550383400936914180e-01
1.677493322748211946e-01 8.224998535759343865e-02 -5.542700677369107876e-01
1.709295630111782871e-01 -2.687683390727416688e-01 5.080261366512148768e-01
-1.367541337271297175e-01 -3.041049555261134407e-01 6.182322073984838351e-01
-3.144483786046108065e-02 -3.968626751775367056e-01 8.978396558287136120e-01
1.505616087826144867e-01 -2.097551717833487928e-01 3.296433021186121470e-01
-2.823615936495353917e-01 -3.494434161575231679e-01 7.569895147725169693e-01
-1.038007171655531552e-01 -5.399125767969785439e-02 -1.390670585269388193e-01
6.293958002335313384e-02 6.791295523691175118e-02 -5.097688005676573875e-01
2.646569166864917166e-01 -2.317910975608492019e-01 3.951235254487109883e-01
-2.097912842870802430e-01 -1.365464718384391263e-01 1.119038097171360518e-01
-1.968189297026255030e-02 -3.290693631973718447e-01 6.925436897576192630e-01
-2.159143885808918750e-01 7.273403374243936348e-02 -5.214025968202666839e-01
-1.122472783288948062e-01 1.119860266379060082e-01 -6.412949640554472808e-01
6.936060797980085901e-01 3.469465752577096523e-02 -4.159234496272086745e-01
-4.184825580345062912e-01 -2.175500245329458834e-02 -2.332908751516655776e-01
3.593307703176470413e-01 9.995541320388509621e-02 -6.098856143170978683e-01
-5.873640379750990625e-01 -3.024803567578186470e-01 6.180935240419739296e-01
-5.815431779840997129e-01 -1.271419935448735439e-01 8.738374963697365105e-02
2.234033034855544275e-01 -2.150846914380738772e-01 3.450003063931054714e-01
3.134379088069030317e-01 1.316930006934080855e-01 -7.054503539396803635e-01
1.539383204617393586e-02 -1.664235607874746947e-01 1.999367693278219782e-01
5.032215401079537243e-01 8.634786345007575137e-02 -5.702291579491417517e-01
4.988097939009292769e-01 -4.913737949755087563e-03 -2.939861697063365087e-01
2.707518431577649043e-01 6.892093259604292754e-02 -5.150229026343415839e-01
1.713462983723342270e-01 -1.199608164315115327e-01 5.766721062591666225e-02
4.314844787203140353e-01 1.463417916857489565e-01 -7.510354979024184141e-01
3.882594825645370173e-01 5.003166587669719001e-02 -4.591019832491661790e-01
6.986119768193130297e-02 1.651587090965994931e-01 -8.041489787817196477e-01
-5.734584898562856276e-02 -1.431626051424762514e-01 1.303105732793219118e-01
-7.132400604817912271e-02 -3.065716453427801969e-01 6.250036661540862015e-01
1.313284547991891149e-01 -2.988408381289094917e-01 5.994581492125383715e-01
-2.700435142031942792e-01 -5.165868966289847292e-02 -1.443636413860039935e-01
-1.341056015939502410e-01 5.182764772864983244e-03 -3.178313426369229755e-01
-3.676387543395540636e-01 -3.118782545902446524e-01 6.442056822069331945e-01
-6.353975833118773175e-02 -2.081990493439085932e-01 3.272040400939766336e-01
-3.522929832433115416e-01 -3.110334607358516412e-01 6.414862598652036896e-01
1.210090070459536732e-01 1.284196192609182441e-01 -6.935032983000644080e-01
1.264559335001138041e-01 6.014129376611521832e-02 -4.869219609576285190e-01
-5.420747002215032806e-01 -2.710119304401731322e-01 5.223765300167930725e-01
5.219204199946889805e-02 -2.122675562695119228e-02 -2.398803690844880654e-01
3.246891880678609010e-01 -4.311832821780874764e-02 -1.765166325973273331e-01
5.850291795710215181e-01 6.310872572488718246e-02 -5.007651442032308164e-01
2.302157809459149385e-01 1.581680884066500106e-02 -3.538775378734567711e-01
-1.482801811607646625e-01 6.978980397407459624e-02 -5.132092711252926875e-01
1.960310700902968550e-01 8.215810147826928256e-02 -5.542918735074807701e-01
4.597966904128232279e-01 7.038754551373284374e-02 -5.214660297046204152e-01
-6.091427412416816622e-01 -2.717462494209249013e-01 5.253100454729137114e-01
7.602179843003589177e-01 8.818460461295100916e-02 -5.785129740421603994e-01
-2.312210315510873360e-01 -9.655162526588163818e-02 -8.910283105332763090e-03
-1.969010001689723566e-01 1.633458160059124420e-02 -3.509156067605478380e-01
6.739528556077238608e-02 5.481531029211385471e-03 -3.208721492781170803e-01
-6.575668731781518506e-02 -2.371446579566600377e-01 4.148292025696816432e-01
3.988902468471675622e-01 7.564982108315163045e-02 -5.367460803049579621e-01
2.161594818051366940e-02 -3.625244002861400805e-01 7.933548816002541360e-01
-4.315281766766079080e-02 -7.114865424013749884e-02 -8.778459885446031341e-02
-1.170326209558650993e-01 -1.503441852579712711e-02 -2.568266276260737224e-01
-8.013667511329063131e-02 -3.092532870120406341e-01 6.332128932342110383e-01
-3.950532973385318392e-01 -2.835357518467004345e-01 5.587199703515765004e-01
2.150631231638363006e-01 -1.838341178464161507e-01 2.505112871726654089e-01
-3.107008852846898095e-01 -1.740023147846237461e-01 2.263310282229637482e-01
9.301085885658874619e-02 -1.901744009217336273e-01 2.709938461458611392e-01
-9.924070083701497236e-02 9.027135975747964391e-02 -5.757151122260177889e-01
2.102148007118799511e-01 3.173572184474075797e-02 -4.018428218320235779e-01
3.754925792648752814e-01 -4.381242788544957578e-02 -1.749546868936713018e-01
-3.246079574414031388e-01 3.660906892540246368e-03 -3.112055662572699166e-01
-1.411269322014564731e-01 1.196191751254742502e-01 -6.640898748473342827e-01
3.450558768717456037e-01 1.423877610487057910e-01 -7.381524834750690101e-01
-8.440828910071784819e-02 -1.896395836574207294e-01 2.712565258661673306e-01
-1.847659215619895309e-02 -1.781028293311391064e-01 2.356423209820294740e-01
5.905762795480239830e-02 1.009036512434685201e-01 -6.095714390642570368e-01
-4.681481151062577561e-01 -5.700961307811003298e-02 -1.260688826878390567e-01
-4.823526674181449203e-01 -1.907728265983472116e-01 2.789057994317368783e-01
-9.012678071530154378e-02 6.076310853383028870e-02 -4.865073018168643570e-01
-1.085232196640485182e-02 7.616912019909069520e-02 -5.339729959578389806e-01
7.017958403694875280e-02 -1.608173215379224419e-01 1.823889975646954820e-01
-1.855090870378430234e-01 -1.230437614631147147e-01 7.078142050098602811e-02
6.115477981555921677e-02 -9.985288823600178831e-02 -2.019470312366428936e-03
6.770502318143718501e-01 7.859877138097054461e-02 -5.486203191814198465e-01
3.311202833882310181e-01 2.031484837678360078e-02 -3.685604484723867813e-01
-1.641149906564744465e-01 -5.036145156303024895e-02 -1.494128451219478848e-01
-1.529936934637258494e-01 -2.321300522586470291e-03 -2.949205871493607578e-01
-6.069516061372833837e-01 -2.381045185060991498e-01 4.234727040172915347e-01
4.334312811493660766e-01 1.343270631438219509e-01 -7.146944901685251539e-01
-2.757929984526754086e-01 -2.947521920036054177e-01 5.914010867368074686e-01
-9.028185856227119443e-02 -2.342617448520305512e-01 4.063643406016636539e-01
-4.483821475357708253e-01 -2.950406286871720685e-01 5.941040662620594714e-01
1.771827507711003502e-01 -1.690404329592616328e-01 2.061410034916471568e-01
1.859762675896255157e-01 -1.241727226425075048e-01 7.025909160230783823e-02
-2.543596875891656617e-01 -2.913000442854516425e-01 5.807261595310581059e-01
-8.847322412151088777e-02 -1.822369120222557815e-01 2.488960127802561650e-01
-3.291091907549983930e-01 -1.200122523904568750e-01 6.312945468677608196e-02
3.499940378978130817e-01 1.689271422091405961e-01 -8.185242384462247944e-01
-4.323995683928051892e-01 -1.609977399002610887e-01 1.882641151885418307e-01
6.569008206918480752e-01 1.063564945662137107e-01 -6.324132765260013223e-01
-9.222335924238096727e-02 -7.129860092687004269e-02 -8.681047753073420359e-02
6.825304918292247613e-01 1.035441548547193363e-01 -6.241737110559297808e-01
-3.138931456740679526e-01 -2.281388827073587422e-01 3.902050309426801644e-01
-9.405845380264925282e-02 -2.927177340135158623e-01 5.833169350407376719e-01
-9.769840633889731452e-02 1.787423822751781355e-01 -8.434822021768437761e-01
5.438577576833157901e-01 5.242329623871977429e-02 -4.679899538283433524e-01
-1.526525286376299861e-01 -3.431434157569983046e-01 7.365476793671277278e-01
-8.458588782704470205e-03 -7.140762270573534909e-02 -8.736873080697321603e-02
-2.727550560259258128e-01 -2.030142515211070808e-01 3.137310620655743842e-01
1.317487650891820301e-02 -3.011123160764335727e-01 6.075854431207171613e-01
7.219584290573954899e-02 1.655645032174649922e-01 -8.054018388352326419e-01
2.807333314408870795e-01 1.723007474066006253e-02 -3.586903408555575656e-01
4.881284967255653529e-01 -7.195889362590335292e-02 -9.096591031739570399e-02
1.361355097959263960e-01 -5.987042559624545374e-02 -1.238183720938311888e-01
1.778028993245236444e-01 -1.387916152194310082e-01 1.145887104095085207e-01
-2.696575224421582026e-02 -2.961869127175828509e-01 5.931047201162698013e-01
3.884289239986523645e-01 9.191263516419501123e-02 -5.858533080940215854e-01
-4.409821313315274299e-02 9.998015197215498473e-02 -6.056827272337877988e-01
2.498985129263395222e-01 -1.013542192860642649e-01 5.228493279839669522e-04
1.010532523770459323e-01 1.045382866168121927e-01 -6.210166834859683904e-01
1.751743965009789350e-01 -3.824498940100058697e-02 -1.896800379266872782e-01
3.352893052889249215e-01 -8.785699920515979700e-02 -4.123088859515993548e-02
-8.030031642030689698e-02 -3.449880314478668275e-01 7.413630804024943233e-01
5.453818384027561000e-02 1.172544698389214185e-01 -6.590080104179554255e-01
1.332214863879610245e-01 -5.298149260155087664e-02 -1.446362984339717161e-01
2.410402217201225092e-02 -2.513199738391460047e-01 4.567768668551033251e-01
5.917984572986046965e-01 1.262416560731268733e-01 -6.919038738518789033e-01
2.989862666554373716e-01 1.064318864702585785e-02 -3.389491822689637002e-01
5.207955980004311952e-02 3.486343558836642320e-02 -4.096318204247022532e-01
2.991144649645082754e-01 -3.514089765463868087e-02 -2.003885303925299344e-01
6.816731476497128739e-01 1.023354261208009180e-01 -6.205064957860314534e-01
3.151858620891936358e-01 6.122676171439107168e-02 -4.922082428926727871e-01
6.472945154454591288e-01 1.243470963975246008e-01 -6.867585870538505111e-01
-4.756283946405771568e-01 -2.836666026586615041e-01 5.599703578684627203e-01
-2.254805320003721858e-01 -3.547372459893383678e-01 7.724077450334538852e-01
2.238655559816958296e-01 -5.135844711824195247e-02 -1.505094644990877251e-01
-1.493183817500722543e-01 3.683199387453245377e-02 -4.134539884813391297e-01
1.697316865907179395e-01 -2.851340616390630744e-01 5.575684373025490137e-01
-2.157081363377832614e-02 -5.596920582815061856e-02 -1.339528751238393545e-01
2.644268253096038190e-02 -3.896524509345319354e-01 8.754046574258611546e-01
3.332997242952805139e-02 -2.287828708293010160e-01 3.884722329295445808e-01
-7.620764487167838719e-02 -3.721081608402945773e-01 8.233966667879435430e-01
-2.538591906095163941e-01 -2.661205595814818414e-01 5.045170812027107710e-01
1.853648664625716092e-01 -4.062784257285967371e-02 -1.825765709060316044e-01
2.038366640403559138e-01 -1.335329326686298945e-01 9.839766377152060761e-02
-3.391597601255364469e-01 -1.442978193307587753e-01 1.367344238879147633e-01
-6.808630383999100255e-01 -2.912031022989329254e-01 5.849551980653479033e-01
-6.752139274598252250e-01 -2.959722016636661679e-01 5.993286096929918427e-01
-3.319185616371325698e-02 -9.544809187777624632e-03 -2.743295126162167974e-01
4.258085194776235760e-02 -3.755547318614705921e-01 8.325678753647599573e-01
-7.139176098902340062e-01 -2.312881579117510300e-01 4.039777270727892278e-01
6.393611001797993021e-01 8.530813674488874065e-02 -5.685260602426445153e-01
5.249401718943172979e-01 -8.480016587908303927e-02 -5.249312118685686701e-02
-6.568346171917936738e-02 1.675361466616824835e-01 -8.099068634107615683e-01
1.505415542025382008e-03 1.612694053225653401e-01 -7.916534902672226481e-01
-3.818589875176766069e-01 -1.331299257724381790e-01 1.033884151340072749e-01
3.164741979235596303e-01 3.327234823496310473e-02 -4.076200242098667048e-01
-3.489836158279401024e-02 -3.411141674521814271e-01 7.291577099726849198e-01
7.046260995579655129e-01 2.637650638254906976e-02 -3.908660565175937074e-01
7.479432552229563214e-02 6.383481657891079686e-02 -4.975523297187787186e-01
-9.485770589019578911e-03 -3.507527496842950399e-01 7.580586745307835717e-01
-1.679236303160409061e-01 -2.973711274746598798e-01 5.981833009821694302e-01
1.582088219020947317e-01 -1.285408368701039805e-01 8.377328487224661169e-02
5.234471599207107112e-02 2.100895649470106152e-01 -9.399430178377085054e-01
-5.441011977829127155e-02 -6.907199164002281178e-02 -9.395009154139168095e-02
1.523083343516519750e-01 -2.302815778344148578e-01 3.917463678388176107e-01
-1.917567852033474629e-01 -2.693052733264099108e-01 5.134968695653424620e-01
3.195976227653130053e-02 8.308134418195105286e-02 -5.553462672169594549e-01
-6.128375543160022865e-01 -3.037751791398802803e-01 6.222823125570209335e-01
-7.368220160955073206e-02 -3.448027981776251583e-01 7.407323110305926717e-01
-1.205827967416258362e-01 -1.771647434154989542e-01 2.338859587952459851e-01
-3.865583359705098143e-01 -3.305131019684666160e-01 7.008032263556549513e-01
4.237004811783279257e-01 -5.133160256614990175e-02 -1.527096560251569868e-01
-1.096619405401906971e-01 7.715791355706508314e-02 -5.359177756457970121e-01
1.513672642565886961e-01 -2.385305476318937690e-01 4.167212182854642677e-01
2.855734665436186481e-01 9.096922204038328241e-02 -5.819075136388295322e-01
-2.537751783967042707e-01 -3.558880109242550382e-01 7.761904686163970668e-01
-2.884632058602918936e-01 2.814042339112757599e-02 -3.856741983809277019e-01
-1.114090877917593286e-01 9.855442183877317908e-02 -6.006541342866320576e-01
3.148509575893513324e-01 -1.866699984928274769e-01 2.580357617829880379e-01
4.210320386021467742e-01 -5.332879959889784416e-02 -1.466369981989586180e-01
-2.288774535064299342e-01 -4.314124728117634672e-02 -1.705775289049126509e-01
-7.229656776402237917e-02 1.929061276632142441e-01 -8.866170350615250051e-01
-3.117268616349323507e-01 -9.314823778321103254e-02 -1.835673007976879045e-02
4.259128882723722254e-01 1.325739412634790171e-01 -7.093090805721655734e-01
2.801930959779612151e-01 1.605127708028596719e-03 -3.113969136000231952e-01
1.890680442104540337e-01 -1.594296924630008438e-01 1.769288118855751601e-01
-4.767736457315692733e-01 -1.685631832578529110e-01 2.116308671643718220e-01
2.992856738031801633e-01 -3.811339070928329142e-03 -2.952068420778237723e-01
2.073041976095954808e-01 -2.667368350547643097e-01 5.014922479501388031e-01
-1.764569922913385158e-01 -2.776787361620158823e-01 5.386762787006013076e-01
2.839526729172259789e-01 6.411301222337842387e-02 -5.006120768258733866e-01
4.349894580943319267e-01 1.181383573283502769e-01 -6.657171408781282773e-01
8.508902595865534824e-02 6.606156090445967910e-02 -5.044005597328155011e-01
-5.709159144404163388e-01 -1.497490807703184268e-01 1.556896719553954311e-01
1.003591170066838872e-01 -4.992984869829770328e-02 -1.535234077338887282e-01
-2.460807637534555281e-02 -3.097165435262371758e-01 6.340261061990760671e-01
2.362422928563209235e-01 -1.144318134278363153e-02 -2.714411790409632652e-01
-2.115069412351187894e-01 -1.059243608729768110e-01 1.924654113711396497e-02
-5.535757948512972648e-01 -2.710627048627924363e-01 5.226521466917298797e-01
-1.169852606887643864e-01 -4.432155494850357341e-02 -1.681918669145348599e-01
-4.269064460773021319e-02 -1.110678897910756940e-01 3.302299259461383835e-02
1.100711179178401888e-01 -2.600255792287143874e-01 4.822121594844344661e-01
-2.211006350887478045e-01 6.384446903541923790e-02 -4.944440215086647883e-01
-6.514406870642804881e-01 -2.804163569297731251e-01 5.519979641797401193e-01
1.777476088143259414e-01 1.716854039182211800e-01 -8.250454910009027421e-01
7.661578627419497467e-01 7.508749848374290936e-02 -5.389385744574652914e-01
4.874797455852640515e-02 -2.669956782456555100e-01 5.039568669930426514e-01
-5.125793329252098518e-01 -2.438188458796184954e-01 4.397659998439173434e-01
-1.036548044404111829e-01 -1.267831790705978845e-01 8.123053846052237514e-02
-2.450477044183554942e-01 -2.290552144286172598e-01 3.922482360609327867e-01
2.714818138304896378e-01 4.639800934233431415e-03 -3.204887483766468703e-01
6.983546914734031774e-02 -2.530444255195128944e-01 4.615108739081999478e-01
-2.711847121685066475e-01 -2.952039509622439439e-01 5.927194364949819327e-01
2.671109004221254302e-01 -5.771546507358021189e-02 -1.317289910072921566e-01
3.465642943969941131e-02 -1.716715622501087946e-01 2.156151907425939152e-01
6.408117380840057387e-02 -4.377027182604279615e-02 -1.717802197949114817e-01
3.802405653210830239e-01 -1.123052024954052514e-01 3.228307539118235869e-02
2.539548213859993409e-02 1.160001519312394390e-02 -3.389439257078433743e-01
-7.377264202957879713e-02 -1.682784027147709027e-01 2.064957818032053527e-01
-1.522678523476962142e-01 -3.472284666276250209e-01 7.489066923124710895e-01
4.953451725246800774e-01 -5.142085461218747627e-02 -1.531992256814612152e-01
6.062981336924384568e-01 6.192362341251018976e-02 -4.974040485638406839e-01
3.183341724258755695e-02 1.699776175888891849e-01 -8.183298068497517619e-01
3.489265243101324909e-01 -1.940733246062145978e-01 2.800800380247118748e-01
-1.481135676781685229e-01 3.757723654039830247e-02 -4.157221832558233299e-01
-1.454329494598678163e-01 4.462272938406423514e-03 -3.155307201148159213e-01
5.922399499229396014e-01 1.011728036320221069e-01 -6.160396039286896164e-01
4.143679315431627042e-01 -5.139620835171116592e-02 -1.524151739506789394e-01
5.438213113597279991e-01 -2.054591750212017565e-02 -2.471538615543935891e-01
-5.175243703231288128e-01 -9.079279206370599598e-02 -2.330313237155092268e-02
-5.982672132510969548e-02 -1.662360643170723851e-01 2.001669264336597975e-01
1.147625666945313455e-01 -2.168723299776680047e-01 3.515624282312933557e-01
4.026010960889527257e-01 1.039633474674766245e-01 -6.224741353702245572e-01
1.367190008337444140e-01 -2.491047975493139097e-02 -2.296281428596803065e-01
-2.093630684875836534e-01 -1.843049231166852542e-01 2.564365439097631150e-01
4.244096228531558657e-01 9.929845547047168319e-02 -6.085874455946400641e-01
6.188857614518503136e-02 -1.693939529687534251e-01 2.084334257364782172e-01
2.013176378736515892e-01 -2.648910227644952209e-01 4.959695176590274701e-01
-4.445482982252840776e-01 -4.447301580330603743e-02 -1.642601693918684658e-01
1.186135751490612483e-01 1.883858554827131104e-01 -8.749610941020360411e-01
3.282723501600434690e-01 -2.132488901915914059e-01 3.383324169275728210e-01
3.827728450502071444e-02 7.329050227248889993e-02 -5.257820260121817135e-01
-3.582631442872952765e-01 -1.423354382609945123e-01 1.309979913403448992e-01
4.350347477167528232e-01 1.273379054299634827e-01 -6.935593449520082165e-01
-1.112560457214475662e-01 7.561258390697486731e-02 -5.312240513843921041e-01
-6.015695786685413271e-01 -2.888446720807332779e-01 5.769768028649412406e-01
-6.129000509951011422e-01 -2.326260503214446496e-01 4.069556162722990367e-01
-2.449110731016262629e-02 -1.654426804523526084e-01 1.973911302743674989e-01
1.962905822127981870e-01 -1.549947550677980290e-01 1.634302312634699217e-01
-2.998187442627385790e-01 -5.058243112164814703e-02 -1.473051334832090331e-01
-7.638571652147696511e-01 -2.684399772120256711e-01 5.169443808223447290e-01
3.688822547347002656e-01 6.014557638079457563e-02 -4.895054881569218530e-01
1.061379543441028951e-02 -4.047679119800954295e-01 9.213182777140525026e-01
-5.522797833697024039e-01 -1.483350249663395737e-01 1.512125328494350607e-01
-2.266691523767677130e-01 -7.345923980648827456e-02 -7.884587511289652129e-02
1.832334624372596865e-01 -1.454329786355583187e-01 1.346307023709175654e-01
7.722274725924267724e-02 -2.447453751130790889e-01 4.363161060233035626e-01
-2.185563722609056292e-01 -6.000412044460556177e-02 -1.196527814642167065e-01
2.289761741235626091e-01 -3.647762675019986661e-02 -1.955993117397989145e-01
-2.785320432002741931e-01 4.171606449041771053e-02 -4.268651356983276246e-01
-2.353226343679331589e-01 -1.310023624469778825e-01 9.539571114536755936e-02
3.042331914131310433e-01 1.254693930970133264e-01 -6.865174826758190241e-01
1.866965262397374814e-01 -1.098555397669947892e-01 2.692160297867810664e-02
-1.299157419862278506e-01 8.971653766688389431e-02 -5.737107232631390996e-01
-7.722023290095253456e-02 -5.243472989590578642e-03 -2.868803207052615933e-01
-3.022416774892957014e-01 2.441763467107365901e-02 -3.742613650725066243e-01
-2.071942833829821529e-01 -4.548599200650091379e-02 -1.637112569473210266e-01
-1.267101971263293603e-01 5.337455262488184637e-02 -4.637584943130614867e-01
1.076258545094632979e-01 -2.248885826783248998e-01 3.758986737642687759e-01
3.718665016167643222e-01 9.079005922219252067e-02 -5.822802989015715136e-01
2.315347827384257873e-02 -3.259677791998866758e-01 6.827027800221910914e-01
1.740023046718872438e-02 9.177898522321276120e-02 -5.815146260803581990e-01
-8.875926531179260948e-02 1.488507223631228282e-01 -7.531121816304550132e-01
7.620743254734327343e-02 1.866105092709797186e-01 -8.691384922113669642e-01
2.355379373469630166e-01 -1.936832032152781824e-01 2.801016809525792017e-01
-1.897710961578627231e-01 -8.479447914066322312e-02 -4.493189456875752025e-02
-1.014064280819127056e-01 1.420522083203363539e-01 -7.324028983307366847e-01
-1.289622369550619541e-01 -3.643201295228047920e-01 8.003861728184248348e-01
3.563121486959073825e-01 -4.534221048345393745e-02 -1.701215380812415856e-01
2.674947298287614350e-01 -1.068284915358089504e-01 1.690373131076732330e-02
5.044896550479891495e-01 -1.298097294628042069e-02 -2.696315306477333196e-01
-5.954877875851498636e-01 -1.767951166017425191e-01 2.378029642304022029e-01
-1.783464928606169619e-01 -2.450307483018572818e-01 4.398896930673497629e-01
2.629425890279954436e-01 -8.145079134799267095e-02 -5.985165529671089557e-02
-1.617700547592021074e-02 -2.741667482876198325e-01 5.263479898873699714e-01
-5.895758721331292307e-01 -1.540462076447289552e-01 1.688924562677983354e-01
-4.780107554773384004e-01 -1.263941294738264720e-01 8.402259113488137754e-02
-2.521246519372700723e-01 -2.274656090808231668e-01 3.875124582709843502e-01
1.748096116672363531e-01 1.050952474271963505e-01 -6.234843576452102631e-01
3.718923601787250260e-02 4.453706269965381631e-02 -4.387504184146034936e-01
-5.289796700533193619e-01 -1.895663588437884461e-01 2.757489268582831721e-01
1.002106129416133889e-01 -3.499884782904043590e-01 7.545825010020541512e-01
1.289714130856988994e-01 -2.089348848883381404e-01 3.273896985277074401e-01
-5.210905919866397618e-01 -1.206596037827711299e-01 6.712428757854145556e-02
4.798093480523860088e-01 -6.574460679838843580e-02 -1.096847587722948325e-01
3.057781255504893152e-04 -4.130106363193486452e-02 -1.785768461677291474e-01
-6.852665800569920362e-01 -2.675906128060573930e-01 5.135405100118826116e-01
-7.154336330302285551e-02 -3.436027307329730385e-01 7.370777201695314362e-01
-6.562826314221515966e-01 -2.442883456113900953e-01 4.427106617787495146e-01
2.091183155161804308e-01 3.619631191683317373e-02 -4.153308275873270894e-01
-2.886663638948993582e-01 -3.003458885401674161e-01 6.084664811792522832e-01
-1.860855559681799387e-01 7.371377982449479893e-02 -5.246840127509934115e-01
3.119711230020842385e-01 1.773212423978084151e-01 -8.435251604392138836e-01
2.501763678996468121e-01 -1.516336933598914360e-01 1.526868592103622913e-01
1.140739487339330338e-01 6.033569119386247848e-02 -4.873789974925976098e-01
1.781440550474991391e-01 7.729337250461630615e-02 -5.393794810476458812e-01
-3.938091328805588542e-01 -1.651413179640032480e-01 2.003951416136877939e-01
2.225188574150392395e-01 -1.286342917970949851e-01 8.337420789522645426e-02
-5.815988823503531746e-01 -2.575089932709688223e-01 4.819300250276324360e-01
7.388956920758561753e-02 -2.741279332223198750e-01 5.252754986403522786e-01
3.284781115636392634e-02 1.044918804884045482e-01 -6.201530228823803892e-01
3.430758545958942918e-01 -1.592392141700004760e-01 1.747193230104413519e-01
-4.942043618400080995e-01 -1.927720184518089130e-01 2.850818689908454773e-01
5.359937810130318558e-01 -8.329313414727805565e-02 -5.717124354722429025e-02
3.778466757685193800e-01 1.051817475962816689e-01 -6.258990461645426162e-01
9.023249581214430604e-02 1.937234871497613975e-01 -8.908140866534496327e-01
-4.678760468710906339e-01 -2.462881867652695622e-01 4.467652588095340493e-01
1.706708437694255953e-01 -3.141815959108657519e-01 6.454686043930704109e-01
1.639834613632630000e-01 -1.872115902848537142e-02 -2.486487439415620837e-01
-9.228371452993890112e-02 -3.669084535119775947e-01 8.078306155216758988e-01
2.297075447372625423e-01 -2.620113256204459895e-01 4.869533038013825199e-01
2.625346865040885658e-01 1.860196474059675753e-01 -8.693260143179574184e-01
2.467003794973296471e-01 6.682634370925462884e-03 -3.264084566423423039e-01
-3.413985720268773449e-01 -2.680078678828582972e-01 5.111570977906498836e-01
-4.870128569979532140e-01 -1.357752336769582902e-01 1.125092342747238683e-01
-2.530898907302930878e-01 5.199915682030897823e-02 -4.582558984310677874e-01
2.673885420262217538e-01 -2.375357198608957776e-01 4.124802176551270461e-01
-1.882169275295809963e-01 -2.928294555414512890e-01 5.846534605117233996e-01
-1.161659363027272782e-02 -1.062332625804593700e-01 1.806187213764454819e-02
3.688416641660906548e-01 2.839264894053163818e-02 -3.934072682422623535e-01
4.513627311312464196e-01 5.146625311795802876e-02 -4.641127660105288100e-01
6.113170650473633838e-01 -1.257914862127870910e-02 -2.719803648901346071e-01
-5.536023297572588708e-01 -1.824071976058486699e-01 2.543433629594479828e-01
6.316902396480666981e-02 7.506578919893544533e-02 -5.314187346008036883e-01
-1.877959031767845732e-01 -8.798591725571623667e-02 -3.529419684364011600e-02
-2.282177918046602860e-01 -9.581102051265460995e-02 -1.118351119137996931e-02
2.007852817389800537e-01 5.371753862699941290e-02 -4.682691115861616904e-01
-2.342268840923408812e-01 -1.207144145305619337e-01 6.424841029892160160e-02
-5.693162658419692601e-01 -1.659288996471814659e-01 2.046396858660471940e-01
-5.118307716075050084e-01 -2.297912512922349881e-01 3.973046277650916780e-01
6.241521223546461217e-01 9.860847672917223694e-02 -6.086172465925416830e-01
5.401826098559552314e-01 1.959353401731218219e-02 -3.685942373703423036e-01
2.656134159519437099e-01 1.831126904414388523e-01 -8.605609782291834264e-01
6.243907597165829770e-01 4.408615884394252032e-02 -4.436121808249478549e-01
-5.323214278608856542e-01 -1.595114786463575351e-01 1.848255808653536669e-01
-5.453579382955261456e-01 -2.143888838616262726e-01 3.510460540493994253e-01
-3.096179586582244528e-02 1.819190649878741073e-01 -8.538038290521412499e-01
2.156424849291921075e-01 -2.203620582729812760e-01 3.610541424915035269e-01
5.482870087727226283e-01 1.002759444743338835e-01 -6.128592739821430158e-01
7.156568572231075676e-01 7.410590876980699404e-02 -5.354323816424010340e-01
-1.563921677494235080e-02 2.125679266046752447e-01 -9.467227212626665445e-01
3.114595202641458060e-01 -1.486184533516835271e-01 1.429116519608043812e-01
5.288286368938991400e-01 1.233692482210864000e-01 -6.825430525475327803e-01
-2.215492372553233280e-01 -5.582110156352002722e-02 -1.322806311334863150e-01
3.121603923257899593e-01 -1.395473573080537599e-01 1.154512466830703160e-01
-4.430869516229226646e-01 -1.326111211420208102e-01 1.024675232633977945e-01
-6.976020621928132048e-02 -4.253195438444349469e-02 -1.741087058108718721e-01
-5.334126157511480670e-01 -2.319706825739131784e-01 4.041293516632756821e-01
-5.260601859413558401e-01 -1.496505448130934224e-01 1.549158329930555300e-01
8.807910933686841082e-02 -1.656660890788053675e-01 1.968736215890785068e-01
-3.529014638032411666e-01 -1.605272675470476862e-01 1.859973091187418215e-01
-3.589888688939470440e-01 -9.195049448203466980e-02 -2.148046549883613626e-02
1.897947961328499689e-01 3.938809346536560618e-02 -4.247856118015467253e-01
1.160705958833730400e-01 -6.829060681444708292e-02 -9.812258389260071489e-02
-2.809888313566960005e-01 -3.367881650281382977e-01 7.186748157694793360e-01
-7.128077517411230968e-01 -2.129609153208176786e-01 3.484999704305892787e-01
-4.424366258321898310e-02 1.118060977277983287e-01 -6.414714990403467265e-01
1.883264242327525873e-01 -1.296158870800488694e-01 8.670748970527411559e-02
-6.217134921897069996e-03 -3.064258021689936218e-01 6.238719226619560132e-01
-1.325237251921202453e-01 5.849951710984530040e-02 -4.792071609247656183e-01
-1.236949440349358748e-02 -6.236018080310806733e-02 -1.147086476887393403e-01
1.951872988992457425e-01 -2.362635025796422927e-01 4.093955355244571770e-01
1.735912053943737265e-01 -8.306094424274504395e-02 -5.403121464660407686e-02
6.982684142392274751e-01 2.648193545884915123e-02 -3.911177158154695577e-01
-5.228876667078465879e-01 -2.445512422051107637e-01 4.420918452809770027e-01
3.155147264221128678e-01 -1.988900586344093668e-01 2.950117944299045503e-01
2.190292964555898281e-01 -5.075953017337335796e-03 -2.905285872942488523e-01
1.010000803512645789e-01 -1.244500009557975434e-01 7.199929760867226913e-02
1.099614746339756550e-03 6.951759568421578273e-02 -5.139694015635647428e-01
8.669609874054412524e-02 -2.544351688736301575e-01 4.655410699688729559e-01
-9.232269600524514730e-02 -3.258265749452443072e-01 6.834998872141179183e-01
1.879361971589816882e-01 2.816477306890555546e-02 -3.907993893179219080e-01
-2.866737868635744757e-01 -1.656770458558086967e-01 2.008804717539244278e-01
4.356464120698905207e-01 -1.022883495938755744e-01 1.380345913076789144e-03
3.005293040336515838e-03 2.193378026049021545e-01 -9.674089265692745743e-01
7.601819458903164017e-02 2.908737538524774555e-02 -3.924048522366113123e-01
-2.172120859872585519e-01 -2.338402345182989117e-01 4.064345760234555627e-01
-1.756929335061175462e-02 -2.830787870638483694e-01 5.533343520186382314e-01
4.665706777388776150e-01 -4.784067888685638453e-02 -1.637292415934542555e-01
-2.244317916540496671e-01 1.062071362404364699e-02 -3.333311027713788954e-01
-3.789784025654573951e-01 -2.050214668018763287e-01 3.209320832161319248e-01
-8.902265793808017413e-02 6.550024865484706249e-02 -5.008555991321421708e-01
-3.773980489597514310e-01 -1.824938870005936020e-01 2.527373405909303372e-01
-6.462552623083845926e-01 -2.356873673151618220e-01 4.165741381969684798e-01
5.609240604468940239e-01 -3.500658508539222086e-02 -2.035711136797664911e-01
-2.349758472551316535e-01 -1.436082733519150056e-01 1.335428525260565769e-01
2.337486718992460577e-01 -9.088456625410885892e-02 -3.099150452220573657e-02
-1.945114759148142136e-01 3.209611311413554380e-02 -3.986420053525675522e-01
4.556445673264240548e-01 3.945464078916828023e-03 -3.203401601249740716e-01
1.452453120755571314e-01 -1.634378587713481434e-01 1.895238926421954906e-01
-1.698778623724729597e-02 -1.606352958952958210e-01 1.827623897183672796e-01
7.291492304548509440e-02 6.078553745279472592e-02 -4.883039930433573650e-01
-3.876530603621979737e-02 1.809059033734931321e-01 -8.506548289745361480e-01
4.409755712733745003e-01 3.379943064242566658e-02 -4.105353481678534755e-01
3.054956752770914274e-01 3.309107925774346093e-02 -4.069550169044166554e-01
7.304643604895784403e-02 -1.863383967359761306e-01 2.595961675495554455e-01
-2.102777219678743093e-01 -1.450116787344826186e-01 1.375282643971771912e-01
2.524446730104185632e-01 -2.290271729107034582e-01 3.868882128131701514e-01
-1.048367817157394993e-01 -3.403416882962264634e-01 7.275614529604768066e-01
3.538546741580285704e-01 -1.143761266654370889e-01 3.883035055919701467e-02
1.218749369930728355e-01 -6.419854263242698311e-02 -1.105684472975329569e-01
5.607848509381935243e-01 -1.155120697761515816e-03 -3.060184875420541850e-01
-7.198771993807906444e-02 -3.822536893265400804e-01 8.540565814635683317e-01
3.883990984968357929e-01 1.456256286927929133e-01 -7.484112301601266726e-01
4.405304228725094862e-01 1.472272740671854430e-01 -7.538112607565217171e-01
6.465738978350548116e-01 1.047415845364261383e-01 -6.274163742186876780e-01
-2.013556068378637431e-01 -2.564932313523820007e-01 4.748239922771855803e-01
-5.149955325878387107e-03 -1.805800111450936718e-01 2.429980120449079795e-01
1.279195985345031594e-01 7.353973812530785470e-02 -5.274868409219420906e-01
-3.462312104949201719e-01 -2.993743446651503728e-02 -2.092934915922760597e-01
-6.014220607141058661e-01 -3.074390420785946820e-01 6.332496674511872703e-01
-3.554188966934300753e-01 -1.681431019902599189e-01 2.090727391297286242e-01
-3.086616032216533134e-01 -2.138401918688228320e-01 3.468756716712557142e-01
-5.483468204709536220e-01 -3.021895621350244587e-01 6.167997376546783261e-01
2.845754347690562236e-01 6.289734007882832878e-02 -4.969395421547880276e-01
-6.034945025597353574e-01 -2.498881301584629511e-01 4.590982398137845033e-01
-5.044677726583438604e-01 -1.258900772700929649e-01 8.277765279845454571e-02
-2.492616907780645652e-01 -2.435392740884526896e-01 4.361278101436624199e-01
1.550830737527201519e-01 -4.243842559228028742e-03 -2.923688520833288562e-01
-1.007996735605756339e-01 8.271080783803150260e-02 -5.528171535429667882e-01
1.713759361736241424e-02 -2.003318610963788771e-01 3.025391388695636286e-01
-7.634829718757468742e-02 1.460984342671305392e-01 -7.449141933035136054e-01
5.885326154418440980e-01 6.642913940272282547e-02 -5.108512691479470957e-01
1.641129582158749878e-01 -8.022609638304989410e-02 -6.251016083102890752e-02
5.336505748234414703e-01 -6.043553803768253463e-02 -1.263231516687937095e-01
-3.808716187615979742e-01 -5.895299340440778718e-02 -1.211128276561229400e-01
-2.587803673420621675e-01 -2.125873323900338008e-01 3.425550735281787107e-01
-5.462797165471808825e-01 -1.918989639189392082e-01 2.829918174276597198e-01
2.845881817663688529e-01 -4.957313289192848138e-02 -1.565564525493189918e-01
4.139297049737573897e-02 6.980887362518334305e-02 -5.152781822011403001e-01
8.575865646089504690e-02 1.159923675482674305e-01 -6.555194011472850191e-01
1.323177738191934072e-01 -7.847141668362042632e-02 -6.748342374130911203e-02
-1.820670174897106586e-01 4.363449710904241524e-02 -4.336939906567913727e-01
-5.064608785905295729e-01 -2.544883639050143365e-01 4.719915974595120245e-01
2.275326182826205856e-01 -2.718621922224790377e-01 5.167892547495713806e-01
3.503822619898270818e-01 7.906454570985955999e-02 -5.465661272528002934e-01
4.803245308696643123e-01 1.743853464201896436e-02 -3.614375929045864355e-01
-2.865528106159881960e-01 -9.514858109023688337e-02 -1.256977802813973727e-02
1.028574219434148507e-01 1.494234417235615897e-01 -7.568772791826873236e-01
2.192754683762894174e-01 4.097308579720725097e-02 -4.298950671788730471e-01
-1.245095264482247999e-01 2.580624731811092046e-02 -3.803484762171081002e-01
7.504331084279108888e-02 -2.650453974450571182e-01 4.977756698896932397e-01
-1.262626528144064342e-01 -2.912404412263404074e-01 5.791874992422977320e-01
2.013448409418739093e-01 -1.902413504603229499e-01 2.700477449709562383e-01
-1.322441247063835430e-02 1.321368720478545422e-01 -7.033299342400597398e-01
-1.148033655325963603e-01 -7.999901100600284630e-04 -2.999296668895372608e-01
5.812128449704625707e-03 1.926458963962753013e-01 -8.866576903142878718e-01
7.015255869919617693e-02 -1.068435615313602371e-01 1.904185614389062101e-02
7.953907114527076702e-03 4.232184014704677005e-02 -4.317362213067801324e-01
2.532138500277913429e-01 2.953631273958654338e-02 -3.956424197467454662e-01
-2.676392518221746841e-01 5.197267035611411595e-02 -4.580214651147497817e-01
5.377685818020127018e-01 2.173346818149690662e-02 -3.750449861821910646e-01
6.201519441996635428e-03 -1.788891497245682916e-01 2.377603848720746260e-01
4.461790248107068077e-03 -6.509851834528276870e-02 -1.065997504411227009e-01
3.167971090723600142e-02 1.179556066426011157e-01 -6.608875672626770559e-01
-2.567609898938738588e-01 -8.292051575813219957e-03 -2.757502729410130082e-01
-1.739897820067806689e-01 -3.659533355298719703e-01 8.058063943531077467e-01
2.934390194572072952e-01 -2.259987840799084213e-01 3.772883439093123736e-01
-3.490090562319758671e-01 -2.805659997272296202e-01 5.492440144078426512e-01
6.852282361640783803e-02 7.457902747503869327e-03 -3.268654419211224904e-01
1.670582724622136084e-01 -2.242898177553879768e-01 3.734563665129178589e-01
-1.377722660253477838e-01 -1.428859340641539799e-01 1.303260506493467974e-01
-3.611468089677562915e-02 -2.815846367231035208e-01 5.490090669985193683e-01
2.927433125418122881e-02 1.936784390288613655e-01 -8.900313824141865560e-01
8.036493586092530172e-02 9.437891091491203838e-03 -3.329832919331588981e-01
4.295262877939629020e-02 -2.147423712196444567e-01 3.458777083756284232e-01
-1.758615668242659857e-01 3.925785479779970305e-02 -4.205142192225703734e-01
3.805995689195452170e-01 -3.491742351929199434e-02 -2.019288845151114842e-01
8.233958465047287734e-02 -1.480740522430707140e-01 1.436935359387831179e-01
-3.090707901611077224e-01 -1.348163677058042964e-01 1.077204925076298836e-01
-1.571356183029997688e-01 -5.568376164777825987e-02 -1.333792892742993730e-01
4.095468821164048312e-01 -2.145717444643311864e-02 -2.429722344013244550e-01
-5.590372379645985879e-01 -2.211763674195503793e-01 3.717328986942387004e-01
4.690898760624064301e-01 1.134330053799113419e-01 -6.518383391778602709e-01
-6.944707066703794673e-01 -2.666609177392363361e-01 5.108244553978005253e-01
-2.800158692322457163e-02 8.532630722446725435e-02 -5.615046751296637328e-01
2.732213113155506634e-01 1.007388799184889688e-01 -6.113436548055357633e-01
7.509932304999661357e-01 7.117163359626689501e-02 -5.269267128510793929e-01
5.120800109206449235e-01 -8.880592413120672046e-02 -4.023363968403621121e-02
-7.058050652022687665e-02 -3.309281196358332400e-01 6.987087761459258584e-01
6.268396979596988494e-01 1.355743888274053670e-03 -3.143178380585031628e-01
-4.432216401880914591e-01 -1.387416509386661667e-01 1.210225277325161219e-01
2.710678410124692239e-01 -3.016218794065246220e-02 -2.151588196905013517e-01
-2.482823550435329929e-01 -2.660299046241150142e-02 -2.204235297384328218e-01
3.582536658512363026e-01 1.410564766822401672e-01 -7.342633965506305538e-01
4.578247356959476710e-01 -1.135398378273109049e-01 3.519694080627048388e-02
-3.782670974711473955e-01 -3.387075670687939022e-02 -1.970499023928111992e-01
-8.743063271655403257e-02 -1.368981615806991181e-01 1.116707211253833848e-01
-1.481119988354068218e-01 -9.145079669835666503e-02 -2.522879411756587253e-02
3.250323720230617330e-01 -1.261511572721756291e-01 7.477219098714216194e-02
1.728402957607375057e-01 1.725269515164915557e-01 -8.275403353294232822e-01
8.510257444587426834e-02 -3.056706071693936488e-01 6.206180751073817614e-01
6.059954429284211130e-01 1.426384419718162077e-03 -3.143106042403613909e-01
1.437892309117426159e-01 1.287201471232335415e-01 -6.946543727123069001e-01
2.597446747879130768e-01 8.137881115934113285e-02 -5.526089982380303356e-01
6.579264331912095809e-01 1.111830294561814286e-01 -6.470312877416485309e-01
1.018622716520302257e-01 -8.674814638386318943e-02 -4.211160396478560303e-02
6.193928090903828565e-01 8.781977511263695801e-02 -5.759156066666983875e-01
7.179756507363361795e-01 3.486990979527256757e-02 -4.167122397387892363e-01
4.739222591032288268e-01 -1.649211943675039233e-02 -2.586811949791117948e-01
3.087699882117981853e-01 4.683273191176181433e-02 -4.485777895368434076e-01
5.471135474323131076e-01 -6.434658607456379686e-02 -1.146294205441263231e-01
5.582269213671668950e-01 7.864959192636277949e-03 -3.332899416753161703e-01
-3.261887825014232467e-01 2.254275207001343526e-02 -3.683332542711131308e-01
5.875746427899677382e-01 -4.413976782388517178e-02 -1.762128288014540856e-01
4.844058790211282738e-03 5.925750823012317092e-02 -4.829577412352077936e-01
4.221326889466436860e-01 -6.818534803588256754e-02 -1.016864692403914860e-01
-4.081675526544317201e-01 -2.242800114032591496e-01 3.795260922920293267e-01
3.521909425546694838e-01 8.363951844042281925e-02 -5.604311082245712061e-01
3.711270003256496031e-01 -4.551703571770942397e-02 -1.697495321732911400e-01
5.881601985917250808e-02 -3.733940337300348244e-01 8.258565393558162659e-01
-1.712474791345127145e-01 -1.081938032822952339e-01 2.568794282230724840e-02
-2.065000197859304665e-01 -5.021064046193801818e-03 -2.861826067178768196e-01
-3.115159993703464983e-02 6.829981090244573172e-02 -5.099418941249214132e-01
3.697722206767320441e-01 -6.102378643656812540e-02 -1.228051799438451969e-01
1.992050907263377690e-01 -2.176603804500886752e-01 3.530520164457639498e-01
-1.005163676243550075e-01 -1.354281042469829832e-01 1.073604603381228262e-01
-1.767277593949617975e-01 -3.232171802182949860e-01 6.764977436666105293e-01
-6.455755816311499473e-02 -3.467523600602742118e-01 7.465357568192063642e-01
4.576889618195001397e-01 1.091946049639206107e-01 -6.388902571974208744e-01
5.467532711521139177e-01 4.869204842549646611e-02 -4.567283222373771934e-01
4.439925913889107290e-01 6.888236836469971425e-02 -5.167431483019775396e-01
-1.441626193174017634e-01 -3.408982062839582272e-01 7.296627030991748031e-01
-2.760971109831757420e-01 -2.243193548530596215e-01 3.782447539936354963e-01
1.413512028701391643e-01 1.926138167713916383e-01 -8.879977916481190947e-01
-2.666557149691178297e-01 -3.597147116743374951e-01 7.879082624315800754e-01
-6.084275298926948849e-01 -2.054371963458825057e-01 3.246232192543792028e-01
-2.711554392496625526e-02 4.062075800397901837e-02 -4.262161684702300835e-01
2.591932661814103089e-01 7.348931155191690268e-02 -5.287261884112429700e-01
-1.908105956468566233e-01 6.638130947997999964e-02 -5.024427540152914817e-01
-6.273883547976372155e-01 -2.861820574599636680e-01 5.691923740249484887e-01
-4.584402510207641890e-01 -1.297083129603862905e-01 9.384519648311377693e-02
1.278917499506648514e-01 -4.111504391110232942e-02 -1.804926776942319122e-01
4.176119154618014306e-01 -1.285819633564993791e-01 8.114717170605700858e-02
-5.917443472028434404e-02 -2.939012397676185606e-02 -2.139936896204500394e-01
-4.979172261053110282e-01 -9.614842874353224378e-02 -7.302614661649388730e-03
-5.918969063143962872e-01 -1.476225107362184874e-01 1.494762433552297431e-01
-2.283189052233171035e-01 -2.163070009251789327e-01 3.534893659372688179e-01
-4.344328118317195703e-02 1.223398109858170463e-01 -6.733594578237644956e-01
3.017647537261114454e-01 -2.174677433246823277e-01 3.513815241852237814e-01
-6.435358439365156391e-01 -2.442306494337436185e-01 4.424008882477778459e-01
8.779527049438945463e-02 1.548587642114227780e-01 -7.731671526601960887e-01
2.908170443887667656e-01 -9.094241496432510508e-02 -3.142155403716338086e-02
-1.252154655804554317e-01 -5.379508202433164188e-02 -1.394336978699919627e-01
-3.667385240463089807e-02 -6.699740105577849103e-02 -1.004167465902424672e-01
-2.758629516995590447e-01 -3.117327220588491099e-01 6.427920949779385440e-01
-4.433859597034195410e-01 -2.851561008304516753e-01 5.641363268890373650e-01
-1.151605111693026900e-01 -3.368917678013137462e-01 7.172300018808607236e-01
6.177150709093193193e-02 -2.321240065467061742e-01 3.982823432076068038e-01
6.717588328373158557e-02 1.127342249081637882e-01 -6.454618410304144849e-01
3.637584091540378428e-01 6.224676383507035324e-03 -3.262637062511521968e-01
-1.515956959203506628e-02 -1.185104897878544797e-02 -2.675410607528158624e-01
-4.306889392026346658e-02 -2.051836336934513561e-01 3.178610541528991140e-01
-3.931048533637693243e-01 -3.349686902643231878e-01 7.143571371573038675e-01
4.632011369296776954e-02 -1.923969711071949751e-01 2.782153687112646767e-01
1.919342526911281266e-01 -1.896534152818838692e-01 2.683681895540037665e-01
1.530077200032514406e-01 -1.151195678154403879e-01 4.320999754528406095e-02
3.219430573140958929e-01 -2.067181409904574330e-01 3.186347200450203587e-01
-2.042244412272603282e-01 -1.808163836270467451e-01 2.458242604003622600e-01
-3.434016811609335584e-01 -1.054094548691935640e-01 1.908676293781785480e-02
1.997119896823038032e-01 4.762667049363464994e-02 -4.498241876094187242e-01
4.822949302796290805e-02 -2.471506426421393732e-01 4.439028927789612777e-01
-1.392700091326285472e-01 -1.721165428886525517e-01 2.188061184335997056e-01
1.059148031380021254e-01 -2.871109220625736591e-01 5.642279351116405994e-01
8.227486008544252329e-04 -1.464504241474802980e-02 -2.592547232175848593e-01
5.693330355136368981e-01 7.551452337275788192e-03 -3.324589009433718267e-01
7.327075417741317764e-01 5.522059263912399568e-02 -4.784582236280418566e-01
1.776622859536790833e-01 1.853976359193129919e-01 -8.665436004128967973e-01
-7.241281895152930081e-01 -2.500200967730044077e-01 4.607767652615918919e-01
4.785572258697213810e-01 -8.940466929859092193e-02 -3.806612487472684631e-02
4.833456485368936573e-01 -8.530339486488461298e-02 -5.052909011132757783e-02
-2.055755117701671131e-01 2.472948151129953503e-02 -3.762301446874847799e-01
-6.570592693828782027e-02 -9.890269981774607588e-02 -3.549975560414937031e-03
-4.737595963345582750e-01 -7.873299680932249744e-02 -6.026523349512417915e-02
-4.173088648921411958e-01 -3.025742827739081320e-01 6.165746047812831199e-01
-5.368506623755585627e-01 -1.577521098778018882e-01 1.795490124952809907e-01
-3.116735136062350198e-01 -1.423734785845139419e-02 -2.571750269557495083e-01
3.509460704982730883e-01 4.170822151091171243e-02 -4.335160673242101637e-01
-5.129222986731327150e-02 1.343253183767758874e-01 -7.095494466185274796e-01
-7.638052753302837505e-01 -2.722384360481506782e-01 5.284395737454173902e-01
4.011404495639584455e-01 -4.216281480627948747e-02 -1.802190708913145867e-01
1.296215891320931513e-01 2.072060250972874440e-01 -9.320356114617919241e-01
-3.102914768183772654e-01 -5.696636743863925378e-02 -1.278735943018817212e-01
-1.195205430006539837e-01 -1.318947157709040030e-01 9.686844290336119045e-02
1.897493398791496449e-02 -1.113417832229084137e-01 3.319803934112994237e-02
1.228522177487801487e-01 1.362923607253688218e-01 -7.173490885143287699e-01
4.146710852427896166e-01 -1.338319067484616265e-01 9.706690414588094173e-02
-5.671951697502197742e-01 -1.780869054849034128e-01 2.414124631795463438e-01
-3.537019898201562151e-01 -5.543517846509293800e-02 -1.320473166674374921e-01
-8.560907934651673656e-02 -3.246437043705446279e-01 6.798488327178885404e-01
4.752692549540173950e-01 -5.762645899292621887e-02 -1.342055670505877540e-01
5.023969986778540342e-01 1.171575710980328061e-01 -6.634636223799792454e-01
-3.496551666308190809e-01 6.791729693265670387e-03 -3.204151724017297309e-01
-1.557478529971064174e-01 -3.336998305551772681e-01 7.080002172869717114e-01
3.839190208315305108e-01 2.129382095707682901e-02 -3.720830847221603954e-01
6.127790980050022707e-02 -1.626541012987244017e-01 1.880422589099969011e-01
-3.062932764988333667e-01 -7.237165366356433649e-02 -8.129307684360938258e-02
-5.909738438743110667e-01 -2.695114995006506753e-01 5.183540931380882233e-01
-2.231630135265535442e-01 7.471935329723146391e-02 -5.273341528019211966e-01
1.314318230309395319e-01 -9.233691433978424845e-02 -2.551116873275077399e-02
-4.766564908309559589e-01 -2.664027123600413161e-01 5.077334248344613776e-01
-2.992683551659334196e-01 -1.235415695771446554e-01 7.349424420934599911e-02
-6.736538636640825306e-01 -2.308006073780587697e-01 4.020752565132931222e-01
3.413404073741824751e-01 -1.999243775550387792e-01 2.978682385179509673e-01
-1.943945087543642869e-01 9.850745700611117373e-02 -5.996320633717959758e-01
7.553082810972991390e-02 3.230651463303958054e-02 -4.021421614669425382e-01
