-2.837249327063479654e-01 6.196633519237064736e-01 -3.077319344924376310e-01
-4.532167132216499694e-01 5.978844586343643464e-01 -4.188286677136677238e-01
5.967987832538076964e-02 3.131294670393291457e-01 1.348031122044594798e-01
2.103009559441086362e-01 5.726271022609069616e-01 8.461803640557584438e-02
2.644273369846790178e-01 -4.558419508912759932e-01 7.621610757127386115e-01
-5.025865828344284747e-01 -4.329347776183411489e-01 1.840865036118558840e-01
-5.834247772901365314e-01 -8.460778122123308043e-02 -9.133867989382671304e-02
-2.892392242505025246e-01 -4.943982872270677453e-02 1.031240781858218242e-01
-4.850876324157711861e-01 -4.096247563132384140e-01 1.824963396383351699e-01
-4.224077859429799520e-01 2.047479585570473049e-01 -1.523961694941768918e-01
-5.944276097198188946e-01 -4.595107498854593409e-02 -1.233983696036089761e-01
-6.124028712233265948e-01 -3.799007916850457578e-01 7.046882626144243544e-02
-5.149836966658174475e-01 5.008063661090346175e-01 -4.040386581767438368e-01
1.125547183103847299e-01 -4.310278636242964034e-01 6.351248250790232364e-01
-6.379346741280228494e-01 -1.016116798312395042e-01 -1.208675100953417875e-01
-1.191362759474447197e-01 -5.461354464339376324e-01 5.361753485549163312e-01
-9.171762743544498164e-02 4.379798322675997335e-01 -5.391619972538879563e-02
-3.416728557371314090e-01 -1.591919230835586122e-03 3.490710804911706377e-02
-4.895803098602362069e-01 4.463994322196921521e-02 -1.024952830674455556e-01
-6.139467088658154825e-01 2.115217798560005066e-02 -1.793584475671071432e-01
-1.255705942624024962e-01 -1.321134031610461668e-01 2.747107381371272639e-01
2.583822750611885488e-01 7.631145124171168082e-01 1.844045608005366859e-03
-6.043694056486954569e-01 9.177034648478160639e-02 -2.161079146689728614e-01
2.219103502005649042e-01 8.723086322529934739e-04 4.476969341606664154e-01
1.348973301380859136e-01 3.341859779928487151e-01 1.770420716727269805e-01
1.265000579565965233e-01 -3.166269326126502914e-01 5.744368946988256397e-01
-5.803250583038469523e-01 -7.344795479383794401e-01 3.139245481297071594e-01
1.139279464562800298e-01 6.515764367615174413e-01 -3.518688902896738302e-02
-2.455404562143999048e-01 -1.821866393885366586e-01 2.175652946740986304e-01
-1.274590415196924786e-01 4.982816773234289842e-01 -1.175845613025264802e-01
-1.830658984835035752e-01 -1.589265452651089927e-01 2.490698839340943493e-01
3.751329080904533542e-01 -2.482070490664901596e-01 7.147921370985637068e-01
2.168863841257431813e-01 -5.088618487012357139e-02 4.760989294894866775e-01
-2.826710156668951757e-01 7.296732723540513277e-01 -3.751741284226007833e-01
-2.951759364740975666e-01 -6.263286332548979596e-01 4.564875573948299348e-01
-4.243932622077198347e-01 -4.658691160090697170e-01 2.619928130979462533e-01
-4.677378901876081407e-01 -4.695073682546912486e-01 2.323841077649493880e-01
-1.475523289474553745e-01 -3.634189981690236770e-01 4.019831172674419584e-01
-4.369721969766107716e-01 -4.664319101734525908e-01 2.530944037704236371e-01
-4.021502481968500797e-01 5.592343519768913085e-01 -3.573203124892311289e-01
2.897534390019551251e-02 7.125758969000107745e-01 -1.354654193049210087e-01
-1.249959616369057669e-02 4.294780052604138532e-01 9.592862949170805065e-03
3.674300619299500914e-01 -1.719198369035495610e-01 6.618238123444174503e-01
-6.209345282658528253e-01 9.048710707172635814e-02 -2.274900208662702650e-01
-8.418635847282165963e-02 -3.945453150116450258e-01 4.678679569352407475e-01
2.317898247543547507e-01 -1.781805756654770978e-02 4.665496915480913387e-01
-5.822021172565040592e-01 5.410503671868693853e-01 -4.784094862765272405e-01
-4.058714701425911731e-01 -2.042043178138129578e-01 1.133511643613443615e-01
-2.722368247386123263e-01 5.777688606383211134e-01 -2.733077492596123204e-01
1.641249251900397388e-01 -3.392084409017296909e-01 6.160995537102768038e-01
-5.453977158286175131e-01 4.016705992478576404e-01 -3.649235731993887288e-01
-1.257357391804645175e-01 -3.352960284560762005e-01 4.005825617145621909e-01
-2.028914035629388046e-01 -4.744460711777897521e-01 4.301483416059059817e-01
3.137481383150286796e-02 7.725743924431994758e-01 -1.709064240019012582e-01
3.527591658627006743e-01 -4.348712105590564758e-01 8.140942486384252774e-01
-5.660892883773747108e-01 5.348199599777527791e-01 -4.627006829983803526e-01
-5.628790302660477973e-01 1.799891987347856381e-01 -2.403106605807241170e-01
-6.395800678503567038e-01 -8.753378524509178304e-02 -1.308068009295525747e-01
2.650525801760659772e-01 6.984934669379697092e-02 4.366403672984727757e-01
-2.325317791923572908e-01 -5.053647121479654114e-01 4.275308365967048774e-01
-4.425283039420118691e-01 -3.511884190077411705e-01 1.775475251879631844e-01
-2.502986393740241899e-01 -1.848115308109566368e-01 2.156950099762704187e-01
-6.268359878108921146e-01 -4.837766678726619363e-01 1.242715975677576440e-01
8.646745230094812773e-02 1.393814412142804771e-01 2.622368632158663115e-01
1.356911975854348251e-01 3.521233076902445525e-02 3.630187763120692468e-01
-2.317116911777978294e-01 -6.666828483567123209e-01 5.281668490958705275e-01
3.632045652464426233e-01 6.410630759623068275e-01 1.545880015426467358e-01
3.010682845694320764e-01 6.718460178287988249e-02 4.647696971371492736e-01
-1.906326936773178327e-02 3.440434203032520233e-01 5.774543532018578534e-02
3.885822865561522343e-01 2.546376037761580169e-01 4.128662536700819508e-01
-2.997247313696419502e-01 -4.975556443293581710e-01 3.732915832296593850e-01
-1.838098419177099652e-01 1.851298346246005033e-01 3.517414853279018927e-02
2.667605483279548301e-02 -2.623221584671381681e-02 3.209780206388985202e-01
-1.732708218339005235e-01 -5.544645501920620889e-01 5.015432306140786833e-01
2.466913835398147070e-01 6.087197464394090707e-01 8.898944714006500056e-02
-1.165527537225790472e-01 -3.902599242667511570e-01 4.414164547860930932e-01
-4.368946682869508935e-01 -4.346784401758960192e-02 -9.127960308082935098e-03
-3.075089746630250698e-01 -5.990342716273973078e-01 4.304957398471930263e-01
2.490273369594499242e-01 4.893706251483485592e-01 1.647149264315804496e-01
2.675327236526349184e-01 3.227077332116916608e-01 2.816665514288129724e-01
-4.166027671879278804e-01 3.711092906909125300e-01 -2.512890162692540952e-01
4.890675196879996217e-02 7.187939823255058425e-01 -1.246686805062578590e-01
-6.095609387763512022e-01 -8.654369498548591944e-02 -1.093522078056853725e-01
5.059170847325518416e-02 8.238140920692700320e-01 -1.885527922718134020e-01
1.092352350456423371e-01 -3.542528935440359961e-01 5.850764692687595581e-01
3.169449637318512147e-01 4.124741659605369315e-01 2.623279078183133883e-01
-5.952762690218502684e-01 -5.747275787063405028e-01 2.038712260994179348e-01
2.054689638358398462e-01 4.196044355616367072e-02 4.101313693099672975e-01
-5.346074629098244158e-01 6.198176255406942503e-02 -1.463506055367123915e-01
3.669793677535388432e-01 6.722814545580386714e-01 1.380045775818649623e-01
2.544153131041790861e-01 4.688862615892205876e-01 1.813782161568066320e-01
1.840241448824105897e-01 3.534705538644781764e-01 2.011992875545934589e-01
-3.087793309616788107e-01 7.230162485892038804e-01 -3.902396322569483544e-01
2.824868459020494216e-01 -5.009797384396658115e-01 8.034273857763768456e-01
-1.422453779427952925e-01 4.033268609070089772e-01 -6.957339465000196566e-02
3.127805829085307798e-01 2.090530951290510142e-01 3.854075549824007019e-01
-3.235825394318788684e-01 3.380329982321888527e-01 -1.623946885046625987e-01
5.714357420276595240e-02 6.050662467687354384e-01 -4.809099323393905417e-02
-4.735823372553896182e-01 5.853291161993007252e-01 -4.260148969346931325e-01
1.713272524776278394e-01 5.509707783707598061e-01 6.939559206093667831e-02
-1.278894533422980304e-02 7.660044870868661926e-01 -1.992993996524811406e-01
1.449533017925389855e-01 -1.304203840570080652e-01 4.725363959501606703e-01
-3.343264929837208577e-02 -2.366424110784257628e-01 4.072641738518961163e-01
-6.044867155898160371e-01 2.207062367312083995e-01 -2.961470999148393402e-01
1.202058697321426450e-01 5.380903400059428021e-01 3.980087488588191641e-02
-4.131668281653879116e-01 6.750455525141031421e-01 -4.372334905536550131e-01
-2.114573250566927909e-01 6.852191888056727853e-01 -2.952555141334067268e-01
-1.468785050704335682e-01 6.432973450911804170e-01 -2.217847593866440481e-01
-1.693056384356324551e-01 -4.213968181687158254e-01 4.219431394891354770e-01
1.711774172795812454e-01 5.934379402222889066e-01 4.295161981449184541e-02
-5.591691331652981489e-01 -3.485713231005453661e-02 -1.043574561668110523e-01
-5.936022157011267009e-01 7.069526122332824014e-02 -1.951237932085334303e-01
2.385836249997778380e-01 -2.413265522784435457e-01 6.101414199068774247e-01
-1.330234146005853102e-01 -2.088895870137600086e-01 3.168405934202713214e-01
2.233273843340850551e-01 1.797327243489118265e-01 3.378276005769776380e-01
-4.671843186851385443e-01 1.934570948723964012e-01 -1.783121663959223446e-01
2.000428301834829281e-01 -1.242988395762659876e-01 5.092394728370126522e-01
-3.116247586855059870e-01 -6.992277536033274510e-01 4.895998457053499786e-01
-3.081831680967896392e-01 4.637838079094498966e-01 -2.290517303718702657e-01
3.327569857198214853e-02 1.476871543509306051e-01 2.179826143501068514e-01
-7.827259860908097888e-02 3.828975179498269044e-01 -9.875636637528450307e-03
1.117922174777510602e-01 -2.682399981619192353e-01 5.336197709424563840e-01
2.770420840006085350e-01 -4.362933339019163248e-01 7.593127332042519662e-01
-1.320277434346154091e-02 6.348097402210153284e-01 -1.182499674448694027e-01
-2.687548632060460796e-01 6.014578735823794542e-01 -2.854375071806981023e-01
3.191370826918400461e-01 6.964946875404803839e-01 8.781875941970949950e-02
-5.762249903991776279e-01 5.260729774065602271e-01 -4.647279485934869281e-01
3.564561776840084462e-01 9.494600300035604956e-01 -4.160954324273984095e-02
-1.784710163086637158e-01 4.025542509421217718e-01 -9.572555892572101599e-02
-3.616723897051303815e-01 -5.910817352545627568e-01 3.857461790526421352e-01
1.175900697862269570e-02 6.038540910105145709e-01 -8.070377745907644784e-02
1.924354133300645586e-01 -4.191130780483610097e-01 6.864607349578806250e-01
-3.615262707180464941e-01 5.555311036835364202e-01 -3.251592388450185167e-01
2.502317070960986545e-01 -1.402374688943534842e-01 5.560193178769108346e-01
-1.788502011429223826e-01 -8.677568779376559904e-01 1.324603093959191569e-01
2.527737559865645967e-01 6.124021934948153945e-01 -4.680759081752502992e-01
-3.336304335927068321e-01 -8.333522533300067314e-01 -2.660549218339634467e-03
2.337000911854889007e-01 4.265483126929458524e-01 -3.668502002899188819e-01
-3.784618418495591108e-01 -2.468864609328151882e-01 -3.992848600980535845e-01
4.435614701894118050e-02 -8.679122287216232967e-02 -1.877252515531801780e-01
-4.190333535587746905e-01 2.065873058653374672e-01 -7.103093622012605080e-01
-2.470123531382076298e-01 8.127168631411894884e-02 -5.061401958103021181e-01
-3.872256468525273054e-02 -1.361475957139582360e-01 -2.181947116723021440e-01
-3.485776590614057535e-01 4.741183099474819973e-01 -8.244094557083961883e-01
6.281138840234241905e-02 -4.963741252104963975e-01 7.982382959117469146e-02
-2.787410904212967583e-02 -4.717263320257011894e-01 -2.127623159434377086e-03
4.312051264672779882e-01 -1.708464293142896162e-01 1.487890698260655453e-01
3.166998378800826575e-01 -6.580854738815413718e-01 3.667467420077560325e-01
-2.253833058468689976e-01 -6.609058834286676287e-01 -3.001645725384856356e-02
-1.711861253985684506e-01 4.371153733525352525e-01 -6.710547019787046485e-01
-2.389760719055573912e-01 2.705664930781822783e-02 -4.666136679109786356e-01
7.785368178853156219e-03 -4.390450970286941534e-01 3.821839326171303126e-03
2.546580399065279110e-01 -4.810368621735128247e-01 2.113491790624138777e-01
4.059419921023199596e-01 -4.984647351593777254e-01 3.333724918697511530e-01
-3.841945445879812460e-01 -9.072539724059127675e-01 5.993612847620264500e-03
3.178767023084603238e-01 -6.056355218382557526e-01 3.350877796125693031e-01
2.035258523251680107e-01 -6.383799893115962298e-01 2.713276072293842045e-01
4.041946223160319818e-01 5.841591360520030640e-02 -1.323290982875754800e-02
5.734079972921671819e-01 -1.071588968261485281e-01 2.138368938483556081e-01
-1.956293546957354745e-01 -7.245630888727376817e-01 3.133087793180696495e-02
3.812285598236263007e-01 -3.127523221397521813e-01 2.000444471267863178e-01
-3.201341010191507963e-01 4.372476525149116000e-01 -7.806357520498405922e-01
4.333325597264815476e-01 3.338581889980186124e-01 -1.626134972099185227e-01
4.848586329904757374e-03 -3.130802336770123206e-01 -7.644775001830014793e-02
-2.777677825596209793e-01 -7.150303902524040023e-01 -3.496435460603527362e-02
-3.567548829563386703e-01 4.596315810736918972e-01 -8.214377394138212551e-01
1.598233166769275904e-01 3.064122258256459785e-01 -3.466644707135515535e-01
-3.881175926025972056e-01 4.078975684745554386e-01 -8.124138377903443731e-01
-1.680004370940286762e-01 3.487941034446262467e-02 -4.192868501935000936e-01
1.788070611321993797e-01 9.319890203655543937e-02 -2.004953309104278436e-01
3.438402206816820184e-01 1.544964966502496428e-01 -1.171818356847982578e-01
2.594810634243046032e-01 -2.789095982700919296e-01 8.955602038284470046e-02
-1.826462694617377869e-01 -7.985448205357880136e-01 8.675134272341175623e-02
-2.857308966974161368e-01 2.063637603319969371e-01 -6.121735126756725487e-01
-1.020360638500829586e-01 5.607865030335755785e-01 -6.969073465870984085e-01
4.071440142436080767e-01 1.746080007268583922e-01 -8.311519836218307644e-02
-4.200571896182734299e-01 -9.719115696048403752e-01 1.972328409984320033e-02
4.338163219793000902e-01 -6.969123382192096705e-02 8.798250948065154675e-02
1.132497856403933689e-01 1.808873402882964568e-02 -2.021140283379819214e-01
-1.197748393053390259e-01 5.593634405436788137e-01 -7.090655589631471578e-01
-3.485707042046862214e-01 -8.839025592313283497e-02 -4.755936564670655287e-01
4.971584549217265836e-02 -2.668210970093103374e-01 -7.214882730072333383e-02
-3.444445580286147335e-01 -7.980265153128077715e-01 -3.251598214110891505e-02
5.669562683731882435e-01 -5.871967893947868111e-01 5.067646590116162697e-01
2.933721027630993225e-02 -4.581794286143274775e-01 3.153083366539388005e-02
-8.645383067817540620e-04 -3.140173655790036156e-01 -8.006663648042113002e-02
4.767507650709371658e-01 -2.943086738221564747e-01 2.588306671893662037e-01
2.253960905887537058e-01 -4.794587465164540374e-01 1.888586857355244730e-01
-6.070016229868398921e-02 -3.434843478869867295e-01 -1.057823333202800170e-01
2.330804921054528689e-01 -4.669088948935296579e-01 1.867257259046142814e-01
8.326884403865628115e-02 -4.184928420722264786e-01 4.656905458833315858e-02
-9.850343441729095262e-02 1.131786037035261705e-01 -4.167493741081001457e-01
3.812851011275524837e-01 -1.054721890895505554e-01 7.155192547808654491e-02
-7.912034194148696853e-02 -7.236450455513241398e-01 1.164131386042474570e-01
-3.321836990743939205e-02 -2.966435479232845118e-01 -1.146250156303337542e-01
3.692566595468610435e-01 1.674674070249778379e-01 -1.065401956964400765e-01
-9.208904907900228309e-02 -5.248010320890066083e-02 -3.093091358086713094e-01
-2.302354868736611326e-01 -1.311868651522884732e-01 -3.620614744619975456e-01
-3.102780652064112688e-01 -6.284250540487079650e-01 -1.125681055792538271e-01
6.084077826102810560e-01 1.903385812642782032e-02 1.613150361751910511e-01
4.187729167287287391e-01 -8.561444799688069929e-02 8.679731855365944992e-02
3.582237846480700871e-01 -2.240922356660040304e-01 1.281545174008275612e-01
3.395879140821285169e-01 -2.912733220755918673e-01 1.561132543450176324e-01
2.757821615638380575e-01 6.628635210183611015e-01 -4.824522818956454295e-01
5.683345040171193649e-04 2.035115310357919760e-01 -3.999321242751953664e-01
-1.380177122321487870e-01 -4.929989111559121007e-01 -6.990854044126748601e-02
7.112145983359698109e-02 4.079929350609526328e-01 -4.748636326741083047e-01
5.240831722875126664e-01 -1.657722985575761643e-01 2.139218545468205834e-01
3.224835751315338062e-01 6.302141656298712036e-01 -4.278739484205552612e-01
1.221310342206592126e-01 2.037042758943693743e-01 -3.106848919090002270e-01
-2.257683004523564074e-01 -6.529417162382193940e-01 -3.523805351232552063e-02
4.827136251430996228e-01 2.623586284306060890e-01 -8.197426734587873187e-02
-4.200256063928320405e-01 -6.078545621351181261e-01 -2.060046813353462458e-01
5.276910809544022724e-02 3.391033473544645405e-02 -2.563873158037913158e-01
2.032809848448330070e-01 3.631596552733776240e-02 -1.472303186744513548e-01
3.727915696094920017e-01 -1.957703826549650472e-01 1.213016796798451064e-01
1.878067721230007314e-01 -4.332759434578909996e-01 1.325870342206661168e-01
6.079768731762168477e-01 2.998661610032944402e-01 -1.314542067640706892e-02
-3.861858026245706954e-01 -2.205733602881951305e-01 -4.212798384613979374e-01
-1.659815899658717842e-01 2.379820238752132222e-01 -5.437463104201303299e-01
4.386447668762485375e-01 -2.645369044462856367e-01 2.123556352999464991e-01
4.692079687893235262e-01 -3.650758215539274820e-01 2.971681827582169921e-01
5.910779180368283536e-02 5.512305326279347550e-01 -5.725168856094537961e-01
4.708835920037369172e-01 -3.594014930462520740e-01 2.948813739829970193e-01
1.106036876929048646e-02 -8.596544944497436225e-02 -2.127146857983669981e-01
-2.525404427217793901e-01 -6.605700739577567981e-01 -5.018924671534028686e-02
1.027332115553257832e-02 3.045594040894827881e-01 -4.554571374119877891e-01
5.084256810485457967e-01 5.736933609847865156e-01 -2.561302465021428887e-01
1.071856657088858938e-01 -2.676158132656099031e-01 -2.940711764083970767e-02
7.676696314915380792e-02 5.732245326233752492e-01 -5.731732004887413190e-01
4.248940263343463641e-01 -8.185613765639358774e-02 8.896672658601215145e-02
2.941530734297000960e-01 5.942118931122930547e-01 -4.263761483061904167e-01
-2.349347845533114321e-01 -7.954272720771947691e-01 4.637828209853675498e-02
1.467840685255671074e-01 2.868151150659615789e-01 -3.440981290743787557e-01
2.663591797924690432e-02 1.433927948852444512e-01 -3.434890196016167074e-01
-3.685768161690547440e-01 -4.696093963781906577e-01 -2.539077431061481649e-01
-2.668527921492526711e-01 -6.808264185105301625e-01 -4.815003494360991371e-02
4.111117212886121197e-01 4.103051674600806664e-01 -2.263537869925003609e-01
3.557910639785148432e-01 3.177592482462298640e-01 -2.096351578917918790e-01
4.539181715629762026e-01 -1.969171558620741169e-01 1.816529696457252763e-01
3.261959358538181197e-01 6.460031646148309270e-02 -7.440854071417074556e-02
3.930651227746055909e-01 -1.562209893204258848e-01 1.116812540938622728e-01
-4.275377017116367417e-01 -8.248061122742085249e-01 -7.699587551361279647e-02
-6.331872046206911409e-02 -1.403257128575349788e-02 -3.119998989558931957e-01
-4.010615997815799583e-01 -2.224947120994745509e-01 -4.310243454523320916e-01
5.233202175702654779e-01 1.903160983475758461e-01 -7.448892017329652830e-03
-2.127515080597417590e-02 4.322884837430865934e-01 -5.578545830995284005e-01
5.693601719220775514e-01 -4.155999584189534191e-01 4.021249595415314904e-01
-2.170501701885801105e-01 -2.544656972042573795e-01 -2.759232840877455795e-01
6.189319963622336856e-02 -8.362208845084589948e-01 2.898872702231984899e-01
6.565174050739661094e-02 -3.311168352882183363e-01 -2.056387541575740649e-02
-1.275190309099488994e-01 -8.668642672495304735e-01 1.696428850174611092e-01
-2.180103098882475166e-01 4.051587574985916484e-01 -6.856612281961973476e-01
4.445561244603156714e-01 -1.175121294657787419e-01 1.255315324590501325e-01
5.115496439615929702e-01 5.904313728824968355e-02 6.530013602094621172e-02
-3.549404462431968721e-01 -3.812905649352784643e-01 -2.986493430532091709e-01
4.974790219872864960e-01 -8.745036046264450039e-03 9.699146666327164434e-02
1.143261582338784416e-01 7.923010177707485308e-03 -1.950189840649399486e-01
-1.097376519472187950e-01 7.804191603740107119e-02 -4.032199977221125331e-01
-2.243516580584097031e-01 -8.025994270924790008e-01 5.860590399955804136e-02
6.051547343713982174e-01 -2.807032390348194739e-01 3.447900670479963070e-01
1.081639390690985114e-03 1.475126869530035967e-01 -3.648299723880475964e-01
-8.903064420024224546e-02 2.840068696947222193e-01 -5.157157994044404559e-01
-4.216563772912653163e-01 3.307282669851277501e-01 -7.892172934997492284e-01
4.019740577911782436e-02 -7.869661766116919921e-02 -1.958020000287443163e-01
-2.799970011894609700e-01 -5.912762393240903469e-01 -1.133429198978177649e-01
2.043376959423940514e-02 2.330756062644926130e-01 -4.036606974245148804e-01
1.184597757952454700e-01 3.190485719825701949e-01 -3.849086340791271210e-01
1.109329588291555341e-01 1.631328746363898408e-01 -2.937588882080340302e-01
3.511186567414369408e-01 1.878240921779949710e-02 -2.767500290635561619e-02
-1.794247169882340898e-01 2.486198212788447159e-01 -5.602254996190333403e-01
-3.782883393955837614e-01 -5.880919267724807886e-01 -1.875763314419507111e-01
2.852781939306701098e-01 6.596200056726411187e-01 -4.734599800025183769e-01
9.315566264131876217e-02 -2.285571944948975032e-01 -6.394145555230422440e-02
4.772234910760674853e-01 -7.069343300844906919e-01 5.150467188225876791e-01
-1.578128781389112611e-01 -1.157759020376879777e-01 -3.183763469456474260e-01
4.436104240871440174e-01 4.931299065575291962e-01 -2.538218749842037769e-01
3.018509767102205421e-01 -4.646792609103272964e-01 2.358997180189831011e-01
7.514294157486545167e-02 -2.024624929291410080e-01 -9.336478156750085966e-02
-2.056481965730890260e-01 -5.563477853824199126e-01 -8.034451620853576281e-02
-2.440894683154007927e-01 -7.079691409274185832e-01 -1.458442976639669902e-02
3.765829508472305909e-01 -4.580913038712333685e-02 3.109817237453221112e-02
1.268015052774943974e-01 5.402661577253563552e-01 -5.159528968324375020e-01
5.417086862084563581e-01 6.944746291634863455e-01 -3.065585396552471531e-01
5.688254375950800856e-01 -6.413298436558444449e-01 5.417066004686331704e-01
3.243023937938659812e-02 4.956702348753406762e-01 -5.576760197107598627e-01
6.631554656904345424e-02 -5.883838004236162655e-01 1.394549660023481630e-01
3.024918415927201343e-01 -5.986145174942577585e-01 3.194238936841362064e-01
4.981412025081206618e-01 5.593511264211580708e-02 5.737020876262826502e-02
-3.712135989105250916e-02 3.585143301303664320e-01 -5.237566773085451377e-01
1.828448071056512983e-02 4.612228859645807200e-01 -5.467145191127268378e-01
3.434169961983506991e-01 2.853171630334223052e-01 -1.986146605909432927e-01
-3.643003031502405342e-01 -5.199099745230773006e-01 -2.195725566307624999e-01
1.319768101338286703e-01 1.008754305158557490e-01 -2.396827680468016086e-01
2.527255916709856276e-01 1.932432395118088286e-01 -2.081915010302603786e-01
-3.154749249594172023e-01 -1.754773382142637839e-01 -3.972607479859828206e-01
4.515444157329472352e-01 -5.760031373187303461e-02 9.351774731181951295e-02
4.146470193322779885e-01 1.253879832202282885e-01 -4.707811195162091983e-02
-6.611201061747232210e-02 3.045994810144276865e-01 -5.116366245186145800e-01
5.180062303760903930e-01 4.299387320654938227e-01 -1.599450891319463275e-01
4.800168251928155216e-01 -6.976650939630448800e-01 5.113523979972790512e-01
1.055973379469611478e-01 -7.741153315943674063e-01 2.835047872179699002e-01
-1.656581909435008992e-01 -6.632187025139403280e-01 1.532460428087084776e-02
-1.750055965869502794e-01 -7.931007779082650810e-02 -3.536279655141903455e-01
-7.541634355210904972e-02 2.418755276200516002e-01 -4.795816739631372227e-01
-4.271565379803717033e-02 -6.747671779385461255e-01 1.128669358160909741e-01
-1.756312505140975588e-01 1.629902836345546724e-01 -5.043379917399969381e-01
5.345475904656510346e-01 -5.644157463787266016e-01 4.688129475969570747e-01
-2.243878425695301770e-01 3.667505368596841731e-01 -6.665327900567120656e-01
1.521807301886037855e-01 -5.826640182892772746e-01 1.990318814428667094e-01
-3.863270868904449817e-01 -3.978374948380921095e-01 -3.114624895179135544e-01
8.676400552296162361e-02 5.367216283859163051e-01 -5.431884860619681232e-01
2.233823990222743028e-01 5.525665347076461620e-01 -4.525789494962245696e-01
2.317162479233272065e-01 -2.065051316302399242e-02 -9.100132556299093955e-02
-4.157457882180889269e-02 3.398907238121464114e-01 -5.154819895065121393e-01
4.127401548415707833e-01 -2.066702041016245661e-01 1.574288228918783172e-01
1.141148114201795682e-01 7.964562600702498885e-02 -2.396494380299602212e-01
-2.724620125180446384e-01 -1.227243293260350115e-01 -3.983518873193502841e-01
3.950925109052338957e-01 -5.753288939593964590e-02 5.197535018941134427e-02
6.146261361848557314e-01 -4.733315327385470006e-01 4.712014681630465884e-01
-3.706939481448827400e-02 -4.479286535008337733e-01 -2.364443595904189982e-02
2.306696856859247191e-01 1.176680336591795634e-01 -1.775418208758159921e-01
5.914072647987935749e-01 -1.972500171503594746e-01 2.829344091742012623e-01
3.391604339706940086e-01 2.444853296718459967e-01 -1.764241136880836669e-01
-2.149748766717358983e-02 6.189842939332789590e-02 -3.283397375812999175e-01
4.260524683779389754e-01 4.112362294868635582e-01 -2.159474549394565512e-01
5.460577084344602622e-02 -2.542399694506640440e-02 -2.182439674293788767e-01
4.229742645597251438e-01 -2.869405929164539626e-02 5.458969268350958443e-02
3.781981546391390836e-01 2.175378621161711337e-02 -9.610070877594320202e-03
-2.808716552250447585e-01 3.121668841989783671e-01 -6.742095963979272133e-01
3.505077178816095040e-01 2.333392950539191768e-01 -1.611705253168122798e-01
3.380198490490651797e-01 5.052902788766331366e-01 -3.389873572440426641e-01
-3.536237796519108856e-01 3.949650866954176331e-01 -7.790363179707312513e-01
3.642295454489193340e-01 -2.776259038176653871e-01 1.657657935330290322e-01
-5.405496115595113948e-02 -4.819145992147413904e-01 -1.505673384477987028e-02
3.716454419040562951e-01 6.663395625039347792e-01 -4.141339309568271010e-01
-3.218782773772675410e-01 -1.780092565971801433e-01 -4.003981304140829534e-01
1.582778586381753394e-01 5.648667934616152797e-01 -5.080678885698485248e-01
4.230562167944635354e-01 -3.610118643091909663e-01 2.607196935995096387e-01
1.811487910856309780e-01 4.237941275743091207e-01 -4.037753943176549676e-01
2.817989378279210366e-01 -5.804334521691297821e-01 2.929374663218193842e-01
2.815034185432268576e-01 -5.494313616197777916e-01 2.734958673714167898e-01
4.474222940254468650e-01 7.382144708753480833e-01 -4.029961378140575201e-01
-7.336571391079314830e-02 -1.944633566832523752e-01 -2.075010915142630474e-01
-2.436294550703394513e-01 -5.085546786835042354e-01 -1.379028490078295921e-01
-3.491517938059432447e-02 7.251062146756244442e-02 -3.447843502016338380e-01
1.075056547254674560e-01 -2.173484314471646472e-01 -6.034260313285531169e-02
3.676984873324684600e-01 -2.642673568427162945e-01 1.600323700962933693e-01
-7.027439383776586113e-02 3.261360292243565828e-01 -5.280513783309186415e-01
2.536868368534921925e-01 5.426056337651709027e-01 -4.241239191896464811e-01
4.294852606926887750e-01 3.958611763877470935e-01 -2.038897930183565799e-01
-2.545442191549018296e-01 -1.461763826773003483e-01 -3.706370493996659632e-01
5.614225600535303062e-01 -1.611592062855346230e-01 2.385113139910245428e-01
-3.799926615003806352e-01 7.402676891795036129e-02 -5.994080357994234776e-01
-1.234494205614170559e-01 4.960371007714752256e-01 -6.724983606410779302e-01
3.792161255069503301e-01 5.641078763146588626e-01 -3.451746374638661741e-01
3.711943316875544463e-01 6.500326230029889185e-01 -4.043536565797971050e-01
2.413165858253447649e-01 -1.109319494755405533e-01 -2.796026415927786030e-02
-2.478424619473529877e-01 -3.014848161929584158e-01 -2.694037382528691182e-01
3.801174067958875136e-01 -5.358063489324654816e-01 3.375430384994720368e-01
1.090680481740067681e-01 4.800849417729259327e-01 -4.916713598959352449e-01
4.156016207867159196e-01 6.241255015828521824e-01 -3.556426962630643840e-01
-3.648686186025146827e-01 -3.055601720420857426e-01 -3.529083323998632449e-01
-2.091283593525428489e-02 -1.096269342374948386e-01 -2.215473200973157031e-01
4.773828937971452135e-01 4.797458678296803725e-01 -2.206946404978175902e-01
6.066897234525087113e-01 4.686848526015498506e-01 -1.187758760647168454e-01
5.032565774462323116e-01 2.885214317083245050e-01 -8.309564063731046668e-02
-9.860243915078194255e-02 5.182184880548617034e-01 -6.679867593921142710e-01
-1.693387784863220891e-01 -3.660169774818952670e-01 -1.716755048863581323e-01
9.737896030425413629e-02 -4.366689556628854801e-02 -1.754868872120982914e-01
-3.858516609510652673e-01 1.652289622468807728e-01 -6.602696142509738575e-01
7.643923052502402116e-02 -1.444327494490139363e-01 -1.283959690772163431e-01
-4.108368745724926274e-01 -8.078802923025075744e-01 -7.521394607329139059e-02
-1.981511409999199835e-01 -7.148940358184241450e-01 2.348122333691213606e-02
3.682667821965969479e-02 -7.766429143967402693e-01 2.345154239614970770e-01
-3.901636588370759884e-01 -3.944859478314235446e-01 -3.163612323994189346e-01
6.206419785407958356e-01 3.754631380506182614e-01 -5.071224312766205167e-02
-2.072971564400181987e-01 -2.399336653841706649e-02 -4.116688948991713004e-01
-1.246816474354791593e-01 -5.197752211038865200e-01 -4.350059146409522570e-02
6.990830127396101268e-02 5.671173709249461847e-01 -5.744283006023676030e-01
-3.210589743156169185e-01 -9.471412880792836608e-01 7.714175567298810210e-02
7.459907080001194901e-02 1.951699621238273119e-01 -3.403358745006740960e-01
2.333713566961182206e-01 -6.025519336456391928e-01 2.710515921089611813e-01
-4.222296995464638880e-01 9.939006276208332824e-02 -6.461863105909967375e-01
1.375671517908614583e-01 -1.096206115797662139e-01 -1.050447632391935671e-01
2.909781534293529384e-02 -7.594175863861821751e-01 2.181521554897072057e-01
4.581136060016040012e-01 4.900712370413054519e-01 -2.412631924121037552e-01
-2.152084136318015428e-01 1.304053904457252167e-01 -5.132272803055916155e-01
3.812755688245298424e-01 -1.248884927308295673e-01 8.358493748509153443e-02
5.826968943719744720e-01 6.239976142128089709e-01 -2.327233932213653711e-01
-1.325956714814152670e-02 4.094708872321333737e-01 -5.378127750050800682e-01
3.469603789084304002e-01 -4.972322812473618514e-01 2.892479479786675967e-01
-3.715592204261591869e-01 3.043024088178539199e-02 -5.661740569457286432e-01
4.899567435393607506e-01 5.880257694780522959e-01 -2.785951801581734166e-01
2.875047802940156050e-01 -7.527327390632454658e-03 -5.812608314708036378e-02
4.977433523639573920e-01 6.771540234272073189e-01 -3.281391504613659360e-01
5.697044231347467846e-01 2.615411377911286417e-01 -1.751610443216811835e-02
3.083490257515833499e-01 3.306080596491362544e-01 -2.524796746717695162e-01
-4.249220533070148242e-01 5.468092600643232985e-03 -5.899247254603864343e-01
1.495581729624012313e-01 -1.086417945339567259e-01 -9.683653341717846086e-02
5.115230495289496693e-01 -6.102257402130730757e-01 4.802931746337918417e-01
1.621480193470946629e-01 -2.219771224588350800e-01 -1.730205414941062003e-02
1.574081572475519442e-01 5.005469632138705993e-01 -4.688226224290905630e-01
-2.283284013286385472e-01 -2.604047392622656221e-02 -4.258605951338139683e-01
4.568200092316474503e-01 2.604294055635245075e-01 -9.981363702414967898e-02
4.585036071043264716e-01 4.467080040648631067e-01 -2.140870100201369419e-01
4.441971985167905701e-02 2.628706764154026820e-01 -4.045033156621481440e-01
-2.426564016652416611e-01 -9.326018616534279548e-01 1.257634889821613589e-01
3.258690253509710089e-01 -2.863233797390858926e-01 1.429583691508853061e-01
-2.613225901024615050e-01 -2.212558485640711836e-01 -3.290635051810864020e-01
3.385768471292910919e-01 9.719299934041367162e-02 -8.551739240155219191e-02
-2.914888214967233937e-01 2.388789291567153250e-01 -6.365690535790161642e-01
3.299675568092894085e-01 2.207494935555609772e-01 -1.684636973361164358e-01
4.288177382852615405e-01 5.622358599238638233e-01 -3.075492041229554996e-01
3.887449693820989038e-01 -4.938652318608356406e-01 3.178779650510096255e-01
4.844206076320506926e-01 4.375405384882241067e-01 -1.893494099173216871e-01
5.155821356735568184e-01 -1.948634613310822050e-01 2.257117068309915375e-01
-4.026728633665795365e-01 -8.178977978129728932e-01 -6.300033805820355604e-02
-4.608041229120728166e-02 5.169269578160534673e-01 -6.285743437735361594e-01
-3.890982886423017262e-01 -2.850331408768759789e-01 -3.834495413491997295e-01
-3.975549806950458009e-01 -5.920786984443032752e-02 -5.297003731148069994e-01
-1.091528146304244357e-01 3.134083142077395134e-01 -5.487403921380243910e-01
-2.704433273120619430e-01 2.810109012193605649e-01 -6.472234401912624335e-01
4.262570322752647078e-02 -4.483300183630489766e-01 3.519225812340741333e-02
4.706679496445875799e-01 -1.614187057725464391e-01 1.719540263096362709e-01
2.308481442681704632e-01 -3.571244666418224023e-01 1.170074634712793965e-01
1.367660361313559059e-01 -7.551299152567537698e-01 2.946456117549027254e-01
4.281604147520402526e-01 1.573463799513318551e-01 -5.696109867767478602e-02
2.735035331816788040e-01 -3.387802342765398184e-02 -5.207906680409589428e-02
5.135563505193376788e-01 3.318428778832759884e-01 -1.023873293770004439e-01
2.811853739377782879e-02 -7.516728729990890256e-01 2.126297551135247210e-01
5.366695809357331370e-01 3.992853595581615789e-01 -1.272166284384680379e-01
2.074334870489281599e-02 -6.598800262497257763e-02 -2.179842320059026395e-01
3.761174649154196969e-01 2.123470625116618826e-01 -1.293262828594113623e-01
4.055857325931424562e-01 -4.280513920639637815e-02 5.055678148076563072e-02
-3.435201680453838780e-01 -9.312497187646158192e-01 5.077508380976703678e-02
2.012958414301448673e-01 -6.467952016525589931e-01 2.749064760000745622e-01
3.354356810124534127e-01 -4.010792631456642360e-02 -2.686528632711283632e-03
4.534458006294420085e-01 -2.323711948989637954e-01 2.032907008457122411e-01
5.291198240166383737e-01 7.130563292646496798e-01 -3.273357182258823661e-01
-1.413028661854197898e-01 -8.223670576460067050e-01 1.319170555131413125e-01
5.310746963129754361e-01 -2.071957446379592005e-01 2.447482841202985593e-01
4.185829252035154213e-01 -4.341943184548169299e-02 6.049258253011657177e-02
4.380646505633868371e-01 2.587432079516790995e-01 -1.125560203214638483e-01
-1.507913715097369267e-01 -7.217391125679335495e-01 6.254235378320914529e-02
-1.828402094856212690e-01 2.928986315604083512e-01 -5.901936184407019503e-01
2.213746415066043804e-01 -5.156330876757621029e-01 2.083339722733890120e-01
5.434672962092337301e-01 6.186759864774066253e-01 -2.582630780812805171e-01
6.618419849239061403e-02 -5.843884632559515069e-01 1.368809031740535198e-01
3.835901766951918535e-01 4.920486138509410634e-01 -2.972752195681896414e-01
-3.155842329546086344e-01 -1.323475417265681520e-01 -4.240858253878674877e-01
4.106628877153168378e-01 7.182278414950656886e-01 -4.176261177654715939e-01
-3.836159509507102161e-01 -5.097157739026899614e-01 -2.400938526383593341e-01
-6.717842784016363200e-02 -1.851244899682965017e-01 -2.087435282132951708e-01
1.486790547402536411e-01 -4.301061627614192195e-01 1.018567378060260820e-01
2.737309482338420308e-01 -1.829515693882227401e-01 4.052839112711338621e-02
-1.035545879487669435e-01 -1.638444229750726788e-01 -2.486811791327928900e-01
-4.826180049875256756e-02 -4.565248290806620535e-01 -2.654205186253397880e-02
2.093567987871584879e-01 -2.498105974031597232e-01 3.466294910371042065e-02
1.873684825224613826e-01 -1.064879420027869533e-01 -7.037590533347858057e-02
-2.213413451612272209e-01 -3.485037952956412943e-01 -2.207650607605098625e-01
-3.637884050743980802e-01 3.866262282863113797e-01 -7.813379237460875704e-01
-3.226126191185502146e-01 -9.394833661666694979e-01 7.125092907220570426e-02
1.470872599626020516e-01 -6.969494388623311831e-01 2.661556310113951662e-01
-3.899187513849771136e-01 9.189893249862875202e-02 -6.177876962518566994e-01
6.028502376255934214e-01 7.064789348523538015e-01 -2.690542123748413395e-01
-1.917715057577286664e-01 -4.050684184183978576e-01 -1.639511744876065436e-01
2.301266721241951863e-01 4.734527597626263240e-02 -1.343339843923364585e-01
-2.899037612491097149e-01 -3.409450004574864357e-01 -2.758558808973189391e-01
2.466538951233464283e-01 -6.813608585715363875e-01 3.296855347848537399e-01
-2.497735505902630437e-01 -2.673271124284418709e-01 -2.920045159794091849e-01
1.813111267317981112e-01 -7.173579946872630231e-01 3.039706019235835499e-01
-3.351881158869864930e-01 -5.801867471437691659e-01 -1.607932149547758593e-01
2.419125426944839230e-01 5.639091915016427592e-01 -4.459900881943550943e-01
4.060195224427621263e-01 -6.245944283453798151e-01 4.116423147331541021e-01
4.537355592701303730e-01 -1.411645534022978876e-01 1.469466202878844663e-01
2.047377151871562495e-01 -3.697238808202361615e-01 1.056252727366795152e-01
4.000160684295160640e-02 2.147234671368472847e-01 -3.778952795061563674e-01
-2.852687781863686434e-01 2.985032048613573408e-01 -6.689693126767860543e-01
-4.909457241841480579e-02 4.519200782596961563e-01 -5.904795371095787893e-01
4.933271242512443644e-01 -1.154112656454002635e-02 9.567305266063437508e-02
2.110205723064573491e-01 -2.712977571571887347e-01 4.921022563686654888e-02
-1.763925754457126016e-01 -2.762877595142839149e-01 -2.325020483527572845e-01
-2.079638635749736231e-01 -2.322929925318274469e-01 -2.829927503445057724e-01
-3.278193798257469926e-01 -9.289957963823876064e-01 6.091985604204145505e-02
4.182137008370844233e-01 -7.167362111930171142e-01 4.777438345678109988e-01
1.200956897434879711e-01 -8.118382600312229469e-01 3.175551719474373202e-01
-3.534367091156376817e-01 1.710324941540730392e-01 -6.400385409913338375e-01
-2.449463279039067187e-01 -4.560649437978767096e-01 -1.714197502852037314e-01
-2.806185577559235367e-01 -8.768959833161399028e-03 -4.750117144508373968e-01
1.817017332384091299e-01 -1.561519224391868799e-01 -4.374525602731157981e-02
-1.433300464473583058e-01 -8.337593380216121730e-01 1.374911103700773296e-01
-2.025346896342724856e-01 3.523222136829589068e-01 -6.415204757089286725e-01
-3.679644433774530432e-01 3.562777796862689472e-01 -7.655889103010060648e-01
-4.195356916991591079e-01 2.869420044354156207e-01 -7.605064793584422889e-01
1.053199776734845133e-01 -2.065872941690665432e-01 -6.862236692000295291e-02
3.510640616507413325e-01 2.417349348887707361e-01 -1.659676526921183559e-01
6.066246873562692876e-01 7.543607308675626122e-01 -2.959708548910510717e-01
6.018352026365615393e-01 -5.468284432354178493e-02 2.021948200306544208e-01
-3.734956150985939693e-01 3.170167540840149734e-01 -7.453094473272801057e-01
5.404731216499554236e-01 -6.551263546182410913e-01 5.294186056676097873e-01
4.990852081368067905e-01 -5.985420535712794587e-02 1.298649699042518091e-01
6.109293565600034670e-01 -5.323253007712765994e-01 5.050657263725060186e-01
7.227330916922794501e-02 -2.928235822505325103e-01 -3.944161940510292758e-02
-7.129931340995644684e-02 -8.836099516227703399e-01 2.213567528473376067e-01
5.266665166665518427e-01 -3.082182351730256564e-01 3.041515024106746790e-01
3.518541677898660014e-01 4.360475363638961488e-01 -2.858797483966892816e-01
5.998624808307255751e-01 -1.810274166742434909e-01 2.790906473698253620e-01
-2.894480118568046878e-01 -2.283761630536005130e-02 -4.727787308861671756e-01
3.285751798155256420e-01 8.859384606784258265e-02 -8.753779117135267185e-02
-8.857803730948568544e-02 2.533094669694542778e-01 -4.963476540307317220e-01
-9.575645952374365819e-03 -6.826785652289638628e-01 1.421356336635064277e-01
-4.154745984137019343e-01 4.342263087055066584e-01 -8.488517367094647881e-01
-4.008450009364806221e-01 -9.325024377015801447e-01 9.409572881485316759e-03
-3.892064978373815931e-01 -4.315822020708255935e-01 -2.926542464778448260e-01
3.916855427554919444e-01 -6.028276746628200566e-01 3.876071672070690033e-01
-1.869589234117353602e-02 3.629546654151147855e-01 -5.129646497743197697e-01
6.155681463809846710e-01 7.259303343419524213e-01 -2.717664311658622989e-01
4.829065937883282311e-01 -6.368966674193150546e-01 4.757944030835790650e-01
-3.915151134474184613e-01 4.056337165409188983e-01 -8.135077123462652882e-01
5.999876694389381093e-01 6.371900914344391653e-01 -2.281927238500930100e-01
-1.122194655510362349e-01 9.712263365024254372e-03 -3.626733903598048370e-01
1.643881228007862960e-01 -1.099321813937548381e-01 -8.513413690563190195e-02
6.121465574072665339e-01 -5.478886641330273921e-01 5.156113683217071753e-01
5.266235493393504052e-01 -2.198117229418046145e-02 1.266247577228364063e-01
3.398351115126440058e-01 2.131360164742891194e-01 -1.564884645254503992e-01
4.647807683377064847e-01 -3.982397322766428327e-01 3.144784181663595746e-01
3.937096016045539271e-01 2.878183079114665088e-01 -1.631930348899769401e-01
1.788729554528546359e-02 4.633196798603295696e-01 -5.483067282047825453e-01
-1.802349567523877649e-01 -7.105222797655529332e-01 3.394137740098183281e-02
4.341771942332947609e-01 -1.039892746689353442e-01 1.095159662819822771e-01
5.877881858290234796e-01 -2.989223865551251524e-01 3.433207232773856643e-01
-2.625671656935646414e-01 1.764150356491967497e-01 -5.765735507446252406e-01
8.772808386146227488e-02 -7.364946686728685021e-01 2.470397001752104582e-01
2.833629143197908817e-01 -4.546161937398310871e-01 2.160681366275853388e-01
1.863462995326422011e-01 4.182583909338842276e-01 -3.965217471085828449e-01
9.935121824078243027e-03 -8.596643189450259293e-01 2.662275545481289640e-01
-4.149109680247989873e-01 -6.579501046402133069e-01 -1.711804897425595606e-01
4.235829596736493952e-01 6.148093141657687832e-01 -3.439982659631737327e-01
4.881837274711331442e-01 3.831173560274116485e-01 -1.528352236400464803e-01
5.149526767936598581e-01 4.806382940983126018e-01 -1.936286269251159264e-01
5.371865228650832824e-01 4.276915357037718302e-01 -1.444512244831422654e-01
3.348851280173937850e-01 -1.773912870634837546e-01 8.203793100489287227e-02
1.364994777865845277e-01 -7.138521144792050466e-01 2.688533515012991315e-01
-3.284168458527089718e-01 -1.036432436942712060e-01 -4.513192043842199630e-01
1.648302358396496470e-01 -6.079030482559358850e-01 2.239818419100422231e-01
8.123888456059090435e-02 2.824419272367570052e-02 -2.319442091411696993e-01
-2.173620599223022865e-01 -6.645129126060108637e-01 -2.188292945725506256e-02
2.689863242525487169e-02 5.360211656075692943e-01 -5.867641269379403335e-01
5.287429018319904361e-02 2.167539049258754569e-01 -3.696910046026394281e-01
2.459904044376187149e-01 -6.292848330547917701e-01 2.969055075770511976e-01
1.339710389255160394e-01 -5.228070046466782861e-01 1.485277957121770576e-01
7.770097864359376549e-02 5.644446444467159374e-01 -5.670421645055556681e-01
-2.513047382223544957e-01 -2.201715725572996329e-01 -3.223712446373727114e-01
1.952500288939980899e-01 -4.940992736053598233e-01 1.757753928004861799e-01
6.535726298667478285e-02 -3.755263868956184026e-01 6.757933440128790006e-03
1.374729620173503197e-01 -3.532466981111842541e-01 4.595815035350129391e-02
3.031697694882883320e-01 -6.073998861753400202e-01 3.253700654593519870e-01
4.648263519878275685e-01 5.391305786156613822e-01 -2.667499421891645350e-01
3.291392877337384615e-01 -8.323097219519040579e-02 1.942521489051707295e-02
6.167894563485052384e-01 7.742740969475344626e-01 -3.008464777661943867e-01
8.018918930644597376e-02 -7.070195807709508395e-01 2.232200297658004373e-01
5.283083025394808008e-01 2.323865633378310314e-01 -2.986973391667246958e-02
6.162328158314466231e-01 2.194465014128795521e-01 4.279203688693608565e-02
7.099605376419229619e-02 -6.953706482973743830e-01 2.092382162285529590e-01
1.371208150347038579e-01 1.611903755009544414e-01 -2.733023591471941960e-01
4.518166227760691545e-01 -1.782512849762905582e-01 1.685333396976429199e-01
9.141327965480586237e-02 -5.182531115487456486e-01 1.144176199066533756e-01
6.022306312456846555e-01 4.700629627328341553e-01 -1.229085392442760133e-01
-2.887753926221173217e-01 -2.883461213721168551e-02 -4.685655274349832533e-01
-3.706823560378417759e-01 1.240998155538669406e-01 -6.236137880592682592e-01
-1.784083229043155749e-01 3.264908877706013124e-01 -6.077660252133709751e-01
-2.786715143664894936e-02 -4.356211708089200579e-03 -2.919379926182888996e-01
-3.775955732497958683e-01 4.562444307504590069e-01 -8.346583950015441511e-01
2.203754516927506832e-02 1.677930842136798884e-01 -3.620000923370437218e-01
2.919464102039979192e-01 -4.973879118851804587e-02 -2.868555829736120846e-02
-3.286687267966132420e-01 -8.949480738991771878e-01 3.918251934385295898e-02
1.187438615823036975e-01 5.940419849833079580e-01 -5.552227760530782374e-01
-5.356543218273673163e-02 -2.377110553730834297e-01 -1.661270944174740305e-01
-8.771190970392600539e-02 -3.609042911682810995e-01 -1.148379251394502781e-01
2.247026189391579942e-01 4.195641648463875883e-01 -3.691338279489081997e-01
2.372895469727520357e-01 -3.316164413630061092e-01 1.059253704139070107e-01
5.621137928147755813e-01 1.567607929318854953e-01 4.187777658030936850e-02
4.011010760922381624e-01 8.452379091311623682e-02 -3.169658275963570249e-02
-2.047171160460526940e-01 2.393641581192185730e-01 -5.730797708267139079e-01
-2.194470097004795339e-01 -2.723869627791365988e-01 -2.665723704667289917e-01
3.636683328731051268e-01 -4.489728673889032545e-02 2.103856510674030969e-02
1.602323292681192002e-01 -4.948306439153787317e-01 1.504856713923684031e-01
3.156608136947995913e-01 -3.031919762254613460e-01 1.459139982880072184e-01
1.873748518306811994e-01 -2.346481304279595115e-01 9.100710473629798278e-03
5.655870477205617863e-01 3.479924357442901184e-01 -7.415130608263532930e-02
-1.969164866083862597e-01 -3.607834036689052115e-01 -1.951945731205924628e-01
2.399101911293588865e-02 -5.464239054046946542e-01 8.232084685549365122e-02
-2.294085613827313019e-01 -1.781775824271166209e-01 -3.323146899728836035e-01
3.734317769086224481e-01 7.090799144121150421e-01 -4.393239334517775041e-01
5.442798936844408519e-01 5.299041302450058222e-01 -2.026184075728402201e-01
2.299244181087121419e-01 -2.137500612091769170e-01 2.742214097796300334e-02
-1.067195205306339413e-02 1.855995521158331496e-01 -3.970882246215396982e-01
4.527260144068984138e-01 -4.635712219236607923e-01 3.461283273821618711e-01
-4.910568714031842558e-02 5.094702986385676313e-01 -6.261745101949836023e-01
3.787810623127996768e-01 5.233133888004427581e-01 -3.201978757088174699e-01
5.340392073462701950e-01 7.200088625677981691e-01 -3.280304913060258509e-01
-1.024591552811621037e-01 -7.484014621040170345e-01 1.146070379424011937e-01
1.639697361493172856e-01 -4.119802284266100290e-01 1.018578103241178090e-01
-3.516429532632223687e-01 3.072328895651788572e-01 -7.231775155978724667e-01
-1.427652909186492569e-01 3.633303102054968314e-01 -6.044071379933604327e-01
-1.496996263032513430e-01 -7.815033352815305978e-01 1.004046511892803667e-01
-2.299605309238807460e-01 -3.935535963811915283e-01 -1.991661389750869759e-01
4.695066475932963002e-01 -5.124261628047186434e-01 3.887594736390747041e-01
-3.134532318119296335e-01 -4.288734737722644796e-01 -2.386439520064439768e-01
2.599017172562337330e-01 -6.010504779273542209e-01 2.896243220157045384e-01
2.034527577473741466e-01 5.547925230337800995e-02 -1.589871642277790320e-01
3.740234904359819867e-01 -4.353998717292563714e-01 2.708011989010273290e-01
4.895023231012482490e-01 2.024495406453443447e-01 -3.983402759056308556e-02
3.706693460779975080e-01 -4.989975525481933349e-01 3.077722243968065152e-01
1.530439064362200674e-01 6.330663548963868514e-01 -5.542060676301135969e-01
9.055835337741555136e-02 3.690888799257355246e-01 -4.364502668141455599e-01
2.681300966885909465e-01 -7.248686461793723002e-01 3.724528641796698292e-01
1.336982111600483192e-01 -9.982476363632948602e-02 -1.139634029243978969e-01
2.814168931253522854e-01 -6.437152941208864609e-01 3.318975780867295944e-01
4.426066172484944272e-01 4.703126049554277183e-02 2.206525321278766244e-02
3.202296018799545285e-01 3.008573298260277529e-01 -2.252972942682288926e-01
-1.483345236530417277e-01 -5.698225810097602428e-01 -2.985470066297335814e-02
2.225547473167321377e-01 -4.944608758404467896e-01 1.960726708102178972e-01
-2.720113989850999614e-01 4.034085747435932068e-01 -7.242748141267568718e-01
-1.074600058007457448e-01 -5.334927248386454046e-01 -2.233390818155922206e-02
