3.013943503300869353e-01 -8.746388657601550376e-01 2.005945041942111817e-01
2.484376812209963120e-02 -1.559145568218092970e-01 -1.696742839025075777e-01
-2.023258101907408069e-01 4.357609177583763871e-01 -4.186053237992841680e-01
2.417323142329233232e-01 -7.086247230880271530e-01 5.909750834746647641e-01
-1.149475805995731903e-01 2.171850702152540724e-01 6.357272616312448221e-02
-2.586263917647318999e-01 5.806164059154490520e-01 -5.567839136300649638e-01
8.768452922873905264e-02 -3.158315308721917902e-01 6.032329149201320906e-02
1.185350237126238243e-01 -3.943167474296093711e-01 1.742243559535031350e-01
-3.406725500278711544e-02 4.345412796480186378e-03 5.855021715190518450e-02
-3.654995251284051672e-02 1.757191910558185757e-02 3.459123834763416783e-01
-8.756756781537269885e-03 -6.099705502641324106e-02 1.111774967780255752e-01
-6.178606753353953901e-02 7.771161290502207053e-02 7.842645122052527284e-02
2.018868191032449078e-01 -6.162329959807227864e-01 5.864730421038976543e-02
2.623385656066889449e-01 -7.665062383174584548e-01 4.328414467864194481e-01
-1.000880875379645540e-01 1.759567409981503683e-01 -2.853505594437429072e-02
9.195761588127288055e-02 -3.219261736040965327e-01 2.810531374214817468e-01
2.503779113293355674e-01 -7.282106532314058800e-01 7.262621667250515056e-01
-2.164033170221083546e-01 4.828474767939422985e-01 1.313551214287485454e-02
-9.471417736811883759e-02 1.562531011926655555e-01 -2.675363318928191680e-01
-2.715623416330685269e-01 6.241667120037721617e-01 -1.479510120052864863e-01
-1.423450176511255605e-01 2.816089581742148296e-01 -2.639998347330977380e-01
-1.595251981046864331e-01 3.238912555785569691e-01 -3.885748822029799210e-01
7.385645190863733556e-02 -2.838146015434831471e-01 -1.264303849748550923e-01
1.749622408102450566e-01 -5.356474676158196058e-01 4.779442417216251404e-01
1.863399700462450292e-01 -5.769493274295037777e-01 -1.026510033618374153e-02
-2.282291304063372994e-01 5.029970168238977468e-01 -4.568809648016606828e-01
-1.303769201922924947e-01 2.459097260089542214e-01 -4.451698330245384971e-01
-2.497111071538386795e-01 5.655886139909436228e-01 -1.954685224071641136e-01
1.649568117392587463e-01 -5.229882608417292245e-01 -1.080401960130633610e-01
9.046492024374039320e-02 -3.276855356469624558e-01 -1.345469882256010996e-01
-1.757054423302371882e-01 3.751686475802955001e-01 -1.431507765021656879e-02
-2.679895009096295300e-01 6.053346982170227930e-01 -5.528162487267102021e-01
-1.693042169205896952e-01 3.510580753801348930e-01 -3.264786820075725182e-01
2.886699197868740630e-01 -8.425594476585133163e-01 1.410780697707221532e-01
-1.829287379207050201e-01 3.837165783318500778e-01 -4.627290971572149414e-01
-4.334718334602146589e-02 3.146068241601329696e-02 1.747609324037028566e-01
-3.012887162248555351e-01 7.038669053632733430e-01 -8.285048067011405171e-02
7.638145108230305624e-02 -2.770690022504934680e-01 4.479937693438362234e-01
-1.574214021345963499e-01 3.272563633739584144e-01 -6.745494010493743343e-03
-2.847029646965906213e-01 6.541306197128895494e-01 -3.452157947388145298e-01
9.794655426149188882e-02 -3.438789258408187499e-01 1.495252004258674876e-02
-1.383591458966657861e-01 2.659879624341559001e-01 -4.844647873232958424e-01
3.153994859099362169e-01 -9.096650867603850443e-01 2.782006068503223850e-01
3.484237600397845358e-01 -1.000000000000000000e+00 1.289550594129661165e-01
-1.385504240564071066e-01 2.732858405634366883e-01 -1.928968346798437539e-01
1.931207393782671811e-01 -5.892369454201118462e-01 2.277344127806829321e-01
2.181567717942869966e-01 -6.580961129043656488e-01 9.848272084905837498e-02
2.432095068587406261e-01 -7.132465048787389739e-01 5.593659151703740395e-01
-9.940906140739573515e-02 1.719823644186955769e-01 -1.224435706832041060e-01
2.410657497083396883e-01 -7.094656001885059071e-01 4.796652487771171369e-01
-2.743794784911497975e-01 6.330698662993536896e-01 -8.385015873158725708e-02
1.664400685430600657e-01 -5.134363991490433765e-01 4.692325792803353490e-01
-1.284484512410493939e-01 2.488979299042604065e-01 -9.930069277497144409e-02
-2.295900300205326316e-01 5.094747794584434386e-01 -3.325061619105788568e-01
1.143042509915304233e-01 -3.841568739117392495e-01 1.327109127293289725e-01
2.370899740704572600e-02 -1.500783624760667345e-01 -4.730892293585999692e-02
1.434968919326845838e-01 -4.654159136663827967e-01 -5.951676422163514751e-02
-8.988094215764913172e-03 -6.375154491295742520e-02 -3.312730398749985650e-02
-4.178172014887934077e-02 2.811721971072679918e-02 2.079670993349702068e-01
1.470599434981764431e-01 -4.680260611034090523e-01 2.306009440683923495e-01
2.225648681598349499e-01 -6.615158880706429878e-01 4.492293437670312195e-01
-2.439373899519713118e-01 5.496124644611187771e-01 -2.293998932228439036e-01
1.255268211005032553e-01 -4.154738243546151066e-01 5.544760430946854557e-02
1.170900367611767828e-02 -1.122206778237017089e-01 2.228815001498327952e-01
-1.530280928646350104e-03 -8.587323420077776215e-02 -1.407022017696909766e-01
2.485452839203136366e-01 -7.282676122917668415e-01 5.169906123472122195e-01
-3.812571682245383814e-02 1.721566044338545057e-02 1.527869066598524783e-01
-1.239413571547520326e-01 2.351636312648882898e-01 -1.799822829746574593e-01
-2.228024837885185239e-01 4.921562391400544634e-01 -3.096210058177369384e-01
-2.940051703920468218e-01 6.727044061954708942e-01 -5.980382295086177358e-01
2.428748431028304178e-01 -7.205687838596959160e-01 2.073939425854258722e-01
-2.424362351614882671e-01 5.472704643533983226e-01 -1.604782508847460154e-01
2.692818873389311030e-01 -7.880734016256697450e-01 2.909968147318255927e-01
-2.234667951441519917e-01 5.032377154558327348e-01 9.091710813703951510e-02
2.836989548154467689e-01 -8.308857062923646897e-01 8.098847081245041934e-02
-1.944393735017971581e-01 4.238782320945180815e-01 -3.844611905267713431e-02
-1.601924846581223305e-01 3.310664508995319610e-01 -1.559928555105487002e-01
1.244745866032938020e-01 -4.132401462698694905e-01 3.254224460439848060e-02
2.931031994013747269e-02 -1.627678322877563200e-01 4.033645397078151895e-02
-7.959682059767002327e-02 1.128816625218323072e-01 -4.225038366336250628e-01
-2.760590513381157018e-01 6.389419216190075357e-01 -2.143148911313366364e-02
1.443429438165766965e-01 -4.555208984722244892e-01 4.605669514789212937e-01
3.119532366982922800e-01 -8.997107294395547683e-01 3.164084448862131138e-01
-2.797772616549388247e-01 6.338630533958476976e-01 -6.589993599428236593e-01
-2.150793744805583052e-01 4.818787353169705634e-01 1.209844203053316858e-01
1.693431769995757882e-02 -1.345666702652210112e-01 -1.462746654489528175e-01
-1.247201318624489574e-01 2.376880594889658471e-01 -1.595491837350226372e-01
2.014112717425535215e-01 -6.047109369101179022e-01 4.993946307577876165e-01
8.139711840826002742e-02 -2.893901323347974897e-01 4.853486577804406177e-01
2.616758481410429438e-01 -7.614675493698114250e-01 5.742606639418589287e-01
1.586448849929951443e-01 -4.918516493144524104e-01 5.156920872189654226e-01
-1.916707133507771985e-02 -3.920233012881829682e-02 -1.284923951066662406e-01
6.412819954198104022e-02 -2.490056418257667881e-01 2.693229688612617800e-01
-1.038625472809830974e-01 1.882399321925364299e-01 7.256279434211526658e-02
2.738275524116990933e-01 -7.965649316927966295e-01 4.396378915306548008e-01
1.186841873392173868e-01 -3.979604233681034997e-01 3.470691801415729666e-02
-3.506716036864428454e-01 8.341508094727551059e-01 -6.558247667723769714e-02
-2.555935420452519757e-01 5.829620206387178261e-01 -1.138499126166522130e-01
-3.596959523273878800e-01 8.572263998898251858e-01 -9.387193218927070149e-02
1.121609701392677766e-01 -3.699909243677536597e-01 4.986910438572118021e-01
8.613435453016467236e-02 -3.058402136902004798e-01 3.141050483473508126e-01
-3.377381109653411206e-01 7.927087935825705145e-01 -3.842249875462886988e-01
3.104924134637844224e-01 -8.976879641825208367e-01 2.383400437869929445e-01
-1.864697510373052869e-01 3.922611877808980796e-01 -4.957090912360855861e-01
9.960350858171902744e-02 -3.400290966424914796e-01 3.671516882201322218e-01
-1.008766864844140160e-01 1.717613808007683873e-01 -2.975599114184440119e-01
-2.014079947844270579e-01 4.349226248722017352e-01 -3.509936693226974880e-01
-3.384449386483243116e-02 9.749050630395553890e-03 3.155632656142329240e-01
-6.828465915922773966e-02 8.509289512554568669e-02 -3.382600554899418133e-01
-2.461445119213548083e-01 5.528959691678713151e-01 -3.375954740038587532e-01
-2.410709502803645432e-01 5.479281924860193165e-01 2.182904576357730733e-02
-2.149503975977289927e-01 4.698013224597981652e-01 -3.827067852088785194e-01
-2.412997915223716594e-01 5.440080589034659297e-01 -1.722123449526923034e-01
3.036538464199904919e-01 -8.778546408530070178e-01 3.176072537587192324e-01
-9.511252991385385491e-02 1.682215455935255066e-01 2.010776781992453799e-01
5.699799559153930807e-03 -9.338985846538974678e-02 3.527313853693401224e-01
-7.658410414685065670e-02 1.217254913970749058e-01 2.969993088025524863e-01
-2.298869940809233625e-01 5.116239738936501080e-01 -2.737981334224482421e-01
2.776785559291467531e-01 -8.160894995439403887e-01 3.644785246745943508e-02
-2.713107163671871769e-01 6.145451523214362499e-01 -5.324185286478921864e-01
2.613532261382376376e-01 -7.646393046291675155e-01 4.017485831901578264e-01
2.536679316790124150e-01 -7.533115787056493540e-01 2.047639332787988195e-02
-1.921793506760569314e-01 4.118276414000715535e-01 -3.004799171469506591e-01
-3.439444190123005507e-01 8.086957423010127100e-01 -3.986517334134122015e-01
1.637006106677959746e-02 -1.262786285646385620e-01 1.456879033394762046e-01
-2.331176190969517226e-01 5.217410350730842250e-01 -2.042735942949829298e-01
-2.726608955934377021e-01 6.214997534132425949e-01 -3.863724826667276346e-01
2.644985589503341394e-01 -7.695925260947641400e-01 5.441808348160230846e-01
-1.486728530624889348e-02 -4.743038697675804050e-02 3.704920632904675718e-03
-3.642341507766532760e-01 8.638272088210446897e-01 -3.228020498553393902e-01
-3.251589563107897818e-01 7.616593746780292440e-01 -2.969064203822284753e-01
-1.806510340400314246e-02 -3.196593291686374710e-02 3.063910802956664181e-01
1.703488075010834712e-01 -5.292897737742714437e-01 2.300910572829540923e-01
-5.867996788956714865e-02 6.707023680679276290e-02 -2.765041728368668530e-02
-1.798667287809497806e-01 3.778301842832028079e-01 -3.697434867137337489e-01
1.897357812593281901e-01 -5.722710614494376236e-01 5.737272941593818398e-01
2.651450118203848780e-02 -1.471110078621841455e-01 3.966463205286648863e-01
1.158792677651669873e-03 -9.461299858587633727e-02 -2.122449338957926313e-01
4.122530346219963060e-02 -1.845596243249951196e-01 4.499467431429218789e-01
2.157334492189736663e-01 -6.502991546357436148e-01 1.595614483316386834e-01
-6.538175638668132506e-02 7.785114736140504033e-02 -3.213897869037974364e-01
-3.356900554389466995e-01 7.905664345419398664e-01 -2.450143080330559331e-01
-2.810865170406577282e-02 -1.066739418820502466e-02 8.682226816040251871e-02
1.810342811741818825e-01 -5.600465609154502422e-01 1.162487637492748277e-01
-3.166571607881319972e-01 7.357261042519189775e-01 -4.502158401556127787e-01
-9.785761752026378435e-02 1.691403848889392048e-01 -6.930072745206795892e-02
-3.631667901033166501e-01 8.643380259931761067e-01 -1.804220222801941054e-01
-3.402128312314868785e-01 8.035181171460210603e-01 -1.996849436965254798e-01
1.622766885986263730e-01 -4.994309971963198924e-01 6.003383685808997283e-01
-1.873631849074416378e-01 3.949905888435362722e-01 -4.794207641042879664e-01
1.580163856728748761e-01 -4.944775568879297145e-01 3.320817537166613764e-01
4.576485074501339921e-03 -1.057715255033720297e-01 -3.053471189577843803e-01
3.061105342685244701e-01 -8.896093602350235718e-01 9.046473125364794254e-02
-5.928710779260231226e-03 -7.508948403976835329e-02 -1.743663287771013704e-01
-1.219544198481025549e-01 2.312864987071641121e-01 -1.221092367354895819e-01
-1.905192179240505768e-01 4.090907429695294084e-01 -2.305615432563419553e-01
-9.095573340698585862e-02 1.451268209808606047e-01 -3.207981163609422426e-01
4.174695964188633590e-02 -2.011727015963574172e-01 -2.040547441037824927e-01
-2.400572781449338000e-01 5.431005237509602956e-01 -7.092701126713681081e-02
-2.525575274459218589e-01 5.646146439415835605e-01 -5.585044919364016147e-01
2.067174292385031975e-01 -6.222196965815353087e-01 3.469302101769870528e-01
2.227592451282849051e-01 -6.598941259072276244e-01 5.407569784189232287e-01
-2.980738755661980766e-01 6.839089154016571026e-01 -5.764351900613513546e-01
2.500028027217497395e-01 -7.355341992072000901e-01 3.696712851694664015e-01
-1.769603455907815814e-01 3.693666293446484783e-01 -4.049087306122099994e-01
-2.245372711797135046e-01 4.908253781239518276e-01 -5.625142092493381485e-01
3.007134931866345950e-01 -8.704639647711667205e-01 3.029009682205985321e-01
-3.959677242499651945e-02 1.850055692721308542e-02 4.190140890457890593e-02
1.085812802548041939e-01 -3.672436398380520828e-01 2.125801769652482243e-01
-7.296201807118570318e-03 -7.215625999761607345e-02 -2.028332009275188308e-01
-2.308510025261767129e-01 5.080740704535020580e-01 -5.349225801434959182e-01
-8.933779659141974361e-02 1.414937636182274083e-01 -2.940965000260488682e-01
2.697835841933342027e-01 -7.819870811636989716e-01 6.087843296028006002e-01
4.454262010559161683e-03 -8.902157358518344998e-02 3.996071084561547693e-01
-1.281470743011098590e-01 2.527234470213413631e-01 9.886692547664957531e-02
8.294913462286671035e-02 -2.967205423101500483e-01 3.459554815659387494e-01
-1.332540905197069636e-01 2.610604024256140132e-01 -1.197602186807364272e-01
1.848184297473020599e-01 -5.700173298434395575e-01 1.154714806870513061e-01
1.601614326790128662e-01 -5.075341230714568441e-01 1.390509730941371681e-02
1.064878283205249881e-01 -3.678699425429562964e-01 -5.055841576034034168e-02
1.694732484611953527e-01 -5.182984515634632139e-01 6.029195395001111235e-01
6.874416071707382947e-02 -2.611355951288566457e-01 2.697711402328313857e-01
1.089993019485160780e-01 -3.726954080863515983e-01 2.581956166214713008e-02
-2.468697578649787019e-02 -1.461185146141434285e-02 3.037286978984320984e-01
-2.216190753538596070e-01 4.929955253715692098e-01 -1.400492542869464785e-01
-1.469302112773899216e-01 2.986773254238735964e-01 -4.906601940967141029e-02
7.142555093812334721e-02 -2.743205411443435660e-01 6.616488571782448008e-03
-1.831894153067330777e-01 3.957844410597374241e-01 2.568879857727861260e-02
7.173556644902656654e-02 -2.735401579429490582e-01 7.509094762024864922e-02
-1.765274219857007887e-01 3.649301879017252670e-01 -5.464194004612140665e-01
6.777448516175232918e-02 -2.622974481102994804e-01 1.104794542079805264e-01
2.639294567339542930e-01 -7.760547583604452404e-01 2.026555098794653176e-01
8.476536943454208994e-02 -3.088402449287040996e-01 3.087084956496162491e-02
-3.599137688363468479e-01 8.551072511354546046e-01 -2.093880031144107756e-01
-1.060441291112459578e-01 1.858962455629701305e-01 -2.742157310848232221e-01
1.940123040983728897e-01 -5.942500594576561879e-01 1.132399639623154070e-01
2.478874258527126451e-01 -7.349053394721706267e-01 1.579178758164500318e-01
2.529379391663238996e-01 -7.501750698827821529e-01 7.267963306624772302e-02
-1.727740630635110630e-02 -4.310216306777445855e-02 -8.257142724336555273e-02
6.734503355329808649e-02 -2.578874770826259932e-01 2.512461104016906477e-01
1.736563780927928291e-01 -5.405154465853413415e-01 1.216794392949667319e-01
-2.534093917312740807e-01 5.737909606732992662e-01 -2.608845759247921392e-01
-1.059334544450417082e-01 1.943713381948087016e-01 1.019449521544903703e-01
-1.370945858852620769e-01 2.633811643105150035e-01 -4.536074599468054580e-01
-3.561440513133205532e-01 8.483196776001833417e-01 -7.520157558191094271e-02
1.657918001838219746e-01 -5.133707364529850325e-01 3.988876596407750497e-01
5.919468050298710982e-02 -2.321587079478098226e-01 4.354435243908089670e-01
-3.256617411213807434e-01 7.594633594251439801e-01 -4.478819373894337708e-01
-5.012758274648323326e-02 3.897405454869572183e-02 -2.680619128233659443e-01
-3.003067746463136123e-01 7.018885504765789429e-01 -5.692223231112010506e-02
1.625080529399719476e-01 -5.112836249205779948e-01 1.178480820774212845e-01
1.412161693851425037e-01 -4.528121254569895116e-01 2.239188555721152718e-01
-1.450671330870132170e-01 2.978568103117541499e-01 1.259893420668152519e-01
-8.454380653688202407e-02 1.340066581363146825e-01 -7.432954053508919467e-02
-2.791334588538183503e-01 6.339475127324559756e-01 -5.827166107361709813e-01
-7.107041592623637716e-02 9.766212726337178407e-02 -1.133046114444729302e-01
-1.480653591681880266e-01 2.972530156599980655e-01 -2.382947911135898100e-01
1.132362951889243768e-01 -3.834316995574074127e-01 4.330068375335923564e-02
-2.808096620976490709e-01 6.478022813208211828e-01 -1.773757612106010573e-01
-2.494279025622275492e-01 5.679264526395459978e-01 -6.318877268165214167e-02
2.305338054736796038e-01 -6.902073713256672294e-01 1.174262149521936305e-01
-1.210912106724216092e-01 2.227114081725487249e-01 -3.926498942783369639e-01
-5.614761976974341935e-03 -7.779358354029813905e-02 -2.549687174597423667e-01
-2.879902041974694710e-02 -4.070635696007771781e-03 2.919782888005446053e-01
3.041142834244734416e-01 -8.811141623280660529e-01 2.297038786496906348e-01
2.744184111515841629e-01 -8.032628033781095134e-01 2.189125197278486146e-01
1.314824265751692589e-01 -4.227124676744069554e-01 4.169742582570628575e-01
-3.368257574303528679e-01 7.970412203718726385e-01 -9.535179562000961617e-02
-1.275178592827982960e-02 -5.669983325331671986e-02 -1.552993799251480844e-01
1.506413888613892249e-01 -4.693374334399423309e-01 5.785255830500536378e-01
-2.997765048564758339e-01 6.852025217450715688e-01 -7.130819818670591781e-01
-2.360028469839751952e-01 5.223977339659167107e-01 -5.017165741945368573e-01
3.373842670184627746e-02 -1.720621427010475823e-01 1.412624134632694817e-01
-3.733636157583129500e-01 8.915049388822814391e-01 -1.654748430754435784e-01
1.558491731147623460e-01 -4.875519109315513688e-01 3.846762390403121179e-01
2.560265886317552586e-01 -7.521321895482044884e-01 3.372787963243595866e-01
-2.268248371368957739e-01 5.063589912737583854e-01 -1.541307922767646277e-01
-3.559190454500480577e-02 1.123911435011616840e-02 1.822925935875725489e-01
-3.210688116682994253e-01 7.535655441741239136e-01 -1.826091840543558331e-01
1.414909237669360331e-01 -4.499774536798147873e-01 3.765642657384904446e-01
-2.283387887331347343e-01 5.006903333118289945e-01 -5.682376778575670695e-01
2.049856378892533360e-01 -6.102447450905853499e-01 6.653336597041543676e-01
-5.904037340194190353e-02 7.421967987103356146e-02 2.384606745066919498e-01
-1.899793438076074759e-01 4.151105312133522851e-01 8.867966866399004666e-02
1.553733745766372742e-01 -4.891714685194926693e-01 2.614824129272678710e-01
5.989852955289125952e-02 -2.391214505732299489e-01 2.161043256243317390e-01
-2.913666657898295598e-01 6.711203668456569016e-01 -3.682326519911885421e-01
1.863951180715564815e-01 -5.629340867361899425e-01 5.973592317547795627e-01
-3.033760138235904735e-01 6.960953848015378753e-01 -6.518990840452243418e-01
-1.994206240095469929e-01 4.357674464242551338e-01 -9.045048347489020868e-02
-2.027574067521914769e-01 4.442186152161579638e-01 -1.043909438420510399e-01
8.066966177759807288e-02 -2.886834488783061592e-01 4.335731709351405283e-01
1.759356579150134492e-01 -5.496296587139561929e-01 -1.217969221736557930e-02
-9.359376729934160144e-02 1.509132319998276184e-01 -3.702248723471159852e-01
1.247150995131198620e-01 -4.043552125774418915e-01 4.409427336366450456e-01
1.098831899430765674e-01 -3.771271332186081349e-01 -6.459360530534016820e-02
1.667889731791039054e-01 -5.122690602839042873e-01 5.587004483598083660e-01
-3.160825100196406057e-01 7.368742627648683374e-01 -3.360936592932828870e-01
1.971413529201453685e-01 -5.949755981703255259e-01 4.352462385286780533e-01
-1.359003827460504021e-01 2.599348652535398152e-01 -4.667138678076400704e-01
-4.110917184876173441e-02 2.442678557027954875e-02 1.255116073914140373e-01
-3.462346106041843535e-02 -3.534978644971687855e-03 -3.423735292386158036e-01
1.333207577963856083e-01 -4.396227953806293720e-01 -1.011845303702356980e-01
1.874177546739869693e-01 -5.684539676180054846e-01 4.759117491467020900e-01
2.302127136111892236e-01 -6.809762392380060980e-01 4.773004146109666168e-01
-3.224314508878456387e-02 -8.100794919923813911e-03 -2.696561269973313246e-01
-9.157556873140251796e-03 -6.998051589200746103e-02 -3.195405949260601841e-01
2.103450018298463342e-01 -6.250986847643728028e-01 6.327935789875807071e-01
-3.236694837377027678e-01 7.511101938708771852e-01 -5.814771069001090087e-01
-3.862697919217328996e-02 1.810151935437854728e-02 1.342278454126737686e-01
-1.393803440790498671e-01 2.832443259088424092e-01 1.407628902920230463e-01
5.584251805631623017e-02 -2.316640939915013964e-01 7.834791360612772260e-02
-2.429037025561799901e-01 5.513565712170176436e-01 -3.789915586029549838e-02
3.338000767343551889e-01 -9.592687391094396610e-01 2.263465254577334551e-01
2.907665270862194382e-02 -1.619625175271457718e-01 4.852156798595954473e-02
2.797219692436326843e-01 -8.140910178531431951e-01 3.528199965005801575e-01
2.558923973426479592e-01 -7.456704728967298301e-01 5.994094094413706664e-01
1.553159805436981830e-02 -1.322821324498643092e-01 -2.065528072270155224e-01
1.207227550851056874e-01 -4.040109151874527460e-01 5.147049639994634440e-03
-6.530412875908957193e-02 8.719859078281295972e-02 8.847423305835142027e-02
2.318089769590143123e-01 -6.876924771252201918e-01 3.692553058020461298e-01
1.949703950253076634e-01 -5.877850469075747153e-01 4.987852394411994017e-01
-1.700383095370179010e-01 3.522639675841575668e-01 -3.575818190703795030e-01
-4.523632235184702616e-02 2.466061291353996432e-02 -3.302383962854912869e-01
2.497952937031950038e-01 -7.328908447203071885e-01 4.596797021441469400e-01
-9.880189059398711282e-02 1.781724921865275035e-01 2.117019866258832983e-01
6.009942083998263268e-02 -2.431157918939012008e-01 6.737757661848473023e-02
-9.624866837176117296e-02 1.672202562876724807e-01 2.988911476260842220e-02
2.517064414039857922e-01 -7.458976720456783616e-01 1.172398593494655139e-01
1.218600408848728722e-01 -3.954506283879280493e-01 5.008251536418883987e-01
-1.733587725421627257e-01 3.657669951721946311e-01 -1.529028791663062936e-01
-1.537794148114072224e-01 3.129306369330855375e-01 -2.104400962435814260e-01
-3.981365091174455806e-01 9.573413718321059918e-01 -1.362326225042971850e-01
-1.338019424186212003e-01 2.608970726740837409e-01 -1.885984673756670449e-01
-4.634110699389246135e-02 3.652173005894619739e-02 5.404334904641617393e-02
-1.291066282726424930e-01 2.540791056866550379e-01 4.874512605299937545e-02
-1.815700316947511106e-01 3.882797568345814354e-01 -1.135795883864168659e-01
1.855791046200145622e-01 -5.661257649257267488e-01 3.683088746599350038e-01
2.595774864549647010e-01 -7.670148568901153929e-01 9.940538818456956527e-02
-1.605006873729823702e-01 3.294783645466062838e-01 -2.589216383931437493e-01
2.317784550034538427e-01 -6.918403307710090377e-01 1.878243418879902704e-01
2.083161687963968334e-01 -6.305774999885506160e-01 1.687242322711220155e-01
-2.719910990999783729e-01 6.254769692877439891e-01 -1.401161561669662936e-01
2.983771489532050514e-01 -8.661970918122275931e-01 2.223183514658560456e-01
2.826866849959278616e-01 -8.238413588462570880e-01 2.690214923306215589e-01
-8.129070441796218405e-02 1.284841228177615591e-01 5.583586482523348465e-02
-2.542211913018109781e-01 5.833054978577033589e-01 5.577017501435341251e-02
-2.944539142077400862e-01 6.802130406185517009e-01 -3.264837920047948261e-01
1.162225905247733643e-01 -3.958433440746902954e-01 -1.522601391720735109e-01
2.378324596525505930e-01 -6.970595901251926962e-01 6.471088634003018258e-01
1.595520448261012747e-01 -4.947262091649308746e-01 4.947240201993343689e-01
-5.563855451068913660e-02 6.591032891849651909e-02 2.658264797853763239e-01
1.411540164961425370e-01 -4.562568723761381007e-01 6.908870730503788304e-02
-2.975702053191206509e-01 6.863414926736675081e-01 -4.152087592354071210e-01
1.973527938428894235e-01 -6.043074361974634101e-01 5.867567008370008080e-02
1.119190349644846455e-01 -3.778013034897796385e-01 1.362396702927468894e-01
-3.001455264193210182e-01 6.876165687047628428e-01 -6.511413050720527007e-01
6.567763718348118562e-02 -2.497431507699843789e-01 4.125431895554476092e-01
4.469599146319083727e-02 -2.037252125205106790e-01 1.923888156958437901e-02
-7.852029971680428433e-02 1.135956538788864684e-01 -2.703717050358847018e-01
1.023310292334705246e-01 -3.572590214536400799e-01 -6.436865388521632869e-02
-3.497439717754872723e-01 8.312300670877977860e-01 -8.622181130820466555e-02
-1.380100354125013071e-02 -4.734270244290546270e-02 1.278063685266059013e-01
6.817212006598097340e-02 -2.696479009352998890e-01 -1.600554087575925821e-01
-1.400797000460033137e-01 2.741018566374198717e-01 -3.304728664162711604e-01
1.035360041678952542e-01 -3.574695180674093975e-01 6.259039458225219843e-02
2.819981381291710165e-01 -8.201331713828530212e-01 3.504332147259193730e-01
-1.933491412478434077e-02 -2.710354258624061638e-02 3.717296635316122977e-01
1.561027355082783008e-01 -4.946171629969467465e-01 1.101196771880188913e-01
8.487350362119590319e-02 -3.094733036055932751e-01 1.590986339156901658e-02
1.708688187245230861e-01 -5.367871829321719801e-01 -3.293857263632594956e-02
1.026495254083707870e-01 -3.507785262277709482e-01 2.496573437579620025e-01
-6.409585404799086894e-02 7.421528194333068540e-02 -3.322815485409576497e-01
-1.409930341477419191e-01 2.723649554592314503e-01 -5.080815277624318727e-01
1.770287973016156924e-01 -5.461532179474914983e-01 2.603659501262843845e-01
-9.083018539616678766e-02 1.469924895496757533e-01 -2.265722725557047790e-01
-5.620460892948445086e-02 5.509587163921501191e-02 -2.621108493473625067e-01
-4.665102157959299251e-02 3.104779029399820645e-02 -2.158223870696225621e-01
-3.380064777333643411e-01 7.952192376282645192e-01 -3.067881274557048288e-01
-1.284691971093436802e-01 2.542619240508703360e-01 1.285294133869823996e-01
4.264794269932828397e-03 -9.808920391744882505e-02 -1.087210066359387516e-02
-6.151176178487577535e-03 -7.169959430128482192e-02 -5.401169470072399864e-02
-2.201674769471559379e-01 4.907063737927920277e-01 -7.445271196846171835e-02
1.802783988331392862e-01 -5.527017248948878914e-01 3.461113710616147143e-01
-9.446802492013104541e-03 -5.645919184234816229e-02 2.280218281981916395e-01
-2.135111956524685384e-01 4.751357783671852908e-01 8.623210018305677363e-03
-2.465575922634249961e-01 5.593858570691774279e-01 -1.057309946193105837e-01
-1.377248861965267857e-01 2.644119057853707710e-01 -4.805125607245354091e-01
-3.134575964872036297e-02 -5.467026918352991573e-03 -5.536243903059773208e-02
1.003534685169598650e-01 -3.504815155157652296e-01 3.272880460312053378e-03
-2.340434371130309110e-01 5.182877000395247347e-01 -4.569441352450007710e-01
-5.984822303193198731e-03 -6.560905518660929692e-02 2.261105691707582244e-01
-6.196861476120030937e-02 6.931900089029725820e-02 -3.023063738516579835e-01
-2.804782971455578866e-01 6.462687945522367361e-01 -2.057810610744797986e-01
4.164101595033896375e-02 -1.993334111237718143e-01 -1.370865819063949165e-01
-3.469761105285353309e-01 8.245432821785224631e-01 -6.077840361361683957e-02
-8.601863555359795868e-03 -6.605380745648557761e-02 -8.832906877299881443e-02
1.061644017918711991e-01 -3.677257085447936946e-01 -8.087067234656331038e-02
-1.917756052979154024e-01 4.118462717975864273e-01 -2.541144169366541528e-01
-1.967605727028628460e-01 4.186036575445962749e-01 -5.267473853791573291e-01
-2.739837668303726770e-03 -7.992694823523745218e-02 -2.205299064980804219e-02
1.997986783718887771e-01 -6.040313404757094995e-01 3.465617025189044464e-01
-1.953530973816568206e-01 4.277133935744465987e-01 2.300099709715035592e-02
-2.710846912071192619e-02 -2.013262112333135886e-02 -2.064559501001620723e-01
2.269870217059888895e-01 -6.749632239600540373e-01 3.712752026563770347e-01
-7.673981419005401761e-02 1.069655092956629666e-01 -3.539314884945090611e-01
-2.482064479973180304e-01 5.528519925235803045e-01 -5.721893584268654687e-01
-1.073336558395434487e-01 1.908047321583804801e-01 -2.091242532142099375e-01
-3.003468688704157286e-01 7.013111074710860482e-01 -8.622554719669213441e-02
1.182677114226361736e-01 -3.942629944734616920e-01 1.463624800444467688e-01
-2.074389001905428687e-01 4.456017459084283261e-01 -5.733860751758792507e-01
7.390260659968081458e-02 -2.818776838812967478e-01 -3.810741366713431971e-02
-3.213768102641574864e-01 7.571198889297959811e-01 -6.485085022385815579e-02
-2.723629977794965185e-01 6.194436210962165346e-01 -4.409817909907929323e-01
1.176638509596279469e-01 -3.987686946784753661e-01 -1.151299162083572608e-01
-2.935225421713145710e-01 6.832226176912389315e-01 -9.222829101652289807e-02
1.128751559142624067e-01 -3.762416203247316848e-01 3.110726809457285968e-01
1.033575874557570301e-01 -3.473515093326876024e-01 4.766229689732299768e-01
1.292004035237813708e-01 -4.180132955843473552e-01 3.610723979393719030e-01
3.483912914452336196e-02 -1.719329549601008311e-01 2.710294459741456885e-01
2.336429065640541758e-01 -6.848011228376239545e-01 7.002990246474792846e-01
5.508145987830931345e-02 -2.322117944584346227e-01 -3.104598057688189375e-02
7.729807433933486363e-03 -9.885169741776192454e-02 3.474648283737738486e-01
3.839099685739761486e-02 -1.907598059884400565e-01 -1.359812350320886154e-01
-1.928169612211872996e-01 4.159130488173683471e-01 -1.971329210641551699e-01
4.590154757962922744e-02 -2.121181591921791898e-01 -2.048491678801493410e-01
4.375019817817838580e-02 -1.933633890486998741e-01 3.571287586328907859e-01
2.333982010960572173e-01 -6.932623094555098175e-01 3.096085517119132602e-01
-1.136848051682581504e-02 -5.993652991489106796e-02 -1.380698710395412143e-01
1.828949967221869810e-01 -5.640335070919952898e-01 1.551644702313677571e-01
7.263680053010457272e-02 -2.734501976624226227e-01 1.806630297177696798e-01
8.347499761794731354e-02 -3.036829273038859633e-01 1.065444058442056446e-01
-2.975938368941420942e-01 6.885443519923921674e-01 -3.233500763373038378e-01
2.098110742818325158e-02 -1.365379488718199696e-01 2.258511174642703345e-01
-3.110926803632176885e-01 7.314603780426433000e-01 -5.261699000546891415e-03
-2.413334056529067018e-01 5.413934800452060436e-01 -2.881987616361810778e-01
-3.190829150390987468e-01 7.461607836621776402e-01 -2.762257223459753663e-01
-1.831161271440223393e-01 3.842435478765795498e-01 -4.612650417567749628e-01
-5.238622367979668681e-02 5.866436395177607177e-02 3.219516812396693295e-01
6.535367390938798260e-02 -2.605710291939250522e-01 -8.864802546531462546e-02
2.171526061371227834e-01 -6.482434013009564788e-01 4.079385607745918407e-01
6.996397371099642715e-02 -2.594896892806397570e-01 4.780638705633277197e-01
1.259155405452065113e-01 -4.160608492262777847e-01 7.412835586306634750e-02
2.861386888848849175e-01 -8.326752204353851106e-01 2.795441043802207592e-01
5.888539637426794954e-02 -2.367195122926210316e-01 2.048320008178914631e-01
1.904881430275161269e-01 -5.838683300942452137e-01 1.609935240586473360e-01
3.160365835471526386e-01 -9.129163900787482522e-01 2.105875146844908841e-01
-1.325074311473856403e-01 2.627222219656402680e-01 3.581601019778827416e-02
1.108744511498281210e-01 -3.823356112495199799e-01 -1.762196258512852276e-01
-1.553986492833749899e-01 3.219147122618725154e-01 -7.673526012690389496e-03
2.874273680083380134e-01 -8.318558113095110285e-01 4.601436027054873756e-01
3.805959245085076270e-02 -1.878720087109743697e-01 -4.946630212807356236e-02
-7.608016056437251484e-02 1.102168359438160938e-01 -1.399681099377020899e-01
-1.450322288091626943e-01 2.904275305018054754e-01 -1.888652246588406747e-01
-1.877803232261224531e-01 3.967776415662603862e-01 -4.498150784634529775e-01
-1.177605178516273610e-01 2.216361569493534300e-01 -6.289272306546292435e-02
-2.117881879428249181e-01 4.665708888099522333e-01 -1.644442237009723640e-01
2.233642653789101595e-01 -6.710384331494024801e-01 1.308312607416091955e-01
-2.625437639159525216e-01 5.975508368818465144e-01 -2.722280960893758150e-01
2.454918476022609763e-01 -7.301322211348251212e-01 9.237342374557822033e-02
1.444815383487774996e-01 -4.596326329341061667e-01 2.997720961932199280e-01
2.209584503661991273e-01 -6.583987913716805584e-01 4.016876369319150042e-01
9.182900003974002467e-02 -3.225502653889109617e-01 2.397576930283348839e-01
8.071542226867693681e-02 -2.977289219861434244e-01 5.059222263505014361e-02
-2.329267336612594885e-01 5.227502094558599266e-01 -1.394264314323075127e-01
5.084806207449904525e-02 -2.241653643721946421e-01 -1.635445145622267671e-01
9.142455210327429804e-02 -3.286178528571003787e-01 -6.625062225482589162e-02
2.578170749788882832e-02 -1.454320385430880880e-01 3.859897351320650261e-01
-3.061595355795321827e-01 7.158439985936440042e-01 -1.186208367974867922e-01
-6.267974520621254209e-02 8.577244379607197600e-02 3.234613652043823451e-01
-6.517423553034321082e-02 8.567440261920002131e-02 3.773016230857334508e-02
-1.571500341816133295e-01 3.193892271513886216e-01 -3.137017661304714600e-01
-2.479813242462038103e-01 5.570385269185464949e-01 -3.671361366344810251e-01
-2.368831449685489601e-02 -2.322273141382607750e-02 4.693921017559643527e-02
-1.769102092979457364e-01 3.665423526704153501e-01 -5.204414372751533513e-01
9.324773112609413550e-02 -3.219902932899346149e-01 4.239020871119051348e-01
-5.360150977683725282e-02 4.926276031377312820e-02 -2.186307041223991277e-01
1.449983830677979424e-01 -4.631920743510343774e-01 2.053651036187532364e-01
-6.903247449033206307e-02 1.022740916832502178e-01 3.145957290355687053e-01
-1.897022838013442403e-01 4.123856162763627764e-01 3.020869190218512627e-03
1.347423620753996354e-01 -4.358250950458673612e-01 2.222165329625689079e-01
1.410050548666758607e-01 -4.450662566607094806e-01 5.324715935446235893e-01
-4.377002121213794533e-02 2.594228502811056838e-02 -1.097568425724816110e-01
-3.357519760322171254e-01 7.880800012440182245e-01 -3.586965622490273509e-01
-5.808450335571484387e-03 -7.845982688162618512e-02 -3.054168852886477437e-01
-2.856725395760981168e-01 6.652616481429673989e-01 2.299706735193459209e-02
-1.068745593990655558e-02 -5.446429258156437053e-02 1.736056963843052581e-01
3.222777676073567549e-02 -1.710289377504554120e-01 1.510816236170314970e-02
-2.305165372121287803e-01 5.187806107591116378e-01 -3.775279596842653906e-02
3.444473813429746456e-02 -1.756487619679033552e-01 6.707211883659686125e-02
4.961624451787471912e-02 -2.161472984143198439e-01 4.149340694555115477e-02
-1.996119576869068712e-01 4.379098372615036205e-01 -2.011312345501661825e-02
-6.357102024056035527e-02 7.128818023688206218e-02 -3.986529179686641444e-01
1.694204063490219458e-01 -5.296769762402103732e-01 1.086981440947296790e-01
4.953189843910629775e-02 -2.144016479118487917e-01 1.068809072592148829e-01
-1.886492406328660609e-01 4.119492285758798444e-01 1.031400499156416850e-01
1.938060200609101058e-01 -5.927855651537934367e-01 1.528011985930873007e-01
-1.455780534957423211e-01 2.856835909539277019e-01 -4.540307550754155153e-01
-3.090021436157591173e-01 7.236769740626198821e-01 -1.033164850358063297e-01
-6.892969826762024299e-02 9.332169378258761694e-02 -5.795661458683946943e-02
-1.137423281115112622e-01 2.154655673093146817e-01 1.258109459914329986e-01
-1.021705254093198678e-01 1.826881154935217355e-01 2.529068811176479054e-02
2.087511470053390883e-01 -6.349014483952387655e-01 3.227256958577463808e-02
1.224507278709442148e-01 -4.102192619717125455e-01 -6.623970101229567642e-02
-2.376166857613915551e-01 5.263017933449510855e-01 -5.163268714987365726e-01
1.294066195001253861e-01 -4.188121342182528073e-01 3.500670724920568189e-01
1.871247595090606008e-01 -5.652318956318107546e-01 5.811053692210876864e-01
-2.079443526676242882e-01 4.536836815203875162e-01 -2.836310697494540678e-01
-1.720619409278388856e-01 3.556192714535695854e-01 -4.419880099226409231e-01
-2.271015199343981439e-01 5.039558991465070692e-01 -2.884745594226738041e-01
2.314682931278579936e-01 -6.915086233062451848e-01 1.670536854867895882e-01
-1.859919705513933194e-02 -3.925391190368204830e-02 -6.661640461153188475e-02
2.204228751353494442e-02 -1.504162059044345245e-01 -2.499081675802057867e-01
8.886159340042991406e-02 -3.163961817169241852e-01 1.689354549931340599e-01
-1.088339104079824454e-01 1.913066140346339761e-01 -3.569046161802447159e-01
-2.051528851292612476e-02 -3.263560299027277317e-02 1.131235098852210672e-03
-2.250568980951895282e-01 5.012854992870562354e-01 -1.723098743855367154e-01
-2.423931831144826021e-01 5.516991268051273378e-01 3.441647402757451457e-02
1.684611090589835936e-01 -5.269830550553652460e-01 1.160307725516812744e-01
-2.703538802837474053e-01 6.231413486395698254e-01 -5.556479872798866793e-02
2.145027075298690522e-01 -6.473581734178107672e-01 1.468607530543104556e-01
-2.166450254111050300e-01 4.854895773617723398e-01 9.923043631419226074e-02
1.554046101381680589e-01 -4.900902140752659286e-01 2.255838150604773940e-01
-3.476157486682807662e-01 8.203793076775830473e-01 -3.116450046903763149e-01
-2.670829861333769983e-01 6.170994855980596050e-01 5.432399595050815821e-02
6.540408468625782956e-02 -2.550153110194742223e-01 1.554396725793399658e-01
-3.964666383753225748e-03 -6.782060331313677359e-02 3.592036079660055892e-01
2.941704717291662718e-02 -1.597873843297346053e-01 1.802739101715546133e-01
-1.085157259522702006e-01 2.048154113984329006e-01 2.586738733195607653e-01
-3.603718282848071275e-01 8.596542388043300065e-01 -6.597053525940083096e-02
-1.542101591368677527e-01 3.147154743372637120e-01 -1.824650232262210181e-01
1.379100871585627330e-01 -4.384162506077069477e-01 4.685332732320930949e-01
2.419528266452057874e-01 -7.218136371700655252e-01 4.991940430781431626e-02
-2.616319155829075621e-02 -1.709745505809193503e-02 3.046694185828345558e-02
1.235448523569869783e-01 -4.113676879112839191e-01 7.961964089183761265e-03
-9.774167031717399812e-02 1.635729607827204612e-01 -2.951158353458975259e-01
-3.394046463494855836e-01 7.981229887977293602e-01 -3.399819179310685224e-01
-1.861476444042982903e-01 4.014934632444414619e-01 -6.319546947396231795e-02
7.019765123934898488e-02 -2.627545635695427428e-01 3.643390898952919010e-01
5.677557186242743192e-02 -2.307098989815062895e-01 2.245958283478706186e-01
7.892418662549534336e-03 -1.075475937320973102e-01 -7.328030788785449418e-03
2.773067669561308790e-01 -8.050060235994821456e-01 4.700853823091218908e-01
-2.020231472964646030e-02 -4.024223335571230908e-02 -2.899510432315397512e-01
3.007408686033441469e-01 -8.735235173133005793e-01 1.747037097494079094e-01
4.099572349946712518e-02 -1.916872048880397528e-01 1.181889588546730929e-01
1.244755621944126089e-01 -4.025444117235475461e-01 4.916112289076730590e-01
1.532500184718481873e-01 -4.776188773050191183e-01 5.175708134495133894e-01
-2.489113836349161057e-01 5.591771095747281040e-01 -3.803335963959171839e-01
3.071165882631551325e-01 -8.854257201864935700e-01 3.835283006764307889e-01
4.042474341822621664e-02 -1.830438080974960691e-01 4.246411800689535720e-01
-3.673184239158918674e-01 8.746352190590824804e-01 -2.071115292836010480e-01
2.237913132915121325e-02 -1.418968563729283983e-01 1.536766900701139194e-01
2.730451510893253664e-01 -8.001768066261214507e-01 1.963501106586260092e-01
-4.801926481060941193e-02 3.721072114225884575e-02 -1.057859496080550132e-01
-1.471798688049529569e-01 2.981263113628731531e-01 -1.008862373102074328e-01
3.025781963182828105e-01 -8.734957765945643438e-01 3.832519607225134406e-01
-2.110540478339183734e-01 4.605385373875208188e-01 -3.404413079840064582e-01
-7.489922201766997800e-02 1.103220106905609399e-01 -2.176166933965207901e-03
6.965096046719004841e-02 -2.681834698207066769e-01 6.968357867713795284e-02
-7.563739169242303384e-02 1.074450426546710441e-01 -2.089368419745305794e-01
2.320203095070774990e-01 -6.892047642557643794e-01 3.282130259105879300e-01
-2.343632721084124362e-02 -2.734202618772045221e-02 -1.013827357039939481e-01
2.928398209725703930e-02 -1.692322673041466996e-01 -2.400278679786286007e-01
-1.463765497867847154e-01 2.994511078156223971e-01 4.662269366337831733e-02
-2.345673219240768381e-01 5.237437866719385493e-01 -2.819457591641765792e-01
-1.900513978605978260e-01 4.104467779550814988e-01 -1.195760309791932818e-01
-2.926204131473331138e-01 6.738836844811115778e-01 -3.911533563215056630e-01
1.665520769128124925e-02 -1.216493744822947920e-01 3.765125162406450232e-01
-4.387178734293442628e-02 2.839881012064426544e-02 -1.583138654910240528e-02
5.545559701323017621e-02 -2.368533790019371477e-01 -1.879939826029368710e-01
-1.511256083845127218e-01 2.992772796635496668e-01 -4.968075530422150221e-01
-1.116069959916432680e-01 2.120294306507956861e-01 2.193549313882632024e-01
-2.231691581735261720e-01 4.963482460213327618e-01 -1.711223536272701573e-01
1.080048405295357811e-01 -3.692091058365614686e-01 6.318505779010123724e-02
-1.629142082432494809e-01 3.380630476961955511e-01 -1.629350697176118745e-01
-1.415119187485891217e-01 2.743604009690056578e-01 -4.810165355371990858e-01
1.536139258617562620e-01 -4.838236429656795345e-01 2.923914791523051782e-01
-1.532501897028508593e-02 -4.300804447429836669e-02 1.418105746745658702e-01
2.451240867903067833e-01 -7.273788489718236994e-01 1.690169871662651757e-01
-8.125768835889246589e-02 1.340310055034840686e-01 2.975812878034891362e-01
1.017115861798888743e-01 -3.426647671557171981e-01 4.919681414930532348e-01
1.693539729587168960e-02 -1.281258524584896197e-01 1.302256256051891603e-01
-1.344557133130520055e-01 2.717486220862431190e-01 2.032629572559473963e-01
-2.087146705371742683e-01 4.562978429232177890e-01 -2.583930533016344233e-01
-2.336348826481104979e-01 5.266500841036603209e-01 -5.200158803624867904e-02
-1.004373357147017309e-01 1.790408512277148201e-01 6.438993635039612362e-02
2.529819990091300985e-01 -7.355780999962807654e-01 7.040148373108722213e-01
2.071408339306027024e-01 -6.241317459010977675e-01 3.126680761085733895e-01
2.944957993600205159e-01 -8.552459880658734859e-01 2.541922991883648897e-01
-2.296436014365131340e-01 5.105653709399258222e-01 -2.917543654758837923e-01
1.309249511760765816e-01 -4.218081052619107041e-01 3.928650776566784408e-01
8.115968080416979813e-02 -2.972160851214004640e-01 1.227365997937616277e-01
2.319794970057940942e-01 -6.891270673761358267e-01 3.269410007017733433e-01
1.739597923326917372e-01 -5.358120147291038915e-01 3.577487085574330150e-01
-2.013844690153084316e-01 4.437855641128132245e-01 3.197420405849876746e-02
9.875167446155031989e-03 -1.177409621007738383e-01 -2.209602735311551880e-01
1.586507124830039972e-01 -4.986982746638268238e-01 2.225579309045336851e-01
-7.120352933305036658e-02 9.673252088365388857e-02 -1.682174154559861190e-01
-2.130103881715415814e-01 4.682282097733933002e-01 -2.312633942927337927e-01
-7.880514656225372574e-03 -6.318286335522338426e-02 1.162747504804955839e-01
-1.830555795706534650e-01 3.853735117242019226e-01 -4.059444713582238129e-01
2.298468629567864963e-01 -6.809162359682547905e-01 4.385858594269533284e-01
-2.086161951491334321e-01 4.640459618436261757e-01 8.519606303609619791e-02
-2.671110884090054371e-01 6.024530242221889376e-01 -5.773339651741603573e-01
-3.511302907661379424e-01 8.313509673237747810e-01 -2.374916832806075462e-01
1.075247224763562354e-01 -3.672750106368777856e-01 9.199261095765036422e-02
-2.383390676766329874e-01 5.415913451851606109e-01 5.822794446259202394e-02
1.174677837266820540e-01 -3.953469362027032807e-01 9.571475083893308394e-03
2.815011796613691233e-02 -1.636133529675380671e-01 -1.268837763533511853e-01
-1.195947035079439856e-02 -4.909244353150435392e-02 2.605566822432245910e-01
6.679008668722252740e-02 -2.591674569385639670e-01 1.336911662735128792e-01
-3.215243974287129158e-01 7.541365247088991364e-01 -2.095248315241524661e-01
1.309212680368252169e-01 -4.276085585262145994e-01 1.435492913995448094e-01
-3.502442446949254884e-01 8.275256197861553531e-01 -3.016413521273162424e-01
-1.708700281046465486e-01 3.617440753865002190e-01 -4.465247505921076526e-02
-2.811741931568431108e-01 6.427863583375255097e-01 -4.337517152557304745e-01
-1.035776223525586570e-01 1.769015425131212627e-01 -3.818165388497753443e-01
2.666446121511602541e-01 -7.827295316797896474e-01 2.226660442867320622e-01
-2.234612130310087985e-01 5.000691407729499494e-01 -4.441789803685993604e-02
-2.723324409188804807e-01 6.239586642574737052e-01 -2.437906170331554934e-01
2.152102433675392446e-01 -6.466327795603551420e-01 2.578391060042473648e-01
1.141454335792402713e-01 -3.854749932136934953e-01 5.822592764681790156e-02
-2.148894233404292087e-01 4.766847063760706882e-01 -8.045616294405999458e-02
-2.714921818352390437e-01 6.240730840629209464e-01 -1.440505067317512378e-01
4.422837455406049972e-02 -2.001088833652664989e-01 1.216427254537567615e-01
1.966445861993318667e-01 -5.972087091447167984e-01 2.833581191197486193e-01
6.436827249063196976e-02 -2.527695473469053211e-01 1.349063058374550539e-01
-3.252665587597218799e-01 7.644696427345902823e-01 -1.884603689242890512e-01
4.353952325030176901e-02 -2.003975339116665089e-01 3.151393530775760399e-02
2.620828614226396458e-01 -7.646292445872546750e-01 4.845257420620385225e-01
2.480475662353500976e-01 -7.245281587498672016e-01 6.212806545078465303e-01
-1.874315183790149807e-04 -9.306908526034508855e-02 -2.979276260196536130e-01
2.099335292511249340e-01 -6.284614441831595233e-01 4.420578873513180129e-01
1.372159455478455803e-01 -4.445149734996206581e-01 1.284945552458362783e-01
-7.505607323039924228e-02 1.100552827947238327e-01 -3.132356184738211563e-02
-7.420629966643541020e-02 1.152467008259411702e-01 2.873466626918556033e-01
1.274471292302497560e-01 -4.127296841356828949e-01 3.899228428009655634e-01
1.675666696172478931e-01 -5.158974150296096184e-01 4.907756633901074750e-01
-8.116998316323584262e-02 1.224943837984554945e-01 -1.875621780318851295e-01
-1.544051945113605606e-01 3.135237867696476499e-01 -2.556122661500078719e-01
3.160288201962689891e-01 -9.107323069060792031e-01 3.034313670745832914e-01
6.380439527916725861e-02 -2.514791632786370634e-01 1.266389933758824415e-01
5.772804666515464478e-02 -2.303658747483398606e-01 3.468528576709379863e-01
1.961712424765552354e-01 -5.970860162284578054e-01 2.352021087033718538e-01
1.341567113818283308e-01 -4.385548799528289909e-01 3.898460323201706490e-02
8.149391964235981611e-02 -2.932075809614846928e-01 3.324650176533265888e-01
-9.661186940419916325e-02 1.664584626836750625e-01 -4.379008950473732564e-02
-4.584539117926587221e-03 -6.863338628757299775e-02 2.543688663286373108e-01
-3.206913665438417826e-01 7.439123703077223926e-01 -5.542334507049908598e-01
-2.859032856845895032e-01 6.554112035823335125e-01 -4.257316707110898046e-01
2.521866584204010553e-01 -7.355091000184386107e-01 6.172147840346045022e-01
-1.285124753647197415e-01 2.553330921525230335e-01 1.696094134109114304e-01
-1.432033126962291292e-01 2.918697709597475876e-01 7.943053960713160333e-02
-1.645812541223133085e-01 3.371811977907013258e-01 -3.889158008870906014e-01
-1.803938580745416131e-01 3.889306856741230889e-01 4.709315131183259423e-02
2.420782701462400877e-01 -7.078182460808999377e-01 6.646254163690026306e-01
1.742515588686741057e-01 -5.322776309501482395e-01 5.423390466806088384e-01
8.520022428098039668e-02 -3.033037752219969740e-01 3.175203333279175144e-01
1.592469909121417837e-01 -5.034983709531575258e-01 8.387863027232378421e-02
3.183906676366144439e-01 -9.176407949744682657e-01 2.735393178828284255e-01
2.057833055599459782e-01 -6.147529154120998651e-01 5.619095059285627025e-01
-2.754075120154091949e-01 6.353338253203574260e-01 -1.027248662372610838e-01
-3.069172943182244540e-01 7.187736825638820770e-01 -7.842619856507485054e-02
-2.010950404552292181e-01 4.379380754972707068e-01 -1.862797704688628486e-01
1.372672660796571409e-01 -4.444031659901694353e-01 1.390842204209589428e-01
2.088454683391680056e-02 -1.316777069634278707e-01 4.235086543671861548e-01
1.282968959054176794e-01 -4.148554263643517426e-01 3.946095832424293959e-01
