4.041559053174608174e-01 -7.552410844532955747e-02 -2.359231791003984502e-01
3.794699579847523197e-03 5.561029202774668556e-02 -5.554306545840139719e-01
-4.281523662074336323e-01 4.559108488108933321e-01 -7.846352858642369199e-01
4.712946659879889144e-01 2.003200587657176512e-01 -4.942152375829379773e-02
-4.116487657262893896e-01 5.132570302255919925e-01 -7.434589195856596833e-01
2.702696034240813505e-01 -1.307077313916618980e-02 -3.344697406120007988e-01
-1.129092322491372785e-01 4.782057044480938490e-01 -4.770241395757973679e-01
3.925212329399337396e-01 -1.585506045533748021e-01 -2.839631255940783805e-01
2.642646937361038395e-01 2.187314896867275926e-01 -2.366879281962398496e-01
4.412268951824707686e-01 2.266528228617555041e-01 -6.606018908256838795e-02
-1.786907926474629038e-01 4.256465475477868576e-01 -5.625936722373675591e-01
3.188213516166718553e-01 2.245077186801917590e-01 -1.825961624109767867e-01
5.596058936448152776e-01 2.770564927052546755e-01 6.821128877511956068e-02
-5.966798103864755926e-02 3.980766468109280254e-01 -4.625133753701283212e-01
6.675384417227310241e-01 -1.471586350060585802e-01 -1.920027237868024081e-02
3.450426610356117640e-01 2.292049591137506614e-01 -1.557409450697299635e-01
7.099408197727646863e-02 -5.484006538200584396e-02 -5.412724398344035404e-01
-4.000743423197544724e-01 4.579829595045721291e-01 -7.571984864345675525e-01
3.891206424786584073e-01 1.447096774084848103e-01 -1.518310050239789766e-01
7.099844112711933830e-01 1.387673132145453014e-01 1.484852131073730874e-01
-4.265566202148790564e-02 3.851949307791905364e-01 -4.521989075831047700e-01
9.627024041777907382e-01 -9.793078139508339108e-02 2.814715948176188531e-01
-1.088497730092266996e-01 1.928290366908588793e-01 -6.005528001416133854e-01
4.596811250279717043e-01 -1.343172010596480892e-01 -2.097337304985148754e-01
8.349952722099871494e-01 -2.430352791541616209e-01 9.612789013804977356e-02
-3.354558949522763456e-01 4.779008334077264886e-01 -6.872947844377162996e-01
9.969715624553897593e-01 -2.664573342222392380e-02 3.456435052437367150e-01
-1.763752325400941012e-01 1.856754470140655200e-01 -6.675047664188455965e-01
-4.226056689366659569e-01 1.196598611380498695e-01 -9.294645271869538261e-01
2.992946868719692510e-01 1.847330151402463150e-01 -2.187849538996948229e-01
-4.618772731238371398e-01 4.057733735531733887e-01 -8.388552781442181194e-01
-3.353342753867213921e-01 1.928085558379021291e-01 -8.144147383634551263e-01
-2.582667359625497316e-01 1.767690365418118636e-01 -7.488038124885180169e-01
5.396573853229094109e-01 1.173693245160427473e-01 -2.189195556892211889e-02
2.041443833297507948e-01 9.734201018359575630e-02 -3.476304713045282879e-01
-8.771783042661987495e-02 1.374478366943830687e-02 -6.605235609133702779e-01
-3.234445592889739762e-01 5.601158710517277761e-01 -6.392613307981379611e-01
7.321909222973463915e-01 1.495294689568805735e-01 1.742562805614545351e-01
2.184984050009878276e-01 2.539219905970278579e-01 -2.641964099627240881e-01
-5.762814467417357034e-02 1.757224087681028002e-01 -5.598225266227755403e-01
-1.322066822133524389e-01 4.389279178147678651e-01 -5.127747295484661461e-01
4.125060005828187215e-01 2.888616127712569370e-01 -6.541586533846562024e-02
7.916897906064387369e-01 -4.840556580836261058e-02 1.420996308784707174e-01
3.105280500679873379e-01 3.314915118553358742e-01 -1.426807657199304358e-01
-4.230815965300249726e-01 5.776924692100264824e-01 -7.254969993457747179e-01
-1.107102618435142766e-01 1.637156964068587905e-01 -6.153026145102372668e-01
4.285260636057409700e-01 9.859985208840867099e-02 -1.352018486101570494e-01
9.714254557736270446e-01 -2.348950372544471865e-01 2.285818983339044097e-01
-1.424559969139981563e-01 7.882739660631107870e-02 -6.831628814012524753e-01
-8.941881531330989064e-02 4.393063625916937553e-01 -4.722043700246984499e-01
1.855064188845388928e-01 -1.132075216121428834e-02 -4.137244111292233684e-01
-3.786330219315898749e-01 4.721698125284589098e-01 -7.306215130373753253e-01
-6.078727685821948279e-02 2.089778655656769971e-02 -6.319026655716969421e-01
-1.072796793937598608e-01 2.762037391127250552e-01 -5.618606991829787622e-01
2.361039995896721533e-01 2.443860145598943934e-01 -2.518285737787224199e-01
-2.155935114199463987e-01 4.090432598593472108e-02 -7.691461169259999897e-01
4.082852016854733868e-01 -1.062401305089663989e-01 -2.457325423823122079e-01
5.136290226840524165e-01 -2.251788230870825289e-02 -1.088993716505137627e-01
1.936659147360059452e-01 2.904437808591522896e-01 -2.713444869683203642e-01
2.605349371705567574e-01 9.840833312764331320e-02 -2.939090911078622304e-01
-2.468736341113101085e-01 4.455542154837869862e-01 -6.180890967494886423e-01
8.707461900831580115e-01 1.313680355849346504e-01 2.969785877773079563e-01
-3.644902738834155526e-02 4.603070105179613014e-02 -5.977051787691686213e-01
6.879878463381022824e-01 -1.343726289597587664e-01 5.814918591910884539e-03
2.685536359951641305e-01 -1.197984305263795068e-01 -3.837218483067894592e-01
1.565538471224001693e-01 3.871592867199407095e-01 -2.632232177231278447e-01
8.845004830712045463e-01 -2.313168235604685374e-01 1.481019191864172135e-01
9.787607461147178611e-01 -1.880598220672439203e-01 2.564103235728465435e-01
7.421667747755561527e-04 2.828926536901573696e-01 -4.568783298750813682e-01
1.039532341279092026e-01 1.339041456038748412e-01 -4.259162281521682303e-01
3.315455877615130498e-01 1.269063837264047256e-01 -2.141404219144766308e-01
9.407688644126527278e-01 -1.388783024905806129e-01 2.424867460966678712e-01
3.432840404394666978e-01 8.589859685424458546e-03 -2.558605361879022766e-01
1.229056561311945295e-01 2.802388698297379466e-01 -3.427126225508204671e-01
1.472142390630701292e-01 4.740189193961849567e-02 -4.236733976981527650e-01
9.334083585948040884e-01 -1.887642018486723472e-01 2.132730116336893078e-01
2.370829406471509360e-01 -9.453156456263459018e-02 -4.021608962179016866e-01
-3.579515527553791543e-01 2.212501074808275181e-01 -8.230773082311316768e-01
-7.537743957951559270e-02 2.566217263513814739e-01 -5.404770630698579881e-01
-2.217477573412148795e-01 2.955813104350690779e-01 -6.612964754561480030e-01
-5.974316670936700990e-02 4.771470421755210634e-01 -4.272957753070751874e-01
3.061407058837338768e-01 2.424728966901317784e-01 -1.865518317051973740e-01
-2.990430964682727066e-01 4.290841199238706327e-01 -6.746994095426961380e-01
2.170792416739195096e-01 6.254555365624750451e-02 -3.509464554209931197e-01
7.417566833837178075e-01 1.695349053183022037e-01 1.922168245186811064e-01
9.145181469982736067e-01 -1.647967386088000918e-01 2.061328822088712431e-01
8.533884267256351963e-01 8.290856346186822878e-02 2.589617771372871857e-01
-1.083821481670466796e-01 1.700404961190861985e-01 -6.102816304445674023e-01
-4.165264834690063367e-01 3.149213604367183672e-01 -8.365804851507094853e-01
-3.262464333659950144e-01 4.234408460075140268e-01 -7.029040922730023233e-01
2.099953419283890066e-01 1.499782923526248868e-01 -3.186146146017429515e-01
3.154885171538707733e-01 2.147272110189839545e-01 -1.901080905505046770e-01
2.968681423319212698e-01 -1.327227387778130707e-01 -3.627545579435465517e-01
8.344991707044064899e-01 1.336289593718625046e-01 2.637622061985681055e-01
7.670509708239662272e-01 -2.269555514882123093e-01 3.914931730008701372e-02
8.383041206279605584e-01 4.269795104723486667e-02 2.267730376950705951e-01
4.349515552827590975e-02 1.964641826647455791e-01 -4.550822533492686617e-01
5.864721933641952045e-01 1.354900869393552421e-01 3.039902933705232110e-02
3.497098515231131799e-01 2.877128519237747706e-01 -1.252223734199260086e-01
1.200344334429316873e-01 -4.177883617679998413e-02 -4.891380726638563936e-01
-4.202454665975927789e-02 1.176687009230660830e-01 -5.709981713341080178e-01
-2.054461151491377979e-01 3.130930482879079046e-01 -6.380886513140826555e-01
7.916199948889180993e-01 1.280584115677692314e-01 2.207884292207785981e-01
-2.354905627262809664e-01 4.525309782168514539e-01 -6.042272097437300094e-01
-4.802302013511167145e-02 7.164407479470856488e-02 -5.972025773882234656e-01
-7.247988961055176760e-02 2.761352097165117869e-01 -5.290323799041124486e-01
2.967214308458064886e-01 1.962621022756247044e-02 -2.949007625853643511e-01
-2.655963548309224764e-01 1.223984505745294438e-01 -7.799898685122325093e-01
8.060597712029158313e-01 -1.889564098369231615e-01 9.294124712709850300e-02
1.687117664396982908e-01 2.333345084726893282e-01 -3.203943583119180927e-01
8.259181928545293871e-01 -1.041082924175923546e-01 1.495592577856941774e-01
5.627154326282035601e-01 2.299227054102169765e-01 5.011190336164343673e-02
5.158267325507056578e-01 -1.560436700179408387e-01 -1.664159069231874732e-01
6.055924969857170437e-01 -4.465147079634614047e-02 -3.194304346719786108e-02
7.347119410673688122e-01 -1.553517478238200800e-01 4.057023214541050776e-02
-1.627604662084493892e-01 4.694159678757161558e-01 -5.280178251477783968e-01
7.558690500141063140e-01 1.314212691637365871e-01 1.885322403586000561e-01
-8.464638201084853653e-02 4.643389992163277080e-01 -4.565262098136086411e-01
-3.837765327030890350e-01 3.856866668469141057e-01 -7.740750087881069774e-01
-9.277022034545784335e-02 2.907986266216756044e-01 -5.416468738171024144e-01
-5.458274584117571437e-02 2.908264199205862210e-01 -5.055768227456333141e-01
1.030135944439774520e-01 1.545627460048644986e-01 -4.175836651945623035e-01
-1.700121083686943063e-02 1.728003404628337958e-01 -5.227655756627208605e-01
-2.350936696310583218e-01 1.848502865910636450e-01 -7.233165677609714184e-01
-4.320470434263516402e-01 3.038727665158563185e-01 -8.561663320836565561e-01
9.039300651302799305e-02 2.262189136932951095e-01 -3.975206941115030923e-01
4.861543074089320626e-01 -9.608773255552187365e-02 -1.676754771612705974e-01
9.524170528000071023e-01 1.041059702808585230e-01 3.619275483470131283e-01
4.589524083327198301e-01 1.205868792694409775e-01 -9.665980608895551052e-02
6.916049088892461949e-01 1.563216500095025718e-01 1.389651733991583982e-01
-4.179004118037021875e-01 2.828357257851303319e-01 -8.521973911647744426e-01
5.339365996138353276e-01 -1.638035262905612049e-02 -8.698526907499280758e-02
-2.369085015628786262e-01 4.553701795414474285e-01 -6.042989492764799797e-01
-3.448075851668727099e-01 4.149932069555155034e-01 -7.242001594419109622e-01
4.695389592320488303e-02 5.996440235335407515e-02 -5.127353626133275277e-01
-4.266550227902649595e-01 3.747254494200817354e-01 -8.194539583402027372e-01
-4.307473237476495131e-01 5.078647953057329190e-01 -7.638988136790577643e-01
1.607178685010402230e-01 3.791166002810661961e-01 -2.628808335760495218e-01
8.413991962445961370e-01 8.103427870145063494e-02 2.468047403429774189e-01
-2.994934344115379177e-01 4.897523976075681684e-01 -6.480487813375771511e-01
-2.084971511580894776e-01 3.890693521214211303e-01 -6.070618021973137601e-01
7.941094929222454191e-01 -1.143137056245177169e-01 1.149700141457355163e-01
8.579852194984692870e-01 -6.728930662006694929e-02 1.962698812272497262e-01
5.779045738128046894e-01 6.377745567344421385e-02 -9.695620104703877792e-03
3.662402196719207748e-01 2.063585345034222029e-01 -1.459218440169491593e-01
3.154596951064034815e-01 2.667053432566393045e-01 -1.669378098350705053e-01
5.378584780184745284e-01 -1.147113287324798420e-01 -1.271665870240255014e-01
-4.526786638031741195e-01 4.570489442878742370e-01 -8.072857554913812628e-01
7.225290221522931433e-02 1.912221150554216653e-01 -4.302679104624830275e-01
-8.048987183790433375e-02 3.607662948882576770e-01 -4.988253305964359119e-01
-1.378278289643476706e-01 4.811747497400213902e-01 -4.992278879059656727e-01
5.288556734381386626e-01 -8.019110631958636937e-02 -1.202611327597672281e-01
6.435819781962165420e-01 -3.854439846231910022e-02 6.653198842674040714e-03
-1.017927810484756113e-01 4.774467547143276813e-01 -4.668663996724627396e-01
-6.122634539229411185e-03 2.620026123011551800e-01 -4.726833478540208300e-01
-1.293682722232686044e-01 3.049775854850058088e-01 -5.698757698668539540e-01
-2.175989226408973354e-01 3.776455831605452645e-02 -7.724409379468104575e-01
2.029233932144663133e-01 4.955239213070387894e-03 -3.900149656399531928e-01
5.787722245026176715e-01 -5.465054182369236818e-02 -6.172998973551671598e-02
4.498884983371582713e-01 8.145285690554708580e-02 -1.226834495772514966e-01
1.545261666359068996e-02 1.524528298852604047e-01 -5.012027521179230893e-01
4.822893138995811013e-02 2.257520285423912643e-01 -4.375415229059561040e-01
-5.019098574268270052e-02 1.762960812744340799e-01 -5.525441336162327799e-01
-1.965857688343226328e-01 2.052701268563051351e-01 -6.778431263567494813e-01
4.289589409309253060e-02 1.662501689032024610e-01 -4.691324059323974671e-01
-1.807446692080109107e-01 4.195134927305826933e-01 -5.672701397215578201e-01
1.744208985873074713e-01 5.573588355426991464e-02 -3.942647282120889662e-01
7.283160450753970450e-01 -7.600485009451023177e-02 6.994304759998280774e-02
-2.358757225149857306e-01 5.555464829438477858e-02 -7.817587880868035466e-01
6.334829931188588059e-01 2.760365343192555665e-02 2.663890009224961081e-02
5.435710728846872009e-01 -1.832394971078083190e-01 -1.523562668252854413e-01
5.716003558271243179e-01 -9.913909998125654266e-02 -8.835681036414148870e-02
-1.080027843682958982e-01 4.667430819091688554e-01 -4.775070310013435626e-01
-2.854256314078735812e-01 3.474288276534996944e-01 -6.982836451609056860e-01
8.213785695857728220e-01 -2.811142277351177943e-01 6.627624903569109827e-02
5.780887687361770944e-01 -8.298453075818296165e-02 -7.502059828865211000e-02
8.147352413345898547e-01 1.846038727963390524e-01 2.678503344846363543e-01
-1.747658175957240156e-01 1.760167892720290728e-01 -6.702957080787508293e-01
-2.417823559110539311e-01 1.626154186803434598e-01 -7.395554803043544734e-01
5.530231612345523073e-01 5.054891879523526477e-02 -3.909313153369196187e-02
-2.943718499109838627e-01 2.808970317665333560e-01 -7.364236055531274694e-01
3.841464167565014631e-02 1.073578138897837569e-01 -4.996469927518483178e-01
-1.783930824580826080e-01 2.457183779569298010e-01 -6.426133135485562198e-01
3.354957191847164621e-02 1.131855622243607418e-01 -5.016398379226405524e-01
7.076921434334901839e-01 4.127746561131680203e-02 1.028117201327393426e-01
-2.890986550908481445e-01 8.181310583412985948e-02 -8.202943464540835006e-01
6.901490055008568936e-01 -9.011358215611138534e-02 2.760806227268566837e-02
1.853506564446552318e-01 1.454261960083115535e-01 -3.439163641031900975e-01
7.834766111495080620e-01 -1.380252630969835137e-01 9.434784870852784555e-02
2.604579643257559640e-01 2.156569267966659820e-01 -2.416545021502996826e-01
-3.122220575621292848e-01 2.082692925274451934e-01 -7.856915325568593067e-01
5.628463854139793554e-01 3.140890416095758024e-03 -5.097566563012864010e-02
5.551081973687406190e-01 -7.564238418236064743e-02 -9.344272456114063874e-02
-4.011608331396826488e-01 4.212426540054195478e-01 -7.746213348580249791e-01
-1.607756437796296345e-01 2.402488073008201830e-01 -6.284194841345590588e-01
6.039627754275121996e-01 1.693159287248011402e-01 6.201035894474743460e-02
6.632320685593176002e-01 2.366933844774578299e-01 1.480441409570367739e-01
5.537878625116232634e-01 -9.694970749459015658e-02 -1.041987373822923085e-01
6.356593638464608231e-02 -3.561863765232363335e-03 -5.254011750877377596e-01
4.139365807574575951e-01 1.908196964327724121e-01 -1.078205290584294540e-01
2.551352416472028040e-01 1.930117056606689696e-01 -2.567867728061554722e-01
9.322919859515546026e-01 1.528842308110637815e-01 3.646943292497698552e-01
9.808279878675381092e-01 -8.552605304404849867e-03 3.384751480717576033e-01
1.205639778590600897e-01 1.360689809999754696e-01 -4.092657626300218454e-01
-3.122008201107088002e-02 2.813974879863690437e-01 -4.877252328759958400e-01
-1.300870303742217571e-01 3.475539710510398006e-01 -5.515528826060349665e-01
-2.907302218881687161e-01 7.166416867569440352e-02 -8.263643192511759272e-01
-4.170024956667424676e-01 3.180990007792471319e-01 -8.356117889680498845e-01
-1.878789810178229658e-01 2.212656503714324485e-01 -6.624832456888064547e-01
4.416007612108700520e-01 2.377784231594985420e-01 -6.074189312179341382e-02
-4.344385514610327181e-01 2.490500962120099637e-01 -8.828914524281531451e-01
-2.568967834365085690e-01 4.257649113524276108e-01 -6.363850606835377288e-01
2.189402565852425486e-01 1.227530165375408933e-01 -3.223190438720024420e-01
5.677678871489321155e-01 -1.620369713841472992e-01 -1.200464333825723290e-01
4.130509936751734501e-01 7.863970860443141031e-02 -1.587219080240783731e-01
6.343612110474470267e-01 -2.364122789924198165e-01 -9.036042029166566070e-02
1.470824345166920621e-01 1.556799427177417428e-01 -3.754740760435046898e-01
6.934229226040302674e-01 -2.408463304357255641e-01 -3.657164124090860058e-02
5.186990927947433550e-01 2.079718072508353610e-01 -1.246056258176378440e-03
7.646303038858369705e-01 -1.980810054672332288e-01 4.975017620974594296e-02
3.739407777888613671e-01 7.399541143576278401e-02 -1.977235515083316519e-01
-4.394837103297132286e-01 2.038743452354432606e-01 -9.078168656822503957e-01
8.363789565148189720e-01 1.511086586745705729e-01 2.733382245740640371e-01
-7.713441321733195688e-02 1.656761961217660117e-01 -5.827244313830061140e-01
7.430516828745383773e-01 -4.340385331322501455e-02 9.840644406893188367e-02
5.719593858426123001e-01 1.318149372959026011e-01 1.505544875226815307e-02
-4.228962502527776612e-01 2.929968825169663726e-01 -8.523797402811479351e-01
-5.647528897787468943e-02 3.466769951528952953e-01 -4.824380723361453849e-01
5.750545927786162581e-01 3.161777724876937978e-02 -2.673930027650802885e-02
-4.715987501408657190e-01 2.845437570385761505e-01 -9.021385327524233944e-01
-1.443995425326615456e-01 2.774360399631589646e-01 -5.963603110529742679e-01
-1.525832678223983940e-01 2.670094675522826505e-02 -7.159890131623980469e-01
1.320507915182019820e-01 3.729012788669017198e-01 -2.927229203158175919e-01
9.567265538739021524e-01 -5.319236944186767069e-02 2.957954913860715296e-01
9.938132186928415601e-01 -1.365612909947489240e-01 2.936067280872582952e-01
6.726402368032871060e-01 -2.038401203238036571e-02 4.219565305976402669e-02
7.525484044444564757e-01 1.480138834798014336e-01 1.928019705177522192e-01
-9.925955448387219215e-01 2.437571667129767583e-01 -2.539607833497499190e-01
-9.021382768910611860e-01 -3.469095027134102855e-03 -2.788840213904490994e-01
4.559721898078037405e-01 -3.907548895464841854e-01 8.306375649137521799e-01
-9.308845123884904593e-01 -5.663438703189811740e-02 -3.297543118601083956e-01
-2.961771315481344646e-01 -2.982118617920442860e-01 1.617391548770096554e-01
-2.713682462332862588e-01 -3.295800364311147757e-01 1.711649678813032260e-01
1.405941216386309423e-01 -2.737376570241664697e-01 5.850730699773375454e-01
-8.953388271360411821e-01 -1.431690730855126326e-01 -3.348109694530819747e-01
-8.765185599856468723e-01 5.479353637868977778e-02 -2.286909656783379652e-01
3.981162039871830594e-01 -4.903827492190105941e-01 7.315451248003465023e-01
-7.411477241513401149e-01 1.693690780903351067e-01 -4.973585472842490668e-02
-1.007991985528976092e-01 -5.871469536037034025e-03 4.766898636767077369e-01
-5.590090063856596458e-01 1.554314258961599082e-01 1.160241711923732932e-01
-4.546569737665117628e-01 1.089554691327335872e-01 1.938142741559804871e-01
-5.718956691912121526e-01 1.497546469047529027e-01 1.013227265790670600e-01
-5.091130185196690583e-01 -1.510734281672793944e-01 2.634623243070401133e-02
-6.207439601911775018e-01 1.796620232578135523e-01 6.854631143983454244e-02
-1.671792328043423537e-01 1.078423882152085463e-02 4.214453705677054796e-01
-9.306321979483078710e-01 -1.231118893503760081e-01 -3.591845375971765009e-01
-8.189238741351112516e-01 4.210213716200492812e-02 -1.799725914903723412e-01
4.574084125382602561e-01 -1.773747515362517069e-01 9.272238240009433863e-01
4.736380791247579158e-01 -4.369556687141555873e-01 8.266990748364957398e-01
-7.623034018496117614e-01 -1.645178550699907469e-02 -1.526422358018201808e-01
-3.161075239135167081e-01 -2.114817292540296378e-01 1.816274211655601045e-01
3.435619806100944085e-01 -1.712531876304646261e-01 8.224589546386881223e-01
-3.273982574273470725e-01 -2.407393477364113687e-01 1.579089241055072756e-01
-4.438898653556199725e-01 4.556323072882698111e-02 1.756893343046652123e-01
-2.346298505043589999e-01 9.763382115661363436e-02 3.965170634427012120e-01
3.907645477945811269e-02 -3.805012289761939837e-01 4.415694677608595908e-01
1.445149033211914347e-01 -1.188554486921761244e-01 6.578980793026845131e-01
-1.286127162206795460e-01 4.984589630880763636e-03 4.552725745429049842e-01
4.023342213375404319e-01 -1.263428578992652207e-01 8.979964771589723505e-01
-8.263885512483164497e-01 -2.585842224232941765e-03 -2.069648901419476328e-01
-8.111917170602657157e-01 1.155678373197132208e-01 -1.398844253280392136e-01
2.366323774581409745e-01 -4.462885076609339752e-01 5.987466918707819996e-01
-6.708593922890069283e-01 -5.278943050208055598e-02 -8.251557638976533826e-02
-6.664541858001727936e-01 5.426943085119921573e-02 -3.057640224998895220e-02
3.191318016760653214e-02 -1.263007971876617674e-01 5.482536747400889032e-01
2.814426380643138548e-01 -4.690657831395312338e-01 6.308924060835711112e-01
3.799534530567522661e-01 -5.724803683391603837e-01 6.777557414631329991e-01
-9.400513265610460634e-01 -1.372548830107498952e-01 -3.743902579539442055e-01
-4.192360708659627067e-01 9.600140010237323551e-02 2.214783344766282080e-01
-9.482843078800754499e-01 4.698255392681714021e-02 -2.999401170372288372e-01
1.206962364796775183e-01 -4.907973598768701762e-01 4.694126441384512405e-01
-2.520077459466804060e-01 -2.286162267047358032e-01 2.345051541743712886e-01
-1.137328008879462116e-01 -3.306703280637478537e-01 3.195220324242851184e-01
-5.205519388944870318e-01 -2.157598479540133105e-02 7.333914326657199612e-02
1.626421996972292616e-01 -4.114435856495501920e-01 5.444342205383576605e-01
-7.270664183045076889e-01 2.682468194274007511e-01 7.688574804187712185e-03
-6.859506006003188716e-01 2.310133370262111921e-02 -6.289555963929667481e-02
3.642379027373487954e-01 -4.117777282545235229e-01 7.346372146274965376e-01
-6.779485052345867180e-01 1.645276845265928045e-01 7.777876684632213308e-03
4.518540739774221104e-01 -2.486604098366609616e-01 8.901649512349507631e-01
2.554368551859523273e-01 -2.191772674496451634e-01 7.178606271952102658e-01
2.825426294810231553e-01 -3.874177663493723056e-01 6.683700154892465717e-01
1.200368908795774597e-01 -3.193712022062679678e-01 5.452964280408822972e-01
7.409526026157037260e-02 -3.839125790319876663e-01 4.731127089276743192e-01
1.666871974621860972e-02 -6.916145521655239770e-02 5.593603514701251944e-01
4.321194602511793485e-03 -1.848296837779456747e-01 4.960795216522052020e-01
1.782029121451242093e-01 -1.576031465078826799e-01 6.724143688770306548e-01
2.918945787136127956e-01 -1.574296343493227779e-01 7.798425552444004927e-01
2.020158311090500258e-01 -2.333361621003350317e-01 6.611000295670349525e-01
2.321838673022429134e-02 -8.454894304795916582e-02 5.586773906831836722e-01
-4.963985076472431923e-01 1.745173819672691529e-01 1.836606343370489614e-01
-2.383204737825611319e-01 -3.200866504371311372e-01 2.066064043159397956e-01
6.209237520102761643e-02 -3.611261425069356434e-02 6.170000747756695381e-01
-1.963102480164775065e-01 -8.680825830418700817e-02 3.503841940357390605e-01
-9.202517530513872057e-02 -1.885665451261363534e-01 4.034389348221197324e-01
-5.883881776650348172e-01 1.052269709642313922e-01 6.587764754981945137e-02
-5.963899148945477346e-01 9.378080103607436269e-02 5.321384102808821015e-02
-7.667181276574530635e-01 5.046864675552151236e-02 -1.269445948556728598e-01
-9.734422835915796934e-01 -1.221163426760259740e-01 -3.991626733985950692e-01
-5.173548666164375920e-01 4.109083256557199970e-02 1.043256899200610127e-01
-5.343210956660091604e-01 1.490946373524249247e-01 1.365070981103814196e-01
-1.205136136765006527e-01 -1.462391781542345393e-01 3.954298029886675891e-01
4.168813088006099177e-01 -5.006929929433291404e-01 7.446622513973132351e-01
-9.571285894346958090e-01 -1.208878716426709139e-02 -3.346542743668595721e-01
2.493806220218383884e-01 -2.467150273790266191e-01 6.998522485077340871e-01
-3.078833155800111965e-01 -2.350838873519442707e-01 1.788594548552872032e-01
-2.063054826400405883e-01 -2.583940136516568731e-01 2.643688396986019762e-01
-1.583016654275666291e-01 -3.296375829991470829e-01 2.778998113758944788e-01
1.277589912039909514e-01 -3.982883015723499565e-01 5.173676667710015442e-01
-2.956839875919476945e-01 -1.837018402144327267e-01 2.133098570105540770e-01
1.022318741119060820e-01 -3.222816631511923324e-01 5.271855298590649719e-01
4.139461916951674841e-02 -4.147254866407877882e-01 4.284842823872903050e-01
-9.565563987772893739e-01 1.804046286504075169e-01 -2.482054631751487994e-01
-3.268885345522218322e-01 -9.125847940686440674e-02 2.251025371952898035e-01
-4.673264338095751980e-02 -2.869906553211804250e-03 5.290805462018822736e-01
-6.117013878640109592e-01 7.610921506869142150e-02 3.086962231636692852e-02
-2.379156401688675981e-01 -3.538252232993432944e-01 1.919313581344880559e-01
3.739545724016651862e-01 -1.113513786177305481e-01 8.778902420946450569e-01
-7.000262722677297322e-01 -1.416496096089325529e-01 -1.497134418576148429e-01
1.450686422270002218e-01 -6.004095191159839612e-02 6.846694539400099977e-01
4.199902002926884093e-01 -1.141702973393084464e-01 9.201002633600247060e-01
-5.065892364359467770e-01 -1.045027622988761867e-01 4.951343472813828778e-02
1.176067202500489517e-01 -3.688062906031295829e-01 5.209392434582926779e-01
-3.344474866746929287e-01 6.609023581541151326e-02 2.881888567691657799e-01
-6.518072859032072452e-01 2.430211674654783327e-01 6.749224380609898655e-02
4.329174155675695190e-01 -1.556998080856954181e-01 9.137721450614757490e-01
-3.654265640060243292e-02 -8.509753959516086486e-02 5.020045611177124112e-01
2.618902891642924113e-01 -5.088337630961050490e-02 7.990625803545363670e-01
4.377883835755066455e-01 -3.389284305496637062e-01 8.365977273724268803e-01
5.303042022544832146e-02 -1.547308056602354209e-01 5.555050204153287874e-01
-5.723895105402699857e-01 -6.514748843033027481e-02 4.947032201370801623e-03
3.085763923440001388e-01 -3.463089893501282157e-01 7.112983732853656038e-01
-4.411768065615127576e-01 5.618934910635948327e-02 1.829934439290573922e-01
-4.245447993301617595e-01 -3.068683627084564658e-01 3.666758935171749584e-02
2.948602383680917205e-01 -2.194936169249293301e-01 7.549440680596261055e-01
-2.373607360380767806e-01 -1.145522169542149693e-01 2.992412675480686235e-01
-7.051297652680190708e-01 1.118365232977767965e-01 -4.140312017331043010e-02
-1.681339969614248087e-01 -3.864226129419214839e-01 2.432730759947243082e-01
2.477305287339274034e-02 -8.059728707364784139e-02 5.619089463597060075e-01
-8.828798596775532248e-01 1.699330327547177444e-01 -1.833114843545128325e-01
-5.252214056185048330e-01 2.953701931432082400e-02 9.174150072398032374e-02
4.394360677692040196e-01 -5.234086150059066300e-01 7.558212340497975079e-01
-6.996123881367554143e-01 -1.207305586261925440e-01 -1.399866077108470608e-01
-9.020789949581280442e-01 -1.639949039800087660e-01 -3.504696483979756749e-01
-5.141831043508323651e-01 -9.402170387254094042e-02 4.702072586728816422e-02
1.605615043812222420e-01 -1.184081420340340335e-01 6.732493443732038285e-01
-1.149349045745092918e-01 -3.144142649977681864e-02 4.519308454144963516e-01
-9.331936620222702761e-01 -8.266300509625537640e-02 -3.435510728567376937e-01
-4.436591868643855463e-01 -7.285089476068426495e-02 1.230597092669275389e-01
1.308408726841555902e-01 -4.491539971317245333e-02 6.779856423220541606e-01
-9.642589843552944462e-01 -6.147622372945243940e-02 -3.634282712573003726e-01
-4.779120182009448659e-01 1.789462430719380159e-01 2.030926493773305419e-01
-4.207412135654970964e-01 -2.512513350579101412e-01 6.508054812091491892e-02
-4.302389811063501712e-01 -3.155868471131638708e-01 2.739998708796488255e-02
3.075568112349265637e-01 -1.298678077649381424e-01 8.069319193337924911e-01
7.900523793266713002e-02 -3.464491128904843564e-01 4.944685389250259022e-01
2.686155086643337783e-02 -3.819287406898646542e-01 4.293987358475189753e-01
3.707130890320809447e-01 -2.653429009637968128e-01 8.061041518652254378e-01
-2.640967037961731295e-02 -4.388765982964552559e-01 3.536831560669435048e-01
-7.594184772513075110e-01 2.134709094967215948e-01 -4.730523985632120038e-02
1.185780063706156212e-01 -3.444118322074316563e-01 5.327434429027266827e-01
-8.691693476020968534e-01 -1.241827982259596647e-01 -3.016275901098364187e-01
2.644044857531046011e-01 -9.844312331943151639e-02 7.802109535447898647e-01
-3.294952492079905038e-01 -1.773252700314941754e-01 1.842301695016605734e-01
-8.214914425769587192e-01 6.973358389371946131e-02 -1.700652279153150037e-01
-5.115663206498412274e-02 -8.159560240330339387e-02 4.897685410313775134e-01
3.109758841775293534e-02 -2.624711889719620883e-01 4.867116292773666641e-01
3.763184420232756344e-01 -2.766203156087203019e-01 8.063638426165031792e-01
1.915061359042526667e-01 -2.353755069112720699e-01 6.502663448249191847e-01
-8.932909343041537387e-01 -1.281931909744472298e-01 -3.261936568642954115e-01
6.515151189050506775e-02 -9.304473126028982299e-02 5.944801686631606685e-01
-2.706182932786337370e-01 -1.967736002783526394e-01 2.311437243558091548e-01
4.640812674777179403e-01 -1.929302655841668435e-01 9.265821916313582429e-01
-8.394020988140185047e-01 -1.505520292451995208e-02 -2.248176268929923116e-01
-1.267634429990212863e-01 -1.058480097093212197e-01 4.075548552402930014e-01
-1.614154177542994062e-01 -3.957136105521561475e-01 2.454704298048982491e-01
2.731916747332704398e-01 -2.406065071435430358e-01 7.250614810280129330e-01
1.196044196652810421e-01 -2.830121100085182806e-01 5.611148984304304976e-01
4.652569416233989230e-01 -2.701413806857118072e-01 8.932334870104153834e-01
-8.696860209965239230e-01 -1.045876754599182057e-01 -2.933702739393742043e-01
-3.973740662166879156e-01 -2.051736329201008513e-01 1.077086136618451429e-01
-2.135876744150057294e-01 -3.332072647447121838e-01 2.241041399178799742e-01
1.823921584001426954e-01 -3.443937898341566939e-01 5.930065447973128512e-01
2.998476621018950072e-01 -2.520187068480231884e-01 7.451375968916446046e-01
3.464513488487009907e-01 -5.627910853149288295e-01 6.504464104913251221e-01
-8.961413545021806870e-01 -8.987231225419388403e-02 -3.117827470572201443e-01
-9.094694450014575438e-01 2.775996999497554185e-02 -2.718689844120750765e-01
1.870674182530751295e-01 -2.050670848850983385e-01 6.596016349655047240e-01
-2.547645861720932436e-01 -1.584843729751012065e-02 3.268589226030642614e-01
-9.841689995200926244e-01 1.516928293373613901e-01 -2.870919136112377035e-01
-9.451983029419049886e-01 -5.524408537700573052e-02 -3.426492979575702646e-01
-4.152952073657351639e-01 -2.987607316260313950e-01 4.901968637347225988e-02
7.544434023149718116e-02 -1.788456853932781365e-01 5.659065397000829778e-01
-9.010907885342352985e-01 -7.641980523960036076e-02 -3.104523720909490025e-01
3.136529033068721772e-01 -1.414071585204150772e-01 8.075380788618798933e-01
-3.257403205213483255e-01 -1.087462282227165539e-01 2.183820457892522438e-01
-4.352322108211647000e-01 -2.491608835715146686e-01 5.233071087912582325e-02
-2.905183927726745496e-01 5.030610310241117981e-03 3.024173909133242022e-01
-5.200981680681460162e-01 1.233764528272333731e-02 8.890303387453436790e-02
-4.107623056422412544e-01 1.594633715098238425e-01 2.578021494128431845e-01
4.002752508688380284e-01 -4.678336024170149376e-01 7.436472897953243510e-01
9.003085403178791302e-02 -1.100783752400512072e-01 6.103699147593344421e-01
2.340036229140844137e-01 -2.013890324271030707e-01 7.055615602907171491e-01
-6.990480918951480493e-01 2.303543930475460827e-02 -7.529197368226128728e-02
-8.865513361591359498e-01 1.367920549542219755e-01 -2.015687901598531007e-01
-9.915863470244975497e-01 3.569516625241767604e-01 -2.024899196088179587e-01
-2.441278752513110217e-01 -1.741318069961433346e-01 2.662615761105267542e-01
-9.753303669014027344e-01 1.677204492288873194e-01 -2.715932171125577388e-01
-9.073697667647757648e-01 1.418550496594836730e-01 -2.189665349448484399e-01
-9.817552041794304074e-01 2.426164433309400403e-01 -2.442341375376629597e-01
-9.503823186078712570e-01 2.639359109861334485e-01 -2.050962729131728668e-01
-9.637465922545330743e-01 1.377628047421217972e-01 -2.740254013448312209e-01
-3.152407341180065714e-01 -2.455836781223012799e-01 1.672263942168488171e-01
3.710557667151232475e-01 -2.321524194513742423e-01 8.212404089171274624e-01
-9.677480034333427739e-01 2.033459082277349061e-01 -2.485343384911346543e-01
-9.834928470717203552e-01 2.673851018002540991e-01 -2.348207791858695492e-01
4.780719591598117102e-01 -2.478766304455644887e-01 9.152703836422443340e-01
7.043321401836728779e-02 -1.959942463766754794e-01 5.535216097885656827e-01
-3.714484230097634954e-01 -1.370045371814616053e-01 1.626117225197233618e-01
-3.481193049065717249e-02 -2.052143230022362430e-01 4.500314365342071299e-01
-8.884487674104798449e-01 2.571153393086126893e-01 -1.496609132705885581e-01
-4.064514324691233527e-01 -2.221020117547318762e-01 9.158249566891361881e-02
-2.880237222482882053e-01 -2.081605705145309626e-01 2.096271179781167004e-01
-1.957891598019026180e-01 3.031755964186578362e-02 4.031486944443061771e-01
-1.726980311297335591e-01 -3.488942212358521200e-01 2.557122634138411232e-01
-7.998064092749419540e-01 -2.327532912610476984e-02 -1.910988927726153253e-01
-9.108054086370570568e-01 1.898586842619067183e-01 -2.007868576288673046e-01
3.497108246597839809e-01 -4.296104612399845868e-01 7.129617239610214208e-01
-4.479790713863717189e-01 -1.063257972657965927e-01 1.040411306600232816e-01
-1.953977559926040330e-01 3.875344158056501231e-02 4.072831466091370034e-01
-2.953156202435657796e-01 -3.533570157458738037e-01 1.379417011355337230e-01
-8.378512396509658622e-01 2.540794289754964019e-01 -1.032402645807034003e-01
1.770241230026007029e-01 -9.099104651869982519e-02 7.010298621684977194e-01
-3.758490439586140153e-01 -7.142845574494817440e-02 1.877227068086301798e-01
-8.972862075172229890e-01 1.554545659545150948e-01 -2.033759915368688609e-01
-2.892728675760692370e-01 9.538624361258213336e-02 3.439185686824973720e-01
3.769037070548966750e-01 -3.552249706616353864e-01 7.718357301016208760e-01
3.622894523496962838e-01 -7.815263692030374743e-02 8.816920979571276629e-01
-8.520848050862940282e-01 -6.049584192082755295e-03 -2.327738336165759980e-01
-4.052229840972628172e-01 1.388153864599435683e-01 2.538174681358936202e-01
-5.205566018281216900e-01 7.442958002238338200e-02 1.161813864810912755e-01
1.610140599918688242e-01 -1.914173357565662481e-01 6.410931412675906493e-01
-6.731930607454117421e-01 7.735487924989122022e-02 -2.663654805639616846e-02
3.507139031135377283e-01 -3.753511475864997338e-01 7.381244291801638546e-01
-6.599842356136692567e-01 -2.108888107283969082e-01 -1.428056626667000006e-01
-6.595249961635523128e-01 -1.207273720302072181e-02 -5.364174290972067993e-02
-5.546647975486235227e-01 6.916529699462369007e-02 8.162609026277031776e-02
-8.794100853041446619e-01 -1.487603256205090596e-01 -3.222659591267438284e-01
-5.527011109427849567e-01 -2.374174502854951851e-01 -5.334558803227176099e-02
1.484957701207269554e-01 -2.618067581061273366e-02 7.030170572497623782e-01
-9.007419685608921700e-01 -1.644188237935388375e-01 -3.493963844802013274e-01
-1.765349864093752053e-01 -2.463850286334465234e-01 2.978384783555734772e-01
-6.486504907136755871e-02 -3.638387342966222238e-01 3.508614470118477935e-01
-1.597175076464990850e-01 -2.147702345473067043e-01 3.278274697006418048e-01
4.688254383386906143e-01 -3.743428158672297279e-01 8.500985495991980612e-01
-9.922878077007869502e-01 -7.990058005020500564e-02 -3.981165128445419144e-01
-3.742294088743065017e-01 -2.453861420859593523e-01 1.116158497950729411e-01
-9.286515678577861310e-01 2.820748981500462715e-01 -1.764822003100340042e-01
-6.038290416052406462e-01 -8.212431868981100169e-02 -3.231567066824048151e-02
1.833172769053449114e-01 -1.817214166022894095e-01 6.664796667289376586e-01
-9.775529037711425673e-01 7.155600002029098919e-03 -3.453508226141512316e-01
4.565080608031120146e-01 -2.542748334445827374e-01 8.920536915971103431e-01
-8.620366590271583140e-01 2.049465923012228352e-01 -1.480044509762710458e-01
-7.862123391839915820e-01 2.221567053658618229e-01 -6.872831654326737316e-02
2.858245485415308318e-01 -2.006517042360995706e-01 7.548213456613990235e-01
3.219052601159696492e-01 -4.864222595293740681e-01 6.613522289270471477e-01
-1.189802680654182127e-01 -2.120669335056334093e-01 3.674991393157883701e-01
-1.373729542489893207e-01 -2.412138878721273028e-01 3.371241749654556585e-01
-3.406152417470496019e-01 4.409827505691250871e-03 2.548375388188271473e-01
8.714878225308743398e-02 -4.408225198344335460e-01 4.600396690449218284e-01
1.482000550280948570e-01 -3.659112136416294847e-01 5.511183518971525253e-01
-5.815068378046302222e-02 -1.750732466750344329e-01 4.414461161538917877e-01
4.350481548341461058e-01 -2.613249743576588902e-01 8.686442364173480035e-01
-4.266596563648464846e-01 -9.340968557511392101e-02 1.299358742911915499e-01
-9.374276937706287338e-01 1.508987981983954951e-01 -2.433118783277631314e-01
-1.234953239990356638e-01 -2.048506086208417565e-01 3.664564991655152593e-01
-2.433512876786070867e-01 7.322352587348515685e-02 3.773878936902868020e-01
-7.053471050289733535e-01 -1.595136350549123672e-01 -1.627101121139982454e-01
4.820799268207234117e-02 2.753356425556431966e-02 6.322949318155119958e-01
-3.405532118244551376e-01 2.040850726641025084e-02 2.620362136936851272e-01
4.199504622045068802e-01 -3.813719163626267949e-01 8.008124332817851965e-01
-2.923904764898294650e-01 -1.981094963443942591e-01 2.099896380825810871e-01
4.356582304002907247e-01 -1.749601233051329696e-01 9.077643458262093512e-01
2.602649154776883189e-01 -1.766877209191860254e-01 7.413822148890304442e-01
-6.589141387759335500e-02 -1.152402199258754228e-01 4.608401918010894271e-01
7.259966144951238154e-02 -2.125111821117098287e-01 5.481958293527544601e-01
-4.549736443625322369e-01 -1.559541809703679505e-01 7.528784741765263966e-02
-6.633878690381402876e-01 8.365861959926419733e-02 -1.456490317414291941e-02
-8.752758689504830381e-02 7.116539986889308667e-02 5.236023219231282777e-01
-9.670199164677009129e-01 1.865693448147641709e-01 -2.553341279214992876e-01
-9.193910455302179985e-01 2.386761755360474746e-01 -1.871067261861048825e-01
9.928712535868690348e-02 -1.262466307861528914e-01 6.118941516102028855e-01
-1.918004798626392893e-01 -1.541703943185702697e-01 3.245791651938830236e-01
-9.016417951509531070e-01 1.905446654232275105e-01 -1.918281768922572295e-01
8.470034758961465793e-02 -1.634124304666649541e-01 5.815340715883194900e-01
-8.300254198328919086e-01 1.680823917388319655e-01 -1.342308203566185132e-01
-3.878347511557296567e-02 3.544565447215051318e-02 5.536863465134514994e-01
-9.177526547348555663e-01 2.153384136021896378e-01 -1.959752014320834401e-01
4.832595626240789310e-01 -5.184660100730041910e-01 7.994064158921776464e-01
-9.195202840335863215e-01 -4.078515492675174881e-02 -3.119504927875983991e-01
-3.294608916322463998e-01 -2.229071751962045378e-01 1.639197092523358434e-01
-7.424197475455324158e-01 9.612865610644107106e-02 -8.362364764991508936e-02
2.702536502554004350e-01 -2.582006689767785135e-01 7.144351611903904109e-01
-5.632997081454111932e-01 -9.489595003307026155e-02 2.533287926478463236e-04
-8.692612723442910694e-01 1.183773681351876772e-01 -1.934613963390801328e-01
-5.651619928467362941e-01 -2.597506572855583576e-02 2.925384218541542819e-02
5.397950413983385737e-02 -4.303189008633360180e-01 4.334080342066818914e-01
3.745665349074503436e-01 -9.916361211610490167e-02 8.839073929180993883e-01
-9.693089524274847157e-01 4.212520328928804486e-02 -3.219599588614338592e-01
-8.134300100410163381e-01 1.885975828143729993e-01 -1.094051916651768153e-01
-7.536416859012081693e-01 1.783605624592600192e-01 -5.752015183749047134e-02
4.621348991999164602e-01 -1.289634315283231525e-01 9.532923513050651776e-01
2.945057139846335437e-01 -1.514075441643991660e-01 7.849956787086473931e-01
-4.476591024529240626e-01 -2.408315243121927074e-01 4.431424115129273256e-02
-7.122478353501621173e-01 2.451270141595640606e-01 1.136246637625559774e-02
-9.581837211605322979e-01 -2.300372959013389021e-02 -3.405218246306238039e-01
-4.956694741742275756e-01 -3.930878476625706414e-02 8.891980911004472576e-02
-3.689415122268563940e-01 -3.086098405365449437e-01 8.839250814439741921e-02
9.684359214931265170e-02 -1.686050217286585995e-01 5.906826328012576566e-01
-1.042080432369613813e-01 3.722938791258793151e-02 4.927067667348127289e-01
4.517481374430531438e-01 -1.151672501780775515e-01 9.496420338269018213e-01
-5.945277153032100248e-01 -2.365489513651207742e-01 -9.245179475398628000e-02
3.285423810510569864e-01 -3.550413404334312739e-01 7.262536099690634073e-01
3.881959406512540400e-02 -2.328550323544264222e-01 5.072204500745581823e-01
2.129794022848057189e-01 -3.866808690970182094e-01 6.030154057450839433e-01
-7.414686968541195355e-01 -1.414147923828940612e-01 -1.887397035699069636e-01
-7.647908821853994787e-01 2.850872479650785052e-01 -2.041611370623020935e-02
4.742310328428954724e-01 -4.987219485020634724e-01 7.996930772582512281e-01
-6.489450559995986190e-01 -2.245758839853350119e-01 -1.384906203702082894e-01
1.461498273801652426e-01 -4.115094486774849569e-01 5.288322819398656449e-01
-6.802079372870135643e-01 8.972439421676074722e-02 -2.773975197580772628e-02
-3.493247212401727753e-01 4.242493751495015480e-02 2.635797036978470564e-01
-7.063296700436492159e-01 -5.782770623245640784e-02 -1.182561217782248514e-01
1.288493616849552825e-01 -3.827448421529768274e-01 5.253341668211741755e-01
-9.846342804315351138e-01 2.886125776607099680e-01 -2.264248699391789299e-01
-6.133862286013052056e-01 -2.115311120201685824e-01 -9.909321790639773198e-02
4.792315467648729510e-01 -3.055324154340269827e-01 8.906339036525068309e-01
-3.898400191354016719e-01 -1.474038289148269509e-01 1.406047447766599623e-01
-1.253364156810852503e-01 -3.546878033980217504e-01 2.978467454825021732e-01
-5.464322821811486985e-01 1.366733753312699140e-01 1.195278612100002802e-01
3.852429015198441387e-02 -3.274536735103606433e-01 4.647228707316830021e-01
-6.515301710377010558e-01 3.590949856589350370e-02 -2.467865940517448634e-02
3.640668298966341365e-01 -2.219999024160748125e-01 8.191722665308648343e-01
-9.025422278928013631e-01 1.398410999738319282e-01 -2.153070544391174346e-01
4.190529305536594973e-01 -4.658321886672341927e-01 7.622709009051515938e-01
-2.090500463613009785e-01 -7.448565244236018956e-02 3.438544287622669060e-01
4.126759755344452385e-01 -2.373204343169464381e-01 8.582328859653780562e-01
-1.692252439402771591e-01 -2.788100574691694256e-01 2.902694599981396895e-01
-9.740383699091081926e-03 -4.381584900194022136e-01 3.697432347198798541e-01
2.057864425418406418e-01 -4.228544360469187469e-01 5.800795957224796906e-01
-4.646894164240242819e-01 9.603772705115593000e-02 1.785762677203212023e-01
4.414762443391515023e-02 -2.057003489214072611e-01 5.243702754746668582e-01
-3.569523088354066842e-01 -1.740939806530454881e-01 1.597465735717262247e-01
-2.796116662541244802e-01 -1.877471678117852705e-01 2.266803750273081453e-01
-5.694884459670301879e-01 -1.293273126436052245e-01 -2.095673348089920063e-02
-8.773815163615567014e-01 -9.263299287140294713e-02 -2.953012735111299469e-01
1.432191093056368048e-01 -1.231536300610136248e-01 6.547563057137680831e-01
-7.096001992139757686e-01 -2.769460716723924631e-02 -1.078960419261415227e-01
-8.368422637434665967e-01 9.115616331328897648e-02 -1.749991338404000008e-01
-5.030052428703353229e-01 -8.784003571870833971e-02 6.033400269532227661e-02
-6.649138144050762422e-01 -2.298792251758034408e-02 -6.360138568784182156e-02
-1.073640594974664166e-02 -3.184811311989512589e-02 5.501363867807641528e-01
-4.495719515354890811e-02 -4.086596355711213935e-01 3.496557109385378670e-01
4.695024406164430841e-01 -3.934184656824452064e-01 8.422244576287957196e-01
4.492152023888819623e-01 -5.750151133636711709e-01 7.420233201247965482e-01
1.873842463782108836e-01 -2.527293773205831484e-01 6.386294280302122761e-01
-4.533462500926935257e-01 -2.381489647488950201e-01 4.014149092733645258e-02
3.665310518784943294e-01 -3.394974562607550594e-01 7.690606735546472450e-01
-4.356299153258596374e-02 -2.772058684698858189e-01 4.096390991153966432e-01
-7.819761836765839469e-01 -6.374824743081915213e-02 -1.923259058155897538e-01
-8.991191126152385804e-01 9.428347469057967931e-03 -2.702772018122612807e-01
3.395111319296724162e-01 -5.173657122199675218e-01 6.641663121937576575e-01
-4.991579182622630784e-01 3.419761230328647542e-03 1.046953921274535182e-01
-5.654780731146117345e-01 -9.434586310458870084e-02 -1.558042232966680386e-03
-4.477418859414898367e-01 -1.278743117312253486e-01 9.464812865772714856e-02
2.567299073538678936e-02 -3.368126302710924280e-01 4.484114856993861031e-01
5.921041022752825816e-02 -1.197111005779735726e-01 5.769693960993003135e-01
-3.349347818767863805e-01 -3.935623669347388526e-02 2.406686789532088977e-01
-1.564132003100837665e-01 -1.015209573916328947e-02 4.222672027766066205e-01
3.096080393832362221e-01 -3.896438588768515454e-01 6.929324178271379919e-01
-5.205754389566995544e-01 -2.579078730771423578e-01 -3.215639857901884946e-02
3.626743104179392940e-01 -3.115919217209284775e-01 7.778730886381538534e-01
1.885905349437127787e-01 -2.529700134374565090e-01 6.396610440451578894e-01
-6.186370602293277399e-01 4.091242742341757999e-01 -2.930941752063646599e-01
1.127304911796272041e-01 1.465387314589550009e-02 6.659447705419151431e-01
-7.806085249526147907e-01 3.243709506496594841e-01 -1.023568903816720332e-01
-8.486027694629233453e-01 3.169989452767347782e-01 -8.835338880582037369e-02
5.381315642002374444e-01 1.487694374658405649e-01 3.722334234444754086e-01
6.086212658151785027e-01 3.254057050535141132e-02 6.478503312600745190e-01
-7.747139630147724665e-01 3.823360113917600445e-01 -2.378410029900674683e-01
3.354713454780577919e-01 2.492062907893618715e-02 6.525881516433135188e-01
-1.122136509639581059e-01 2.145655336839237814e-01 1.869112034363373809e-01
6.394320598519620535e-02 3.167638796138206314e-01 -4.400536575928466060e-02
-3.997890189545701967e-01 3.862701601779342520e-01 -2.290612097143451542e-01
6.411262251732994244e-01 1.714998392285821960e-01 3.239369906049394676e-01
4.016558892683786963e-01 4.203045670729257943e-02 6.156896556567967860e-01
7.583192848902776950e-02 1.926159169022719497e-01 2.473472783119343710e-01
-5.325018722376309022e-01 4.117184527130262617e-01 -2.950362764721546349e-01
6.863534193502590641e-01 1.559353660518709994e-01 3.625631062417546957e-01
4.761878456537645965e-01 1.064965192285022288e-01 4.682729927990131324e-01
1.918990364105216395e-01 3.729989986005660119e-01 -1.695792670769012134e-01
5.718548214199135199e-02 9.632237405064626723e-02 4.719931680004286756e-01
-7.454292953035432379e-02 4.261874122600415871e-01 -3.069461463064493967e-01
5.750925911350580622e-01 1.931579282699582290e-01 2.700396753066518496e-01
7.595928606346146958e-03 3.560549139982481237e-01 -1.387380529852943745e-01
-5.507570341050693763e-01 4.418269644725069112e-01 -3.664332374422555882e-01
4.433625586103153160e-01 7.423766282065095978e-02 5.422549424605597190e-01
4.835591493721230760e-01 -6.103072679588601723e-02 8.610127213334158869e-01
8.980304881268419415e-01 1.437620259501098674e-01 4.012351623465595929e-01
6.470702103112485615e-01 -9.920213025366522025e-03 7.491482469715025072e-01
5.477492148134114336e-01 2.689758405109692885e-01 9.114497953761870053e-02
1.133919296382995823e-01 3.688959450379887262e-01 -1.637369377947023308e-01
-3.447289858527181200e-02 4.268825865464933034e-01 -3.066512460902944825e-01
-7.136789301654967999e-02 3.062988027613401387e-01 -2.598806306975295910e-02
3.407987991480376788e-01 2.686047093911277939e-01 8.208171034667320620e-02
-4.666961996888221997e-01 5.979446024675956206e-01 -7.280608691716193848e-01
3.321532381969671821e-01 2.326754720398505338e-01 1.658210064927814475e-01
