1.611841747640792855e-01 3.081295561440663411e-01 3.562706406345303445e-01
4.725711414701792568e-01 -4.874704209583461401e-01 -2.676465212314956682e-02
1.700279393877484613e-01 3.182129033571805543e-01 -5.910890882052848294e-01
3.492989317810937244e-01 -1.625326138415396360e-01 -1.609734975969306370e-01
2.385444933609741913e-01 1.142325761677170926e-01 1.533555518097425852e-01
5.297268489755900811e-01 -6.342958324487735222e-01 -7.439190586600723243e-02
4.634895886314098212e-01 -4.627234628073143008e-01 -5.982240307206977692e-02
3.151584493702885292e-01 -6.467834300253394453e-02 -4.234445423663645847e-01
8.448945494142949542e-02 5.115524278043998008e-01 2.366526281065372828e-01
2.770103985859201368e-01 4.175587715599952260e-02 -6.334310606090917117e-01
2.166188547766619565e-01 2.068843498443712348e-01 -8.694055148783951248e-01
2.497798449778339258e-01 1.015279296616096172e-01 -3.190261968595373698e-01
3.000462650270017129e-01 -1.727742996395665795e-02 -6.567179266998499632e-01
4.195554530770267965e-01 -3.450805891857721686e-01 -1.602464952692584377e-01
1.871201969261287457e-01 2.445173803285522196e-01 2.482867757031689271e-01
2.195667652618255861e-01 1.623021221708402517e-01 1.887051350487764512e-01
1.405129775565188144e-01 3.669132545123012235e-01 2.106644910138473492e-01
2.570375534452027377e-01 5.477496776510992066e-02 4.804326596351828904e-01
1.310503137728174505e-01 4.140720241824248360e-01 -4.362679473870647029e-01
-6.499272222288014766e-02 9.016685943127770164e-01 1.859408524008970831e-01
2.056753149486006960e-01 2.082287356279762802e-01 -9.320150007295126271e-02
3.728751188273423112e-01 -2.118444770280573652e-01 -5.030705745330764644e-01
7.018810560129218334e-02 5.578327239749899524e-01 -2.487302541877221135e-02
4.628966034347979930e-01 -4.510059980151865933e-01 -3.514590522765132508e-01
3.571262166030556018e-02 6.383768225706226707e-01 2.336481091387243580e-01
3.068783333866227370e-01 -5.876963432603943271e-02 2.367340389378777554e-02
4.444137056784013828e-01 -4.000274636483420188e-01 -4.363107328218491787e-01
4.444668059174027852e-01 -4.234400288890813879e-01 2.306621104843120940e-01
3.283555916132252506e-01 -1.347565709513712240e-01 6.022570176794240782e-01
3.851268632503845324e-01 -2.465163395457460049e-01 -4.216140138473045140e-01
4.286294665255342973e-01 -3.830840664996387757e-01 2.532602002540498831e-01
-4.911596125952465142e-02 8.566537004195133864e-01 2.939173339076833202e-01
6.933374017419503821e-02 5.701669555288169100e-01 -3.147247997567358402e-01
3.516460695361243727e-01 -1.715185737885565886e-01 -7.820661918182897354e-02
3.294403857162158666e-01 -1.375897472115172882e-01 6.026851602007212705e-01
5.136154516976563222e-01 -5.963190048263702359e-01 3.678744161845595717e-02
5.099389342807342240e-01 -5.756644138092299468e-01 -2.813932442782154930e-01
3.576610120727584663e-01 -2.102411891044395631e-01 5.836512766385105744e-01
4.112836250926218407e-01 -3.365841523325965312e-01 2.120987588972633453e-01
3.235271734135479749e-01 -7.943881953355186321e-02 -6.234970623875821794e-01
1.622719485135649120e-01 3.030484374633859446e-01 4.208954893382565454e-01
3.109731461559994692e-01 -5.128540796775846178e-02 -4.956520581078889820e-01
9.961325578931426450e-02 4.614872991349790454e-01 5.454087204439845848e-01
5.122123305567208851e-01 -5.891265050747576115e-01 -6.486542428493372037e-02
1.787563417969964541e-01 2.862292018215254474e-01 -3.243588917492217782e-01
1.963543399275991808e-01 2.212506471533346730e-01 2.275661113476613873e-01
3.066542510405442790e-01 -7.260382135446628860e-02 4.367976722917888965e-01
2.895353790854491849e-01 -4.207643453482046852e-02 8.364580934124629108e-01
3.020886637275194131e-01 -6.597843685165911964e-02 5.868371586991114608e-01
-7.484063715748245915e-02 9.264553117681727512e-01 2.087982061515159526e-01
3.181201273860235212e-01 -6.737785274078024467e-02 -5.665779438621713071e-01
2.919061688048705250e-01 -3.972119621135357381e-02 5.924631830623855455e-01
1.524795142508899026e-01 3.289818497204454739e-01 4.067619422843457566e-01
4.164072678941705408e-01 -3.530748805501124354e-01 3.032207684510036527e-01
3.771543730004018879e-01 -2.210321583873898488e-01 -5.583661146268745767e-01
4.363879999957820388e-01 -3.851547126599274562e-01 -2.650128113884705483e-01
2.239262463003201253e-01 1.418587386610996870e-01 4.499877315566894187e-01
1.557239158843788662e-01 3.412548108036086436e-01 -1.864808987106522653e-01
3.492921061182023834e-01 -1.827123306562772886e-01 4.178180773118396751e-01
2.931454514257350596e-01 -3.241734285414500216e-03 -5.451792676419804362e-01
2.517827537240185376e-01 1.035482498748668961e-01 -5.260353006252243002e-01
1.159144303230428552e-01 4.407667447263246552e-01 -7.440651702830117231e-02
1.767718133606780151e-01 2.611059447426461455e-01 5.433349833111573712e-01
5.573649788195944588e-01 -6.983787326129071715e-01 -2.956056668895871153e-01
6.141272723786055099e-03 7.177882156377447531e-01 1.595235352308780608e-01
1.851507368247964636e-01 2.693229264084134322e-01 -3.159342244289303769e-01
4.244074740760357400e-01 -3.603798958926974771e-01 -8.304483112767363506e-02
2.199962791195065326e-01 1.624437208452046144e-01 1.526707460560785545e-01
2.415737124059652852e-01 1.444154104674282568e-01 -9.371045418292888174e-01
1.928857994349627292e-01 2.637455249893356224e-01 -7.319679508530350098e-01
1.742021757094100731e-01 2.938665004083486076e-01 -2.041677823610840714e-01
2.255573353634964806e-01 1.661391475558868236e-01 -3.672399089973542585e-01
2.013633721723254999e-01 2.049145527460869143e-01 3.227894102258470066e-01
4.428079865879854804e-01 -4.088910957469037433e-01 -6.276527871405879200e-02
6.372691474395449085e-02 5.717043698470818391e-01 5.863752026722234695e-02
7.731278520791924624e-02 5.453987400744246816e-01 -1.989778829030151852e-01
2.061834410757140967e-01 2.088981383126527758e-01 -1.502135545520854598e-01
8.202146549026127775e-02 5.207144301914491402e-01 1.578381822304640580e-01
1.678858756358991566e-01 3.188575369535162629e-01 -4.500888018583766859e-01
4.459215643054242340e-01 -4.183657645875218378e-01 -2.305390338996248303e-02
3.600663322224277874e-01 -1.706706747571140326e-01 -7.293801246612476863e-01
5.099248104064194598e-01 -5.744113929757028725e-01 -3.162491438059558679e-01
1.881693331477374553e-01 2.732807085999874319e-01 -6.540809005797411091e-01
1.630804729176685286e-01 2.926306689624013080e-01 6.592406144352566111e-01
1.934049413647733751e-01 2.394184454503151260e-01 -7.348426002691564596e-02
2.787658560928425455e-01 4.236180285680323648e-02 -7.814859701372172118e-01
2.336950655584674741e-01 1.104737205403197031e-01 6.221042303409700658e-01
3.279675259618278771e-01 -1.383793411165725740e-01 7.349644222088252965e-01
2.898925069208350691e-01 9.417093786162133301e-03 -6.657623901631840591e-01
5.021425679530939767e-01 -5.631239488517023606e-01 -6.033374046663837059e-02
-6.740107147027528389e-02 9.073497709390391242e-01 2.024351484886209307e-01
4.761804940380190421e-01 -4.917597548520259432e-01 -1.725573625953793766e-01
2.197410161508814574e-01 1.776084249231933143e-01 -2.628951877273171256e-01
9.778197345779399141e-02 4.664042405369074884e-01 5.408417103013662963e-01
3.561285349202633621e-01 -1.625702115728741293e-01 -6.683494723164487006e-01
1.919535679703100461e-01 2.161307122150891435e-01 7.019170513742758466e-01
8.064263083131609222e-02 5.369945967680977983e-01 -2.060450122101784576e-01
2.351530781697998007e-01 1.285973195407459357e-01 -5.804487961559375193e-03
-2.489048589938873748e-02 7.998094834930487007e-01 1.193338944024866233e-01
3.512854535072724160e-01 -1.601563260349148365e-01 -3.769634576534384163e-01
3.668177788019721941e-01 -2.020225392669953435e-01 -3.335749644764846589e-01
-1.433826564437049901e-02 7.781978408510205059e-01 -4.694496217952903033e-02
1.728687345380151286e-01 2.733564021879458239e-01 4.828558969831416303e-01
7.116346038444979741e-05 7.380795871741230307e-01 2.995072316910876720e-02
1.361411255507680163e-01 3.877403224739897070e-01 -6.069222347916329585e-02
3.101446317155268639e-01 -5.955008624646682819e-02 -1.971323090896611452e-01
1.699358908771323173e-01 3.225060339366244144e-01 -7.072630300888455013e-01
3.324914702294937685e-01 -1.315685228890204617e-01 2.029884154903128235e-01
2.422127925683774108e-01 9.142249893760392987e-02 5.339171202596791899e-01
3.553617259558106145e-01 -1.637300354874838826e-01 -5.780250426918093209e-01
3.094676781956908207e-01 -8.216312615896385896e-02 5.012801777662337921e-01
2.450516695122178790e-01 7.568459895196461007e-02 7.735628698452536867e-01
3.105245847679603544e-01 -4.532915454955525891e-02 -6.329437237048555209e-01
3.069112080305989587e-01 -3.565927216977830827e-02 -6.410400035910315264e-01
-5.966287178551318501e-03 7.458646852489269063e-01 2.563346347454696361e-01
9.622432153319203374e-02 4.913047291496291380e-01 -5.675850874877109292e-02
7.403801418827520020e-02 5.292049799800422338e-01 5.088829416471322142e-01
1.442588262961153889e-01 3.732514457276306374e-01 -2.498395913117069378e-01
2.755762232658491850e-01 5.626958714048556354e-02 -9.425734708923555472e-01
4.530383755047820982e-01 -4.356975595347953312e-01 -5.621803235888583189e-02
1.458041242592582609e-01 3.393036978033501794e-01 6.079446539228157143e-01
2.719365002534963049e-01 4.840733026658439186e-02 -4.462956436668676918e-01
2.880304563496106085e-01 1.614633639892939024e-02 -7.199732638031793863e-01
2.823869980502303201e-01 2.130248882408956532e-02 -4.475846543635763064e-01
2.129643115196137027e-01 1.807372190704912285e-01 1.519591900367774362e-01
1.952329961744941056e-01 2.357965932266989639e-01 -1.057899045461434817e-01
1.339633102645562679e-02 7.095080867020377990e-01 -1.433234511313312975e-01
2.433096741080119640e-01 1.187144044823268685e-01 -3.298390508104496743e-01
1.651933389450369327e-01 2.828995896929488718e-01 7.808012968967039669e-01
1.208436202417425970e-01 4.081196381727479339e-01 4.941801550259364295e-01
3.228380785646742801e-01 -1.234074706402323585e-01 6.877999555804295007e-01
3.480621418196323535e-01 -1.432260061942537965e-01 -6.221594127203297075e-01
2.431714439874712030e-01 1.039277363170533902e-01 1.041885863456941952e-01
1.485429266432179429e-01 3.473037113913278184e-01 1.747913271332492136e-01
6.292016727237212392e-02 5.643501029727731044e-01 3.294473960916607935e-01
3.517146038513027650e-01 -1.502718694680217071e-01 -6.921686130138373638e-01
2.705001562043974905e-01 1.963111212587604140e-02 4.852684377304978813e-01
3.339019107826283750e-01 -1.040346813049757846e-01 -6.910448200059757795e-01
4.340975679923881891e-01 -3.987199925847056958e-01 2.942420148111681844e-01
2.466220038457804797e-01 9.277618965039480248e-02 1.668658906231997030e-01
4.008092816533773139e-01 -3.102914173261380193e-01 2.384353041329334566e-01
1.949262563946652649e-01 2.531587861087183366e-01 -5.804961730770002992e-01
2.740848875023016440e-01 1.017382594043130493e-02 4.894050280798675767e-01
2.738663799396077736e-01 5.952801922671496770e-02 -9.086540789766127668e-01
5.426864778132994838e-02 6.086109312874145028e-01 -2.948281425241324194e-01
2.170652302894514329e-01 1.965396983893623328e-01 -6.061942552303971610e-01
2.836925991765261168e-01 9.921582005906230337e-03 -2.186457895825680564e-01
4.755571353525314127e-01 -4.955710663069682886e-01 -1.692979039918501155e-02
3.520382325963730685e-01 -1.742334226557889221e-01 -2.960403444302338316e-02
4.721886485048653603e-01 -4.699193491234600617e-01 -5.012438542125740026e-01
2.243159830720475589e-01 1.478257832997752486e-01 2.499768229267598230e-01
2.354009132438810922e-02 6.773469504648935713e-01 2.312022463944782974e-02
3.587270409289085582e-01 -2.123317864863083493e-01 5.641966275245535734e-01
1.154664331694171958e-01 4.517648763971909842e-01 -3.562236126329903496e-01
1.146016515115699796e-01 4.590859097618857354e-01 -5.016383660754690776e-01
5.111260203333201080e-01 -5.816267863286197493e-01 -1.989082457204084664e-01
2.497916593156113418e-01 1.018176425176664512e-01 -3.282079607483434636e-01
1.363606498708526127e-01 3.964645724846142527e-01 -3.270433929225303182e-01
1.659848618154717015e-01 2.902157237691870284e-01 5.122176279791882392e-01
5.419601537086833620e-02 5.953195566573145081e-01 9.146571832126385027e-02
3.497056429728682692e-01 -1.920278108734456146e-01 6.539815073779959853e-01
3.918829228462396008e-01 -2.721455962644925841e-01 -1.901431485878606054e-01
8.628443990399310703e-02 5.037535048353715128e-01 3.265099059117281821e-01
3.801782188935162732e-01 -2.264157626612390561e-01 -6.292106165644221205e-01
7.253100329165272642e-02 5.370062762278113855e-01 3.975184293629150378e-01
4.895698818208043396e-02 6.094263800963760636e-01 7.724866230885248097e-02
1.269007578107933520e-01 3.999829820323451690e-01 2.764050641652230911e-01
7.660886028037594553e-02 5.494058915307885593e-01 -2.614033626828815571e-01
5.316160370546992864e-01 -6.427772598033117957e-01 2.801039603969077835e-02
1.752871635250294602e-01 2.948833157896066370e-01 -3.140819879467742215e-01
4.097647851723664747e-01 -3.225440919797522010e-01 -7.716728319650625889e-02
3.920267153629079515e-01 -2.735186334447562984e-01 -1.615016106916333793e-01
3.165664730072200173e-01 -1.083156114867275949e-01 7.222289235779024708e-01
4.542104608886169403e-01 -4.461781105395680735e-01 1.568596768575534484e-01
5.591718979774457608e-03 7.301432719196174759e-01 -1.536177651936280475e-01
3.257913137477687626e-01 -1.160675693074261772e-01 2.575990549943747432e-01
3.194651018989081992e-01 -9.246836291413974840e-02 5.230116434497065342e-02
3.258885814507664902e-01 -1.198612817387946089e-01 3.590727767558292705e-01
1.561415775800182593e-01 3.317351307648897518e-01 5.522712950471268811e-02
4.902056163778715225e-01 -5.256366448586156093e-01 -2.459073096584287188e-01
2.466772919345893433e-01 1.215139658092177777e-01 -6.607790895324034963e-01
-2.181333662620203381e-02 7.916024237729726298e-01 1.254318592890577566e-01
1.503552724306214394e-01 3.273089522287677133e-01 6.128481288600973187e-01
1.581102493729937275e-01 3.091725992647351151e-01 5.552294972072965296e-01
3.678811156523550951e-01 -2.276922203077842155e-01 3.228687389027373733e-01
2.315369039206670032e-01 1.195026856007347094e-01 5.240359888181375103e-01
8.275227721519577695e-02 5.365367978778213809e-01 -3.499859354666460809e-01
1.830719030589952334e-01 2.662418638315129371e-01 -7.287528011591737354e-02
4.002205060650545348e-02 6.310226677972621268e-01 1.235633439160058883e-01
3.218780617762390661e-01 -8.968253380231795691e-02 -2.071725457191518627e-01
2.537145240015508119e-01 6.449220607198141719e-02 4.493634093776062710e-01
1.481010143799478193e-02 7.030129169284048407e-01 -6.244655958919172883e-02
1.677185928566359563e-01 2.783861391521831319e-01 7.221404922070887578e-01
1.598150708676117360e-01 2.979573428029521076e-01 7.497000354368941188e-01
2.884480940085533685e-01 2.122155346840879503e-03 -3.491794627972908960e-01
4.521877317303243937e-01 -4.462452778659382613e-01 3.093735287715886906e-01
5.887071679154721737e-01 -7.846334088727897615e-01 -1.572117222513473578e-01
4.583314488948423415e-01 -4.380069867159153696e-01 -3.840986826664650744e-01
3.120420467007812282e-01 -4.784882790172996503e-02 -6.737109808218080254e-01
2.985826899508125520e-01 -2.177169012628793476e-02 -4.189665092026750304e-01
4.692646384902133261e-01 -4.711529952947446920e-01 -2.482036399938103710e-01
1.650239185599856884e-01 3.279849874861405223e-01 -4.985828258755657383e-01
9.169205648119907459e-02 4.880351327639096959e-01 3.743573541762520440e-01
2.178199475808363372e-01 1.984209344697580035e-01 -7.162917463246325500e-01
3.445543995566253681e-01 -1.707362159548699576e-01 4.273374849685834809e-01
4.972834401765273138e-01 -5.521103094394023136e-01 -1.419337760241828027e-02
1.681105495195240329e-01 2.838906255755027086e-01 5.352196926254688680e-01
2.103272979475680482e-01 2.001053358256426051e-01 -2.067448869444229176e-01
3.659322481727756426e-01 -2.279848825898070086e-01 4.763456367121606250e-01
2.951708301222025765e-01 3.083050669355275573e-03 -8.772128350496644078e-01
5.250113150390842698e-01 -6.234369729572176722e-01 -3.450640593815797880e-02
3.471238301153780070e-01 -1.371751326367072754e-01 -7.257014218320136933e-01
1.863134597674592774e-01 2.590300773382406829e-01 -1.075384076759219459e-01
3.951127661701759330e-01 -2.822808753166687334e-01 -1.401566814897113877e-01
1.222534597613861296e-01 4.054038935462250248e-01 4.670439693876062281e-01
1.445093792015218759e-01 3.783604095489979113e-01 -4.148987403529632578e-01
-1.132783048081178502e-02 7.712949748200402800e-01 -7.325407852187010294e-02
4.300075270895250545e-01 -3.598897233451569533e-01 -5.140068358056021358e-01
2.786980936350196836e-01 -8.187977125212178228e-03 6.721470268053597596e-01
1.831754172863949426e-01 2.860568302373946437e-01 -6.484126384229013107e-01
3.794809090694064024e-01 -2.466090492516290478e-01 1.375301721960025180e-03
2.511020048755841505e-01 5.765903535968429361e-02 8.396773155989614157e-01
2.189492660975901617e-02 6.881635635285743291e-01 -1.643678777641395250e-01
2.642487529209707753e-01 7.686019779840172483e-02 -6.893190700080130684e-01
1.411073988407617885e-01 3.793376061122559206e-01 -1.896297553740471931e-01
2.674784244554798129e-02 6.536955652829927743e-01 4.620779678544559843e-01
2.337021744386700017e-01 1.269395824900190484e-01 1.497182706432317045e-01
2.162182448328460183e-01 1.950734262823386467e-01 -5.011190260065506719e-01
1.822195227610664547e-01 2.460076745671897491e-01 5.704275296118443972e-01
4.923844985758123460e-01 -5.268663793895906888e-01 -3.728816300700424358e-01
3.576105720044546743e-01 -1.959738639767099333e-01 1.785524837287670863e-01
3.748080009446432825e-01 -2.326440491050341119e-01 -5.092426102559764745e-02
2.487820796913779997e-01 8.017202925984218131e-02 3.672448025867632304e-01
2.276775971382817010e-01 1.624004432179809998e-01 -4.179513184679414239e-01
1.462284088731555520e-01 3.347255245626377107e-01 7.075525037827005148e-01
2.119905348331229122e-01 1.676965178661574685e-01 5.981583849896743299e-01
2.241583749209658527e-01 1.348215448818232409e-01 6.343686296817946380e-01
3.951810525127726764e-02 6.291540440360350317e-01 2.146298248407912390e-01
2.666934367264268135e-01 7.392872294415792078e-02 -7.873157044571191809e-01
2.554060521057236466e-01 8.797403942261847187e-02 -3.494793113411677199e-01
3.527434033168677097e-01 -1.651786739162262041e-01 -3.415818198133087624e-01
3.126194856285670620e-01 -8.598298157545393450e-02 3.760973074267184302e-01
-1.368438562105169128e-02 7.723660107094707516e-01 7.149549194238800920e-02
7.478655106994237800e-02 5.584663099537849895e-01 -3.853766469740141365e-01
9.916321698717106559e-02 4.877050356326593228e-01 -1.723995173893629052e-01
1.663706863358840049e-01 2.879960349693584942e-01 5.471024702978526388e-01
2.471601911476033753e-01 1.009727032399108659e-01 -1.080860787809341528e-01
2.741179105756855194e-01 5.030981004302931270e-02 -6.632169998410453182e-01
3.499700325475748053e-01 -1.915645904813824407e-01 6.210237597931622666e-01
8.451097157845566255e-02 5.154089961053394120e-01 1.245343560880918937e-01
2.398275315002712516e-01 1.387838415486359056e-01 -6.457220792748864513e-01
1.217455994026141602e-01 4.030301768433373621e-01 5.728761962580317668e-01
4.375994238409523507e-01 -4.098614232331700968e-01 3.528105205188620808e-01
1.864525985997266266e-01 2.503714896833326153e-01 1.302291800643338437e-01
1.171757599700222613e-01 4.437722147092718061e-01 -2.544373111763229001e-01
8.799030977704798417e-02 5.053049571402800089e-01 1.550510785383978629e-01
3.118567507606066491e-01 -6.542981926211745292e-02 -1.561033782220244692e-01
-1.818750856420920173e-02 7.876342356868299976e-01 -3.079039456928604757e-02
3.230617907392098753e-01 -1.131382469026616239e-01 3.768632099977984318e-01
1.244963584539182655e-01 4.301648359980514424e-01 -4.095024425689982595e-01
2.112968241534812774e-01 1.923427270779077825e-01 -5.647412476345793630e-02
1.840523518575611084e-01 2.396198313934759794e-01 6.170305270226866812e-01
4.307807754363541797e-01 -3.822056114219677947e-01 6.792498192457516182e-02
1.828097308567180890e-01 2.624891517408743935e-01 5.418325408329741077e-02
2.743251389149533037e-01 3.480692895631549988e-02 -2.343839363693049072e-01
3.844941980850402619e-01 -2.386404933065769118e-01 -6.002085689965629411e-01
4.298642535916189500e-01 -3.843376921191714035e-01 1.972569425171932234e-01
4.369022702984355910e-01 -4.083280001489695277e-01 3.607697305634249840e-01
1.425859209903279912e-01 3.474485309678034262e-01 6.141311467097616550e-01
-5.862673199911457717e-02 8.878261492695922463e-01 1.086810483614129158e-01
3.538677288251393938e-01 -1.596917374081561203e-01 -5.825234261831476745e-01
7.391228067183240602e-02 5.342837074267755559e-01 3.727042089656050772e-01
2.662880358929342051e-01 4.730994765154404591e-02 5.671127394378832308e-03
3.540361370455644141e-01 -1.623104837226972685e-01 -5.200166181757432948e-01
2.631503980429444889e-01 5.829799627511376287e-02 -7.561742796995939153e-02
4.242225753127342180e-01 -3.486824045710824049e-01 -4.044905116191667704e-01
1.125506460593430208e-01 4.412767018984671274e-01 1.614083509539750994e-01
2.693941494403443992e-01 3.668871923184383738e-02 7.879477412501141587e-02
2.761703541146611762e-01 -1.067604176967491380e-04 6.287525960305399009e-01
3.210451322980464872e-01 -7.498610742647851546e-02 -5.663128225553434314e-01
2.042742964851180232e-01 2.175480432724060387e-01 -2.559581315606928587e-01
2.856918759345151645e-02 6.692987427762685515e-01 -1.206534177880414227e-01
3.762755754223290894e-01 -2.405996918902928439e-01 6.779928896040453290e-02
1.408720046972082862e-01 3.703262638157187592e-01 8.613000579651373945e-02
1.175896285851264489e-01 4.314503151562618655e-01 6.785537610859629365e-02
2.073311275866125680e-01 2.156431369386521413e-01 -4.289462180208496456e-01
1.684078082795759379e-01 2.943347574017783908e-01 2.137952346314950791e-01
4.106360667386630414e-01 -3.079898311164742664e-01 -5.591094492064364596e-01
1.177169532136771585e-01 4.409720682313885143e-01 -2.144854481236167787e-01
2.908233474169659161e-01 -4.043357364830742207e-02 6.934919248120343660e-01
2.975049635782363588e-01 -4.175756543012304478e-02 2.339971172165176139e-01
3.258845727963487482e-01 -1.234012042095103540e-01 4.608135925672272037e-01
1.569309830902177461e-01 3.499038335245931441e-01 -5.241973466613146782e-01
1.651832458769853240e-01 2.839266089270139903e-01 7.521217625357980996e-01
2.654910659847901089e-01 5.919840558237533107e-02 -2.756792685907215046e-01
1.168372036239340855e-01 4.390739385736429079e-01 -9.459538200879592795e-02
6.836626805449012856e-02 5.621955143458533533e-01 -1.426306390057916103e-02
1.412348895856036790e-01 3.509862217919604843e-01 6.133349209969904958e-01
2.036571485325832653e-01 2.124131155174002750e-01 -6.286250794898669281e-02
2.871474451067474454e-01 1.255013064871356165e-02 -5.511791723775772978e-01
4.558182141225518291e-02 6.066361214077820030e-01 4.084841255874600008e-01
3.325024029887960197e-01 -1.412880684472090642e-01 4.807042640606639106e-01
2.327631066113529379e-01 1.617121712124049981e-01 -7.768360591034421114e-01
2.296454283793026574e-01 1.287085445241672177e-01 4.010441910697462586e-01
1.965929744005629476e-01 2.303600734586698784e-01 -5.124564806967138453e-02
5.176578564033482710e-01 -5.990822833318033558e-01 -1.849769916731739683e-01
2.364761011569666838e-01 1.011985594524676679e-01 6.808556254288365972e-01
-7.988659378604498484e-02 9.420602866545575438e-01 1.372753188751474063e-01
-1.292771523216732291e-02 7.717120762479253715e-01 3.390213250202928075e-02
1.945580489538647762e-01 2.107623487515817018e-01 6.618568681168205403e-01
2.392775028892319966e-01 1.223917606497686855e-01 -1.350309035228883792e-01
4.533178224199132522e-01 -4.420706863482575244e-01 1.056101462856970236e-01
3.303599634705669530e-01 -1.002954295482414437e-01 -5.345068063226110500e-01
2.809335670585764722e-01 9.981383752938320988e-03 -1.495383047584511807e-02
4.314431817523531887e-01 -3.624751584461693987e-01 -5.467991555780695734e-01
1.580944072992525873e-01 3.405185200280035906e-01 -3.418606823764600011e-01
3.697205095776235351e-01 -2.003830695682587981e-01 -5.966605217177114451e-01
2.557415574099780597e-01 8.833053153143138880e-02 -3.846730382809322446e-01
2.128878187587422421e-01 1.812282486400668413e-01 1.435826872666653709e-01
1.521972698573509919e-01 3.201015794098657774e-01 6.822535459823934056e-01
2.357577722958254240e-01 1.261415066432864662e-01 1.955237994299045129e-02
-2.998935557324932180e-02 8.066068851877663537e-01 3.041459892262270426e-01
2.261773295552449436e-01 1.347121395854184722e-01 4.871957680121787315e-01
6.017349384950918673e-02 5.791297427723608449e-01 1.103977794187409323e-01
2.922192267493573525e-01 -1.364504555438335841e-02 -1.780990501750086552e-01
2.200135483613405163e-01 1.619481870528762246e-01 1.655854243135381765e-01
2.206744088334211817e-01 1.660848501524126442e-01 -2.157591520256822368e-03
1.605266955364598180e-01 3.074359603718925249e-01 4.250950959007151475e-01
2.519549836113193497e-01 7.960056720401265107e-02 1.474032061822941331e-01
3.686898940027438787e-01 -1.955407386436785466e-01 -6.586978471068338781e-01
1.328852790740557011e-01 3.792235419505048943e-01 4.257630547908885510e-01
3.084462746219703844e-01 -5.083853632724678190e-02 -3.203362285815257171e-01
1.931735606849264431e-01 2.539581325046317284e-01 -4.729172889009873315e-01
2.984710262903830791e-01 -3.970286327547345451e-02 1.031943266857483915e-01
2.155596596724470848e-01 1.509686108198274312e-01 8.118086093335848963e-01
1.374043256644268129e-01 3.653018775448556577e-01 4.882755131457893749e-01
2.265340269803773343e-01 1.694352932342255980e-01 -5.344096381001814944e-01
2.236970838138963302e-01 1.623486042551761377e-01 -1.201227204281243160e-01
1.948929074638092174e-01 2.461858199642522893e-01 -3.781914313787972937e-01
9.986057480931810615e-02 4.735774262531922130e-01 1.805334607839215455e-01
1.552618568579247904e-01 3.129709220745677811e-01 6.584406484913712942e-01
2.222917386272554585e-01 1.788755118367048036e-01 -4.891030217359017551e-01
1.070372514739917520e-02 7.165309408370491573e-01 -1.441146929805277310e-01
3.237177221472662403e-01 -8.746864413805982563e-02 -4.075751154137094989e-01
2.221852001764109408e-01 1.416871213514084571e-01 5.845239051655615192e-01
1.811748927651422869e-01 2.438573942331824507e-01 7.098184850255784273e-01
9.019493151257874930e-02 5.022627267360150194e-01 7.810057910298894013e-02
3.641724783873231397e-01 -1.860615933246285714e-01 -5.940239411355189292e-01
1.388017728220937719e-01 3.835961700019292486e-01 -1.400157061803533887e-01
1.056711588365026044e-01 4.519388700498612743e-01 3.680333473712474879e-01
2.466100060821637685e-01 6.919768338216519821e-02 8.434404963162475122e-01
1.521611990190391839e-01 3.296806355752545659e-01 4.104351462265142247e-01
2.167621667618183923e-01 2.064527672919820311e-01 -8.677071534508937756e-01
1.039445085785855732e-01 4.741935369442037418e-01 -1.411647762998686495e-01
3.357689665872953255e-01 -1.296464317991579684e-01 -9.609684719267781727e-02
4.214409381892247342e-01 -3.668955611896276836e-01 3.245264290987842637e-01
-1.721324807281556998e-02 7.774000303503386666e-01 1.899556265433762492e-01
2.622913634151177176e-01 5.439362394771830866e-02 1.002226683448311506e-01
3.628488481235928043e-02 6.322831835456894645e-01 3.656673830673017322e-01
1.683678397190240261e-01 2.803594900954712310e-01 6.172554066693041186e-01
2.317053523823491001e-01 1.450585460605260668e-01 -2.208505092155832461e-01
6.825757085706665728e-03 7.194916619004585456e-01 5.974964072151963540e-02
3.154060618643680924e-01 -5.580380310654195486e-02 -6.961936400843395933e-01
9.013256300941842325e-02 5.195515227435415495e-01 -4.126954436101298307e-01
7.585853460750327515e-02 5.383032885703672443e-01 1.126208145676728806e-01
2.366263070950520575e-01 1.451317561302744585e-01 -5.893059400968971850e-01
8.332965843321205046e-02 5.225635877411037855e-01 7.454547884545801792e-03
3.623516156856291647e-03 7.231328625450736958e-01 1.938068571212036018e-01
-1.894341465645726225e-02 7.832082998238567573e-01 1.523182139278888569e-01
2.184976017607821175e-01 1.591293156110986096e-01 3.592247650484666210e-01
1.677052055445764911e-01 3.042605810056024374e-01 -1.833809420138596963e-02
2.117474627953756239e-01 1.693401931622506573e-01 5.691524677996476766e-01
5.513952840072079420e-01 -6.883127962802134681e-01 -1.396272932012411483e-01
7.578693350813525687e-02 5.277505385262335480e-01 4.203580444630452551e-01
3.443128832621311086e-01 -1.566025869847741947e-01 4.029530804283416867e-02
1.309330336899145950e-02 6.901977888354985380e-01 4.326052557230505857e-01
9.729360632072292514e-02 4.717067099283361875e-01 4.252487920298347879e-01
3.539470232568631136e-02 6.448954467100095345e-01 7.051467433021350872e-02
2.152152579114437747e-01 1.501866316489985920e-01 8.598577045680646513e-01
3.556397262810978011e-01 -1.887567316054007960e-01 1.184599469509028530e-01
9.207099503660244599e-02 4.979997158290905834e-01 6.059423055074469183e-02
1.343850840031521332e-01 3.698973088391815378e-01 5.813636473571539565e-01
4.053398139297786917e-01 -3.243797858807170309e-01 3.048698561112572203e-01
2.448449305267472453e-01 9.316156038420903007e-02 2.881228126305300230e-01
4.411613090448627261e-01 -3.943804476614344301e-01 -3.559994830380675546e-01
2.556558263003916309e-01 1.021819070890121195e-01 -7.752247395869673596e-01
1.333127383691631584e-01 3.981094768726669009e-01 -1.472685678372880891e-01
2.220351105328702279e-01 1.613730073472546267e-01 3.156597743470809098e-02
2.289576873104111343e-01 1.383860486792751199e-01 1.749204417875810103e-01
4.426553930058824693e-01 -3.978771870439877234e-01 -3.670268308964273474e-01
2.164356428159367185e-01 1.873357606066202441e-01 -2.955682651477988809e-01
3.665548931506638075e-01 -1.873915580932251634e-01 -7.332786820425704066e-01
1.425650040609874880e-01 3.752076054196665789e-01 -1.797941591785474635e-01
1.553441306636764996e-01 3.329326630977693657e-01 8.027853549521876686e-02
5.361842331781779825e-01 -6.488881624990177066e-01 -1.369666458418600796e-01
1.285365685714930650e-01 4.171217487553882108e-01 -3.365184414849012318e-01
3.741145213346131482e-01 -2.456712488818614815e-01 3.740203438043813167e-01
-6.785608630700187653e-03 7.478768230346771739e-01 2.596706893323270648e-01
1.660415227778909153e-01 2.826298104224795327e-01 7.253862957671387557e-01
8.471601771826357818e-02 5.014414032911733710e-01 5.095336369276103339e-01
3.324378959008092993e-01 -1.035983377170540537e-01 -5.945553269810842645e-01
2.131215500136112995e-01 1.587446514875637538e-01 7.704867018638109633e-01
4.100898938914215308e-01 -3.080041062018269438e-01 -5.180386483346185456e-01
5.420693512548913073e-01 -6.648319601307776106e-01 -1.182085012611469865e-01
1.590781345371833910e-01 3.467816020989359926e-01 -5.945767093283540472e-01
1.287728933807916025e-02 7.004790882809420749e-01 1.540593971222891101e-01
2.814161726485523984e-01 -1.236064542278936945e-02 5.893650081442562971e-01
3.663386595109732746e-01 -2.196194389027100180e-01 2.063632107066328270e-01
4.715669936342211654e-01 -4.751557001276802139e-01 -3.049062452836405757e-01
2.258251201411645148e-01 1.683500766100909374e-01 -4.505339284689661161e-01
3.071770410649125871e-02 6.535105656924338202e-01 1.718293731370126864e-01
1.655978181746450562e-01 3.280201684767540260e-01 -5.423169352922354580e-01
3.524094882032952625e-01 -1.689991827965907634e-01 -2.072393067347910733e-01
2.465977421347704812e-01 6.643233279343116471e-02 9.235992578299494493e-01
3.541168655395137144e-01 -1.668912507829792280e-01 -3.947572158384024532e-01
1.490318546367806274e-03 7.310647607559583872e-01 1.253183611770794237e-01
-1.444654207291085936e-02 7.754128468018860465e-01 4.092469628733483300e-02
2.549806116463986250e-01 4.411664322342023770e-02 9.390008499526359964e-01
2.167515758084770927e-01 1.678592649925206848e-01 2.390424511786983508e-01
2.227245801485791266e-01 1.880953385228072428e-01 -7.855369027013311412e-01
2.073678392588787223e-01 1.811873385476317488e-01 5.557089782399833311e-01
1.625931251071741912e-01 3.353742366740973257e-01 -5.293652591369444327e-01
1.722994903009012757e-01 2.883917981265975428e-01 9.437092368870911296e-02
4.042906366311656008e-01 -3.199975539620261156e-01 2.573993261412829137e-01
4.608194975594893661e-01 -4.665832066242751597e-01 2.495691426572374527e-01
3.760613927874209006e-01 -2.364345398253931141e-01 -3.561451848492785954e-02
3.283405613631174003e-01 -1.037556970517955063e-01 -2.850057080191635284e-01
4.418409272812078847e-01 -3.888697637839728660e-01 -5.645138406352665505e-01
2.972803887597261774e-01 -5.705428145300770609e-02 6.890692550689585527e-01
-5.893404535007554929e-02 8.836951991622006286e-01 2.499393120307070171e-01
1.068354394813911812e-01 4.786828110846183537e-01 -4.850377467208407678e-01
4.326523963998726297e-01 -3.643468420294385113e-01 -5.831871053227840607e-01
2.111066012575818496e-01 1.765923342766993753e-01 4.090414296682953754e-01
2.814084179987507706e-01 3.601021450665548018e-02 -7.962052715475218534e-01
1.043871371955720218e-01 4.493890327051365818e-01 5.366966128437434813e-01
2.416295790655770548e-01 8.475214931835095555e-02 7.684864488281407668e-01
7.673173427515776746e-02 5.449383586191192119e-01 -1.425265409911709025e-01
-3.280121081024679058e-02 8.212174285613087488e-01 9.479479778215908758e-02
3.793027434856553054e-02 6.363829497934058166e-01 1.256850405159449513e-01
3.476621771208071587e-01 -1.764130980666929471e-01 3.586487650093250212e-01
2.588495455723451300e-01 6.281915058626973136e-02 1.150131813408468151e-01
7.857543900497318545e-02 5.222035035297771799e-01 3.717176510858396510e-01
2.591827816075228386e-01 3.514314023363087486e-02 8.833064722163591620e-01
1.688076639036569238e-01 3.225585477042940963e-01 -6.247731448165474433e-01
4.048270354314874031e-01 -3.114989016166730407e-01 -2.607778165293404143e-02
2.660717984614520693e-01 6.305790995058282999e-02 -4.295144336505444804e-01
1.278836316971538045e-01 3.972298213781301213e-01 2.821280287898473849e-01
3.903174317942298965e-01 -2.872476306591454920e-01 3.591792043233735798e-01
4.017189595255074019e-01 -2.979296409754908503e-01 -1.835361100269115031e-01
3.463555629312784490e-01 -1.402161207500116635e-01 -5.813605349314939774e-01
1.267158490547325989e-01 3.956334884943735752e-01 4.148132210943021314e-01
4.246679685825757167e-01 -3.667942972522132972e-01 8.137711595185585789e-02
5.177038229278672077e-01 -5.955368001767755715e-01 -2.900008567546699112e-01
2.842627753812714264e-01 2.052111536186326454e-02 -5.648418194221986877e-01
1.013260429271440749e-01 4.922028862030936591e-01 -4.623119703157615445e-01
2.812659264780392743e-01 -7.293876716408018547e-04 2.672375290061365649e-01
-1.863924434220166557e-02 7.856060771504055351e-01 6.096089885459485963e-02
-8.603173961333454231e-03 7.610407225346066395e-01 1.775214180377054918e-02
2.497602016209781450e-01 6.277691959757072948e-02 7.929109927044992734e-01
3.406314140857696904e-01 -1.200161484035868475e-01 -7.340703694101480270e-01
5.979520608155219907e-02 5.952997930030659024e-01 -3.248190175735665708e-01
4.987486087613521302e-01 -5.559616713528480192e-01 -1.290572078243729798e-02
4.164698172042648472e-01 -3.365701362243564976e-01 -1.744068848671074812e-01
1.924014835692288150e-01 2.266863320011027472e-01 3.660815512457894494e-01
4.122613737080481622e-01 -3.186939045215840816e-01 -3.733679798181790965e-01
2.120956016394013044e-01 2.060951625120908959e-01 -5.100408301112578924e-01
3.881534791993407341e-01 -2.453544583006856405e-01 -6.802365377673960101e-01
2.988961913539252557e-01 -2.301904563683178015e-02 -4.065611533565855473e-01
2.575679307625504677e-01 8.862338509209397031e-02 -5.290359190251118227e-01
4.689236528185870001e-01 -4.639871840575719997e-01 -4.281660464803652699e-01
2.685768891882488532e-02 6.749611432784726750e-01 -1.555005089195370394e-01
4.906217827544559484e-01 -5.220394254276875534e-01 -3.799745708848482617e-01
2.812601753859201303e-01 -1.453178496480457202e-02 6.631963850784114989e-01
1.140203240866414641e-01 4.376173364598550664e-01 1.568583078011805410e-01
4.095417579738688252e-01 -3.153318532084798953e-01 -2.672419740950720546e-01
2.039113920219769449e-01 1.793441830536597614e-01 8.658548263042461501e-01
4.277916325432184474e-01 -3.723066506400896092e-01 6.790833552243957620e-03
3.300236567024704137e-01 -1.195586581505840712e-01 4.255063068774453394e-02
4.700750758631499493e-01 -4.876113213159996018e-01 1.631013098708026798e-01
3.315771065551006980e-01 -1.325245683070767899e-01 2.984584528473693821e-01
1.837233192490192180e-01 2.738530946131021993e-01 -3.394847110455518346e-01
1.003787143828715200e-01 4.720846524130041244e-01 1.847366922807790468e-01
2.753423498042016915e-01 4.037751391074718282e-02 -4.697481105008896596e-01
3.650058837193414507e-01 -2.041574369768597019e-01 -1.375031236924983136e-01
2.713493876981172281e-01 5.288457770475376435e-02 -5.308890078260379841e-01
2.446544911850189741e-01 1.035885456952743561e-01 3.498086673833192880e-03
2.983049959114162375e-01 -3.744742125869688493e-02 5.092158215569607405e-02
1.258792163265631814e-01 3.902522111146071171e-01 6.313087061359202723e-01
4.605599970810771437e-01 -4.477292405869990333e-01 -2.714032646742690069e-01
2.059051932382001751e-02 6.901744884232182686e-01 -1.248831750074064634e-01
5.442378675287885548e-01 -6.652737004368660667e-01 -2.669923823531536455e-01
3.525817795795597176e-01 -1.968307296848987309e-01 5.774932239309069626e-01
6.052495489635032616e-02 5.706328696824782831e-01 3.277241060133831430e-01
4.083037235217751859e-01 -3.005924610874952108e-01 -5.974540666364379637e-01
1.722368836349725315e-03 7.259357312067656887e-01 2.550234649275491261e-01
1.653899284564026573e-01 2.957815639544580377e-01 3.970110712601614966e-01
5.178558141415964267e-01 -5.993816968907557108e-01 -1.911344448895587189e-01
4.445137022581011621e-01 -4.254325042425701198e-01 2.842684521024939626e-01
8.299325955154213119e-02 5.138371991535145566e-01 2.825681323261131639e-01
1.055010865113794744e-01 4.752231740486446143e-01 -2.865555652367463013e-01
3.782723422273764902e-01 -2.305651216869642750e-01 -3.684142460031366584e-01
1.297335153005388653e-01 3.876934257294841757e-01 4.176883627523884646e-01
3.848790364956022336e-01 -2.477426556721348538e-01 -3.680215626451200372e-01
2.295022141414742867e-01 1.275391659503521125e-01 4.452167615801460587e-01
4.880053129589914107e-01 -5.277403727149829749e-01 -2.181229251949426406e-02
2.598194291609815521e-01 5.468570343611608292e-02 2.758843293543622455e-01
2.156884351496054786e-01 1.835649767820002609e-01 -1.318817144898503380e-01
3.820561555862193037e-01 -2.516496538634774849e-01 -4.590089676559028914e-02
1.132578521460527732e-01 4.400896060607147331e-01 1.427761601259546487e-01
4.535851268788439472e-01 -4.283415914487749832e-01 -3.077203515347279317e-01
6.798402635105116332e-02 5.665658986168934375e-01 -1.110464042713121408e-01
5.361980006471478433e-01 -6.490854438649797942e-01 -1.323381863213645149e-01
3.554958843585123707e-01 -1.885950839428587600e-01 1.245364726615687118e-01
2.028561972575655681e-01 2.296794515337840514e-01 -4.980285561056660981e-01
3.280445509800227755e-01 -1.070016701386722335e-01 -1.699494241801216554e-01
-1.064109903918007173e-02 7.614598572360792295e-01 1.574615114164654439e-01
-3.910053280043382373e-02 8.325870615267265684e-01 2.379538058831669467e-01
2.965023003232249432e-01 -1.368296139101296636e-03 -8.487779731088158641e-01
4.376713453733645509e-01 -3.827003635698686401e-01 -4.308893550309234044e-01
1.921322784123721469e-02 6.804719185341457921e-01 2.556973571497394571e-01
3.269396203153140945e-01 -8.700242565704789655e-02 -6.608007229613825917e-01
2.172099046575092229e-01 1.692424824572556219e-01 1.652821750082559549e-01
3.018733275733552768e-01 -5.723429335226577763e-02 3.522905985286224895e-01
1.495547222221132178e-01 3.720847214036833717e-01 -6.106764297466199531e-01
7.526665666357758300e-02 5.458036665216240424e-01 -5.825061668177153318e-02
2.875305280768331029e-01 -3.083794262143880333e-02 6.636584382963649498e-01
4.408538964409492444e-01 -4.043431512299552888e-01 -4.761521608553889034e-02
1.793921914255669492e-01 2.698962007516495509e-01 9.635245056833088850e-02
2.332375706087606859e-02 6.738195981725548789e-01 1.403081345452849016e-01
1.872849102876329164e-01 2.454979505379416838e-01 2.079242469883382238e-01
2.014024029261151649e-01 2.326769720783499751e-01 -4.756947611603383752e-01
8.306980276102825245e-02 5.121600103965859851e-01 3.249322475244322272e-01
2.322017293472486421e-01 1.457747529531637498e-01 -2.783291093015290985e-01
2.621329253832087036e-01 3.229919031482519215e-02 7.451709511528000762e-01
4.345548816706477913e-02 6.148248183149322976e-01 3.321255936570632339e-01
2.538429132639396513e-01 -9.053778451567521257e-01 -1.349504294837318985e-01
-2.577110550827780427e-02 -2.784846729564499634e-01 7.361104148188509777e-01
4.330664382298262116e-01 -7.810538247908925813e-01 -6.663619499498234233e-02
9.845937669926770053e-02 -4.052164017665970536e-02 9.642411639913811561e-01
2.188409331046675677e-01 -6.608757382511697420e-01 1.718280099483436296e-01
3.398695398687996416e-01 -6.111279126548124774e-01 1.772190864801555521e-01
-4.214553226657106327e-02 -1.016553542420480100e-01 9.540010829695296790e-01
8.381235551356464031e-02 -6.358946878744089481e-01 2.616692043703322534e-01
2.389245397646317104e-01 -1.788735216340720247e-01 7.369558559963839128e-01
9.557183432964820591e-02 -3.233985850094973635e-01 6.286193707882401505e-01
2.602999653052942564e-01 -5.480369647960261492e-01 2.877695391104806988e-01
2.084948616078588779e-01 -5.287627101830397747e-01 3.337788602649588432e-01
3.943585232510144617e-02 -5.195220138659951692e-01 4.200170731129755364e-01
2.215941520679463872e-01 -6.224793327114390706e-01 2.163329705605998854e-01
2.186149024511651606e-01 -8.428573252069318511e-02 8.586479647894166289e-01
1.154767118849733265e-01 -8.576816983010683293e-01 -1.657026092510283447e-02
3.808116291983726365e-01 -6.291570093874725433e-01 1.375268730451050525e-01
1.538083374092708566e-01 -4.370946463779481483e-01 4.672915464551660181e-01
3.032207856293270276e-01 -8.163465661636679638e-01 -5.088759753135799202e-02
2.428880426607648579e-01 -4.729402988567069643e-01 3.849581926062004555e-01
2.782779311827141555e-01 -6.002634952105211363e-01 2.175673502030409379e-01
1.727157331658480954e-01 -1.035537484204692021e-01 8.561252114919321032e-01
1.936377616878405261e-01 -8.590182790711000660e-01 -5.294438617791561580e-02
-1.545797705622248275e-01 -3.080064393919058063e-01 7.582707828950023821e-01
1.559967315896342022e-01 -3.561631465600675339e-01 5.627072052593643514e-01
-1.122837374560016754e-01 -2.430240226179153917e-01 8.168428637101686762e-01
-1.695649379169520202e-02 -4.801472238036641471e-01 4.920075128727610103e-01
-1.326844717473212309e-01 -3.864360053238083403e-01 6.551175054480432580e-01
-8.735114388765587851e-03 -2.762100291328411505e-01 7.312383738759238305e-01
2.602339447089303537e-01 -7.959285369831027579e-02 8.457164015958285042e-01
1.903224629287589009e-01 -8.788654927238095382e-01 -7.510710786890044399e-02
9.098509152553539703e-02 -4.550901963314405441e-01 4.738156431697416182e-01
3.094655908839289982e-01 -1.029337174617371842e-01 7.960089521837956372e-01
1.061722287432781270e-01 -9.634914330280905936e-01 -1.384492133324466967e-01
3.267369252508821043e-01 -3.551741206781190985e-01 4.879044637709424315e-01
2.464998827373379442e-01 -4.439890729441769990e-01 4.178318403994204511e-01
1.209531913354287974e-01 -4.144484239654997459e-01 5.088840112887641487e-01
3.008834792293922367e-01 -1.733295637905284126e-01 7.159865214201281969e-01
3.571545687486325504e-01 -5.044258994628394444e-01 2.966093406045081649e-01
2.716891401973219322e-01 -7.544366368934966038e-01 3.687902022002129826e-02
4.136855570550113104e-01 -5.114762790017188809e-01 2.630556146702356934e-01
-1.111891772442189230e-01 -2.247817087895175037e-01 8.380823932217641437e-01
3.452993117360867448e-01 -2.673661046384045448e-01 5.842235114869871460e-01
2.407751548371100669e-01 -2.473501196477919384e-01 6.545766102255196062e-01
7.088443945819047909e-02 -3.550861025589949205e-01 6.018655771216601114e-01
2.185806101821458625e-01 1.593692786102068881e-02 9.780285305457694367e-01
4.504661008438625713e-01 -5.091536821683556591e-01 2.494542111324427047e-01
4.195888695164143312e-01 -6.034416964938467132e-01 1.508976766281381887e-01
1.754607775186495799e-01 -8.918822895265788864e-01 -8.399656607740385583e-02
2.173612516258631999e-01 -8.389473047488446023e-01 -3.959696409024115321e-02
-2.336565008710037722e-02 -1.200460032739410488e-01 9.237406094673010770e-01
5.356969990606392784e-01 -6.782287318491871941e-01 1.015723791100893274e-02
3.348108011139473983e-01 -5.413981015498935401e-01 2.625185497120635092e-01
4.749742927854961327e-01 -7.162280741578438414e-01 -8.077961357072215368e-03
2.719988410263223244e-01 -3.364462373858730926e-01 5.345682544754745136e-01
4.401737038989235740e-01 -4.581122614897464862e-01 3.148247968868873592e-01
3.471818570496023465e-02 -8.850334864969912341e-02 9.354602034157877277e-01
4.967371729239544731e-01 -6.944717207518723567e-01 8.149235316794305531e-03
9.005717544695036880e-02 -9.394183224678027688e-01 -1.026067904492729693e-01
-1.110699610935450728e-02 -3.070943594711720848e-01 6.955106056465758524e-01
-5.603795567952819801e-02 -1.678314359643602871e-01 8.813675255133851527e-01
1.232619559242434937e-01 -7.400523811641590566e-02 9.133248251740204715e-01
2.490894260140525951e-01 -3.229731228948367477e-02 9.070048413681405242e-01
-3.724890247735128390e-02 -3.538967940396968714e-01 6.514021967503497157e-01
3.176844676079794705e-01 -5.265432517442143467e-01 2.878320405939859272e-01
4.397711112552645241e-01 -7.747247968747913438e-01 -6.208194536986226530e-02
1.981770510568207910e-01 -6.396337963158781337e-01 2.063227707596791971e-01
1.245554788995417300e-01 -5.861075698195962191e-01 3.028347232080391693e-01
1.513111548929544914e-01 -5.195474160134921915e-01 3.702014666591448289e-01
-1.176165731079638066e-01 -1.988993396125998958e-01 8.717685646876560668e-01
2.746800990710506207e-01 -5.256153242337948672e-01 3.080744713181164940e-01
2.811055006180429583e-01 -9.088031621048476838e-01 -1.511620427230393193e-01
1.439208627145991681e-01 -6.147486599623761538e-01 2.601054097454076341e-01
3.153450904294266000e-01 -2.648584839635360622e-01 6.005399447808433822e-01
2.315647646910330981e-01 -8.227913662471525447e-01 -2.667589280416979639e-02
2.183162304585826163e-01 -9.392528466410880739e-02 8.473001582275048182e-01
-9.872109323974667672e-02 -1.767995406528483360e-01 8.896808201388568538e-01
3.475402366590236158e-01 -4.277698000465860462e-01 3.921852946496811043e-01
2.474494977669023654e-01 -7.434940514100328857e-01 6.069847579019276018e-02
4.570742317774340591e-01 -7.034836386863371205e-01 1.506633815814467474e-02
1.245706084936600982e-01 -3.801204552074304854e-01 5.481588842403865014e-01
5.080941293941667602e-01 -8.543876143344982799e-01 -1.873647116922636524e-01
1.586695097807412358e-01 -6.325612890405569733e-01 2.323272886775371582e-01
1.860759041084281973e-01 -4.720522907920925437e-01 4.112976409028847313e-01
1.419424524706761614e-01 -1.800325033087485371e-01 7.787332669398394636e-01
2.726241125638279028e-01 -3.521820660994384178e-01 5.155486135748492682e-01
1.438377698596568777e-01 -2.294644993791229159e-01 7.190162714340641026e-01
4.461356190635682450e-01 -6.031307197615753957e-01 1.394545467379825487e-01
1.160713333797606384e-01 -3.234927563496912128e-01 6.193847810998694969e-01
3.472052174637667576e-01 -6.895597294455118043e-01 8.054226938698430538e-02
-3.860739117201055642e-02 -6.219300508325567023e-01 3.327788129154121699e-01
5.017857775025912070e-02 -9.844652503458399539e-02 9.167378778087167390e-01
2.925823223334039214e-01 -1.661998945153403684e-01 7.281720432009423094e-01
2.469473744419656280e-01 -7.402739849851823484e-02 8.582574890961697234e-01
2.240242782051662940e-01 -9.231765208311356607e-01 -1.428791557337162899e-01
2.387352342118607973e-02 -4.843242032927094765e-01 4.688630601715114143e-01
