-1.179513405791655367e-01 -2.080592228290859338e-03 5.255897238532060145e-01
-1.943844273015129520e-01 -2.329995097783127966e-01 -4.898887681789647064e-01
1.143444423786477288e-01 2.856210391536325166e-01 2.169927618970181604e-01
-1.135690428388014955e-01 -8.146590820760017670e-02 -1.755246864313622923e-01
6.293907781498166154e-02 1.901468824120048917e-01 2.452317102954544928e-02
-1.448081348791594447e-01 -2.069537974727638230e-01 -8.455900604399743115e-01
-2.040972417477412426e-01 -1.890318479721270761e-01 -1.792327921971208216e-02
5.250921531910022338e-02 2.370887337866099676e-01 5.291039309834395521e-01
1.164869319011767740e-01 3.100273075157983782e-01 3.924749076312799567e-01
-2.377846002697054095e-01 -2.708262737475883863e-01 -3.016808280948900522e-01
1.727346138353594573e-01 4.206438936676205054e-01 6.534832557035380463e-01
-1.825690883189257929e-01 -1.347066425238628573e-01 1.802516795448582954e-01
-1.143102012155567254e-01 2.407670279386544491e-03 5.205776476771876160e-01
-3.022603473280100483e-01 -4.071546231631268387e-01 -6.790006030397102155e-01
-9.065413135876564110e-02 1.596601131744173480e-02 3.601151160414324259e-01
-1.643552250584648100e-01 -1.870485174335135836e-01 -4.579723044352533301e-01
-2.590611491310886860e-01 -2.955711353817745968e-01 -2.602460724494658484e-01
-6.998146965953069842e-02 -5.124189511939880592e-03 -5.014011932639453328e-02
-2.799521059644803911e-01 -3.520738001217629254e-01 -4.835879012834728430e-01
-6.063720761654235736e-02 8.925526692863357259e-02 6.162906418462685831e-01
-3.722923698108948631e-02 -2.010800552299405256e-02 -5.490301696616082250e-01
-3.008475986489969958e-02 1.118745460114415197e-01 4.509267935197245891e-01
-1.686822749955626533e-01 -2.037767334397805608e-01 -5.454274591995218469e-01
-1.015259958539688201e-01 -1.390672204957514868e-01 -7.860135145313947858e-01
-1.772275771408871048e-01 -1.524295128872250049e-01 -2.636971330699670879e-02
1.881864215549627350e-01 4.407463867053327267e-01 6.408688116445857563e-01
-4.068651195039565960e-02 7.913886836823456200e-03 -2.796121187125247265e-01
-2.533531586346574604e-01 -3.204989499012415588e-01 -5.301411617787676889e-01
8.276798542583260754e-02 2.484128619842763952e-01 2.745147846769218081e-01
-6.932109907396576121e-02 7.881035560738725021e-02 6.303699978647199220e-01
2.094229238054688969e-01 4.431535912510994879e-01 4.167705650258383132e-01
8.075206459317209318e-02 2.816850150724589663e-01 5.704249989878412697e-01
2.630931441648924618e-02 2.065776667638431208e-01 5.797962919655105241e-01
1.153574895395874378e-01 3.424586885115468715e-01 6.713141700252862609e-01
-2.545207896136422177e-01 -2.941201403880398524e-01 -3.004821866866745350e-01
6.333073252377152684e-02 1.466872929452220919e-01 -3.362538406757147325e-01
-4.111517162809207038e-02 1.311448937347592658e-01 7.355529402533526051e-01
-2.061638105931536818e-02 -1.927475592280445500e-03 -5.907316738144660073e-01
5.868813584836197333e-02 2.421029335073881239e-01 4.992652746518536078e-01
1.647596105236465713e-01 4.237818969986322237e-01 7.707755661564774652e-01
-3.278853376886193410e-02 -1.267034152552122192e-02 -5.390435603949179644e-01
1.868902998663096726e-01 3.921242581403313610e-01 2.571481365465475566e-01
-3.224685852388073926e-01 -4.191182522793853171e-01 -5.450518601765779181e-01
1.357159127115260544e-01 3.571728568950726657e-01 5.581898564448707356e-01
1.679564115758173590e-02 2.192472236068525038e-01 7.928945688197404085e-01
2.608936770398840310e-01 5.510818886530205463e-01 7.105879689040788261e-01
-7.924446525907900482e-03 2.032888295668730527e-02 -5.540006056371101772e-01
-8.248100024871582447e-02 6.174418413818911350e-02 6.415609743588442937e-01
3.300311957415869718e-02 1.431657240856932523e-01 -1.690916103876672141e-02
1.138928150337701894e-01 2.560848129093759584e-01 -1.995866476783051194e-02
-9.761031149806408125e-02 -6.159514776192252100e-02 -1.958592411546801748e-01
1.182679557549546623e-01 2.852533817069564659e-01 1.689298807438552874e-01
6.375576149136757964e-02 1.566928842165236924e-01 -2.591084496461568132e-01
-1.905552578752383597e-01 -2.159852666563466528e-01 -3.943722290513663187e-01
-4.426329641732059533e-02 1.033644805292084079e-01 5.439561411444840955e-01
3.964211007375866014e-02 1.101937730412253791e-01 -3.634393062226966564e-01
6.821186449577841537e-02 1.886979267425245854e-01 -4.789618566235954999e-02
9.706781584094431592e-02 3.294835186186353404e-01 7.749418447871450066e-01
5.124215874057583275e-02 2.253667039558408802e-01 4.475551982854312216e-01
-2.182360017269596997e-01 -1.993822886820519891e-01 5.956203447341979623e-02
-2.815253242609931650e-02 -2.364730847601699895e-02 -6.822617889894976306e-01
6.218134147844249504e-02 1.651692423199961346e-01 -1.715424629711966575e-01
-9.165684016211483875e-03 2.035739974443531025e-02 -5.395152351192188389e-01
2.765717450586374290e-02 1.098510221054891656e-01 -2.286410123784875514e-01
-8.467879716101940624e-02 -7.731844558374945109e-02 -4.732348058506580246e-01
-2.980008520012613626e-01 -3.577386991310469999e-01 -3.227971665344094299e-01
-8.696071625408018091e-02 2.284687581884597626e-02 3.741172860679263801e-01
-1.687489840010584496e-01 -2.221769192216426214e-01 -6.955055730696085847e-01
-2.091576718083503761e-01 -2.869042722343633778e-01 -7.621751935434154523e-01
-1.289890830007055789e-01 -1.166732124818653238e-01 -2.871036804014179267e-01
-1.087468967295401323e-01 -1.276319316849619523e-01 -6.093587840823666557e-01
-1.943961933600974468e-01 -1.633049355597769314e-01 8.159989954276865298e-02
-3.572115376945715348e-01 -4.956019875133029773e-01 -7.731524858781174681e-01
-1.258309189675883011e-01 -6.863329126160937210e-02 7.046455689948384615e-02
-1.713596317495673649e-01 -1.781778413715882914e-01 -3.048279098469837689e-01
-2.341676698816703636e-02 1.282730675632826611e-01 5.088009802493594913e-01
1.405495092243182476e-01 3.408504488734602211e-01 3.688811569683922431e-01
1.662423933748085336e-01 3.851916136506337018e-01 4.373888766473627010e-01
1.940163633022337630e-02 8.805933870583024237e-02 -3.125003287899669746e-01
-7.430077894015024720e-02 -1.161921244119249880e-01 -9.110777185747528373e-01
-1.621741901121474816e-01 -1.549005652805978406e-01 -2.194666871854087375e-01
-1.799022019614897605e-01 -1.884144528775938687e-01 -2.906635361749144719e-01
1.733757206464333137e-02 1.834020446713757191e-01 4.928147811656760080e-01
-2.282143883311926191e-01 -3.242832741824933640e-01 -8.498022406073020285e-01
3.930707383222625806e-02 1.321326434099613090e-01 -1.797384429232485592e-01
1.212787648787555794e-01 3.537377662671197798e-01 6.957929751225143677e-01
6.130315129507326634e-03 3.054061115585219796e-02 -6.316586308325142785e-01
-2.533088171727372884e-01 -3.034297644385011705e-01 -3.907177211208295864e-01
-2.271627657405079770e-01 -2.828598871094222811e-01 -5.222893052467124653e-01
-1.042547938490255913e-02 1.688415186210791841e-01 6.922168135572875913e-01
-1.549021868213216746e-01 -1.980747748083367954e-01 -6.569026755329199219e-01
-1.248103177557517290e-01 -1.797740115285018647e-01 -8.523813046823554007e-01
3.716047045171784469e-02 2.472171183576927500e-01 7.883666620497746802e-01
-1.157189571261450500e-01 -8.503285994974812967e-02 -1.800816266585190673e-01
-2.093127198440851988e-01 -2.816688919849724138e-01 -7.174755132397162560e-01
-1.424918999195997904e-01 -1.033822977809901456e-01 -2.310914452960846979e-02
1.205475972229109322e-01 2.934191555552634889e-01 2.096983001970797456e-01
-6.377861654411982884e-02 1.261858192642084653e-02 2.409480194499685410e-02
-1.172419903435087396e-01 -1.724626138118366125e-01 -8.793404521241384719e-01
-9.794482900033557593e-02 -6.515748422008318941e-02 -2.212222955955436554e-01
3.503537617088157280e-02 2.619280784266158069e-01 9.333663975802245494e-01
9.676439467337770439e-02 2.820471977962678567e-01 3.895444291225194089e-01
-2.135902695323697864e-02 5.019409767106185194e-02 -1.549140389310616484e-01
6.215775624219258000e-02 1.993448362748702074e-01 1.088986074462834769e-01
-8.355447060398453474e-02 -5.629028846062147234e-02 -3.137559898270414482e-01
1.704857821888085823e-01 4.083107467526109757e-01 5.781971131596159719e-01
-1.107410796508455364e-01 -2.505245508804360491e-02 2.544807462412670973e-01
-6.821971043788678524e-02 -1.169554929838422935e-01 -9.871571551587582372e-01
-1.356133141223483662e-01 -1.749377030833071112e-01 -6.886960134994857263e-01
-1.531497902763308923e-03 1.096547632480837642e-01 1.048873952263486703e-01
-4.871167559876934255e-02 8.874213206897001160e-02 4.751578848312739134e-01
-1.454099956792977155e-01 -1.963830105893483169e-01 -7.520207146031601120e-01
-1.877975014204046889e-01 -1.813430321094720576e-01 -1.420403538144704159e-01
2.107134058319171388e-01 4.584079045562550192e-01 5.270078631996644170e-01
7.884818301311793953e-02 2.211066577069054073e-01 9.566575028263311908e-02
7.950159004963747167e-02 2.459912391217897454e-01 2.921663766299106846e-01
7.550202229747911276e-02 2.801313266262080992e-01 6.179676433712310013e-01
-3.701100903656547730e-02 7.844522431731006107e-02 2.563999663539872631e-01
-1.674395876215254708e-01 -1.201869856462066954e-01 1.255700005207859016e-01
4.512790140936580319e-02 2.261947943985542220e-01 5.245462885689252674e-01
6.607867829727828712e-02 2.604272463574387464e-01 5.646308873149594731e-01
-7.890709561920186688e-02 -4.920721019406313484e-02 -3.090492171109125441e-01
7.264392615982018242e-02 2.956110865594051007e-01 7.776861234757755925e-01
1.994311243398337874e-01 4.323983238560550890e-01 4.433227191102762088e-01
-1.520064006512881205e-01 -2.180238991504458712e-01 -8.536935896471323781e-01
-1.331008247013700241e-01 -1.593200271800684631e-01 -5.895106776146401550e-01
-2.849287620119701492e-01 -3.488913944796633859e-01 -4.003578859123268496e-01
-2.347032401691421521e-01 -3.000052218770488666e-01 -5.762682156688794244e-01
-2.373464285389219608e-01 -2.897270363456371789e-01 -4.616595718412669913e-01
1.132366561913466796e-01 2.761657565601357556e-01 1.521980358156465596e-01
-1.577810271169843501e-02 1.769640026956815007e-02 -4.854078072687793566e-01
-1.392209384144265684e-02 9.802745480291764554e-03 -5.714299491382643925e-01
-3.832237138112395969e-02 8.021794147672568764e-02 2.859893845269037560e-01
-1.512313572998683076e-01 -1.375758779362142858e-01 -2.030825131983383103e-01
-7.829049982352799530e-02 -6.632706647593684945e-02 -4.564767782418462372e-01
1.647152433775577254e-02 2.117199449934689670e-01 7.349076453380554153e-01
-7.566030196143620074e-03 1.008020400338765638e-01 1.016001451588912086e-01
7.883285052346147848e-02 2.310979753119520308e-01 1.777502508716536367e-01
5.723948396177115649e-02 2.022140436926778972e-01 1.888906868197498812e-01
-2.882982140981527053e-01 -3.830239399268521860e-01 -6.414880061189865978e-01
-3.658788327875786006e-01 -5.056247549333433566e-01 -7.558029650562468893e-01
-1.153897071658309542e-01 -5.317923147285429954e-03 4.696381432855252225e-01
6.708151169286967995e-03 2.246571416316796299e-01 9.530670178802715942e-01
7.627054381626756363e-02 1.658718225448624350e-01 -3.275515754249384015e-01
1.484355164919444192e-01 3.252601582557884119e-01 1.505272815882765791e-01
1.897333791832865324e-01 4.228535940616587885e-01 4.764225552131339803e-01
-5.065859863888419468e-02 3.878545474719135439e-02 8.796897270034634286e-02
-2.299540700480608990e-01 -2.206968939930740725e-01 1.936972683097827261e-02
-2.725211654774323811e-01 -3.600716035285485006e-01 -6.344738764071654602e-01
2.793428022126856827e-02 1.585624500755195565e-01 1.675118327929748241e-01
-3.211497378124118784e-02 5.321666089515526832e-02 -6.637976301810431974e-03
3.777995849245045085e-02 1.667523302684671971e-01 1.216064566520239365e-01
-3.106046805085045381e-01 -4.299722109764589351e-01 -7.702507234132401903e-01
-4.373396591884234907e-02 7.690855294939408747e-03 -2.464503881463269430e-01
9.184628967699481894e-02 2.675036297940142083e-01 3.267852911855828046e-01
6.165337633924581479e-02 2.387532545326156996e-01 4.377585492402354395e-01
-8.065289259896891993e-02 -3.845919696832597601e-02 -2.008925755562558368e-01
-1.345955358037019822e-01 -1.175055651898929132e-01 -2.295553320982031686e-01
-2.910117100919578648e-01 -3.848943328560007759e-01 -6.256657093137582004e-01
-1.013713886919910129e-01 1.605406293872536916e-02 4.838899362913530178e-01
-2.739676072740167556e-01 -3.078669367475083130e-01 -1.898942282772500267e-01
-1.575373866771081766e-01 -8.988950382434877928e-02 2.602529549094896311e-01
-2.760549138743517705e-01 -3.860812978039733223e-01 -8.071267487288621423e-01
-2.402386092844925325e-01 -3.090507324242104392e-01 -5.868672010448900966e-01
-1.841269432980522369e-01 -2.625348862043374587e-01 -8.497926740980025206e-01
-1.517061635063935987e-01 -1.678590715758609686e-01 -4.458914171489761769e-01
-1.066791352409723753e-01 -5.641920086998544748e-02 -4.930096021461230493e-02
-2.527409814369766528e-01 -3.276190616055484339e-01 -5.955404489923563638e-01
-5.512274480278606809e-02 7.094607573331071504e-02 4.028768230709985354e-01
1.167354850167401197e-02 2.070903957719393562e-01 7.520439769025489829e-01
2.225891095122785324e-03 1.942869632103079447e-01 7.555576392814680187e-01
-1.653830346856186295e-01 -1.446087029310330618e-01 -9.825119254395063562e-02
1.982814264716682706e-01 4.228642543753307614e-01 3.783633208662269820e-01
-2.751977152024881468e-02 6.765705713351133355e-02 5.898285498739863630e-02
-6.361093538826470550e-02 -5.451203395372523214e-02 -5.281648087340339304e-01
-1.954305837732902840e-01 -2.807919250254166110e-01 -8.696775244382357606e-01
1.931808634200997965e-01 4.304472525330779731e-01 4.990919033538872562e-01
-6.832956257157242475e-02 4.083871529742031520e-02 3.076952940394124814e-01
1.585146951285647532e-01 4.079456369956374062e-01 7.126531049635146386e-01
-2.028084708386710122e-01 -2.624268875089584840e-01 -6.344104895767572749e-01
-1.938863124887657274e-01 -2.705690805107743846e-01 -8.036019708940046469e-01
-3.586348067717478605e-01 -4.790514677951915878e-01 -6.211302960967958198e-01
-1.072962469226997201e-01 -1.568368193837190450e-01 -8.654353991184341455e-01
-3.015580886068638944e-01 -4.122360439178351377e-01 -7.287210707769206097e-01
-1.801120150680114163e-01 -1.527114906521456206e-01 4.437067218440605282e-03
-3.195921102235034228e-01 -4.037891125712435025e-01 -4.524111287033572570e-01
5.788926572779126700e-02 2.546358384289131860e-01 6.111820061950651306e-01
-7.934528427793560712e-02 5.778378023490861846e-03 1.467518028134772445e-01
-1.424155021790771969e-01 -7.972740717788595610e-02 1.699356037173306300e-01
-4.271708507665245708e-02 -7.311070876574840560e-02 -9.205342394132411954e-01
-2.846385046420763995e-02 1.014990160733022784e-01 3.472576855521271044e-01
2.185083154068522548e-01 4.829373568519166326e-01 6.386001360072056654e-01
3.724411666259082321e-02 2.653161306139956155e-01 9.357812974360583125e-01
1.195001562579090792e-01 2.636055163149861880e-01 -2.268635909659367025e-02
7.291413929042306341e-02 2.425480827013470897e-01 3.395750345708182794e-01
-6.906278232142379347e-02 -5.659736385484190335e-02 -4.826634691614079542e-01
7.088080517790463358e-03 1.254137524212553256e-01 1.351110821032192877e-01
-1.939526082809580887e-01 -2.447899733287381696e-01 -5.915045998637713520e-01
-9.446484034202777547e-02 -5.076814938907737301e-02 -1.432154489524999075e-01
-9.217609852387337321e-02 3.680226230358333434e-02 5.484048019041668498e-01
1.405791038547041516e-01 3.808064122738688551e-01 6.960988864096949724e-01
-1.958083938473045849e-01 -2.096531247861777303e-01 -2.821463150487867333e-01
5.459060817759904885e-03 6.921157475632222500e-02 -3.069283034632066531e-01
-1.969908689686673542e-01 -1.878429934407369606e-01 -8.977075974735136688e-02
-1.980210700912887201e-01 -2.434325367598200729e-01 -5.336632825070016795e-01
3.004591673912138106e-02 2.507029533937346066e-01 8.986310083435674612e-01
-3.047414692916786128e-01 -3.869046096814033331e-01 -4.845040856412020092e-01
1.330780421440069805e-01 2.954720960464076174e-01 8.265667037742796541e-02
-3.084146827097448695e-01 -3.871274691672161872e-01 -4.441561247638280419e-01
-1.973875233726456735e-01 -2.300033105820835366e-01 -4.308452083888872908e-01
-2.119531704804082650e-01 -2.381681639966689856e-01 -3.305411143685975661e-01
-1.452122495679428540e-02 5.279002454589507010e-02 -2.121427265423424247e-01
5.806203854177840323e-02 2.552612408583727621e-01 6.143252964781131809e-01
2.477765084134620488e-01 5.299250978508392995e-01 6.877535527230415058e-01
-1.350463961739015728e-01 -2.053776921761329421e-01 -9.447511475518298729e-01
4.575691535124198905e-02 1.604378712385199912e-01 -2.174875170525280774e-02
-3.228982726273577075e-01 -4.156709978317955634e-01 -5.118578267259169534e-01
-2.198668719827620854e-01 -3.151116189055953032e-01 -8.704575248873636095e-01
-4.664560287384555970e-02 -1.134379130156979061e-02 -3.690650087317456918e-01
9.303618329360241815e-03 8.555552053195507323e-02 -2.170835197889763868e-01
1.027728493004218119e-01 2.913636029857782361e-01 3.969323445851703491e-01
-3.517596074732442513e-01 -4.739510811049784111e-01 -6.582569005056033706e-01
-1.599426664991225322e-01 -9.802308621677527367e-02 2.211909892600153471e-01
-1.079668010923920812e-01 -6.698512993725425080e-02 -1.211353903751156702e-01
-1.331555034590611308e-01 -1.041237789133558772e-01 -1.363860429364983085e-01
6.277047410025791974e-02 1.819105761569951296e-01 -4.106189929441506764e-02
-2.463993480403517400e-01 -3.403758343357136673e-01 -7.729331181767785663e-01
1.846297556846159260e-01 4.238813369199790904e-01 5.434465336175704486e-01
6.410063608937741075e-02 1.883551459357597213e-01 -3.502152431046192359e-03
5.244259778684308426e-02 2.054823291610607394e-01 2.707606673412888965e-01
-1.627777891866380999e-01 -2.321834050761388268e-01 -8.460982040625431022e-01
-2.328170391874741785e-01 -2.364801457653303851e-01 -7.714886997488129561e-02
2.531877780726609073e-01 5.416517324312991599e-01 7.217571751186701023e-01
2.218830508252663813e-01 4.816993660091682949e-01 5.897032302681757265e-01
2.229069081434272015e-02 7.859807456621141497e-02 -4.232348566101476472e-01
7.038189885187669248e-02 2.385682868511858901e-01 3.360233905321068915e-01
2.296741615502461212e-02 1.300128049648461015e-01 -9.508773531390665723e-03
2.031514717512811208e-01 4.460879781847283398e-01 5.128338690518342569e-01
-1.213418292273819449e-01 -9.634582128623571384e-02 -2.082644024672054561e-01
5.771732628070461169e-02 2.222640595471111480e-01 3.477735133145361535e-01
-5.802826874542040686e-02 9.832816418660811353e-02 6.607147121206979890e-01
-6.339371452297284937e-02 -9.971990637190722429e-02 -9.012713726666985448e-01
-1.816980758818783626e-01 -1.860664761603358919e-01 -2.507951155498179818e-01
8.285890875976525960e-02 3.208336483498143155e-01 8.671737850016841831e-01
-6.742175598543721782e-02 9.286488434427916938e-02 7.237807094183789092e-01
1.491647896359069303e-01 4.095616992569440784e-01 8.332548949707480057e-01
-3.435796360396901200e-03 2.630034840063388835e-02 -5.565843539434036646e-01
3.530414108175026350e-02 1.965009358752957958e-01 3.939111795902051072e-01
-3.070657330457081668e-01 -4.114561684995322599e-01 -6.590902291287501491e-01
1.457000734925342766e-01 3.949625899665126783e-01 7.533529696242411422e-01
-2.992538076268769220e-01 -3.739231257202529357e-01 -4.410903685496754822e-01
-8.419847450138888412e-02 -3.587775222545192683e-02 -1.390204655148475632e-01
2.673669233219598818e-01 5.651855548001313290e-01 7.518850485399862782e-01
2.782445161456429100e-03 4.928021772405959816e-02 -4.395925815736705378e-01
-1.116738829602598876e-01 -6.538298245158400204e-03 4.169693511954191689e-01
1.277370546754204306e-02 1.100781050855469956e-01 -5.589097533238652354e-02
-1.291104472370105671e-01 -1.150228078053651820e-01 -2.721802481419907105e-01
-3.191929614032602142e-02 6.755470687691766951e-02 1.086580770099407761e-01
2.423159895958081345e-01 5.087780040410241345e-01 5.770868168242969665e-01
-1.035767867913703344e-01 -1.155239104540977113e-01 -5.694596298311963567e-01
-3.334429327058591186e-01 -4.457314778941356970e-01 -6.372212877801729514e-01
6.831091676878565944e-02 2.976803542177233197e-01 8.444004779149416606e-01
-2.188315693011235949e-02 8.485048147051300199e-03 -4.908253682054078970e-01
2.682503812840826285e-01 5.491116247409866258e-01 6.099679050214794618e-01
-4.844379363013729539e-02 4.601209673509210063e-02 1.217828601419441298e-01
-1.440149571711063503e-01 -1.996828402678718084e-01 -7.950900950302581816e-01
7.579909365346583494e-02 1.772037489951015232e-01 -2.292397788688139426e-01
-1.465469582536316484e-01 -2.060083472960776430e-01 -8.178745418178758886e-01
1.824709800968919715e-02 1.737125081861149722e-01 4.029373565441461968e-01
-2.464411096573129178e-01 -2.924338088938415736e-01 -3.794266486419421436e-01
-2.393001491139139236e-01 -3.174876507497883527e-01 -6.668079235991616338e-01
-6.506137779679764706e-03 9.566695383519947804e-02 4.733346582493322408e-02
-8.917316507284932595e-03 6.093428728307999365e-02 -2.097190899626499017e-01
-1.024798930300240135e-01 -4.655654829735821759e-02 -1.666198596315874442e-02
-2.177390014502209037e-02 1.025411988011640067e-02 -4.775770429651425841e-01
-7.356157382420372599e-03 6.078130220752571422e-02 -2.288981103740668488e-01
-8.382930226669063623e-02 4.189619605309303010e-03 1.852116376222431582e-01
-1.574005056143487347e-01 -1.619140451527571190e-01 -3.317732384842556614e-01
-6.527786139743291249e-02 6.702459223592205362e-02 4.873272559028755668e-01
7.422514688586027976e-02 2.872104229157506627e-01 6.906625930607371844e-01
-2.098571730696259241e-01 -2.927922211109170725e-01 -8.024128776924545070e-01
3.060291591445035361e-02 1.590143136936308377e-01 1.405755597359294728e-01
2.477243555509115458e-01 5.216913527924784688e-01 6.208524182622329191e-01
-9.853986665611554063e-02 -1.138110440384428323e-01 -6.132503215468769753e-01
-1.522188712792715004e-01 -2.030212629669696234e-01 -7.282629896900518762e-01
3.362066605483627485e-02 1.322365182221220126e-01 -1.135969117965109909e-01
-7.900978165674812925e-02 2.014900926581896304e-02 2.607095520388032495e-01
-1.670969290479951963e-01 -2.246574883440862758e-01 -7.348096865247277787e-01
-7.295073345806755982e-02 -8.109463007955480807e-02 -6.388506407510500251e-01
2.872308678460746001e-01 5.895917633058253005e-01 7.238932108605532489e-01
-7.995718215996566736e-02 7.193438423741996268e-02 6.961219888893258601e-01
-3.631954918512543540e-02 6.666285243046748965e-02 1.518693361319568558e-01
1.767292585017024575e-02 1.047544260770193192e-01 -1.557859737976571846e-01
-1.731946442507687756e-01 -1.458558286608347410e-01 -1.878405766920539927e-02
-1.639937614842974511e-01 -1.610251134933586292e-01 -2.487836278801000833e-01
1.007543530680835575e-01 2.579593271903831697e-01 1.462612015225784878e-01
-1.447313459373087974e-01 -1.071263482735365924e-01 -2.808995200289773897e-02
-2.220345178201603431e-02 1.732116629638993655e-01 8.632749492259632618e-01
-1.594373879509463632e-01 -1.132299423815457534e-01 9.072425110085542699e-02
-9.061701881752957932e-02 -4.688666189341821056e-02 -1.555749194664164947e-01
-1.353621980197182717e-01 -1.571346656371603867e-01 -5.456306178913096216e-01
5.967811862030393544e-02 2.139895984969561182e-01 2.574264369895959970e-01
-3.261562960424682633e-01 -4.319199532822767251e-01 -6.076583268979669494e-01
1.554185094789767990e-02 2.157351673072044340e-01 7.784985778578864535e-01
2.397230083804955184e-02 1.614977203072915646e-01 2.370655671910400497e-01
7.569715128813914173e-02 1.712769762170749943e-01 -2.766567677568429473e-01
1.383170779224526248e-01 3.699421527331140935e-01 6.330061225052028284e-01
-3.423922436419968990e-02 1.592833725723385718e-01 8.872831854505701665e-01
-1.447651206490344240e-02 2.386248662025674747e-02 -4.498030080777277173e-01
3.986796011410096569e-02 1.269054981743809596e-01 -2.290303502149691195e-01
-2.896032619477049153e-01 -3.982737472566791892e-01 -7.515211231870276842e-01
-1.411687274423337746e-01 -1.569406844893306008e-01 -4.773711904193042033e-01
1.621724342381815065e-01 3.802698469776034096e-01 4.437707072227098370e-01
1.074648853736143161e-01 2.548826297100196814e-01 4.398982677966941507e-02
-1.862029546522694090e-01 -2.066208766014059617e-01 -3.675754025137237258e-01
3.932090644719749006e-02 1.060389869587894801e-01 -3.938121077592725006e-01
-2.118642192102865307e-01 -2.999599629438795545e-01 -8.381293412719710290e-01
-9.401213692418768086e-02 -1.222711581915847529e-01 -7.345923342321319938e-01
1.089161188547188713e-01 3.491490440944907681e-01 8.001197327201207132e-01
-1.394634576664401937e-01 -1.434222008315529373e-01 -3.861266536430693064e-01
-1.264652087455273577e-01 -1.656521027419086967e-01 -7.176093513660981582e-01
1.116120185336432757e-01 2.818011632750985762e-01 2.170505937655690387e-01
-1.623155301183120194e-02 1.320034857981286502e-01 4.568839103857151307e-01
2.016623264902722701e-01 4.297494719545695840e-01 3.959894004722792626e-01
2.508349294021471748e-02 1.410978113616481733e-01 5.706941810735761261e-02
-1.747610206635248631e-01 -1.723877916535783428e-01 -2.183073627518145599e-01
-5.728195835469759162e-02 -5.428832501048117681e-02 -5.989986461704340792e-01
-2.289340016902198516e-01 -2.865491102560938086e-01 -5.321965157600249130e-01
-5.802198598722478617e-02 -2.630261434364133954e-02 -3.610759931282377377e-01
-7.973767457048215601e-02 -3.081619045256382260e-03 7.862320176132693572e-02
-7.987706282720986872e-02 -7.826290377206086835e-02 -5.361098006441655794e-01
-1.714248123130021062e-01 -1.549700238944547170e-01 -1.138226826462667984e-01
-2.621472180719380818e-01 -3.515612541424642523e-01 -6.838175172150594561e-01
-5.141754710098962733e-02 -4.005778509242118729e-03 -2.541179297824014971e-01
4.878217219686258738e-02 1.481479737927151874e-01 -1.572361548281037968e-01
-4.901363840374006742e-02 -5.154440572249658487e-02 -6.714389611784202794e-01
1.629325578823557497e-01 3.855415997527124605e-01 4.782607865996961749e-01
-1.518285744143511584e-01 -2.169556269818717908e-01 -8.469776916155447033e-01
-8.801121876871351168e-02 1.842002608490075910e-02 3.498877514399537647e-01
-6.603657141612027937e-02 7.986898891314941906e-02 6.013364768264455318e-01
-2.802839038302210387e-02 -4.420638075040798400e-03 -5.260676167654206870e-01
-9.055496726776177119e-02 -9.741432485214101709e-04 2.201017696466569806e-01
-3.813453784291525456e-02 7.500889373846185426e-02 2.411291419171593675e-01
-1.886303363520652754e-02 6.896204837512183439e-02 -2.971346105202048518e-02
-2.115205857382359070e-02 9.819663242770987344e-02 2.362326256385471612e-01
-1.320167043243689886e-01 -9.961321691672826717e-02 -1.124840388360745791e-01
-2.306717357234052412e-01 -2.480457129342829026e-01 -1.965948264416055302e-01
-4.756891548784106249e-02 7.428863606353451610e-02 3.435477554378564835e-01
-7.150915307991272118e-02 -2.683377052227243695e-02 -2.105739767880037139e-01
-1.839079035376881277e-01 -1.612593071098781528e-01 -2.205413945167293555e-02
-3.263372786493344557e-02 1.201196732029118086e-01 5.477866836985534338e-01
-1.698734314266634945e-02 1.368116442742081384e-01 5.049788187453900790e-01
-1.951259261046873472e-01 -2.546998235750955186e-01 -6.592734364323102891e-01
-2.269922517080827651e-01 -2.870870885262007954e-01 -5.589015491833253524e-01
-8.157476601084068246e-02 5.945176091666910800e-02 6.123626085594473523e-01
-1.477206370760890952e-01 -9.791661079502451959e-02 8.173346265020986490e-02
-2.153077027182346004e-01 -2.744870843336162380e-01 -5.897663621445552451e-01
2.314035814408929581e-01 5.124468234851179416e-01 7.324573157303417847e-01
-2.744975221257766121e-02 1.596583952553616292e-01 8.124025181090079872e-01
-6.345697163276589614e-02 9.112887535471655975e-02 6.640262688745022235e-01
-3.216638018716393987e-01 -4.325880277992369960e-01 -6.647169171277981237e-01
-6.594285768885516097e-02 6.479699851862169568e-02 4.767008518107745951e-01
6.867511878460356989e-02 2.176036349306977036e-01 1.837527792395032000e-01
-1.821483597569678592e-01 -1.793039872491647979e-01 -1.901864271974226528e-01
-2.235188101578626518e-02 4.778346852529832822e-02 -1.632765765436290373e-01
1.484654129947755585e-01 3.917347180016908514e-01 6.951400287992153260e-01
2.855680120006621678e-02 9.313612449232010204e-02 -3.759984299834378541e-01
3.400306088392369974e-02 2.250781878316227835e-01 6.431251373948714267e-01
1.295176553757793753e-02 1.748208940344021245e-01 4.728235996513171502e-01
-4.774946232901532139e-02 -2.428208298081174082e-02 -4.624584018175902367e-01
-1.638596625754151215e-01 -2.226731651504193499e-01 -7.557117941032718278e-01
-6.060649854637507189e-02 3.019490568673426426e-02 1.317633643989310765e-01
-6.469130878657884665e-02 -1.852310760784534396e-02 -2.207243176181187816e-01
4.016059287547231460e-02 1.559164975574541256e-01 5.440823479695134322e-03
-1.970902372860795504e-01 -1.853937312148194738e-01 -6.855087435081752556e-02
-8.045167460999586018e-02 -4.590085110030284188e-02 -2.642093208487103495e-01
-5.815757573031369448e-02 2.342057557551670451e-03 -1.246912107321321156e-01
-2.212130139145553620e-01 -2.847648310876312316e-01 -6.062195887380541492e-01
2.236359396268825794e-01 4.937630021605495800e-01 6.684742301265501618e-01
-1.465536796659927254e-01 -1.438652236080204261e-01 -3.083503110166442296e-01
1.343954646175542222e-01 3.561698997110565035e-01 5.651287181730975107e-01
1.426108756969764191e-01 3.577784002923620199e-01 4.839877690617256367e-01
-1.966096909241195900e-01 -1.560280527435157216e-01 1.666703666907134729e-01
-6.770801948360817557e-02 1.669261391939970765e-02 1.026100287410397910e-01
-4.540238896439852817e-02 5.091574379394551292e-02 1.270621011862948235e-01
-5.403500930440704834e-03 1.476600358961681903e-01 4.609106409860718734e-01
-2.067308317608488877e-01 -2.750001566447598522e-01 -6.924500838605027742e-01
5.023884247003650334e-03 1.837443719854606750e-01 6.370039758901338001e-01
1.995509189527636118e-01 4.241445491566925852e-01 3.742831227429160301e-01
-7.480684727008088397e-02 -5.080431210846355489e-02 -3.692202676208686252e-01
-9.467815390464220937e-02 -1.507282273080711166e-01 -9.602352998615907298e-01
-2.995871401502767095e-01 -3.639944230297957328e-01 -3.558679826833190951e-01
1.578094123986084965e-02 1.188266539938729882e-01 -1.869905039382524503e-02
-2.091629830394741152e-01 -2.085187824996049544e-01 -1.195128307830986697e-01
1.597541111138485459e-01 4.002658881398660218e-01 6.354641276270692751e-01
-1.956194841523314354e-01 -2.820212366300552942e-01 -8.775864672404160016e-01
1.087995241832678539e-01 3.544346098189128935e-01 8.447893194153576202e-01
-3.499496302043803714e-02 1.536306124664759409e-01 8.496192745198848373e-01
7.586046548414655810e-02 2.861764316244687634e-01 6.634096346129522148e-01
-2.344017683470746294e-01 -2.591246198029949488e-01 -2.445919608264271461e-01
-3.206113911649407511e-01 -4.042565694129812703e-01 -4.445401836947672769e-01
-1.592719016840238866e-01 -8.324835483371113842e-02 3.346121366337127534e-01
2.925355303316538522e-02 2.328089015627810843e-01 7.610339552023132059e-01
-1.369285592495448900e-01 -1.522120416989468927e-01 -4.872905430556426776e-01
-1.868790966983466806e-01 -3.562973105063840240e-01 -1.562195263152527658e-01
-1.290703132759736527e-01 -1.813348104458909482e-01 2.336597152882974315e-01
-1.996456206652165166e-01 -2.513191038149208967e-01 1.327839569449621761e-02
-3.456612900239824371e-01 -5.172995914080246171e-01 -6.583568631947358529e-01
-3.132728807458354248e-01 -5.599160062219389333e-01 -6.902248889341828786e-01
-4.657985075806928693e-02 1.141977590012217270e-01 8.716339643757813338e-01
-6.145898832042528959e-02 -2.902287562307688876e-02 5.965372011566857369e-01
-1.695946350433761574e-01 -1.373992749511976919e-01 2.568283304280526425e-01
-4.390189122065880911e-02 2.011469732286193940e-02 7.078279942079154230e-01
-4.827566791820169650e-02 9.706449267242987788e-02 8.388388199408828294e-01
-2.344593242772131936e-02 1.530637664110406360e-01 9.722164824439281094e-01
-2.598944537995936943e-01 -3.758455579357166121e-01 -2.901516033045963838e-01
-1.364904388700988180e-01 -1.638211522555379218e-01 2.547540659090121729e-01
-2.380922993386898334e-01 -3.465696279324539386e-01 -2.084450958712704138e-01
-1.393379309631863072e-01 -1.927401203375974925e-01 1.994198271688957524e-01
-9.560036022182558102e-02 -1.475395213964703078e-01 3.392521895164873347e-01
-1.737205735829673858e-01 -1.245923918217589216e-01 2.740188122371731150e-01
-2.478951063401086952e-01 -4.100941367361463086e-01 -3.348117934223808767e-01
-2.511946624894214608e-01 -3.107112377073116272e-01 -1.624175752498345504e-01
-5.320470329632928652e-02 -1.073033526041777298e-02 6.403007397431015324e-01
-2.655828707676606282e-01 -5.105192357472582154e-01 -5.375577959331725442e-01
-1.384870557366570457e-02 9.316126367112839701e-02 8.786376735438859997e-01
-1.279190541299108641e-01 -2.040903225360334305e-01 1.947243194195895366e-01
-3.110265499700099467e-01 -5.845049809086519943e-01 -7.309364398879202307e-01
-1.773294574256718825e-01 -1.725484184326067372e-01 1.837699782314733410e-01
-1.305431282933668391e-01 -5.507675678253363266e-02 4.563647489275091673e-01
-2.531469873977728047e-01 -5.082502239738591054e-01 -5.166339135746441658e-01
3.017930511076734670e-02 9.374733549270047872e-02 9.394627286663264076e-01
-9.844573118688368721e-03 2.973470185277581751e-02 7.711926001323974322e-01
-1.262349455242603447e-01 -1.976669890458060408e-01 2.084428107690104448e-01
-2.067381990956989324e-01 -2.324832045716644091e-01 3.717072351590394730e-02
-2.849579130066114963e-01 -3.366656431934145766e-01 -2.544536629492743507e-01
-1.260665946882725263e-01 -2.620243139718351766e-01 9.413294151214009198e-02
-4.183218192076549463e-02 -5.847499847161983372e-02 5.707700903849887153e-01
-2.085554243138565966e-01 -2.425006777669287961e-01 1.687489716292185984e-02
-2.338139105931842099e-01 -3.082661068030256302e-01 -1.344660194796440389e-01
-2.379788820876918287e-01 -4.324010975055346817e-01 -3.610476666646323940e-01
-1.710469161242681169e-01 -3.423764392703406156e-01 -1.099469647662604521e-01
-7.969073580865734807e-02 1.136678212687266057e-02 6.436643719635927186e-01
-1.579951792215492923e-01 -2.790547061009586161e-01 2.047030171370683646e-02
-2.036657289121656389e-01 -2.647423237557864351e-01 -1.606984290188004372e-02
-1.546762803293042776e-01 -3.191202606109774798e-01 -4.632898199891007790e-02
-2.237661784515182772e-01 -2.605611241456379790e-01 -3.592119365701636202e-02
4.941432701284674371e-03 7.622552830459436435e-02 8.740102709067203435e-01
-1.895899755081263960e-01 -2.205451290132615649e-01 8.170139671806782300e-02
-2.408511771179466798e-01 -3.122892055529245536e-01 -1.511813606076687910e-01
-2.524302976461868520e-01 -3.674312456126970217e-01 -2.650414632419728633e-01
-2.443910135009158546e-01 -4.730633982608200561e-01 -4.421219598100783466e-01
-1.598898774970304582e-01 -2.469868397407376515e-01 7.496968976014907471e-02
-2.131535943580163128e-01 -2.922426335050211654e-01 -7.789567306373057498e-02
-2.321912651034167829e-01 -2.387725273950302429e-01 -8.583173912261434294e-03
-6.729734569433902525e-02 -2.221434355680130049e-02 6.007271041249373500e-01
-2.493163574349057665e-01 -4.006646832899160016e-01 -3.199597417064811156e-01
-2.523660869197897894e-01 -2.709407137097836205e-01 -9.322748666227155534e-02
-6.199215063387534391e-02 -8.818655264859744103e-02 4.905180796090931605e-01
-2.193690027360570283e-01 -3.686636218657449726e-01 -2.223435485627984209e-01
-1.204437763738839540e-01 -2.220615776656857943e-01 1.728904578163838468e-01
-1.697690082401974998e-01 -2.699268649722558755e-01 2.072865348212375031e-02
-5.872116896345013978e-03 5.184959285996365574e-02 8.159449363151149992e-01
-2.760610291257109550e-01 -4.113271090382271122e-01 -3.752503327316868420e-01
-3.257409075225673467e-01 -4.924616451467145883e-01 -5.871038576415640309e-01
-3.448436563055811144e-01 -4.685314371260276278e-01 -5.704526722866811728e-01
-1.066132367832612199e-01 -2.135827631102556190e-01 2.067597816505065134e-01
-3.927773013666818747e-02 -8.682178965651517200e-02 5.237890246476051281e-01
-7.508562277961730591e-02 -6.521220830271270974e-02 5.136275902419340511e-01
-1.914045739623923548e-01 -3.187715214480741355e-01 -9.557864469971402710e-02
-1.486514787822422745e-01 -2.988635663205585491e-01 -2.097017817368449031e-03
-1.226422290857893671e-01 -1.753504285379081373e-01 2.530384462181717864e-01
-2.397322679035606696e-01 -3.500870694935136473e-01 -2.169319592155577736e-01
-2.489141985431438109e-01 -3.899106066475039878e-01 -3.002743643721156319e-01
-2.881012001216456953e-01 -3.583635077535198277e-01 -2.973379455690123296e-01
-1.207218314522744695e-01 -1.518968686843127913e-01 2.973869260383624202e-01
-2.548290202900343471e-01 -3.366558454352714946e-01 -2.135266851133575949e-01
-1.984564262079882568e-01 -3.475086372071550245e-01 -1.562979901488610601e-01
-2.160396001788980613e-01 -4.023616110131730816e-01 -2.777960431874823555e-01
-1.652886383499348744e-01 -2.297676484299719657e-01 9.828461437142319013e-02
-1.762550995210935834e-01 -2.952133884054350399e-01 -3.308137997625875543e-02
-1.257207626686702995e-01 -3.710781045151904933e-02 4.948924579996945572e-01
1.537872066205298862e-04 1.447010333358827450e-01 9.893772163167298128e-01
-4.183341584469885133e-02 -2.298136848172212601e-02 6.339373811381247004e-01
-1.561498683413157784e-01 -1.697600557282714639e-01 2.174905208072100415e-01
-2.066895960923719189e-01 -3.378233974992754240e-01 -1.502400519112289390e-01
-1.678087304993456097e-01 -1.523255346302228586e-01 2.326885979536056637e-01
-3.414863417900500242e-02 7.001526892779783018e-02 8.098805251551963735e-01
-1.121463417679385427e-01 -6.906835700682423251e-02 4.564430027200866991e-01
-7.350651560079164704e-02 -1.164434009323005448e-01 4.245942008103658072e-01
-1.237696555120330472e-01 -1.565648549131777034e-01 2.849407965045402946e-01
-4.252568518632434541e-02 -1.489959082970890823e-02 6.473807623091311081e-01
-1.335896535097902058e-02 6.457153289408910923e-02 8.284207400154252054e-01
-2.888633747584257519e-02 1.691988609442522939e-01 9.935454656944585627e-01
-1.488390174423211143e-01 -2.778810023613599856e-01 3.499157129191729498e-02
-1.858191750729393521e-01 -1.719552756753020828e-01 1.732981223638781487e-01
-1.935806063869936477e-01 -3.638588153912676870e-01 -1.787763672998275155e-01
-1.238724590689200683e-01 -2.069130186458784382e-01 1.951952293255593829e-01
-1.700420873272798505e-01 -1.772861828167199838e-01 1.852329710670978236e-01
-1.178511495547324289e-01 -1.388621301087416826e-01 3.244830626034746479e-01
-2.464792338910201663e-01 -3.538814997502501281e-01 -2.328461577112143355e-01
-2.267354039003805222e-01 -4.635875475042539606e-01 -4.012844365381227352e-01
-5.200762808730877151e-02 -1.149815087163562483e-01 4.563875372695059829e-01
-2.337435882285721633e-01 -2.890887029609107151e-01 -1.002399940590408267e-01
-2.153715432903831883e-01 -3.050339480757802146e-01 -1.036722890904374222e-01
-3.682485833925683988e-02 1.024754337898941582e-02 6.998764751613162360e-01
-2.051906922684190726e-01 -2.070417981469901691e-01 8.455070955079474482e-02
-3.264023107895797637e-01 -4.547202461445923327e-01 -5.208325415776404732e-01
-2.837841031187195995e-01 -5.181426852685184770e-01 -5.758394071631663946e-01
-2.260977333704509429e-01 -3.531333894500136017e-01 -2.038403658044857236e-01
-3.157000513223074956e-01 -4.828019010461217508e-01 -5.562785005598757104e-01
-3.506090099898047097e-01 -5.400567583737259092e-01 -7.055765054100597844e-01
-8.339095525294160094e-02 4.486965090710821891e-02 6.982661039402849878e-01
-1.979597458641326468e-01 -2.883740659062117850e-01 -5.038020470074432849e-02
-1.486128610150290463e-01 -1.730417058045392864e-01 2.218839611882593432e-01
-2.258078912790300319e-01 -3.699417023211877820e-01 -2.333610187869499253e-01
-9.013427806433550737e-02 9.890570122746914633e-03 6.268566924493543802e-01
-1.484807505184366216e-01 -7.211540579327220535e-02 4.016845888605848347e-01
1.939120698394884712e-02 3.411056302307839683e-02 8.186772942222036997e-01
-3.503033118023420878e-01 -5.374022169995825715e-01 -7.004370644833393111e-01
-2.713399735957137127e-01 -4.640850488027911669e-01 -4.627347222896167067e-01
-1.670050202490186431e-01 -2.422394916814540056e-01 7.375760656897424605e-02
-2.471738316592955731e-01 -4.692811284697816498e-01 -4.391691121653773511e-01
-1.670348870183288315e-01 -1.878618250457375072e-01 1.704944461426232405e-01
-1.729833502240786525e-01 -2.105884129534412730e-01 1.219703995233683558e-01
-2.656262073677216895e-01 -3.836717316954621482e-01 -3.118627306727658755e-01
-2.742523094973584041e-02 -5.482436693238186554e-02 5.968292287936010077e-01
-6.358552216304366733e-02 6.208102010036668783e-02 7.557898052004506928e-01
-2.113264300283628772e-01 -4.256579053461991835e-01 -3.128574583158578726e-01
-8.684496879396208513e-02 -2.829551437501780925e-02 5.633621746669452701e-01
-1.934045983420727421e-01 -1.813600946691998894e-01 1.462604923639436727e-01
-3.625356535422656623e-02 5.282771585950790660e-02 7.764332629464971713e-01
-5.380521890020892317e-02 -6.123253341667791311e-02 5.496052311928800727e-01
-2.741636712134128961e-01 -3.426099868944022520e-01 -2.503763596434851468e-01
-9.474851987831310607e-02 3.148849692035445708e-02 6.590298039141166964e-01
-2.742635205325129610e-01 -5.443312110068717624e-01 -6.095206150035251680e-01
-1.195355931661119392e-01 -1.362202137619902276e-01 3.268977848886125970e-01
-1.481627465825087198e-01 -1.867457097870294791e-01 1.981057506808749646e-01
-2.162703610897288575e-01 -2.893018012973409547e-01 -7.689379572343647828e-02
-3.310454446271264284e-01 -5.780961037198956154e-01 -7.467123963958919308e-01
-2.373900743965420279e-01 -3.574805042624056850e-01 -2.269099820232046705e-01
-2.894587786991864586e-01 -4.854780757902011357e-01 -5.254104990437076239e-01
-2.485745914569866266e-01 -4.364320669638895867e-01 -3.826087317916988528e-01
-1.501956196847039349e-01 -2.439918488610249292e-01 9.346298921697515638e-02
-3.425361880893547095e-01 -5.073546482178972195e-01 -6.364142624277341342e-01
-9.903721879687735208e-02 -1.546489001188305901e-01 3.219328103094514226e-01
-5.882801329135238511e-02 -6.302594044166799636e-02 5.395934179865233826e-01
-1.068900406510480683e-01 -3.524657880253438680e-02 5.237736275252067308e-01
-3.435975576826537092e-01 -5.031169464935196789e-01 -6.303134572019803983e-01
-2.689130565037785026e-01 -5.366188680077045303e-01 -5.885297969395250073e-01
-8.304389006266364726e-02 2.217820630335762613e-02 6.583527819980723450e-01
-1.971536848208375048e-01 -2.360451822312821524e-01 4.384539832161735151e-02
-2.007480896829490491e-01 -3.238733973567027302e-01 -1.173453802245995742e-01
-3.334087564758695943e-01 -4.916142065997803345e-01 -5.960071886957610809e-01
-2.529412527405216493e-01 -4.734777705820350513e-01 -4.544690945945116800e-01
-2.029400103660696508e-01 -2.731809631143822248e-01 -3.010292251461359203e-02
-1.448253309472709027e-01 -2.539373855545806746e-01 8.305452306582013222e-02
-3.202952775358881565e-01 -4.313041456245451100e-01 -4.708660416503629431e-01
-3.008445318385833400e-01 -5.963755407196915659e-01 -7.382374705524263891e-01
-7.130468248212606941e-02 -5.494846278893821684e-02 5.370280809286726020e-01
1.414662874378030399e-01 1.305909051894939554e-01 -3.164513595247431810e-01
1.782859644411833033e-01 1.196279815022290860e-01 -2.859679640351959207e-01
2.120165342956325805e-01 3.671939122766443298e-01 2.004317304847831327e-01
1.804696188137892288e-01 2.286871948867549020e-01 -8.890734972488115173e-02
1.188212662520452406e-01 1.243476755745974438e-01 -3.583104109790992697e-01
1.079715583891889680e-01 1.846906454392312491e-01 -2.656483316569865361e-01
3.396151899501882454e-01 4.960007737127421490e-01 6.029284590120339571e-01
3.126303676538680354e-01 5.096823408714707959e-01 5.906374450144961097e-01
2.622506300548983482e-01 3.168675154260588989e-01 1.790732297360267400e-01
2.276512511412190076e-01 3.009878839044951571e-01 1.038321778961205782e-01
2.325037224687144521e-01 4.494171927530534738e-01 3.745845746859367553e-01
3.531593752296263711e-02 1.061768945112244802e-02 -6.741037248327250708e-01
1.013299266283492484e-01 -1.707738440682746509e-02 -6.337584357081116337e-01
3.113103458077684516e-01 5.327794686059028617e-01 6.299516744540879509e-01
1.186040566714468766e-02 -7.876374028078345080e-02 -8.650265887060492043e-01
1.005072718594076653e-01 1.991228352839468085e-01 -2.500981154749582491e-01
2.305793111887508851e-01 3.314801085664981772e-01 1.620757801948068955e-01
2.204149055535719326e-01 3.670202848544000251e-01 2.115261773227596898e-01
1.470754111828203037e-01 2.102192175909803618e-01 -1.671185472621014301e-01
2.659065033217589691e-01 4.042960136779011338e-01 3.396360843122744888e-01
1.475647817852859811e-01 2.121490351154101117e-01 -1.630195231915861354e-01
1.784582881331594692e-02 -9.032847268684431052e-02 -8.774815406170827226e-01
1.913518345428167622e-01 3.827615068784199215e-01 2.000789037237039880e-01
6.241829031082338219e-02 1.334625465756033857e-01 -4.186733832206025463e-01
5.587472389358828784e-02 -9.397720873333950675e-02 -8.323389914428264147e-01
1.947500766673990885e-02 -1.367763226151303968e-01 -9.579338984233615184e-01
1.315957981535525456e-01 2.713110670728497986e-01 -7.941023345563238967e-02
1.464434181426956527e-01 1.078031324167166710e-01 -3.502493348961603914e-01
2.958315046846093921e-01 4.647318829061579115e-01 4.878281165463652091e-01
3.373460987270371358e-01 5.353932697782746164e-01 6.699553298606636398e-01
3.457493814107533425e-01 5.346388248813020994e-01 6.800227490658700136e-01
1.643617015323779462e-01 1.224325317943959768e-01 -2.998832396936031985e-01
1.858490379025645733e-01 3.758833768512019891e-01 1.803659169826706266e-01
2.363675955868285994e-01 3.395701100126247707e-01 1.843332073347493383e-01
2.311683468807714525e-01 3.896301554514627896e-01 2.663667828243901359e-01
2.150466071944240332e-01 3.968027823989461744e-01 2.572417178374512559e-01
1.701995915033301388e-01 1.137538201792738374e-01 -3.074021860619395863e-01
3.044510042664549943e-01 5.529349987716162262e-01 6.565092780073448209e-01
1.421671099617353440e-01 5.510479768980841575e-02 -4.498444224801809721e-01
1.802853439835725227e-02 -5.172290591878244727e-03 -7.256787162824600568e-01
2.213542912904863658e-01 3.829522231657131459e-01 2.411561901404888353e-01
3.161351752417617123e-01 4.625557506343820346e-01 5.115238765466588733e-01
-9.044922436734888216e-03 -6.375693285580164016e-02 -8.667041928689867003e-01
1.124515430625007140e-01 1.082256382203823225e-01 -3.956521558808064887e-01
2.743275891171641501e-01 5.105626318220110038e-01 5.401959360032377866e-01
3.813357318474289159e-02 4.256524084165930200e-02 -6.134199746572104317e-01
2.953402272427641528e-01 4.937527379769064417e-01 5.388102462915969060e-01
-1.083117403890647250e-02 -6.411447629466274223e-02 -8.697659263720451950e-01
2.986320554339454980e-01 4.608336384819203824e-01 4.846929433572882973e-01
3.559708609972088711e-01 5.037857344147801397e-01 6.389915804242292108e-01
2.970301076260538076e-01 4.781959646196823899e-01 5.134179884020128037e-01
7.223940575198024849e-02 2.778066382207368401e-02 -5.934229839161559994e-01
2.601236905679476519e-01 4.245140890090483010e-01 3.677667308996021012e-01
1.691737473070930031e-01 2.075141187886067051e-01 -1.419273747220742843e-01
3.220114660687807273e-01 5.688433115660594952e-01 7.086656333074773384e-01
2.224204651087079432e-01 2.455855952256361663e-01 -1.871215945971613616e-03
1.121109448230392901e-02 -7.825592759418659172e-02 -8.650044669826424393e-01
3.258446909528275870e-01 4.232933514203514047e-01 4.548312818053512618e-01
1.063927979863861367e-01 1.622564454954766588e-01 -3.077187482373831551e-01
5.049071363323469341e-02 -4.196920449310148626e-02 -7.470894538655503681e-01
5.989280042086578271e-02 -1.183089038824045036e-01 -8.701869475495640494e-01
9.926865294784907590e-02 1.114111269445146740e-01 -4.078828161639533878e-01
6.450650655666959055e-02 1.326321454966106483e-01 -4.173158535641354194e-01
3.423547258475917454e-01 5.572429919497359219e-01 7.156426690194107598e-01
1.603481557773228372e-01 1.079869298651447845e-01 -3.310421282958497802e-01
