7.035454466062722734e-01 7.726075946482949819e-01 -2.115088244971740639e-01
2.032466967621122667e-01 2.624406543385176052e-02 1.408997844538629474e-01
4.083108226508145866e-01 2.824905564206942610e-01 -1.081138314662272448e-01
3.213163885337148862e-02 -3.065405191516645811e-01 9.827563620147153345e-02
-5.598692429106505442e-02 -4.923952061756349252e-01 4.584156506738675668e-02
-5.221226513886705056e-02 -4.514601277298332382e-01 1.174976391503342044e-01
3.957852713472430062e-01 1.880980086698732512e-01 -2.586534669918315044e-01
1.575579184469954042e-01 -8.105828769148096247e-02 9.068822730533422638e-02
3.051367502763723816e-01 1.961755032588065328e-01 1.068678106479663270e-01
2.556072099804213016e-01 9.667465438707776790e-03 -9.530552268437905705e-02
-1.157957277022353682e-01 -5.831424893647602081e-01 8.476605732316906672e-02
1.179236227623532973e-01 -2.297687628278988481e-01 -6.996545298467071738e-02
8.409347253242646647e-02 -1.927566583797082622e-01 1.380126686109570955e-01
-2.745562980712636381e-01 -8.258915648847158231e-01 1.841676449314455233e-01
8.929801055589195458e-02 -2.258885115174259217e-01 4.825993792429509460e-02
6.264329210529638869e-01 5.660934244650160929e-01 -3.497463513798497736e-01
-3.263207343674323635e-01 -8.102616998957321570e-01 4.160883210161410717e-01
-2.048838107032886213e-01 -5.925721207955466641e-01 4.074352866664706085e-01
5.717733698029137113e-01 5.724047898249583488e-01 -1.263102673605410731e-01
4.771462344182459403e-01 4.312995476612323520e-01 -5.952286429057270650e-02
7.932203190513972824e-02 -2.859346726128599858e-01 -3.978274456766427158e-02
2.930603087030937415e-01 1.041193296763705950e-01 -4.048044443279731619e-02
5.554570623402241836e-01 4.772478285926934349e-01 -2.638846049312928987e-01
5.397363578698188141e-02 -2.208658887300274931e-01 1.946448881195667613e-01
2.474088524585404125e-01 1.074193714925615051e-01 1.419831906629487606e-01
6.097719695806197437e-01 6.208380088537635011e-01 -1.704520034798819861e-01
1.197405513425002371e-01 -1.542224246565189472e-01 8.207444849170648926e-02
5.691800727535104576e-01 5.497120802824997376e-01 -1.641080542154577659e-01
4.917811344649120064e-01 3.520447465771359141e-01 -2.826217622912615135e-01
-5.379832760368316591e-02 -3.466500155526821003e-01 3.442215000655111101e-01
1.503701470590965150e-01 -1.002049653277858610e-01 7.801932170772621356e-02
6.823928799076079965e-01 6.475630068742543877e-01 -3.934027314227165895e-01
2.728057197568636294e-01 1.872000424544699448e-02 -1.423733156245353959e-01
6.920181851380230453e-01 6.507709314109311194e-01 -4.236566269060861312e-01
6.733906860296534624e-01 7.131256224805749833e-01 -2.207821367998190343e-01
3.886206488954169758e-01 2.013130080697310142e-01 -2.032898552218638244e-01
-3.428898319112420601e-01 -8.352049270641149770e-01 4.272862092002883139e-01
2.314128654669026786e-01 -3.286812389364576759e-02 -9.182272623626164254e-02
-3.768280240767745148e-01 -9.404450878772147027e-01 3.362378753266160314e-01
-1.016135118592476905e-01 -5.613809065830100975e-01 7.604767896039556219e-02
-5.084863488719550823e-02 -3.687361302230142135e-01 2.863893600683730112e-01
4.094843483959651476e-01 2.480667637824156280e-01 -1.850879922373816766e-01
1.508660166185335216e-01 -8.141357944846923378e-02 1.156688191716475772e-01
-7.566494713367173663e-02 -4.839190530188781092e-01 1.393403879762442898e-01
-1.647041869539429548e-01 -5.530039675164870605e-01 3.362471109224028920e-01
4.435078053116801033e-01 3.058920456004138311e-01 -1.941760736486581318e-01
3.548752589686822168e-01 1.197153957592937829e-01 -2.453117573426463749e-01
5.762370384890062036e-01 4.940950684249244551e-01 -3.083142391753511680e-01
4.552479370064996256e-02 -2.267390440487840331e-01 2.147652869188582392e-01
-9.521612453974602486e-02 -4.475133096142981382e-01 2.911434758451598159e-01
4.805850663274462975e-01 3.228629538722109782e-01 -3.010038682628898288e-01
3.340265678089242019e-01 1.220393472805454960e-01 -1.602624637934720597e-01
5.540885393289173011e-02 -2.182669996826355208e-01 1.945975540071936960e-01
5.775818376057461068e-01 5.285493595861537885e-01 -2.409581306481273499e-01
-6.473914752546831852e-02 -4.829774046014306821e-01 9.931593243732533827e-02
6.543898172129244961e-02 -1.955624508963423325e-01 2.038277370117945464e-01
3.089107717913313622e-01 1.300077319285968536e-01 -4.692578591368813667e-02
4.202410828977952706e-01 3.509643478913798131e-01 -9.844601850169007809e-03
2.838015022815323363e-01 1.499193951597090346e-01 9.152647031094293673e-02
-7.386905309204429282e-02 -4.032354855205116384e-01 3.022750589806267874e-01
-2.615872904375882158e-01 -6.639859320664470710e-01 4.751177524475333480e-01
3.260537358001541763e-01 1.927189789278382359e-01 1.917187209316839960e-02
4.029091562899916323e-01 2.677018851919270026e-01 -1.184761804040793259e-01
-3.672089890853318800e-02 -3.715054374253481395e-01 2.262427752821944693e-01
3.147510137149625020e-01 1.915409925127236901e-01 6.014799583519078036e-02
6.132933331695933354e-01 6.375231410268177301e-01 -1.488683571486427715e-01
-3.702556382932552063e-03 -3.751069387397209520e-01 9.171534037646904280e-02
6.363390658554680668e-01 6.341147039967333088e-01 -2.446475066261929732e-01
1.535143739954469844e-01 -7.571359883547092162e-02 1.174851212269138606e-01
4.379188982852198486e-01 3.292427348660971753e-01 -1.235349589798833969e-01
-1.671468421518976233e-01 -5.595470388216655655e-01 3.318652309469998785e-01
4.418437981567024941e-01 3.687564147219694610e-01 -5.544857057205786199e-02
-1.550129365297878981e-01 -5.368615513050547516e-01 3.329668549518607357e-01
1.548416480043411647e-01 -9.930309292644438901e-02 6.272610306661571822e-02
6.677337815645049135e-01 6.770934759014273219e-01 -2.748808061733864494e-01
-1.695925228693514336e-02 -3.489877286087889607e-01 1.976647022857062341e-01
2.265476790445182798e-01 6.099193249721530236e-02 1.244585141745900569e-01
-2.337038209537325162e-01 -7.688059337959158857e-01 1.472669297119192644e-01
2.345489743492187029e-01 -7.509548487561426566e-03 -5.050023526814417102e-02
-6.632829564505050846e-02 -4.606554095708522145e-01 1.524136901050887338e-01
3.607666811836266474e-01 1.259157086504715806e-01 -2.549109264039535749e-01
3.359864662724552087e-01 1.174895681791582880e-01 -1.773750344311868787e-01
-3.039877979952720355e-01 -7.464380203784934942e-01 4.645736698360647954e-01
5.622349817314421516e-01 5.661614838349592338e-01 -1.027800395692397978e-01
6.044656533062272574e-01 5.450762988792370312e-01 -3.095295481797266102e-01
1.080299620627681034e-01 -1.949054588132449473e-01 4.146035160665455938e-02
-2.684565535703593020e-01 -8.175745248393706532e-01 1.782232581689091322e-01
6.389419130736487817e-01 5.621237145559616621e-01 -4.061961749630861318e-01
-7.091219735728777895e-02 -3.831399368810783912e-01 3.332080259793978039e-01
4.504724312021495813e-01 2.974512457980419966e-01 -2.387210368686663864e-01
4.483288119394193694e-01 3.154409683059103409e-01 -1.926109522576626432e-01
4.580645395850249657e-01 3.166099236837420783e-01 -2.275814328622395855e-01
4.705221462923753761e-01 3.061353697519313410e-01 -2.975264288774358001e-01
6.614143321663266128e-01 6.110243841276926657e-01 -3.896601208253427373e-01
-2.308143810176400690e-01 -7.553636927464845163e-01 1.644538403193985254e-01
-1.709490249583641430e-01 -5.221291621150285778e-01 4.252484042412049692e-01
3.818715540724120783e-01 2.103120889536961580e-01 -1.583983634972044030e-01
-1.006606956075899451e-01 -5.547076662784691248e-01 8.643157775834468814e-02
3.073523054761259088e-01 1.633102917638157292e-01 2.916816166053238027e-02
2.454269888945161127e-01 2.790869134150753949e-03 -7.064070701224493820e-02
-2.054300767839428998e-01 -6.112164745545309863e-01 3.702890531416768716e-01
7.164604728270226319e-01 7.290110917052674555e-01 -3.529343655313026407e-01
5.738369614563400001e-01 5.606623642612428293e-01 -1.589620718594283166e-01
-2.673328867422393729e-01 -6.948198812736219310e-01 4.323023140119908181e-01
-1.985488154788651871e-01 -6.413341872377366082e-01 2.804345755525561312e-01
-3.042470555641224039e-01 -8.663714101310042714e-01 2.131099588621621355e-01
1.147774076185960057e-01 -1.019430019821106898e-01 2.112048312180803411e-01
-1.534088747142889619e-01 -5.965168474920506947e-01 2.012249420756239693e-01
5.331624958379608259e-01 5.391845730668258785e-01 -4.779105062243937940e-02
-3.669987201914488850e-02 -4.606666282808223878e-01 3.847710707612236880e-02
9.987652424218754210e-02 -2.627634779661159881e-01 -7.003349518992094125e-02
4.738982958786973065e-01 3.586908569382386003e-01 -1.998771694002708099e-01
5.096880857749946404e-03 -3.166217052052505143e-01 1.809957325523862681e-01
-1.658341976935575335e-01 -5.410987952590389227e-01 3.656521417452429645e-01
-1.027843621892226278e-01 -4.719013936487191363e-01 2.689041651916992404e-01
-2.886956740448976544e-01 -7.214382786730594299e-01 4.584043499049267889e-01
2.411855123632690445e-01 2.794643042114823214e-03 -5.432547688718195045e-02
-3.235697383004494943e-01 -7.546252277510580031e-01 5.226266114687991848e-01
6.033772498299910803e-01 6.262711498503332752e-01 -1.344293085996946246e-01
5.031315236945209657e-01 3.829271057959373059e-01 -2.612532751672053677e-01
1.780377579964463053e-01 -9.880450906438084657e-02 -2.540690320016334922e-02
-3.526222609460203938e-01 -9.197830529435130353e-01 2.866672181759525873e-01
-3.615252365048053362e-01 -8.904899761274635006e-01 3.825587559637305124e-01
-2.985719558609852831e-01 -7.917368177337011925e-01 3.483970457922497266e-01
4.589097012083853122e-01 2.931232590065503407e-01 -2.802704077888322765e-01
2.597172968155693207e-01 -2.678991144826108756e-02 -1.878506427816934998e-01
6.122381345898385563e-01 5.601762425122069899e-01 -3.076270865444125646e-01
5.796936422019037805e-01 4.599783433195007154e-01 -3.934198145768507682e-01
-1.683255675812943275e-01 -5.565082560433501913e-01 3.427937546091076038e-01
1.268161976933838697e-01 -1.728207534896652187e-01 1.572098504931808069e-02
-2.280877528864352077e-01 -6.191000066593973505e-01 4.408065732883420518e-01
3.497594140508150096e-01 1.440614496241819364e-01 -1.743941853450689528e-01
-1.643187176038360675e-01 -6.430619419949390458e-01 1.451925290638236832e-01
7.184727762307599984e-03 -2.554613566947652181e-01 3.017114371887224533e-01
4.677559882567890459e-01 4.122578485829172523e-01 -6.350289248217937110e-02
7.095633918900723369e-01 7.037089346334530759e-01 -3.796782143115155495e-01
3.172698514024473865e-02 -2.564714091491119285e-01 2.052271840671461289e-01
2.040181087727185177e-02 -3.846899743260464022e-01 -2.113152761830192766e-02
4.090959433227783770e-01 3.356214884292816891e-01 7.085211860413226891e-04
-1.911048853795316027e-01 -6.227257776420540569e-01 2.909855654893563348e-01
-1.227855717140677316e-01 -5.184101845484432314e-01 2.479019228415541287e-01
2.784111101208620043e-01 1.198500717610204852e-02 -1.781016753102426797e-01
-6.640427372028169517e-02 -4.513167394621668271e-01 1.723637594009924390e-01
-1.598987336804356396e-01 -6.395694723668733372e-01 1.355506011440092695e-01
-3.043200572627339229e-01 -7.777954743766217760e-01 3.998434902180314499e-01
-2.967950382291549283e-01 -7.563440700556050000e-01 4.160672364215599051e-01
6.110289212983891494e-01 6.453003871543543379e-01 -1.237911811064248274e-01
6.872737731437338349e-01 7.022613504511953098e-01 -2.970280634907352946e-01
4.840638281940764370e-02 -2.073511692813099216e-01 2.444979752976554344e-01
5.956124763776015074e-01 5.460712775527392093e-01 -2.733971334405650433e-01
-1.749598007757162677e-01 -6.062587766871007089e-01 2.635753824578010995e-01
3.954793171390159623e-01 2.857115700174617245e-01 -5.200004418409581025e-02
7.104356483167924008e-01 6.789569182356914867e-01 -4.351349338842385173e-01
3.605962877683029366e-01 2.680066123637842579e-01 4.484636779226387066e-02
4.395275434194739206e-01 2.986204086037075878e-01 -1.941799227490644819e-01
-4.831254526462213511e-02 -4.351562717425506710e-01 1.368240232372932852e-01
1.185900241899443819e-01 -1.574025300545247585e-01 7.980376189018228983e-02
4.224563088023279844e-01 2.833291170040923568e-01 -1.607340779929112284e-01
-4.232048017331660472e-02 -3.602185787236729109e-01 2.715304958435223459e-01
1.147259240268464486e-01 -2.273817126051585757e-01 -5.264644482033212225e-02
5.302128734514961472e-01 4.677605839276658961e-01 -1.867984938278119955e-01
-2.059494385156629415e-01 -6.932260174831034183e-01 1.996552879264068270e-01
-3.912909905947077882e-01 -9.300653600010139188e-01 4.136933072010992030e-01
5.658057359312609336e-01 5.695805956669780512e-01 -1.093113362991450926e-01
4.588234676454068794e-01 3.509229594621625092e-01 -1.582701580705741795e-01
4.446603179917916204e-01 3.729125282173101352e-01 -5.752865520826441065e-02
-2.022573317687104133e-01 -5.821704018708867556e-01 4.192328917008241174e-01
-1.061568114004481367e-01 -4.875837844871981908e-01 2.488587612470534449e-01
1.396302934581621358e-01 -9.235434895475891359e-02 1.358366356325347302e-01
4.128946880558660437e-01 2.794806916524515406e-01 -1.320732894078908981e-01
5.483174821021538081e-01 5.265452468653406548e-01 -1.326635716916783614e-01
6.348619183572937197e-02 -2.440858665695578023e-01 1.091935932456411518e-01
-2.092413766985590229e-01 -6.152153737373756703e-01 3.765247248385465428e-01
-2.022407396723586992e-01 -5.724262290739194903e-01 4.396806402047981899e-01
4.529819947361805599e-01 2.875046017727428405e-01 -2.693073474045931115e-01
3.543045152734166092e-01 2.730170641682597710e-01 7.958349617761416306e-02
-3.465933823452644474e-02 -3.458630375785499145e-01 2.722940544197867130e-01
2.203224852433173508e-01 -1.324084881142941796e-02 -7.867800764185814769e-03
3.272886772931433708e-01 1.708671532217073685e-01 -3.157435141107919202e-02
-5.884145572440042243e-02 -4.279124611355681340e-01 1.925529903590960934e-01
3.394091974261362332e-01 9.150411383858927938e-02 -2.452340070668994620e-01
-6.192880486642026588e-02 -4.765473188735366294e-01 1.020463220935057536e-01
6.823339497724320024e-01 7.411253501706503988e-01 -1.962268843764083670e-01
-2.291875369859801281e-01 -6.453411161415862907e-01 3.897972460734356881e-01
5.130886338931416324e-01 3.674858388371504136e-01 -3.320395242118825974e-01
6.023507563804847420e-01 5.249530463721678863e-01 -3.437579271342508513e-01
1.287358274135242120e-01 -1.386409868987815430e-01 8.028915553149015838e-02
6.824488335339923273e-01 7.292881400378997681e-01 -2.215859764030740087e-01
4.811174348202327811e-01 3.745245379951395726e-01 -1.943027403199444891e-01
4.037268513526470759e-01 2.662346516731597945e-01 -1.247085233642047652e-01
4.072093290958649359e-01 2.227556123159601109e-01 -2.296213031396778237e-01
-2.252905592629322051e-01 -6.160917973938707659e-01 4.363844474225960224e-01
6.192841158183982619e-01 6.666645644185613673e-01 -1.105583680377839745e-01
-2.094824036523873223e-01 -6.702277703241552587e-01 2.616499907626299026e-01
-1.495819987223809822e-01 -5.446696985799995838e-01 2.956502289213832624e-01
3.046871510207441736e-01 1.360977955137351036e-01 -1.786753097722716677e-02
-1.302914986779292184e-01 -5.834276839822335470e-01 1.398978891991095319e-01
1.786111974264990854e-01 -1.037273846540343464e-01 -3.797429852621702490e-02
6.161013112892933796e-02 -1.770960352023555062e-01 2.574205047126288948e-01
4.890450262903829892e-01 4.703517606869340728e-01 -2.306524148901331964e-02
5.403861402850217432e-01 4.972169164073622638e-01 -1.639060962765320206e-01
2.672205723586174031e-01 2.242096943017432651e-03 -1.555860832723023057e-01
2.407856385060855309e-01 6.082197218019579077e-02 6.935979137668195349e-02
6.173939128074828336e-02 -2.959650965258506239e-01 6.703469757625029647e-03
3.385241138307959474e-01 1.914161089282287176e-01 -3.151577801127390666e-02
3.797204395076462374e-02 -3.211482034725417489e-01 4.507165838250731110e-02
-1.161786289747880202e-01 -5.416174942006055648e-01 1.736485616974462187e-01
9.958200580407007563e-02 -2.058525699264358300e-01 5.089663816676137653e-02
6.044371700399284730e-01 6.153723963167960775e-01 -1.614463437493474096e-01
-3.566209997143921506e-01 -9.226091023173604855e-01 2.960923952971752926e-01
2.779068267108943946e-01 7.533418650343094713e-02 -4.281245601507268489e-02
1.685106646048465384e-01 -1.101749542635021839e-01 -1.271275815901067203e-02
6.040103434553198980e-01 5.706993276400363913e-01 -2.538423849958688638e-01
5.064823641926181619e-01 4.174524953754978895e-01 -2.014601697620545806e-01
1.064198855378602343e-01 -2.085593490516479964e-01 1.890912522284187575e-02
3.571241097923414931e-01 2.083589273023825350e-01 -6.736280730457580579e-02
3.036182435985019801e-01 5.326066357392950784e-02 -1.881305270402714447e-01
1.729072257992819717e-01 -7.948494130916831588e-03 1.855709924381584996e-01
3.756511218738831648e-01 2.064966817112184883e-01 -1.425140031807162755e-01
4.084290144049497751e-01 3.360926733221856755e-01 4.264522507551181396e-03
-1.471088356933876809e-02 -3.254055414602410323e-01 2.386609972400114965e-01
6.104058614006803163e-01 6.306236595011651680e-01 -1.522902879258579423e-01
3.179319587502668076e-01 1.073978518136606691e-01 -1.292036453788777406e-01
2.086420561058817957e-01 4.067978771086392525e-02 1.505434225031178352e-01
1.594662417263771614e-01 -5.358867275352913184e-02 1.411749595902740684e-01
-1.061698967682741940e-01 -4.681066442404533401e-01 2.899085643991887729e-01
-3.916981622138811514e-01 -9.464342546830821767e-01 3.808021491385840673e-01
2.792376705745284182e-01 1.472572933819520646e-01 1.034693817166152663e-01
3.580050830250416927e-02 -3.536537410168676399e-01 -1.500374266682867261e-02
-6.997583882680964706e-02 -3.860741896406074125e-01 3.234313712718815403e-01
-2.747874139507039404e-01 -8.074163434904750858e-01 2.239466691497034867e-01
6.286477657422564480e-01 6.588894402888177959e-01 -1.629256537250740600e-01
2.906219050701945236e-02 -2.956931959156821610e-01 1.329104815758381797e-01
1.529996640657909912e-01 -5.605139893538717277e-02 1.608530815834366967e-01
-3.456661043482363582e-01 -8.791830221087396646e-01 3.453860509456370687e-01
-1.468760884147276291e-01 -5.279890881403223046e-01 3.203595458208743918e-01
5.000945227947154459e-01 4.409293346209577913e-01 -1.274818303773306849e-01
1.857574531267239260e-02 -3.281720241316926079e-01 1.048597957468481445e-01
2.272760942779914195e-01 -2.269855034917042311e-02 -5.451099133971360616e-02
5.931982873628877106e-02 -3.247565988992596187e-01 -4.460027188251006192e-02
5.324689275941489885e-01 4.609974799279960567e-01 -2.097087616689823353e-01
2.404582321501829989e-01 -3.574222875259804033e-02 -1.326496281628043450e-01
6.628661689484732777e-01 6.247776745727702252e-01 -3.662912690592653453e-01
2.310357710385440300e-01 2.064309372601174850e-02 2.226852048873252665e-02
-2.873724483516305050e-01 -7.737552363762357777e-01 3.431894182666410109e-01
1.419372522269732491e-02 -2.933851455207145964e-01 1.949340142411672139e-01
4.414067909254796862e-01 3.167609699778426435e-01 -1.632191143340095962e-01
-2.747022335769105927e-02 -3.035610826756043323e-01 3.336997881035035918e-01
-3.049084049489766413e-01 -7.319864071215143042e-01 4.985338750397919072e-01
6.263828052275836888e-02 -3.217730560487057079e-01 -5.107841193449275813e-02
-2.720874031742216426e-01 -7.958655864558594750e-01 2.378802968131920603e-01
3.077596866364700201e-01 1.088400716459684420e-01 -8.705823488344834049e-02
1.046508644981579278e-01 -2.067627129945313891e-01 2.949244364151356115e-02
2.597414772517111503e-01 4.887671138921896585e-02 -2.866492826990395607e-02
-1.037589444597556039e-02 -3.491009819482378540e-01 1.721151414111111166e-01
4.077262600653498437e-01 2.163773750093128945e-01 -2.450349841908188164e-01
1.698808143317003527e-01 -8.534052055944867099e-02 3.429602845150757362e-02
5.003222617091037661e-01 4.531915790214374185e-01 -1.025453267052047895e-01
4.453571256866010741e-01 3.230806037600947866e-01 -1.651041761273875641e-01
-2.314470873240162818e-01 -6.692322794867721081e-01 3.481935446169705517e-01
2.350544533117922621e-03 -2.644336749417856014e-01 3.014107318708751371e-01
6.738977800821537301e-01 6.179236854375871335e-01 -4.231324026195777410e-01
-2.446984718008525239e-01 -7.698295121155673826e-01 1.873836360063036166e-01
3.496146613097936839e-01 2.303907757050636385e-01 7.886082177974505780e-03
-3.380000496514549702e-01 -9.200611237430726952e-01 2.298635818038311796e-01
-3.163620670756168984e-02 -3.451631663342765721e-01 2.621441958001667905e-01
7.010326757129825559e-01 7.326543600029354897e-01 -2.859497176143659392e-01
-8.966109909130223765e-02 -4.035723760488882927e-01 3.622818840647437089e-01
1.798156230976653280e-01 5.956219730695951897e-01 -3.361936629554796996e-01
-6.566989904328617289e-01 -6.133026636371829987e-01 3.351766906347915520e-01
3.201055712379924367e-02 3.549576495135799425e-01 -2.745244978303607031e-01
-6.573300428375683513e-01 -7.135206282746915374e-01 1.266435110072386405e-01
1.014055204277485578e-01 5.039367382497323966e-01 -2.277267929419724835e-01
2.265537355098210248e-01 6.467354732944662343e-01 -4.082943631083153502e-01
5.453900076673853098e-02 4.577634232898440403e-01 -1.447332842433852740e-01
1.637074942254065565e-02 4.469033584525659020e-01 -2.084757722697276952e-02
1.496627648708931113e-01 5.771976582223824481e-01 -2.590476816193822973e-01
-5.464729064199184139e-01 -5.413214370671725062e-01 6.290925594922369690e-02
-1.974723607787710611e-01 1.510306943086666201e-02 -1.076229989288439853e-01
-5.561106941580211682e-01 -4.168844461183499051e-01 3.619044332350883075e-01
1.942175871472977267e-01 7.011528415856067564e-01 -1.694220773980132655e-01
-7.302121820565163901e-01 -8.068392384549325502e-01 2.104186494618206227e-01
-4.839336938673262645e-01 -4.171638339910386239e-01 8.381602522116729515e-02
3.063576912093485816e-01 8.064823804383958183e-01 -3.788499901499052802e-01
-3.925720900779487432e-01 -3.119824424308628719e-01 -4.603624062126673161e-02
-2.928328406291960673e-02 3.730347377920546492e-01 -8.145170446754004855e-04
-1.339255449737963288e-01 1.682597980453031661e-01 -2.954685312260775520e-02
1.282101682802802012e-01 4.637706784986869724e-01 -4.153329253076331606e-01
-5.854166049510908243e-01 -4.988614069202327861e-01 3.020154499084798938e-01
-6.433295201359318094e-01 -5.452546951317717161e-01 4.270162019963049116e-01
-4.484142744658335400e-01 -2.814052829263152256e-01 2.330263735814522286e-01
2.939069418265389255e-01 8.113246465532771845e-01 -3.207873572595582035e-01
-7.224144059006482044e-01 -6.849656604720368858e-01 4.369829812100370914e-01
-3.867937552207680041e-02 3.327075510103315592e-01 -4.957814721815390763e-02
2.074950421304204429e-01 6.428199397200454746e-01 -3.432612607404096905e-01
-3.482003861886813212e-01 -1.746166427462250148e-01 7.252282778343363545e-02
1.737642186703366454e-01 5.595973757778284208e-01 -3.887596994774944470e-01
6.833856288792353184e-02 5.318245662935627838e-01 -4.188958783392311008e-02
-1.904357803622362955e-01 1.127351986194605193e-01 7.083952584057645607e-02
1.521705296989579737e-01 5.683435203402359415e-01 -2.873273448456721280e-01
2.067054298764980647e-01 6.772903019204796760e-01 -2.676651103199728099e-01
-5.780281420773738521e-01 -4.695480285259223674e-01 3.353137173799701776e-01
-2.263200916601523505e-01 4.702655708708124160e-02 7.048755163833979320e-02
-7.093767591834115871e-01 -7.394933153999504460e-01 2.720758602513979052e-01
-7.233365815832961676e-01 -7.410879264634794295e-01 3.223907911361453271e-01
-6.297467033030649253e-01 -5.997568453130747157e-01 2.600667426963644835e-01
2.632841460346056484e-01 7.698133033147189774e-01 -2.904329271132791712e-01
2.020345037272399946e-01 5.887287526915024882e-01 -4.361292877323620365e-01
-4.740807091848874277e-01 -4.083410597158122490e-01 6.450605757086662340e-02
-4.629266434319087575e-01 -3.338867429671497633e-01 1.783485775393549300e-01
-3.235291715116963562e-01 -1.620783889779927323e-01 4.062033522914515124e-03
-6.537069566466605641e-01 -7.014679005597627137e-01 1.380848241555458766e-01
-8.162527102969721615e-02 2.955157161465528093e-01 3.724773061363606530e-02
2.622015664482227892e-01 6.857607218141519301e-01 -4.632018859451262349e-01
2.501121983116019187e-01 7.086618812249304566e-01 -3.685145869496438964e-01
1.682826020152323743e-01 6.203121631340927644e-01 -2.398794421917330444e-01
-3.205583986437398041e-03 2.740843982224483444e-01 -3.093669905551383881e-01
-3.967969891662846416e-01 -2.487357006435971518e-01 1.033420693892102143e-01
-7.039701755470100242e-01 -7.782180657846912153e-01 1.697732396693552859e-01
-8.982673040118596686e-02 1.722004215373270086e-01 -1.907993744366524025e-01
3.558893237336156479e-01 8.199069441623227927e-01 -5.410264212688868923e-01
1.719410897573878660e-01 5.375082344010478907e-01 -4.282480520103697508e-01
-3.358055420968765747e-01 -1.817013227536327102e-01 9.954840739824761739e-03
1.199401531964930517e-01 5.688833974534434068e-01 -1.622741547593881672e-01
-8.711284256462170639e-02 2.802891846439856116e-01 2.629396451843300439e-02
-2.449748283357600087e-01 4.049157412092663916e-02 1.284535977166822995e-01
-4.015224125343739847e-01 -2.015603713517550299e-01 2.208143378330409690e-01
-1.423311281487146807e-01 1.243628540742572480e-01 -8.963306912236462809e-02
3.823782451941236116e-01 9.577988653244767780e-01 -3.526055881047593377e-01
-5.477802559298554641e-01 -4.739752682069025003e-01 2.096997250861132867e-01
-4.388970569596508109e-01 -3.388062361499218356e-01 7.560600457581821698e-02
-1.712763124746002341e-01 6.570328665299601800e-02 -1.018256956165235622e-01
3.128155819271726812e-01 8.169605103643325927e-01 -3.816222417522150412e-01
-5.935977148862056629e-02 1.929279782204949001e-01 -2.643046472222574939e-01
-5.081447989801199938e-01 -4.114641000281469840e-01 1.888988977609369346e-01
-6.820747607802875034e-01 -6.813238477659455672e-01 2.895544122183262847e-01
1.913424056484265834e-01 6.693072780013035183e-01 -2.254029087462414704e-01
3.588329146222591359e-01 8.191222050881671324e-01 -5.539955818350780214e-01
-7.152318019596893839e-01 -7.590953884851939781e-01 2.533243773736316151e-01
-4.470155371724588989e-01 -2.809407730276317627e-01 2.286264175698961287e-01
-6.261936984294691477e-01 -6.002573440834759744e-01 2.453528840082608298e-01
-9.930226942630752951e-02 2.379775857081903034e-01 -1.590727468663086230e-02
-1.532818162911402660e-01 1.257621007574158956e-01 -4.458532634723096078e-02
-5.299760562202502356e-01 -5.021587112650613971e-01 8.192126590226828098e-02
-6.751364321809013580e-01 -6.154393792204377878e-01 4.015656771863255758e-01
1.183037343177525957e-01 4.868743783189353191e-01 -3.286120463848213324e-01
3.852359648872824560e-01 8.890544751041764560e-01 -5.083000592697520803e-01
-5.182089555250434243e-01 -5.030794977454915440e-01 3.474180766611888183e-02
1.365817420612982884e-02 4.335332481261537918e-01 -3.856264741665781787e-02
-6.349065006775351794e-01 -5.867499174858966660e-01 3.072843732355277080e-01
1.054809778102332174e-01 4.774302968246650347e-01 -2.991919954519609015e-01
-6.736757275048430582e-01 -6.029577354041418813e-01 4.222236108355719164e-01
-3.582561588335803626e-01 -1.205722930348668842e-01 2.249481201113370243e-01
-4.507249268661888131e-01 -3.427980631078867413e-01 1.126780234801073172e-01
2.595867955837438124e-01 7.398563289588677705e-01 -3.392772584319713736e-01
-4.207354001639070917e-01 -3.454741395184752761e-01 -8.256440431123796692e-03
3.503856716862228105e-01 8.304431972814316776e-01 -4.976875507265901555e-01
-5.380768591925110256e-01 -3.898635568833871412e-01 3.494485317853012196e-01
-2.425566223217390238e-01 3.183062650831677831e-02 1.009249296192934464e-01
-3.142253840463225534e-01 -6.830172818785082423e-02 1.656920005239470861e-01
-5.535783038046399041e-01 -5.437612449176397744e-01 8.509170358756351638e-02
2.054074875205019191e-01 5.895777079340094318e-01 -4.473104073744333387e-01
-1.091915874309208057e-01 2.134311823740999980e-01 -2.955594630669839198e-02
2.800826850767960674e-01 7.222807499961929611e-01 -4.550748931961605681e-01
-6.803424208981787569e-01 -6.880988026178479489e-01 2.686327325087536355e-01
4.625544788266620910e-02 3.598377763123309370e-01 -3.190194067465000338e-01
3.061824454854788491e-01 8.084061629479590838e-01 -3.741266461799080401e-01
-1.721310030857991927e-03 3.556387183895418636e-01 -1.434012884036925672e-01
1.821680990283034984e-01 5.713176074835242257e-01 -3.963991032309405194e-01
-1.585577121838873671e-01 3.531158614769030341e-02 -2.146998481254760172e-01
-6.114565738599681693e-02 2.311174535348295145e-01 -1.770493496980092285e-01
1.886616925937787195e-02 4.393844908155510320e-01 -4.626902579106475372e-02
-1.850049471047123806e-01 9.022773825811143678e-02 2.581162169422189078e-03
-3.787900606717368168e-01 -1.955116111477893659e-01 1.461475048307497304e-01
-5.331905825073232075e-01 -4.377708118976909590e-01 2.298171196075061984e-01
-7.840150222267709690e-02 2.492811108359601624e-01 -7.247086833252892879e-02
-3.732667024668833156e-01 -2.706369795253059651e-01 -3.322759391839102960e-02
-4.568276617641287562e-01 -3.837294318680202765e-01 4.998055569998702957e-02
-3.927648728174195497e-02 3.627764038778077960e-01 1.601269010112982977e-02
2.700515673476504008e-01 8.074609231784034558e-01 -2.372033024597661743e-01
-3.518716716020956481e-01 -2.223807777308969280e-01 -1.390589305569197263e-02
-5.329416223351932658e-01 -5.149580990455534524e-01 6.638024894502987661e-02
-1.425357291579900654e-01 1.016055780098521905e-01 -1.367506342811563858e-01
-2.690955725694648901e-02 3.376878642145574871e-01 -8.434620456331207161e-02
2.445107065949032044e-01 7.659228813518771384e-01 -2.264436859402535751e-01
-6.057264457290328918e-01 -5.122104019375181005e-01 3.520013713883994866e-01
-4.334400707280041676e-01 -3.352037313120801998e-01 6.220871878413208184e-02
2.015838511935001687e-01 6.378116511311033854e-01 -3.310768684007353024e-01
-6.264515343128626013e-01 -5.694422225579548469e-01 3.112102007391914227e-01
2.178558965766778099e-01 7.002065090181551765e-01 -2.622967738020178796e-01
4.811866920544689147e-02 3.817644273838646241e-01 -2.800272413076480005e-01
-5.496151373784677885e-01 -4.758839449605544170e-01 2.127365532460927522e-01
1.800610392603352872e-01 6.197414982725729660e-01 -2.863654782325947834e-01
-2.363115974391618024e-01 2.697571978538874926e-02 6.669495597603831982e-02
-3.687301257686574352e-01 -1.389825830483089886e-01 2.264638136836779891e-01
2.980431512215530043e-01 7.617463175841603373e-01 -4.410525917675871543e-01
1.833430339013718269e-01 6.004241548624175140e-01 -3.396469461827207881e-01
-1.792164927202142544e-01 9.548315596542522599e-02 -8.611134364634995264e-03
2.568876218771132258e-01 7.070213984347086811e-01 -3.980174134759647542e-01
-5.796556828450573073e-01 -4.651870778245411064e-01 3.507509811400467137e-01
-4.807640569078842074e-01 -4.509804978290917754e-01 4.453871052822233113e-04
-4.655203090328818849e-01 -4.291047094455088806e-01 -1.211388032842690594e-02
-1.374163025861595624e-02 2.531714323800573485e-01 -3.128807665538716476e-01
-1.830726084627055661e-01 1.079391583999529669e-01 3.243450528557834805e-02
-6.081278628187629653e-01 -5.832700090238532864e-01 2.116532591248697914e-01
7.876437020742284301e-02 4.230738461451368781e-01 -3.108947877535277460e-01
3.547196384370748801e-02 4.307785547143045957e-01 -1.282291877481250286e-01
9.738455343338756065e-02 5.440535350911314127e-01 -1.278212132987437966e-01
5.296584190564045808e-02 3.914495080876783106e-01 -2.782761077374145686e-01
-3.475040490867470355e-01 -2.229026116480499753e-01 -3.179663839577583778e-02
-5.958450282225946637e-01 -6.142793546298656038e-01 9.915435679283751691e-02
-2.584034109237793864e-01 2.960063138389044252e-02 1.571572284427500132e-01
2.005652363390212911e-01 6.587013440115075946e-01 -2.831876552636887756e-01
-9.808784439331867666e-02 2.818427339047165359e-01 7.175999441260548506e-02
-5.881124922189879811e-01 -4.765363988648666504e-01 3.593746512040707497e-01
-6.700562445197772998e-01 -6.935433786054105987e-01 2.176244091034909289e-01
-2.878034387301637437e-02 3.581229142438521196e-01 -3.413765618670595858e-02
-4.253443798524897956e-01 -2.987548215574525323e-01 1.078082282630501154e-01
-3.893897147353377330e-01 -2.268407782121960037e-01 1.209521187247094703e-01
-4.190378434974468269e-01 -3.271671329707084297e-01 2.375328629268246353e-02
1.870674628697814590e-01 5.755060354360159725e-01 -4.064191159761692540e-01
-6.855022928540659422e-01 -7.579127956604929661e-01 1.415121292945906994e-01
7.837541935416481031e-02 4.820648143419279941e-01 -1.852230495444510128e-01
-6.199979501833947637e-01 -6.483406369738512476e-01 1.203163606954575915e-01
-6.254623302636137805e-02 2.162643590897920243e-01 -2.029303799787677276e-01
-3.846394843040468886e-02 2.958623015146402691e-01 -1.279658685317306421e-01
-5.975585337491151616e-01 -5.417999253942845650e-01 2.583119247115866490e-01
-7.097104378405744152e-01 -6.583182705929080392e-01 4.442327027789889637e-01
-4.519972297735659894e-01 -2.798522094878247435e-01 2.500710590800478417e-01
-7.170280447737678031e-01 -7.633597559657963050e-01 2.512539081438956434e-01
-4.491120157812392710e-01 -3.512624426466195438e-01 8.865926515431955812e-02
-7.121297874574999964e-01 -6.828991705399640733e-01 4.017914851079672500e-01
1.204447889249390252e-01 5.538612697540364893e-01 -1.958360036512377111e-01
3.276604747862712497e-01 8.287234017201874359e-01 -4.139357307762511207e-01
-3.324121922768424331e-01 -9.248162178744896711e-02 1.847163535632621034e-01
-5.503408043241782011e-01 -4.894649508854898023e-01 1.869384423243472815e-01
-6.534961349421610777e-01 -6.723401652395910588e-01 1.985883263015530698e-01
1.000404411018207679e-01 4.256973309869858113e-01 -3.871728540097230664e-01
5.458714762917069941e-04 3.817685117411584450e-01 -9.711459745553124856e-02
-3.638944169148422003e-01 -2.309863980694358554e-01 1.420330513279854760e-02
-6.948567273689172374e-01 -6.546521326452865441e-01 3.948415994588828082e-01
-6.515935097076924754e-01 -6.743382337173876584e-01 1.870673208592954495e-01
2.018389678372190243e-01 7.031362157894172071e-01 -1.945491314117783199e-01
-2.493845054435911146e-01 -1.745893955342528491e-03 5.649745157297144521e-02
-6.776621883981961414e-01 -7.185078712286037117e-01 1.943167248759610222e-01
-4.853466156990816210e-02 2.292234699514587859e-01 -2.295219332288713499e-01
-3.175125442250831265e-01 -5.926666420526285201e-02 1.973490704718567079e-01
2.820568361616037079e-01 8.409168794568029348e-01 -2.129352066216204098e-01
-2.908978399794255945e-02 3.079662743828689431e-01 -1.385279646626773054e-01
-2.944136360422603960e-01 -1.711005651736778321e-01 -1.268707565476899779e-01
-3.655102564928289222e-01 -1.927515871006163506e-01 1.009002541337604281e-01
2.663817659530564042e-01 7.240734044357679533e-01 -3.986251590942286316e-01
-5.849815760771559514e-02 2.508886785162868782e-01 -1.456096991182559419e-01
3.163073789258827317e-01 8.456979198399913189e-01 -3.345548063119134219e-01
-1.885536947807017194e-01 -7.666662513122058167e-03 -1.898431831235178058e-01
3.393575444838772825e-01 7.946457813037268725e-01 -5.306412679229240981e-01
2.994298024450307572e-01 7.784022485561048477e-01 -4.113230446319086075e-01
-3.091869256419474965e-01 -1.837873189137898267e-01 -9.677729764231597642e-02
3.041581881133767484e-01 8.499815871332172534e-01 -2.788274352014024626e-01
-2.702601643385337815e-01 -1.153282502870539433e-01 -1.023330241841070715e-01
-6.445204814034839469e-01 -5.827103601552592327e-01 3.527507206951024377e-01
-2.906645995936568139e-01 -3.464398228296849958e-02 1.459571524827588951e-01
3.798271935079333694e-01 9.043149294868876309e-01 -4.553815070909243423e-01
1.225452241929455149e-01 4.886779788914131228e-01 -3.411227940122853464e-01
8.853043772107820064e-02 5.274019083607700553e-01 -1.288313962888371356e-01
-1.527807987748700524e-01 9.805445095747049311e-02 -1.048363620883608349e-01
2.070572736948755876e-01 6.553367702298094066e-01 -3.152301629763317736e-01
2.912250848303037931e-01 8.534906841855566251e-01 -2.217166156720704884e-01
-7.138476682433274600e-01 -7.265437900779444513e-01 3.165240760906609663e-01
-4.545821869860586784e-01 -2.677327117758588892e-01 2.855211067927730384e-01
2.822666456798262891e-01 7.600348659294245968e-01 -3.839989745498252338e-01
3.825311358214789070e-01 9.207328265665359890e-01 -4.312176369588159863e-01
-6.013158838629073522e-01 -5.454747197206585296e-01 2.650224171856613298e-01
-8.701107127476366554e-02 1.771435036740510172e-01 -1.912195763190315811e-01
-1.142664914167172002e-01 1.901199505852739779e-01 -5.911464438928374504e-02
-3.329960996454123801e-01 -1.504499142038564774e-01 6.493772045624156275e-02
4.424825912218578738e-02 4.523190421660963079e-01 -1.166287267714502252e-01
-6.754345425038918993e-01 -6.930339182700799849e-01 2.393748713069359380e-01
-4.980619752770954478e-01 -3.759344945530398441e-01 2.249232987530703498e-01
-6.013819500508037486e-01 -5.289712415542209278e-01 3.000163407235640345e-01
-2.545174135664625692e-01 -8.421568320041954159e-02 -9.736734467660557169e-02
-3.490308530386864172e-01 -1.432659526389747084e-01 1.417091247371337903e-01
-7.250198279315349659e-01 -6.729765863028059902e-01 4.722371680852602283e-01
-1.191567983912549256e-01 2.127001827214680674e-01 7.218732542401877159e-03
8.677464043181520870e-02 4.438920370074996846e-01 -2.978696141100656281e-01
-6.854212438093676418e-01 -7.135074354700364774e-01 2.346740601471588306e-01
8.841575775610172050e-02 5.547985090998855950e-01 -7.072048001150724184e-02
-3.549492013122005352e-01 -1.736536731246220155e-01 1.004971831599122817e-01
2.803705289855258909e-01 7.562502751771663645e-01 -3.846755239543409588e-01
-4.216071169754109227e-01 -2.320093707990852350e-01 2.339390644705834355e-01
-1.153386628060556612e-01 2.412080874836915467e-01 5.254837901352725493e-02
2.683997361730172670e-01 7.576552361527907342e-01 -3.356937366043529769e-01
3.603647515538558332e-01 8.174198965457064592e-01 -5.634684340048053963e-01
4.321356063193507180e-02 3.908880036760734034e-01 -2.419632952623145261e-01
-7.156145730029358498e-01 -7.025924199059125907e-01 3.737351022723447991e-01
1.193030413385846034e-01 4.904211833452724045e-01 -3.249880559955565240e-01
-7.667096507183356058e-02 1.873956207847580768e-01 -2.093936144172637570e-01
-1.878269776554184478e-01 2.668967975682633512e-02 -1.203169059162335353e-01
-7.109544933795713950e-01 -7.328027410344761794e-01 2.922255031050524088e-01
-9.629038226661289918e-03 2.673463054012671369e-01 -2.988543376628300940e-01
-7.185007015871538449e-01 -7.599617353018519594e-01 2.640687132658531278e-01
-6.779841222071693319e-02 2.244598978161696790e-01 -1.654855693502798875e-01
-2.313171947553868124e-01 3.759875862035368110e-02 6.985443893508341828e-02
-1.570857271724713233e-01 1.685660342634399955e-01 6.014217182225087971e-02
3.712220676575982981e-01 9.387292065444896583e-01 -3.498549614629472559e-01
-5.512431012343926851e-02 2.606140881263696585e-01 -1.381091512997227877e-01
-1.572681697728548489e-01 7.956765069263280199e-02 -1.264985030590169424e-01
7.456959783788093266e-02 4.582212613935510159e-01 -2.207815524346554703e-01
1.585974021510577203e-01 6.235386164998997227e-01 -1.958508657265783104e-01
1.299976820793197485e-01 5.082221869958698512e-01 -3.286347297137197643e-01
2.588929226915137050e-01 7.392670954673787875e-01 -3.378498519676234046e-01
4.645513375394812183e-02 4.723593845953399928e-01 -8.292850246067021147e-02
-5.929253493963965171e-02 2.998118894723348360e-01 -3.957189755646343260e-02
-5.366648793290700326e-01 -4.570875359305484609e-01 2.025129985928577347e-01
-1.122519645938885730e-01 1.645514548885628481e-01 -1.206817665004740608e-01
1.807805147025125236e-01 5.834148929491985713e-01 -3.655993748883046845e-01
-6.384732404387208904e-01 -6.572513586564663335e-01 1.725915418597097073e-01
-5.356296624582665977e-01 -4.803417741387620565e-01 1.495825736876894019e-01
-1.444669092605679016e-02 2.792023489888372789e-01 -2.553747753298201695e-01
2.116132009753751153e-01 6.478266293320449343e-01 -3.485553141225514184e-01
-2.370029286330897766e-01 4.250688780627420033e-02 1.020461293381201423e-01
-1.405472254197027149e-01 1.680221221757471073e-01 -4.588660622622408106e-03
-3.989671612515836019e-01 -1.855152088232775998e-01 2.447652748181749771e-01
-6.334354964345699779e-01 -6.558583800385976437e-01 1.561550591330742310e-01
-4.038987570735059207e-01 -2.402309735116953948e-01 1.485488725474957139e-01
-4.806121473010031564e-01 -3.320035080923469661e-01 2.503085932438445793e-01
2.956782459102022184e-02 3.159627018504999607e-01 -3.472174690976615463e-01
-4.410480461796287277e-02 3.514734976165777569e-01 1.078353073695959181e-02
4.287631454872598870e-03 2.958675032739587762e-01 -2.923227365031186853e-01
-2.555727717159024803e-01 3.710668675259838623e-02 1.620745059257469034e-01
-4.517182363304424464e-01 -4.016094532525691374e-01 -7.301299176589081709e-03
-4.454934026676252712e-01 -3.825556049610029929e-01 8.874425218012103184e-03
-2.804728028584786426e-01 -7.896030124279426743e-02 1.348644708553982385e-02
-1.331441592295462828e-01 2.119234598599469555e-01 5.936120041436332428e-02
1.877055278321857479e-01 6.864614238412416469e-01 -1.753105581342303543e-01
5.734728688301499872e-02 4.969228568744830654e-01 -7.309952001514459508e-02
1.043209158568794981e-01 5.568269473375793144e-01 -1.276014715840525504e-01
-5.469101761973409470e-01 -5.176339510927525644e-01 1.144527312858218959e-01
3.495732810158596049e-01 8.743224453786917483e-01 -4.021980641142260948e-01
-4.035114138805557804e-01 -2.335768408259753792e-01 1.610666347919473274e-01
-5.333836181603067716e-01 -4.076528899185872801e-01 2.939576885485924995e-01
3.473128692588415833e-01 8.816546204061439518e-01 -3.780731446438618804e-01
-7.675575795496493436e-02 2.865571318932915168e-01 -3.320515336935033813e-04
-2.465536892045182560e-01 -1.289743722046008366e-02 2.213969469823167183e-02
-6.290317211265946673e-01 -5.739789116767087807e-01 3.115805373809025225e-01
-3.793953960063051190e-01 -2.404061956488837692e-01 5.397148749334113732e-02
3.398615485135104697e-01 8.586120220831154892e-01 -3.979297127031699022e-01
1.553218895044215508e-01 6.403313799815044671e-01 -1.479085746685814551e-01
2.638446018206177524e-01 6.690703326427603903e-01 -5.046522618526226855e-01
-4.130184709819126332e-02 2.383971767049218593e-01 -2.380193673950074806e-01
2.594799067693370417e-02 3.637043237415863994e-01 -2.328038323776399632e-01
1.125457859451362563e-01 5.685440866932416348e-01 -1.345591405410405117e-01
-3.478510105782663953e-01 -1.612406781747305617e-01 9.933605996399345883e-02
-4.209027669922219550e-01 -2.321004896272188811e-01 2.310392309411721801e-01
2.676561389350364806e-01 7.622419112252535323e-01 -3.231798363418969533e-01
-1.533858035660902730e-01 1.428629680987848205e-01 -8.188099189507871967e-03
1.310807873491921793e-01 5.601865911488713712e-01 -2.234135920761260441e-01
3.313207449645745317e-01 9.261659825249409783e-01 -2.228912418424635888e-01
-5.459236167945702434e-02 2.258591262954539880e-01 -2.133137406155637128e-01
-3.826371368700984821e-01 -2.471587222370394965e-01 5.222096288683004961e-02
3.052905073212946463e-01 8.030120416484370915e-01 -3.820520511755389759e-01
-2.633590617661662331e-02 3.033421472949213160e-01 -1.588496658832637964e-01
-4.366724289611599863e-01 -3.341979901125390340e-01 7.675331944879806856e-02
-4.244675936585369791e-01 -3.393382277800422453e-01 1.900892527816530272e-02
-2.149800744837724598e-01 6.562382232667757220e-02 6.603572206125880861e-02
7.717398918478268754e-02 4.902143995523586262e-01 -1.634489636663088996e-01
-5.856971986478699543e-01 -6.068452128418153624e-01 7.578771387190502695e-02
-2.139077314025829846e-01 1.563577512491693550e-02 -4.331226623386057878e-02
2.703687348904590393e-01 8.038359210738477145e-01 -2.460533731138357105e-01
3.667261607493733089e-01 8.938360364696628091e-01 -4.270698464068581890e-01
2.932696165177025582e-01 7.506856394681066247e-01 -4.459824833117902454e-01
-5.056322735327437590e-01 -4.719672821480161429e-01 5.187939254191410027e-02
-2.137036159950452818e-01 8.444864375472242723e-02 1.007544563483002142e-01
-3.889226043653720155e-01 -2.822511196001515899e-01 2.517119399280928153e-03
7.095829509008982905e-02 5.329356440648914672e-01 -4.962289721310448459e-02
2.769392604984639572e-01 8.139768422694686478e-01 -2.499685005749963385e-01
3.114460906135650409e-01 8.536751752879522259e-01 -2.990723489131840718e-01
-1.786336262056221480e-01 1.076218573396208883e-01 1.469994463430644022e-02
-5.520221185065350422e-01 -4.249077303456524346e-01 3.292959481493562546e-01
1.115615975531839416e-01 5.700782901198568897e-01 -1.275457054442678539e-01
-4.935207486489144313e-01 -4.498529642936927586e-01 5.186474873608047653e-02
3.486906502250697870e-01 9.471795200623112088e-01 -2.454400303335949052e-01
-7.150823720470144140e-01 -7.759650180931764174e-01 2.172391928113238668e-01
2.644214758622942876e-02 3.792142083120113583e-01 -2.020553296104337093e-01
-2.726334145292289568e-01 -9.416007225650323276e-02 -4.864940577210643408e-02
-6.469127862363736048e-01 -6.026827755058621339e-01 3.199064103247512003e-01
-4.690092161286217864e-01 -4.109306728838247880e-01 3.955644032707740509e-02
-9.619394466926058096e-02 2.002771034788315418e-01 -1.072176449239143209e-01
2.894378634581044607e-01 7.323791190997047673e-01 -4.697858008912644268e-01
-1.195533714757540805e-01 2.317098832202950098e-01 4.875897487092699378e-02
-6.007261421879305230e-01 -5.235710902697082725e-01 3.088622935630899735e-01
-7.005487442371002293e-01 -6.893185953409833866e-01 3.437526999372775838e-01
-4.624737671963622399e-01 -3.387316322883713871e-01 1.664088753844930046e-01
-2.995856903196847387e-01 -2.374946131829111171e-02 2.031892708432070371e-01
-1.584975553735007425e-01 3.162666507863645671e-02 -2.226879144649170916e-01
-4.825596991116057888e-01 -3.968668593382309595e-01 1.212586510620055624e-01
-6.892811217085718090e-01 -7.087277919829167994e-01 2.595753839680540187e-01
-2.168425535666774762e-01 -4.337793010701386509e-02 -1.562528922776037499e-01
1.182218626268200373e-01 5.648618828848229745e-01 -1.641331216823905537e-01
-4.644713127460118884e-01 -3.387870250468604794e-01 1.739722749251231271e-01
4.675457115755930065e-02 3.635497788058331126e-01 -3.131246087027952929e-01
-6.220804738231243691e-01 -6.501394051971161048e-01 1.245366616251715741e-01
-2.539094864668222651e-01 -6.050901835083863367e-02 -4.980198614070409369e-02
-1.048359298390969807e-01 1.265543243326930356e-01 -2.291785182953116617e-01
2.029073028749066865e-01 6.727734560992417734e-01 -2.625703654625923256e-01
3.487506109183179381e-01 8.339909490378627499e-01 -4.839331631901057640e-01
-9.410493202545200386e-02 2.571649959792011164e-01 4.500033002879474942e-03
-7.359647841454901307e-02 2.660188017388997461e-01 -5.571189859044987924e-02
-5.070799195581122687e-01 -3.431762793352730601e-01 3.285509954931785659e-01
-1.294892646207785464e-02 3.250257128692685682e-01 -1.646748113531187052e-01
1.556804562457630436e-01 5.421716569469666736e-01 -3.559139514197135479e-01
-5.853145893416444867e-01 -5.834761585262012717e-01 1.235086839029803374e-01
2.138009779816123779e-01 6.552870745698656796e-01 -3.412624216156917023e-01
-4.047127630734077552e-01 -2.791310094313492751e-01 6.979369496806109296e-02
1.518041126651462347e-01 5.993562037437958345e-01 -2.206366951836387924e-01
-5.529849994838280658e-01 -4.997379123504726017e-01 1.754799864017857758e-01
-3.662053301708040332e-01 -2.167911628032266891e-01 5.296917043272168085e-02
1.664065905420449853e-01 5.569557457390915678e-01 -3.660323323511831539e-01
2.670616755894992256e-01 8.154384100240251732e-01 -2.089153521291045590e-01
-5.994863473705737134e-01 -5.710109193187377086e-01 2.042345144155456593e-01
-2.719012005826799694e-01 -4.444718795148343976e-02 5.318134806923644625e-02
1.576998696492196705e-01 6.184963247678886278e-01 -2.030141587776547463e-01
-5.587884808736748310e-01 -5.468220034015948139e-01 9.868045669457428670e-02
1.677351916054627412e-01 6.348526035902567477e-01 -2.071670911143687899e-01
-4.722380275687771412e-01 -2.958376418782178163e-01 2.942418136663445538e-01
-5.588543353265931213e-01 -5.537449137275503031e-01 8.436088203896954796e-02
2.278194405267121025e-01 7.166818344192377177e-01 -2.659231461228858118e-01
