7.282408147594334746e-01 1.264456977871642462e-01 -4.542688149190450830e-01
4.947843486029891991e-01 -1.627605209873781433e-01 -1.444650185597727912e-02
5.842425620709564837e-01 1.314243958540760870e-01 2.642473557666041861e-01
2.030225872924387998e-01 -5.266798840302574503e-01 5.291609159016182895e-01
5.082169739561387400e-01 -3.962839202592701587e-02 2.199831840988449305e-01
2.810581248022469558e-01 -3.231536521539769558e-01 6.427689986720225290e-01
2.137372945492485021e-01 -8.305025850635749940e-01 -2.644307531931711641e-01
5.710429409671028411e-01 -6.318260276491860505e-02 -1.456543767752030982e-01
3.006420762459861562e-01 -5.418619551763700359e-01 1.326611930815101668e-02
2.613887243624242740e-01 -6.987572823288396018e-01 -1.768511793627862705e-01
1.805329529149202195e-01 -6.714870179261581695e-01 2.862938323273006014e-01
7.096617933611505391e-01 -8.826531667648412557e-03 -6.930632479049733119e-01
5.520097038690068292e-01 -3.011130927568891336e-01 -6.326068479106158327e-01
4.909273931820530290e-01 1.776153483904961972e-01 8.346590881668397577e-01
3.879343315110038160e-01 -3.200904410787361321e-01 1.259667603235901101e-01
2.439995368021040945e-01 -6.632657170802979119e-01 -4.984931226810797311e-03
4.115873560104713058e-01 -5.063657075327365753e-01 -4.443916446518719754e-01
1.732066275249400100e-01 -5.474370237400851824e-01 6.247937444120111872e-01
5.136533281509252369e-01 1.458945862909661884e-01 6.458108989194996097e-01
3.035986011387948325e-01 -7.681302171498949338e-01 -5.531110596280022218e-01
1.223172540620586363e-01 -5.124881432149587246e-01 9.596691055349516608e-01
4.590468944120462691e-01 4.640439636688976216e-02 6.710196498367375639e-01
5.845198759535604749e-01 -3.633556721283032892e-02 -1.462838889351695815e-01
2.630711970357192953e-01 -6.008109051762560160e-01 5.378932738225105509e-02
5.239135940653811829e-01 1.273798288175055915e-01 5.503219340140435012e-01
4.675246740896864539e-01 -1.795382965188896396e-02 4.724611330965542422e-01
7.348551719220722811e-01 9.671455944395257118e-03 -7.715304697462225247e-01
2.612657154506214385e-01 -2.805388513023204244e-01 8.437978336192090145e-01
6.776329790415467347e-01 3.015580395208278808e-01 2.210878008574404530e-01
7.781643819701097309e-01 1.339114361185793634e-01 -6.809561278296080156e-01
2.826175994143052539e-01 -4.985257406731887775e-01 2.073820359616037612e-01
2.237241738684451198e-01 -8.540161565203205907e-01 -3.707708769326923948e-01
7.481670712217730612e-01 3.591593321412482887e-01 1.557896819396741364e-02
5.151737491836962946e-01 -2.522474929208535221e-01 -3.327262751419277631e-01
6.735975682916424123e-01 -4.439371824116739723e-02 -6.029020950628283249e-01
5.318637709149409698e-01 1.187104707166468376e-01 4.901781281226866294e-01
6.439001443355951704e-01 -1.139544030646673506e-01 -6.268838478632561273e-01
2.896164366387798395e-01 -2.984203486264897509e-01 6.611119888188691229e-01
3.785057153516964701e-01 -6.028798153244516733e-01 -5.175124653579724621e-01
3.070527527822710101e-01 -7.341587704545246007e-01 -4.871979105929159504e-01
4.204140962635771195e-01 -5.601576798317731143e-01 -6.188905953089539613e-01
3.212741851033273921e-01 -1.469767184186551723e-01 8.751921395539146165e-01
8.006193859370493160e-02 -6.867497424264560335e-01 7.419209337337127064e-01
5.415523873444249014e-01 -2.054604514829546924e-01 -3.480099659998388550e-01
4.045557130832628800e-01 -2.376299445607247263e-01 2.455550671135234841e-01
3.870656311460580756e-01 -2.788388603227326401e-02 8.429274745010331138e-01
4.926640070622242407e-01 -8.198819083959306420e-02 1.929604883984288310e-01
7.759006459939443712e-01 1.435948425157901054e-01 -6.462334556033437760e-01
5.888481593693341010e-01 -1.317617923120964207e-01 -4.002630080106425736e-01
1.385827174162492792e-01 -7.775985306710337941e-01 2.332689415109930609e-01
5.166454453551099224e-01 -8.955199761946505688e-02 5.687295919253317067e-02
5.763574642978408491e-01 8.376891603922570484e-02 1.866941802449718080e-01
6.342330122054986585e-01 4.381720370682733873e-02 -1.946533900693611929e-01
5.031950145451558054e-01 -1.476181824072740068e-01 -1.877185776225877983e-02
4.273366103146749584e-01 -5.295186306952729405e-01 -5.781190508942726236e-01
7.783257060662154281e-01 2.768734791007606555e-01 -3.330593602901260608e-01
4.233854841629279830e-01 -3.362660869222617865e-01 -8.738912063819323506e-02
3.492398861276297395e-01 -3.465913164927394430e-01 2.511432364695920239e-01
6.355433141966259081e-01 2.907779463343147519e-01 4.012626757565680991e-01
1.370580684048017805e-01 -8.138537765702167359e-01 1.523205115938336962e-01
1.885224369254027976e-01 -5.734394705478570442e-01 4.862425086589132750e-01
7.724083842262300381e-01 1.695193767704777088e-01 -5.658718069721268007e-01
4.396355863523549456e-01 -1.822546713202952973e-01 2.085350179129830950e-01
5.948213831092000747e-01 -1.932397579346620820e-01 -5.795105772155689783e-01
3.597414339268010797e-01 -4.044812951944986579e-01 5.843349480597406775e-02
4.644971170617634981e-01 -3.059973444693042111e-01 -2.152330095891108741e-01
3.866596781849819253e-01 -1.258204055420923118e-01 6.060491358285209351e-01
7.343212054458307936e-01 4.442540630964378345e-02 -6.841453494358801235e-01
7.407504200702396124e-01 4.899887391027479139e-02 -7.045285899151999542e-01
1.593772629059710677e-01 -8.886360954217120689e-01 -1.395606956704543988e-01
7.423645997685371922e-01 4.431072488229920170e-01 2.487937179205743088e-01
4.279082311712112396e-01 -1.014776360188678894e-01 4.630799936149845863e-01
2.539526438363042260e-01 -7.118798581818035487e-01 -1.723803279301640845e-01
4.538398231077619971e-01 -7.499221520710944167e-02 4.004730763023002793e-01
6.156144688692417599e-01 1.390639225733742712e-01 1.289877434645138876e-01
6.842232392458666990e-01 -1.925373193372710828e-03 -5.514441589957203016e-01
4.016673035358019339e-01 -4.465849238177515002e-01 -2.499226637036537912e-01
2.530629859974322660e-01 -7.383383282325416408e-01 -2.325490706255572138e-01
2.965656932435342674e-01 -7.929872140278794168e-01 -5.792384995949436677e-01
2.455287688491849807e-01 -6.254858130219944634e-01 7.965969774011473492e-02
6.488431149613435034e-01 1.162773038798370351e-02 -3.448331511497685353e-01
3.642189825666164449e-01 -2.223597367004691294e-01 4.806684096388687544e-01
1.812895134095036664e-01 -8.298195941251002017e-01 -1.035946807984239604e-01
2.140820862405181935e-01 -6.325138357748488760e-01 2.167775913993779113e-01
2.910280262116293759e-01 -5.620976627189711028e-01 1.107172968311152285e-02
5.111186941569698661e-01 2.121117721436723835e-01 8.197497963008564259e-01
2.250333910613661337e-01 -5.919283946748992165e-01 2.620457025530326667e-01
5.728884482522457189e-01 1.907024514698406614e-01 4.645248538763373514e-01
1.968800191062200777e-01 -5.531437616126467782e-01 4.947467552706737437e-01
1.939688734346890486e-01 -5.028575146478980740e-01 6.316766302216008100e-01
4.903038507344329444e-01 -9.459705220456755825e-02 1.737847243510405870e-01
6.812675350577966915e-01 2.322425076781678699e-01 3.419636943769970017e-02
8.108807299653298939e-01 1.706598513055265776e-01 -7.518134649840557682e-01
5.984708890351350119e-01 -1.808795649873616851e-01 -5.672661329390912277e-01
3.843921236417358056e-01 -6.344200577717516720e-02 7.693149954678095703e-01
7.494652067728774236e-01 3.480962710901262525e-01 -1.777203458629329422e-02
6.942222429218198876e-01 4.516004279746682615e-01 5.056676461348244001e-01
4.609939458117702782e-01 -2.870894233121401573e-01 -1.519315466356105648e-01
6.690224360959221572e-01 1.390761167636562490e-01 -1.329714288074405337e-01
5.282240906592402530e-01 -2.430070437144286610e-01 -3.742060845418471171e-01
5.701442985083460258e-01 -1.185142101820236271e-01 -2.762013770617010588e-01
7.408068728511396639e-01 3.544572665110162224e-01 4.021542806753269916e-02
2.828338295115520595e-01 -5.948128381386673658e-01 -2.852539347952163032e-02
5.766592532266783255e-01 4.891178084688804772e-02 1.001963196040341481e-01
5.749235941874808464e-01 3.137548791840509832e-01 7.546696560432367695e-01
2.654441553411014398e-01 -8.027725799493031777e-01 -4.504408112501944172e-01
4.170140868750346064e-01 -4.060521722131298361e-01 -2.263447650478817019e-01
6.397061468989662103e-01 4.208848079797895547e-01 6.981762119698723401e-01
5.269823699898090741e-01 -1.761859190437632394e-01 -2.051364573690290238e-01
4.441337754238394719e-01 -5.315803095724455085e-01 -6.655448157674005438e-01
7.184249396431194867e-01 3.687760970182752951e-01 1.849323790453794025e-01
2.319857934087728446e-01 -4.678650500017266789e-01 5.305349122945252072e-01
5.239982745770241923e-01 1.870735965935961254e-01 6.955011879346774117e-01
4.645401909846967881e-01 -2.852991087379536106e-01 -1.649607717457581002e-01
2.946745564835685505e-01 -3.506141585760071955e-01 5.089976919922249987e-01
5.463798143486663372e-01 -2.152802403862481839e-01 -3.956412793139188477e-01
2.379946469662947151e-01 -4.957316573725650266e-01 4.330915382400489233e-01
2.502549189790138073e-01 -5.454246249042344896e-01 2.517472252241516051e-01
7.052668020022530015e-01 3.069221880875138211e-02 -5.751166786675291354e-01
4.086691489689713852e-01 -7.321821331559727475e-02 6.263813826391955164e-01
2.849609196516619813e-01 -7.839795909524150952e-01 -5.003422970851624241e-01
3.072029255039114837e-01 -6.095766064742038637e-01 -1.840754424453618365e-01
2.642412916789707578e-01 -2.756217697004359479e-01 8.411942495634608941e-01
4.139933627042577391e-01 -9.936575883840739754e-02 5.364892960746560080e-01
4.417603781796651807e-01 -4.481720721008553010e-01 -4.504674327548936485e-01
1.343332603994960572e-01 -8.426395018162398109e-01 9.547772930754885867e-02
6.747668961030512946e-01 -1.070771951823849865e-03 -5.029723581546237110e-01
3.528970764838578189e-01 -4.629395698734104503e-01 -5.057325390458536352e-02
4.321981296506908210e-01 -9.545451593948513225e-02 4.567267535060117178e-01
7.486614813129575108e-01 2.234613194626379751e-01 -3.178172975620078833e-01
5.025632195763687360e-01 -4.319701858420372555e-03 3.338360778466027412e-01
7.047083680885365409e-01 -3.498986365429435780e-03 -6.557705578828818549e-01
6.027099258119270608e-01 3.805252650187181396e-01 7.812205222189372300e-01
3.355122747783148562e-01 -4.445066025081197969e-01 7.966511700871148349e-02
5.003008580699548347e-01 1.595615848963663208e-01 7.446446377285401708e-01
3.023496455453973941e-01 -6.330879731167787794e-01 -2.176128623088718350e-01
1.098045733546645364e-01 -7.706638952202459203e-01 3.913517981873305684e-01
2.034786000882305990e-01 -4.229780770110911914e-01 7.798553754657228110e-01
7.085068557588695137e-01 1.255448029652448949e-01 -3.596626144605951647e-01
7.349359062493630024e-01 3.701518329718039846e-01 1.072944841324787596e-01
3.455197408299848782e-01 -3.343008019666489083e-01 2.993690234698708763e-01
8.161695803123071302e-01 1.697254077199027711e-01 -7.800366693674650742e-01
2.507342699324355828e-01 -6.421956061135714044e-01 1.336887048121726887e-02
7.250958330632673032e-01 3.496335471112984594e-01 1.055196188572620902e-01
3.395758628819821601e-01 -1.880113209286499720e-01 6.853301250904271225e-01
5.200579152629992707e-01 4.771796892157161539e-03 2.701915167992602895e-01
2.340747079356160221e-01 -5.411211379817822964e-01 3.416143945953724614e-01
6.130990047319208047e-01 2.679343461751658162e-01 4.556454765703732424e-01
1.590854962425205521e-01 -4.880919684614451470e-01 8.388080601557174054e-01
4.516153011539116857e-01 -3.428662903153120167e-01 -2.419665101280940311e-01
5.110293741438208803e-01 -1.780251945490071153e-01 -1.313662325903522388e-01
4.688228397774134582e-01 -5.836101047951403054e-02 3.675389131747958671e-01
5.008204707542271983e-01 1.186528236442942752e-01 6.423181854988206929e-01
3.460614596086646344e-01 -5.917251906539596762e-01 -3.311531002394385026e-01
1.284312730571727790e-01 -5.369238266948463956e-01 8.700779624115131394e-01
1.655779747143300840e-01 -5.881179931142636041e-01 5.629936085848862293e-01
4.139716968629487126e-01 -4.318753555915271769e-01 -2.744039553441981472e-01
6.196286901594356689e-01 -1.430015066879929131e-01 -5.786686268958121104e-01
6.805721003012269454e-01 3.809991956810724334e-01 4.004291949792337379e-01
2.236715223478869530e-01 -3.578362920992503859e-01 8.396829612981002722e-01
2.897145738306501905e-01 -4.668376382635537891e-01 2.498564458380859166e-01
6.468848000972300394e-01 1.350126723382949478e-01 -3.428770548123230566e-02
2.007994805084663825e-01 -4.467625316433735949e-01 7.349867006754112753e-01
3.384062756425365026e-01 -1.121791070555520076e-01 8.760241872564167309e-01
7.353920765711446927e-01 2.234341068078176187e-02 -7.432569903004865308e-01
1.868106514458790779e-01 -8.088403716116630005e-01 -7.950935556816056404e-02
4.760244388762364665e-01 -4.423316248891631663e-01 -6.043022980762563501e-01
6.425437891724570250e-01 1.328014939654253990e-01 -1.838631227231044343e-02
4.058319036357162513e-01 -3.003192067890873562e-01 8.639407010210223281e-02
1.525774695795449609e-01 -6.501068958051101632e-01 4.755741031052501677e-01
4.460335104479354329e-01 -4.493376025413403085e-01 -4.742717325177637777e-01
7.799235516821835246e-01 3.393052292532576786e-01 -1.886248181330245910e-01
3.796914310564658557e-01 -5.788100204776690516e-01 -4.646220538601700811e-01
1.176166791130164591e-01 -6.072207969989047438e-01 7.516720355230909201e-01
1.346705002386285321e-01 -7.255283532309747541e-01 3.794605529184738590e-01
-7.202258796270175623e-01 -1.825314973656361195e-01 2.335746855721635706e-01
-2.059346440179209980e-01 3.912068355717274182e-01 -8.898810375581587273e-01
-6.926807655719445789e-01 -3.873084512125232193e-01 -4.010021782421274716e-01
-5.229032098276074070e-01 -9.541446958285657032e-02 -5.218966860215330517e-01
-3.606283665690227513e-01 3.879351521632443678e-01 -1.390219086988331298e-01
-3.063152742994799116e-01 4.670823639682645800e-01 -2.124087456089640835e-01
-6.408103252622043833e-01 4.625335467345170065e-02 4.020196254069614006e-01
-4.332683464845764609e-01 5.710010095930858620e-01 6.638106254671378714e-01
-5.542411045726262087e-01 2.474862614117853132e-01 4.681728640419185461e-01
-1.454088409074122679e-01 5.438644426716652269e-01 -8.144501164820134864e-01
-2.774863972119835931e-01 6.085935849760404359e-01 -8.677174945875972337e-03
-2.411407199659599543e-01 5.717808557919054069e-01 -2.767554630869555332e-01
-2.008380919710792689e-01 7.532219329615189585e-01 -3.191759137000398788e-02
-7.892704299634928367e-01 -2.230757891669543636e-01 4.733791460763092651e-01
-5.103017215785332628e-01 1.729989033528891995e-01 7.095480537260766274e-02
-1.425808620981866282e-01 5.745628004120076904e-01 -7.534484708339043157e-01
-3.389659971830981666e-01 4.862926603667751535e-01 -5.388578584074719784e-03
-6.626136801616151484e-01 -2.151366973512896519e-01 -1.285627138573156303e-01
-6.381337587159420233e-01 -1.710246191703535812e-01 -1.410566921886062808e-01
-4.089321836806171229e-01 3.763072879082557942e-01 6.956830434827972198e-02
-5.332893939925301696e-01 -1.379982271791161952e-01 -5.748109013839706183e-01
-2.341703331546172162e-01 6.501301664367356015e-01 -1.198521896275670795e-01
-2.333043095483393892e-01 7.426292076520204510e-01 1.015071552174531960e-01
-3.106061766402147817e-01 6.672691000741600709e-01 2.969006070977349143e-01
-6.290077652308578848e-01 -3.131983196709597350e-01 -5.325889355633439681e-01
-7.258232635119438170e-01 -3.556813945358097695e-01 -1.612848438997773748e-01
-5.896516737494559290e-01 7.019372589880494562e-02 2.094557528983660710e-01
-5.548479707255066229e-01 2.683381863010165791e-01 5.220081876865253490e-01
-5.026134846206076201e-01 1.594865807678302050e-01 2.838106427174597198e-04
-6.786616092810641154e-01 -6.866182787501659557e-02 3.074152460308573476e-01
-1.591010802284888170e-01 6.263317893485991217e-01 -5.461438306820958211e-01
-2.779588410065482185e-01 4.054116380560816024e-01 -5.019256751250061876e-01
-3.049474991644935407e-01 4.763988235854900166e-01 -1.963951807771635860e-01
-5.351598777513977279e-01 -1.502341544991493139e-01 -5.954791229357017102e-01
-4.729832161589072603e-01 3.465674316195881954e-01 3.112297232201949315e-01
-2.672752913681044062e-01 6.869911954591605419e-01 1.324467906239905624e-01
-4.251506710814651480e-01 -2.682491481287611196e-02 -8.341229801255398701e-01
-4.101679455246301509e-01 6.202597990502849157e-02 -6.909100179867858627e-01
-6.738491871577043657e-01 -4.942305501526626510e-01 -7.541648947719624685e-01
-5.355758128519596539e-01 -1.810690664120479798e-01 -6.686459334309585723e-01
-2.602755920988857885e-01 7.779879323452918438e-01 3.200536746159591828e-01
-3.907830758499604151e-01 6.425495915566126204e-01 6.299110554604384626e-01
-4.154116542798652612e-01 2.505915739215234805e-01 -2.052710094409047614e-01
-5.863341877399487201e-01 -1.103006908453609686e-01 -2.470484987789283715e-01
-3.449014321380869941e-01 4.895061645081922319e-01 3.156508756707364360e-02
-6.734193741350474882e-01 -4.304669241273594293e-01 -6.007521735416432307e-01
-5.975688694986907024e-01 -1.616383996603731887e-01 -3.171515847584487902e-01
-7.557297988906236386e-01 -1.747609681452644004e-01 4.266891118560928176e-01
-6.529191940350800305e-01 -3.886299296959294658e-01 -5.992728072841126963e-01
-2.778701752812057779e-01 2.470371270446566903e-01 -8.886401589396708545e-01
-4.269577427239738543e-01 5.790961569335748571e-01 6.525986902240805687e-01
-7.297940149374542163e-01 -2.832154769915575798e-01 3.493964219102729113e-02
-6.204126553275592926e-01 4.237659557659124304e-02 2.925048172041737060e-01
-6.388783943935218979e-01 -1.431722226355701955e-01 -6.947121818830515050e-02
-3.620581868249024837e-01 6.785662367315243859e-01 5.768487250913005848e-01
-8.153966219670226723e-01 -2.458681317633837626e-01 5.459481734842396294e-01
-6.165589011619510007e-01 1.198102288944087081e-02 1.994649150889861722e-01
-7.797619692408295222e-01 -3.185461456382104872e-01 1.938814049263806738e-01
-6.322774728205695638e-01 -1.172748232664576687e-02 2.187455704558529668e-01
-5.481301804957652291e-01 -3.194001274012186337e-03 -1.732194945525370178e-01
-3.384543333747252469e-01 3.860463231148733576e-01 -2.524019252331707874e-01
-2.197506356549283613e-01 8.705044928272958060e-01 3.469117273680011326e-01
-2.590972977658920762e-01 7.066463828153116689e-01 1.402697472520604560e-01
-3.135497137664877698e-01 4.439264137942516286e-01 -2.333986900147789478e-01
-5.177459974882917537e-01 2.451598150545250820e-01 2.834744970278799125e-01
-5.506368145013105231e-01 -2.307587107833898865e-01 -7.159596124474860712e-01
-3.531345736053631557e-01 7.122610345452984326e-01 6.152570727886735868e-01
-5.971002096761613975e-01 3.105355676562212078e-02 1.505301185008539044e-01
-2.607496222008320874e-01 4.392316116761706968e-01 -5.038564583611873093e-01
-2.638165644776478969e-01 4.242906628285406656e-01 -5.252531570005712913e-01
-2.404742578715056700e-01 3.433246934854041754e-01 -8.372352505291936753e-01
-7.463807196004957900e-01 -3.898062654811766947e-01 -1.436731777129214571e-01
-2.724769189181867612e-01 5.483962032446461077e-01 -1.800737833529868215e-01
-5.663769929925071001e-01 2.257372937458182113e-02 -2.086291424080084431e-02
-4.418994466294788870e-01 5.118304985495303328e-01 5.618314506762849270e-01
-6.863785148259048396e-01 -4.040821373798644811e-01 -4.728288683895856548e-01
-4.284790368862321785e-01 2.110388300012116525e-01 -2.376400791030286730e-01
-1.187754844052632403e-01 6.257078793762291813e-01 -7.454798523083989714e-01
-4.801198420506752051e-01 1.795284315479382942e-01 -6.117452955659197222e-02
-4.106711317857525967e-01 2.543422989240117782e-01 -2.193771835467607789e-01
-2.856869140727506529e-01 8.327654222121693151e-01 5.783107923858282762e-01
-4.127958530884890398e-01 3.435722807417242453e-01 8.679723123440577504e-03
-7.024286397885517452e-01 3.932785547188645536e-02 6.873923313278930136e-01
-3.768408862985552776e-01 1.364533928423902753e-01 -6.728631019527547830e-01
-7.242979717347374224e-01 -2.736856395541559794e-01 3.122272111739389511e-02
-6.391079269993066303e-01 -5.850455194655387881e-02 1.381613824341613173e-01
-2.701672876278974900e-01 4.219557997210175437e-01 -4.997949363345051688e-01
-7.828348839560682615e-01 -1.103474225016085747e-01 7.167574517657216981e-01
-5.486584022368226066e-01 -3.357379754999679361e-02 -2.447254522232459595e-01
-6.100061082956691472e-01 -3.584749149696678794e-01 -7.362309775180000404e-01
-1.112601696493149828e-01 5.944990936249465729e-01 -8.584647224043310265e-01
-6.703995913626814573e-01 -1.224149764450331440e-01 1.357811919589549943e-01
-7.350714569323754111e-01 -1.941025250836610205e-01 2.781765528397044940e-01
-1.385836680792844056e-01 6.328800387730084687e-01 -6.308191594404439773e-01
-6.240941250006459828e-01 1.948836058357909448e-02 2.547390011315309177e-01
-7.297644171907459176e-01 -1.830920137442647866e-01 2.789981766075281255e-01
-4.490398242770926585e-01 3.354051141847668172e-01 1.665519670964192289e-01
-7.414924550222078414e-01 -3.829187576734576215e-01 -1.508533952811507706e-01
-2.502015411449505788e-01 8.135114715542636210e-01 3.572789810475928696e-01
-2.030216472815908613e-01 8.172533995101134430e-01 1.349680888834443315e-01
-4.508237181293746620e-01 1.631670044070032966e-01 -2.447904883700647294e-01
-4.803141312554089493e-01 -1.285632343661659849e-01 -8.116650228646836718e-01
-1.899901895050062905e-01 6.998635131896424610e-01 -2.152737609846410993e-01
-5.917102565108194323e-01 -2.747783335339963329e-01 -6.218418198752788673e-01
-5.809017949289362326e-01 -1.983929540204915631e-01 -4.885560231354675320e-01
-3.286457718792056837e-01 4.408900146931837294e-01 -1.667519267109362213e-01
-5.787878076641017611e-01 -2.188544968170169081e-01 -5.488322681645397827e-01
-2.628338527769756294e-01 3.003995580902495410e-01 -8.322473961956018407e-01
-7.518154921882193031e-01 -2.227771514430210431e-01 2.903750473080619066e-01
-2.821201651190788917e-01 4.111678338042821235e-01 -4.674730904050813374e-01
-5.195062216235069030e-01 1.364817427517259034e-02 -2.725537481632345216e-01
-5.927949851725681230e-01 -2.579736782598425759e-01 -5.755337718865934926e-01
-5.320790692987390491e-01 3.525710112524323425e-01 6.157630361949962827e-01
-4.431218376035789275e-01 -5.486666554842425936e-02 -8.143612820640844241e-01
-7.455268074687610991e-01 -1.061458497617688429e-01 5.439931301507963113e-01
-2.526125794073920128e-01 6.539580435616541010e-01 -2.004879503775730890e-02
-4.147572517342985599e-01 4.709165221188467143e-01 3.288971300641712059e-01
-2.768672953414640370e-01 8.499119023618154634e-01 5.768675014727885353e-01
-5.951757332171865311e-01 1.080641468204922850e-01 3.289205654101698406e-01
-1.979317551738124514e-01 6.511587829128065996e-01 -2.951090864285242366e-01
-4.788150913143715548e-01 4.773482390929144614e-01 6.588153461433055025e-01
-4.082110694360418512e-01 1.944036003189558159e-01 -3.776368818712161346e-01
-3.346776498854002746e-01 2.854033157441905888e-01 -5.163990781098110050e-01
-4.262331528086669707e-01 3.514428532579095266e-01 9.379195399398991551e-02
-1.485190331362983840e-01 5.729706984849506357e-01 -7.282023808815261123e-01
-6.763972870297163542e-01 -3.535881781929557932e-01 -3.986349820296645752e-01
-5.280909533991522409e-01 2.596154989783844291e-01 3.694787168974715263e-01
-1.692799379214807165e-01 5.448685542000828441e-01 -6.949031252998592034e-01
-3.368083376019799235e-01 5.741966474384873065e-01 1.984272833059751995e-01
-3.408225384011257519e-01 5.793217153319258905e-01 2.306188280611425057e-01
-3.340041398065154432e-01 5.194995787522725950e-01 5.126392482007557233e-02
-6.754036374319176694e-01 -1.277798256904166471e-02 4.277356494445209156e-01
-2.000767415849055153e-01 5.278263491300375643e-01 -5.853980161626811674e-01
-4.676291871003268596e-01 2.167637363767302774e-02 -5.074517964162200689e-01
-3.898099921165192883e-01 3.286089755658952449e-01 -1.405716421843938579e-01
-7.189917548358395472e-01 -7.092122225801346380e-02 4.997411319212953784e-01
-5.983638971619813507e-01 4.221827150847280025e-02 1.839600747833468886e-01
-3.550934164123578651e-01 1.060266759107794526e-01 -8.537552918880723096e-01
-6.722930273717029337e-01 -4.260593374486666973e-01 -5.955271677535440844e-01
-6.561469194514456538e-01 9.134139027044946291e-02 5.872230655644274933e-01
-7.207734924696590495e-01 -4.455183474783457886e-01 -4.051707884871277865e-01
-7.561791494556769910e-01 -5.905682255446872281e-02 7.110987809115453251e-01
-3.742282810625757183e-01 3.614284604940892764e-01 -1.369590219169205814e-01
-2.968376184375497440e-01 2.562220842552798139e-01 -7.731943916966931285e-01
-4.003594323865395377e-01 2.594136670674334066e-01 -2.575912794923952420e-01
-7.380680768531741043e-01 -1.760415692042137104e-01 3.369273946614787518e-01
-1.215753662992455769e-01 7.536991759790369061e-01 -4.195711420558900229e-01
-4.631543298740571912e-01 -5.280020150237291210e-03 -5.951502280551219659e-01
-2.338721804638586588e-01 4.996079603730254060e-01 -4.884423211224787065e-01
-2.399213912450401109e-01 5.155934595817843746e-01 -4.197793086289660081e-01
-6.204776487462408952e-01 -1.530389121245173401e-01 -1.837998545642855475e-01
-3.594428994507367636e-01 5.910540114215380170e-01 3.505750347757795038e-01
-2.529916933677085478e-01 3.881479406266620802e-01 -6.665068150252824175e-01
-5.200846847911945181e-01 -2.151536873706438313e-01 -8.277698145735403745e-01
-5.161017850907253512e-01 -4.647603010652191086e-02 -4.358984590309806229e-01
-2.151856042559385507e-01 8.171451441175773267e-01 1.943734609219195386e-01
-5.806924485154012494e-01 -1.294764157637430246e-01 -3.214937323284980386e-01
-2.129299530882208524e-01 4.402437290179907481e-01 -7.359638005612636480e-01
-7.414251128408718694e-01 -1.416720715005264364e-01 4.372231879356869855e-01
-3.056690863234645672e-01 3.530100783326426406e-01 -4.938038375640759758e-01
-4.356163856428038605e-01 4.412937841567135533e-01 3.589694740719424626e-01
-2.919148913203898354e-01 7.435629695649814686e-01 3.912945877242815507e-01
-6.867430480324036024e-01 -3.609041952809319276e-01 -3.657285563566750608e-01
-3.674094236505522360e-01 8.941654673537409448e-02 -8.338525465029953398e-01
-2.819292674423468092e-01 3.365989261041754110e-01 -6.502850252944653020e-01
-7.183180749629283213e-01 -2.692745839876208858e-01 1.264744965019102066e-02
-6.084621869528197280e-01 -3.448044653007211746e-01 -7.104619904716430456e-01
-4.718298567608621985e-01 3.000094609770950771e-01 1.920159041550752732e-01
-5.673906453936196082e-01 3.646546668003611269e-02 1.799179181481017076e-02
-1.261135632065150669e-01 5.722549049002385591e-01 -8.398566296320203461e-01
-3.028536878529995424e-01 6.787424410686273557e-01 2.868551112614463050e-01
-5.308517557213970894e-01 1.185051905069117173e-01 3.884992998814680576e-02
-1.640334913823482121e-01 9.195727443501378051e-01 1.932740507068898828e-01
-1.370159984359758387e-01 5.906130338614523634e-01 -7.415995706764685336e-01
-6.516462453420764911e-01 -1.363985977460499266e-01 9.681596513880584565e-03
-8.208259769272719941e-01 -1.709148135925173673e-01 7.553945682000626771e-01
-2.629383265460634722e-01 8.672042375534949610e-01 5.507164081857861548e-01
-3.395802774458466788e-01 4.279275042021605802e-01 -1.447294011072527420e-01
-4.203477252833984767e-01 4.808326562390585202e-01 3.805065014101940424e-01
-3.155168873571975729e-01 7.880478766960864467e-01 6.155723119045679592e-01
-3.909906233772915130e-01 6.030763211786682731e-02 -7.891740773515137919e-01
-6.930305395323995699e-01 -7.618454961913287415e-02 3.595528789860872321e-01
-4.748455748367393370e-01 -4.334345660409627023e-03 -5.354931482238205476e-01
-4.501109325935854222e-01 5.335042330532590027e-01 6.549751008735538171e-01
-4.228458781711615933e-01 3.154798083634957617e-02 -7.030559681260829530e-01
-1.115668518175650659e-01 7.171108680294138171e-01 -5.579070169767229581e-01
-5.180590681955649091e-01 3.099583024255627151e-01 4.430554342450358507e-01
-7.518209846062240409e-01 -3.881120984744821922e-01 -1.128542345589983870e-01
-4.527105444226497410e-01 1.217489669799347030e-01 -3.365544663253433044e-01
-7.435585864451401683e-01 -4.066514078547427136e-02 6.940473122365107272e-01
-3.567737579970872153e-01 1.269405477602673638e-01 -7.945030220349409422e-01
-6.995017849986350233e-01 -1.250339133803115288e-01 2.721522394822737945e-01
-2.144580835882073377e-01 3.975721389630617053e-01 -8.325447821216193089e-01
-3.472958792045647280e-01 3.585881764313261222e-01 -2.760014946829250082e-01
-3.102233847035491543e-01 2.081468079010187489e-01 -8.247883310581837213e-01
-2.383720558190713656e-01 3.679135860183422868e-01 -7.875745036955066336e-01
-6.563455563321113351e-01 -1.993901785589810294e-01 -1.209043734315187607e-01
-2.863548066574740925e-01 7.937877127516815845e-01 4.865194466375064031e-01
-2.887701880888504102e-01 4.907968922871948081e-01 -2.406345452891814618e-01
-2.379635285565339375e-01 6.534954190444393074e-01 -9.303700596904432296e-02
-4.366253540025853419e-01 2.680114105561497428e-01 -5.872130881193807217e-02
-6.165212638447996607e-01 -1.170928016685758438e-01 -1.155341182591175520e-01
-3.857419956808960659e-01 2.956420116126919906e-01 -2.409341842335356865e-01
-2.303414665316109444e-01 7.818275608473703731e-01 1.825789436664860821e-01
-5.640192828068487652e-01 1.352212961388811197e-01 2.423218466086813905e-01
-7.746824472740632128e-01 -1.191677094460152908e-01 6.552533555540918098e-01
-4.595875194501781724e-01 4.548469901192346287e-01 5.096147553395132812e-01
-6.961428073222911683e-01 -4.463079472689466254e-01 -5.279206845377657498e-01
-3.063112947272611519e-01 3.589853069428772248e-01 -4.760797931873299027e-01
-6.195573405692690327e-01 1.810906252889093182e-01 6.266362492680026541e-01
-2.476066220699067733e-01 6.137551121992489422e-01 -1.426611485515170419e-01
-6.336514093730142294e-01 3.920068041329710651e-02 3.497004266592411703e-01
-7.282115926932460903e-01 -1.271782861455092173e-01 4.077559405166093498e-01
-2.400888555225919319e-01 3.356174765589773901e-01 -8.579239158376207319e-01
-2.148780517319213990e-01 8.815851744004106205e-01 3.500356897011925872e-01
-3.188637362841648670e-01 4.249789148744489986e-01 -2.535445788711373494e-01
-7.000068913813803917e-01 1.103549613127782769e-02 6.065068216311412241e-01
-6.758790775569757381e-01 -3.835922063758474554e-01 -4.743576240871467675e-01
-6.004658750031413028e-01 -3.228639853517937808e-01 -6.961739197452915251e-01
-4.133371617205845450e-01 4.661738391259032666e-01 3.103634545340087647e-01
-5.777740286042607476e-01 3.444015753714439049e-02 6.398694442016968076e-02
-5.370125129648375406e-01 1.492064614522502775e-01 1.439522745577331564e-01
-5.436033956083382579e-01 -1.771897585434607236e-01 -6.198054752394978051e-01
-4.448740925621861853e-01 4.686134520074292653e-01 4.710158632606840645e-01
-6.311851124353416997e-01 3.461534726800419987e-02 3.264184392135577317e-01
-5.728258249374148514e-01 4.307555712767643930e-02 6.077585339298929162e-02
-3.074903693904014745e-01 5.022104108594216410e-01 -1.209661841937433174e-01
-3.176357868030781351e-01 4.649941517348266662e-01 -1.619699954146094356e-01
-4.205142059707848712e-01 4.362141265477462726e-01 2.724974090596855025e-01
-5.479342176431195588e-01 3.527401520364005227e-01 6.939518565696884966e-01
-5.590589251806935556e-01 -9.559409292921086307e-03 -1.351347244813327908e-01
-6.236790796484870114e-01 5.849759294515782804e-03 2.194381239001228778e-01
-3.650737736402575040e-01 4.371784769749809119e-01 2.890460218312174839e-03
-2.249221312478827950e-01 7.953133702808597993e-01 1.888870260471661733e-01
-3.557090983898705816e-01 2.853505936473130222e-01 -4.133594216058588122e-01
-3.169935811848514362e-01 2.409170984391751646e-01 -7.116500340002869240e-01
-1.674458962087129188e-01 7.006280755027196605e-01 -3.239983712683344175e-01
-3.357202711826388075e-01 1.527157927660769687e-01 -8.349128852661378275e-01
-1.863153891808876084e-01 7.865469643543572253e-01 -2.187704184108932998e-02
-6.964509677492159989e-01 -4.327651622889988614e-01 -4.933778220274379067e-01
-2.707761388286736293e-01 7.113141331563053171e-01 2.089442202009781646e-01
-5.848441741873767752e-01 -1.397568778960190383e-01 -3.262020566177301628e-01
-4.655481670827624763e-01 4.329965088978088850e-01 4.855603900053804822e-01
-5.247067223160926108e-01 3.365147838258805146e-01 5.404369669587694158e-01
-1.337064400526020158e-01 7.046807250301232450e-01 -4.796203119468528953e-01
-5.161572351177609042e-01 1.875376476982053009e-01 1.351389774375246766e-01
-3.189237152961971189e-01 7.405888658261411406e-01 5.165305009821403726e-01
-2.557404125600926670e-01 7.916617054952076460e-01 3.311573673329349932e-01
-4.700148522998730538e-01 3.586709030934556175e-01 3.261893102292053870e-01
-2.218855744071734082e-01 6.339777872349944277e-01 -2.195102555819376799e-01
-4.093927728251336440e-01 5.430970303829498746e-01 4.786321993789272033e-01
-2.942229995912305496e-01 5.508061076882700968e-01 -6.752214050417650049e-02
-1.199323490314911089e-01 5.489110573853213104e-01 -9.271143776024041161e-01
-4.593702229077232246e-01 -7.145877576354135730e-02 -7.751245922366425400e-01
-3.555257710659633918e-01 3.177125385334955698e-01 -3.353270974805308002e-01
-7.118132149934787156e-01 -1.572680709712715175e-01 2.539251209457037417e-01
-7.598429495564847924e-01 -2.627390173378192362e-01 2.322851303875133611e-01
-6.343334621093164039e-01 -2.459799925762588824e-02 1.974395523203656411e-01
-2.115497999728309375e-01 4.175275409890206180e-01 -7.981394135375311505e-01
-6.088449742270998222e-01 2.303366763592666067e-01 6.941999081897363144e-01
-4.613677338273922124e-01 3.553773596202804419e-01 2.757384590180662065e-01
-4.800425104783920816e-01 3.730364672369343437e-01 4.104172445766529620e-01
-6.549023073687348928e-01 -9.758061571484911642e-03 3.345335256377396371e-01
-5.143579585390340991e-01 9.666780554703732764e-02 -9.532114560566490313e-02
-4.891421972927329498e-01 5.137512617618091720e-02 -3.294852555617811540e-01
-3.489334857431512504e-01 4.533771875339914215e-01 -3.677547757562023290e-02
-5.314270711046490403e-01 -2.130731271666006232e-01 -7.670560198783866745e-01
-5.453771573149411855e-01 2.322601760235896706e-01 3.875545956769664291e-01
-1.450741692112827996e-01 8.094805179320178068e-01 -1.682473267184707855e-01
-2.519387702431413190e-01 6.277675995082556692e-01 -8.723328949536290899e-02
-4.366211792917069623e-01 2.951539336286456150e-01 7.459530285228203710e-03
-3.500677358549852958e-01 2.641867033278450516e-01 -4.926519943169662130e-01
-4.296891578744543305e-01 5.595861284392729118e-01 6.184119837947631426e-01
-6.619574739176342648e-01 -4.117003839229772533e-01 -6.112056163739828518e-01
-6.505701180604012146e-01 -1.520627716517566896e-01 -3.380259438673254013e-02
-3.027096990715752445e-01 3.762115649862070588e-01 -4.517318695580810894e-01
-4.398792863485408433e-01 1.724055164563048637e-01 -2.759446350966341943e-01
-2.211006369152873630e-01 7.697775030436233568e-01 1.078583198568037471e-01
-6.324804472662998167e-01 -2.589996393536324049e-01 -3.833619582246639013e-01
-4.579213365078023679e-01 3.347068205925565754e-01 2.084164257594787462e-01
-5.638392734010780893e-01 8.896432878528592880e-02 1.286168802481732487e-01
-8.098223107852503544e-01 -1.735978832411126660e-01 6.948728046040102413e-01
-5.889755391554789554e-01 7.168495493611014464e-03 5.241885182347720551e-02
-7.156882980802005134e-01 3.631861080530617708e-02 7.450969987131518257e-01
-3.092715004895104092e-01 1.888223472827497418e-01 -8.765905908291670157e-01
-3.210981099243483405e-01 3.015481883829639886e-01 -5.436347644946631918e-01
-2.309855940247778350e-01 9.251402841114965137e-01 5.352821139322923027e-01
-4.928771770671366848e-01 4.219281518012234500e-01 5.926248586322366840e-01
-4.433160059802754849e-01 3.969449724083505271e-01 2.885715016139072109e-01
-5.612551435107591136e-01 9.810909906463229080e-02 1.382449501949596926e-01
-2.372560230759200584e-01 3.136574818598196757e-01 -9.253811668908863419e-01
-5.833798982680764578e-01 -2.033258803704295348e-01 -4.884314020510119314e-01
-3.421078623760597792e-01 3.715728808092115254e-01 -2.697809046065218763e-01
-6.531870758959350542e-01 -6.965652296661213952e-03 3.329303405589169040e-01
-2.872460044265938151e-01 5.737856709389776988e-01 -4.569953400435631391e-02
-1.017696767358240439e-01 7.291623605698265287e-01 -5.765724466908540569e-01
-2.074769888244132332e-01 8.761894818857833833e-01 3.005700777555948000e-01
-2.385102956798891838e-01 5.759728234696217530e-01 -2.794345009637442812e-01
-2.147032257547644984e-01 5.587023636719226083e-01 -4.383414572700862766e-01
-6.717407271230133592e-01 -4.736604433170557571e-01 -7.143367685782195942e-01
-5.350814274133020021e-01 2.207314584904897514e-01 3.089307973808356755e-01
-5.896321050585016099e-01 -1.523327654877013881e-01 -3.333881246287156430e-01
-5.473232188520505970e-01 3.360196391634053259e-01 6.501728816424410251e-01
-6.512902881468892735e-01 -2.060456753115667283e-01 -1.619355545175657773e-01
-2.881641238267010907e-01 7.157648089884680598e-01 3.050950347811471897e-01
-7.374563098822221052e-01 -1.774658674376609901e-01 3.304525157664164881e-01
-2.018325707422388704e-01 4.179730959517026778e-01 -8.447198574753487232e-01
-7.756440773900372676e-01 -1.025699922207014836e-01 7.004528252750553685e-01
-3.421120850113469891e-01 4.145534692463704318e-01 -1.649294206791882267e-01
-4.661740346142715929e-01 3.013489012506428422e-01 1.675386079091240044e-01
-2.715039972993414930e-01 6.592141072388583156e-01 8.544136253641827772e-02
-6.578898269367809970e-01 -4.668828689728389547e-02 2.591148089316380188e-01
-1.991332632272235503e-01 8.613964054605662835e-01 2.235598391527588436e-01
-6.001372315461545037e-01 -1.102595350168400490e-01 -1.792382871826679880e-01
-2.074160109860931633e-01 5.649216663791943871e-01 -4.589193207839856181e-01
-5.228177565585870878e-01 1.695208617633121861e-01 1.238682746172699856e-01
-5.552398660047286327e-01 -1.425796670916911479e-01 -4.783087018647509958e-01
-4.549627810496650326e-01 -2.721782626932867013e-03 -6.290936697171680692e-01
-6.508185822599301673e-01 -7.201662970886062165e-02 1.626508453051787317e-01
-6.637315580825023931e-01 -4.599153715321507296e-01 -7.201005804768870755e-01
-4.799561459703761135e-01 6.451009202976361323e-02 -3.425102424300043302e-01
-4.605827955208291469e-01 3.695878236070684886e-01 3.065476912951698441e-01
-3.390617935025763141e-01 6.556244478671092724e-01 4.080859654269562431e-01
-6.727432221496524312e-01 7.222085687581960602e-03 4.634658602756729362e-01
-6.256958967006734929e-01 -1.208855473634483368e-01 -7.977922655085788184e-02
-2.427182801379606791e-01 5.686522643064036986e-01 -2.766475717331983719e-01
-6.833085739547439807e-01 -3.888391165561113638e-01 -4.507101177521561919e-01
-2.298891637222015838e-01 7.256343670531908430e-01 4.330354771013268655e-02
-3.424589971041398506e-01 2.507710283977422350e-01 -5.626972902136458954e-01
-6.638241301161388330e-01 -4.622119649714756529e-01 -7.252479260431820007e-01
-4.756643003426415661e-01 -1.169670768120372045e-01 -8.061911024876561305e-01
-7.098162375894412346e-01 6.644834671357627114e-03 6.439169216476433588e-01
-4.136894446639433065e-01 -1.597344730323651749e-02 -8.638781852973133057e-01
-6.953805773919725652e-01 -3.425089933748121651e-01 -2.784914071959223025e-01
-4.865474411736767646e-01 4.132795711981201436e-01 5.404806853180529336e-01
-7.896219218448347066e-01 -2.908239561929051864e-01 3.098638273032319757e-01
-5.683407349141857967e-01 1.369425883836483671e-01 2.677186932985406997e-01
-6.778687096374101939e-01 -3.272880138387579962e-01 -3.272702419466957946e-01
-6.856178753345720800e-01 -2.502316967473909304e-01 -1.013149147961036889e-01
-7.309483444659741203e-01 -2.352444733218464479e-01 1.576046443677535103e-01
-1.802836394330890879e-01 5.517166703967444352e-01 -6.242225316306477811e-01
-3.406236145710788699e-01 2.566553372930971411e-01 -5.573486442375289451e-01
-7.170053290365128174e-01 -3.186005881313120902e-01 -1.140995339944717857e-01
-6.909483193195675721e-01 -1.662375861154179180e-01 1.296970066228069485e-01
-6.012506042052684352e-01 -2.768517265623546622e-02 2.762429348123650319e-02
-3.011904236166120796e-01 4.868668286961131964e-01 -1.892935067046992437e-01
-2.267869194418623002e-01 8.631521033621896155e-01 3.634950391349496823e-01
-8.123201965822245407e-01 -2.120694591303572962e-01 6.132928308980577503e-01
-1.547070543546983368e-01 7.481656636560177764e-01 -2.705424265382844196e-01
-7.315787233959032410e-01 -2.148676638156080121e-01 2.103964894934415852e-01
-1.453934331953488923e-01 7.596121909650631610e-01 -2.883113434078651283e-01
-7.853715590100249777e-01 -1.325354449487590180e-01 6.750837651834005193e-01
-2.052070070903117549e-01 8.283907843748972155e-01 1.728525836960568551e-01
-2.812574739724256201e-01 4.507853735888252000e-01 -3.750767521333022714e-01
-2.567647627414411660e-01 6.281137500895188630e-01 -6.271546265571202594e-02
-2.930234366190412332e-01 6.448443622227343353e-01 1.559552323558209552e-01
-6.204694933597778572e-01 1.634685887994011821e-01 5.881301445973191599e-01
-5.162584508867059663e-01 -8.382369640939056621e-02 -5.262218732128449705e-01
-1.392017655017167566e-01 7.584103159748981637e-01 -3.216155250155812717e-01
-7.243860436864599794e-01 -1.132311424796199339e-02 6.715637564869741949e-01
-7.132202605076765067e-01 -2.212553207050797499e-01 1.047607188836297692e-01
-1.491951631217118268e-01 5.926190226374958847e-01 -6.769629019417325866e-01
-1.784072026244855336e-01 6.790280373436616834e-01 -3.229115300767723684e-01
-5.791176675112603700e-01 1.222174648920150292e-01 2.846691972851156938e-01
-3.290907588124184491e-01 3.680847300614566442e-01 -3.421430532999850116e-01
-3.408852112131099954e-01 2.722239890059433565e-01 -5.180930554891620687e-01
-2.288999108331286614e-01 4.440661487361074466e-01 -6.483013489045351685e-01
-2.483527826273673467e-01 5.224630029721438751e-01 -3.616647344728625146e-01
-5.667967005614154008e-01 -2.021766367085939264e-01 -5.669760419689522379e-01
-6.724212032846429432e-01 1.521578136703526096e-02 4.813830511763974029e-01
-4.131648831785207920e-01 3.579098349539852064e-01 4.545964013015981603e-02
-6.605886989368168205e-01 -1.220727267566097674e-01 8.848932575832280101e-02
-6.630449014338639646e-01 2.277309106776906691e-02 4.538207560844912392e-01
-4.159569943981185625e-01 2.505537245998928353e-01 -2.026881984739222486e-01
-6.001437435484680005e-01 -1.414648813447039466e-01 -2.553169921737146741e-01
-5.897133281240491964e-01 -3.054118943500214733e-01 -7.063536568652998282e-01
-3.866384557963820079e-01 3.769623885722266782e-02 -8.656730948296496031e-01
-6.362466982376289160e-01 -4.333367189012100884e-02 1.611280020022184678e-01
-4.925366749074316375e-01 -9.638335061138432469e-03 -4.616473061478960083e-01
-6.552389707328647450e-01 -6.118061513843692234e-02 2.107640613534416951e-01
-5.421240780550328209e-01 -1.290500053863017360e-01 -5.096480536572454145e-01
-3.128198942194073684e-01 2.780529332946323762e-01 -6.415484885568106810e-01
-2.379405132342832241e-01 7.239990215737729384e-01 7.881020943649623411e-02
-2.828793132001334865e-01 7.558139762988761445e-01 3.768517370258616106e-01
-2.467885713904162115e-01 3.264709985896474542e-01 -8.473674420156791509e-01
-3.429045392242975887e-01 7.247910272381047347e-01 5.956353574229321657e-01
-3.132027819993707385e-01 6.368731344669521510e-01 2.355015180082379311e-01
-1.500663083002382325e-01 7.715087502595807667e-01 -2.363728763852074588e-01
-7.818727529894130557e-01 -3.077954455346242346e-01 2.304569381154792929e-01
-4.785652243063778233e-01 4.867699740974331113e-01 6.805694977083002195e-01
-6.347834624281997185e-01 -2.696230203985237606e-01 -3.979753861187074193e-01
-2.589412984194886524e-01 3.764712988918185732e-01 -6.658010905268910706e-01
-3.837801484460914292e-01 4.938167127108706450e-02 -8.511932417008746254e-01
-5.954882519421577092e-01 -1.874943611619429573e-01 -3.904212642512943088e-01
-7.080094613031631123e-01 2.033064027839379811e-02 6.684339463422336314e-01
-2.445176669787163803e-01 7.429326443743803354e-01 1.572535578042284776e-01
-5.734403268393062358e-01 -1.422365027308072072e-01 -3.881906729517431986e-01
-3.723676330194343187e-01 5.883854520392555187e-01 4.074676934410485507e-01
-2.208902930910389140e-01 5.486500601159863821e-01 -4.325090757845204692e-01
-2.519432857999799324e-01 4.957519354843939463e-01 -4.092007677409939537e-01
-1.292279548118207277e-01 5.468734613173372727e-01 -8.864852065090287336e-01
-3.793092708723649897e-01 2.778055870857748522e-01 -3.159929518686366290e-01
-5.278601278865366897e-01 -9.590809958586679618e-02 -4.987848599573856956e-01
-5.446023882319881437e-01 -1.106442887952199805e-02 -2.097210010253200141e-01
-5.545121396976447903e-01 1.762481528215235627e-01 2.957508124762869839e-01
-3.992917080103042249e-01 2.806343087028786640e-02 -8.270981512797144219e-01
-6.000131240157694501e-01 9.580011898999347963e-02 3.227377535373563422e-01
-6.511947780928488694e-01 -1.358963908171247070e-01 8.691852354932586705e-03
-1.548348320254695210e-01 8.356413144795538095e-01 -5.656024099226807100e-02
-7.382881337639027874e-01 -3.003869857724512094e-01 3.472517142009936414e-02
-2.345638994732076321e-01 7.135987172413158497e-01 3.687986319603383384e-02
-1.048051625455779789e-01 6.066019231145373114e-01 -8.606101770670051554e-01
-7.782448599411340151e-01 -1.808178493221253014e-01 5.223622224865611674e-01
-3.138751545516859642e-01 6.211964808889468559e-01 2.005640281329347796e-01
-5.066654627207205497e-01 2.455237845638367500e-01 2.300074675027502791e-01
-3.934478132048640497e-01 7.615283734224909118e-02 -7.384736440976438221e-01
-1.898676486456719048e-01 9.265121446568120867e-01 3.369270150215277204e-01
-2.053000726821210820e-01 5.618962113670291636e-01 -4.766780661036902345e-01
-6.109272508172366445e-01 -3.676131672068289058e-01 -7.540008138571003826e-01
-5.931313081549002275e-01 -2.250971778290308534e-01 -4.936973265081335271e-01
-2.908115084791193516e-01 2.659553626475804067e-01 -7.790153190748968504e-01
-3.824241247881385308e-01 8.947646541521581121e-02 -7.600528745621871751e-01
-3.523013514021106629e-01 4.279533376866147543e-01 -8.226408582380505263e-02
-3.604184629912022264e-01 5.653851173522559392e-01 2.927534925763461970e-01
-3.192965434092510657e-01 6.634284964585777100e-01 3.301632398884831732e-01
-4.592509797143808359e-01 2.650635288706729709e-01 4.507709916044008031e-02
-5.221371303876931602e-01 -1.332473657367883035e-01 -6.179300483054063209e-01
-2.448817127668209137e-01 6.698478751213959859e-01 -1.921628994951619235e-02
-6.416354404359531083e-01 4.746114349214099193e-02 4.090129963765911092e-01
-5.333838714867982223e-01 1.441917342929829593e-01 1.139211870341675092e-01
-1.184008988486111302e-01 6.658336296788761599e-01 -6.494496087880956559e-01
-3.443451240532018343e-01 1.819860803604895771e-01 -7.212133036151888721e-01
-8.176134980871935243e-01 -1.628135258778276306e-01 7.593952368503597006e-01
-5.650604574631430399e-01 7.735145138758306449e-02 1.062832009929410432e-01
-5.409473261136865663e-01 -4.708557466013220116e-01 1.606470817381443206e-01
4.360071918652343170e-02 -9.027869193913018453e-01 -4.979010990818870108e-01
1.703964765265208736e-01 -9.843774191069781798e-01 -5.741406054190736352e-01
-7.422021995117920046e-01 -4.434867280737159190e-01 -2.805348487594276352e-01
4.043533192132523629e-02 -6.828499708346971175e-01 7.034186785519276341e-01
4.881475653939008202e-02 -7.738967511077810002e-01 2.268992299243997590e-01
8.189166228666856784e-02 -7.507223030950482823e-01 4.517311286907224610e-01
-2.454243760900435001e-01 -4.913199366989552397e-01 9.170515601750297563e-01
4.566485054965065821e-02 -8.511242870825815876e-01 -2.074575646076732283e-01
-2.900854370608213495e-01 -7.291718138787121051e-01 -5.235236170377871590e-01
-3.029014161814944650e-01 -5.750885976372814845e-01 2.869290572808902984e-01
-6.904533324162117625e-01 -3.159838947072832194e-01 5.734745771341467346e-01
-1.145547788240697390e-01 -7.035675669596342940e-01 1.335985824269211864e-01
-2.096010389871919566e-01 -7.003307921311993089e-01 -1.280886009703190442e-01
-4.912882649889643849e-01 -4.224929898506711301e-01 5.728897107685753110e-01
-2.161224315616991909e-01 -6.201996716527604647e-01 2.938102652923476055e-01
-6.083558161025108824e-01 -4.831862152067166738e-01 -1.054541991428549902e-01
