5.458757915464512722e-01 7.413667885269088487e-01 -6.950744445497334389e-01
-3.770775146483102414e-01 -5.659435545186558558e-01 2.668735229614201399e-01
-1.365227759653223905e-01 -2.195866164371765017e-01 8.084965714807484938e-02
-3.160266071491671935e-01 -4.495536074924283421e-01 5.473019135619602293e-01
-2.788440364300352053e-02 -7.337049203363094074e-02 -1.205231378170526363e-01
4.874915579390168840e-01 6.303286184060991060e-01 -9.601724310094486015e-01
2.153522255273422614e-01 2.867485928572235943e-01 -1.947504155811491389e-01
3.996317802613140180e-01 5.431448125932948345e-01 -4.400112528189585315e-01
5.108661353180818931e-01 6.704790848582070639e-01 -9.035458553317349262e-01
5.010301267663526126e-01 6.744889271132186170e-01 -6.869386810370948782e-01
3.065835070440692811e-01 4.108743171704983266e-01 -3.484713559601978483e-01
2.717146362222326306e-01 3.585828950265166903e-01 -3.455021644017546301e-01
4.846188851017090848e-01 6.560520486773192550e-01 -6.145278781739610396e-01
5.835991529158096602e-01 7.928063109475855796e-01 -7.573188440689738732e-01
-3.168429557892226689e-01 -4.344415494690621049e-01 7.352596573159344562e-01
1.190517852194997728e-01 1.575998651532038719e-01 -1.093596353937482946e-02
3.988459965596041212e-01 5.288277537792444027e-01 -5.910555146702700657e-01
1.972475279712091190e-01 2.587806189283183289e-01 -2.026064105661993797e-01
-9.481046697318673555e-02 -1.363336380589338925e-01 3.153594244809002078e-01
-3.782465677658814474e-01 -5.403008593992026931e-01 5.820604429382546519e-01
5.907775270942416945e-01 8.075421822725898924e-01 -7.122613607615637665e-01
3.966918363010942805e-01 5.409555231827203325e-01 -4.142324064661226934e-01
4.516847534124323604e-01 6.331166611171623604e-01 -3.074621068495314025e-01
2.986560306585699931e-01 3.955683858874332604e-01 -3.871009606783660795e-01
5.206782532524711904e-01 7.242974184749715327e-01 -4.546414645782931307e-01
-4.081970898865845965e-01 -5.620227728043024618e-01 8.513673911378688564e-01
2.489038465907774111e-01 3.400668041074443315e-01 -1.630781562377902338e-01
-7.501243867484343360e-03 -5.697661874832372908e-02 -2.852769001941192761e-01
2.528843261981351120e-01 3.234825249181971230e-01 -4.228126325598673962e-01
-3.847787256752112361e-02 -5.282828727820396142e-02 2.993563670617616634e-01
-2.992688645985573381e-01 -4.470385791665193453e-01 2.857636655579189888e-01
-2.808691959150439454e-01 -3.994000172287905381e-01 5.147436294341128926e-01
-4.367482783281180780e-01 -6.117769259196301768e-01 7.740131369848939347e-01
-5.502144323411825577e-02 -8.710101632148056772e-02 1.919284529169812681e-01
2.466189160953519977e-01 3.410337121397726268e-01 -1.123524697679537387e-01
-3.998066251252383602e-02 -9.717441474097932019e-02 -1.846323535566721796e-01
2.672547954021965988e-01 3.349502313981912449e-01 -5.400047727926500230e-01
-5.995600524502245898e-01 -8.739370956428781367e-01 5.808772203793266531e-01
4.731961725304299760e-02 6.789269685317027292e-02 2.006612530226935809e-01
-2.038722104721013006e-01 -2.771674493840145526e-01 5.859740066358073429e-01
-4.742779071614414699e-01 -6.963061606364661094e-01 4.523258275566638953e-01
1.129058520999665083e-01 1.102398301524914331e-01 -4.491082061550361049e-01
3.339314548975408359e-01 4.571683280410959171e-01 -2.900571966583608274e-01
-1.882509950884336536e-01 -2.887874829692910206e-01 1.815641772666676257e-01
3.556334725172620725e-01 4.761096310806929854e-01 -4.483722268721687110e-01
-3.503672141032406206e-01 -5.180793250598766386e-01 3.543996191746837110e-01
1.755997760789164419e-01 2.285043716963761351e-01 -1.755982295655545977e-01
9.127047251793468652e-02 1.125494253636984132e-01 -4.753590323196951739e-02
-3.129748922583638349e-01 -4.649161828099585558e-01 3.177169905640084835e-01
5.922598326219172954e-02 6.707176361806001241e-02 -1.515520952906252578e-02
-3.660480263752289853e-01 -5.381857328234272986e-01 3.949480808047337033e-01
-1.196745725745818889e-01 -1.614472541485815760e-01 4.574939236881856996e-01
-4.588943379876197493e-01 -6.279641499867488763e-01 9.717002151789267961e-01
4.850372122075592429e-01 6.558523376583947906e-01 -6.240757300764926407e-01
2.659773169848457242e-01 3.242039325891349355e-01 -6.414581471683111769e-01
3.529282363981759429e-01 4.832808855898524381e-01 -3.190034607822377355e-01
4.393221127600287490e-01 5.724814710077001934e-01 -7.905604420313623315e-01
4.134354433902994730e-01 5.541672146272721422e-01 -5.525004316844553953e-01
5.885579951227747353e-01 8.149546628306184592e-01 -5.885369658719273867e-01
4.692151129323575143e-01 6.253491887002737837e-01 -7.006540491355524036e-01
2.659459921573207319e-01 3.513900084814980396e-01 -3.282407898819780234e-01
2.528860885629322652e-01 3.187010852243307157e-01 -4.778358088933777337e-01
-3.447776538447550054e-01 -5.081511084789039900e-01 3.717020983720558669e-01
-4.213321381314918262e-02 -7.858906906598620012e-02 6.643319475500789051e-02
3.280934754952188337e-01 4.588349973876108545e-01 -1.696978785536567558e-01
5.355004979441338464e-02 6.822473307616652716e-02 9.648714286638959692e-02
6.594484848386097942e-02 8.801908243131198462e-02 1.093065408395554189e-01
-5.697408708409696515e-02 -7.577330739018453554e-02 3.560569378325310619e-01
2.092490347567417808e-01 2.853617218273104550e-01 -1.049137445697336246e-01
2.547426819156652922e-01 3.383047048186014760e-01 -2.845498757016887703e-01
3.664964787303715554e-01 4.733481621553522478e-01 -6.684226148290469682e-01
4.272734984212001597e-01 5.498561958090406598e-01 -8.419395437468092380e-01
2.308123763850683241e-01 2.799841084565121152e-01 -5.405235089749622635e-01
-3.998148521815929057e-01 -5.944772890395794152e-01 3.328087516897274556e-01
-5.390628147957996497e-01 -7.787991634493124371e-01 6.264772857902862757e-01
4.792459896850203016e-01 6.405828485468348932e-01 -6.993141870212273847e-01
-4.439710661808352610e-01 -6.159623070413475787e-01 8.510695187424776043e-01
1.525685582105891780e-01 2.118952529295515808e-01 3.257909334642333093e-02
-5.126804635963829737e-01 -7.498192768497802252e-01 5.024938468980522099e-01
-1.385220684973517691e-01 -2.067845888032642798e-01 2.627432476171088771e-01
-2.187927470019564724e-01 -3.025125648053798022e-01 5.530927123941726808e-01
2.278495218561102653e-01 2.907463265528584806e-01 -3.653887655172367577e-01
4.806570905869106403e-01 6.683474555908793802e-01 -4.044447512834396519e-01
2.593257585310771995e-01 3.426471014465851672e-01 -3.140458999847328680e-01
1.241561831836764107e-01 1.462153932973137005e-01 -2.303470838772128382e-01
-2.325237696601007154e-01 -3.184353793026534207e-01 6.079618369705999115e-01
-2.903474764833124250e-02 -7.606249417577760907e-02 -1.315455097123320871e-01
-1.150825758928834819e-01 -1.803665583893077629e-01 1.603041837632022404e-01
9.326285664373386297e-02 1.321877568701454453e-01 1.437955807960372978e-01
8.891257216534115271e-02 1.182204823004850691e-01 5.855826663967327733e-02
-3.104896172492430662e-01 -4.646954655126678269e-01 2.771779045493782956e-01
-6.068425211219505844e-01 -8.768490303028064758e-01 6.736143096395971197e-01
8.838503113942949851e-02 8.000570352881214431e-02 -3.718162813875696693e-01
-5.172772297181945644e-01 -7.525612691934120413e-01 5.506338351090103167e-01
-5.756339981810447703e-01 -8.371478798638233298e-01 5.892863192872246358e-01
1.888882643481425705e-01 2.615071319338972966e-01 -2.635577646381052908e-02
2.509767909825650345e-01 3.416223455260800623e-01 -1.811180860158896622e-01
-4.656492281743749850e-01 -6.911608789831329425e-01 3.619410156540258661e-01
3.673654687696601417e-01 4.638000369610046358e-01 -7.933005053721524646e-01
1.149974155237608459e-01 1.303325535890645648e-01 -2.542697263228750892e-01
-1.625723111074227900e-01 -2.213106072293189730e-01 5.125417667336125138e-01
5.307720577460317557e-01 7.102357470049786015e-01 -7.913258535984087905e-01
-3.448123630754731384e-01 -4.994466046268796755e-01 4.724165674895328126e-01
-2.885607496798617277e-01 -4.322168503987101618e-01 2.706271343641784011e-01
1.323032009180432345e-01 1.736894002608981580e-01 -5.557449563445646806e-02
8.717313717627381969e-03 -2.430324624681096807e-02 -1.906101208352942167e-01
-4.030563706304914895e-01 -5.911203907220783371e-01 4.276030330010541225e-01
4.469103380880283805e-01 6.226401997384409803e-01 -3.451991173172454519e-01
3.125678169237864901e-01 4.201872909487763819e-01 -3.450872001141083167e-01
-3.404297154216105459e-01 -4.754771150051217976e-01 6.721311024008520540e-01
-6.071371247542638461e-01 -8.812757164554914091e-01 6.278082023669012690e-01
3.547780127491933500e-01 4.683685280044757038e-01 -5.225769412303111761e-01
4.895269360424545080e-01 6.364735550208342474e-01 -9.247773457236252437e-01
3.839102388599660576e-01 5.125372174747102605e-01 -5.195338188991345252e-01
-2.371812894209212041e-01 -3.737278275571748742e-01 5.275789310764494866e-02
3.199033660358871489e-01 4.513134049472445897e-01 -1.142454449163998464e-01
-1.825270146167724261e-01 -2.791195733123101319e-01 1.935428721075531933e-01
-3.385462495001498318e-01 -4.895293262669364043e-01 4.778664510988126501e-01
5.040568849581028577e-01 6.610952484308365573e-01 -8.934462142713600619e-01
3.786155695624101591e-01 4.988333019516753009e-01 -5.853730169429622876e-01
-2.052905950784371103e-01 -3.199441492682460475e-01 1.185726869790641874e-01
-1.656655503177017000e-02 -5.212060024154196308e-02 -7.229622868320767504e-02
5.410185081007570229e-01 7.547755263795689062e-01 -4.566649644885891757e-01
-5.647331677511653325e-01 -8.007871809786364370e-01 8.185349348518211610e-01
-3.714111524778556661e-01 -5.445537195134724229e-01 4.146679524077349077e-01
-9.293683684046408211e-02 -1.363603650527366318e-01 2.825761400432169612e-01
-4.167082903706245678e-01 -5.948130115376348837e-01 6.217638157407100463e-01
-4.349819573941710593e-01 -6.392690229861494045e-01 4.272032202165706449e-01
-2.823200632148909484e-01 -4.069932097473590860e-01 4.525603553848209226e-01
2.632635882763371682e-01 3.218856215200143756e-01 -6.210842339748603447e-01
-1.919793038233467697e-01 -2.650540141797800842e-01 5.191525010442131771e-01
-2.740336873021083641e-01 -4.226132596299990163e-01 1.292810448566037440e-01
-4.745605452022239601e-01 -6.625929774018761709e-01 8.449692555212916512e-01
2.975810349032497193e-01 3.718825240910830221e-01 -6.408854029270071306e-01
-1.271192697939309557e-01 -1.809235500033725685e-01 3.625317519166190161e-01
6.465734823321296343e-01 8.978574435019825994e-01 -6.406401584040978259e-01
3.449316284549522327e-01 4.350095281548994053e-01 -7.355790662720139705e-01
-4.154088759143393372e-01 -5.686445430743408691e-01 9.002115072652024930e-01
-1.726817404287587510e-01 -2.828585628342189517e-01 -2.010975432145348935e-02
-3.512720813406526865e-01 -5.245327146844041000e-01 2.958616314327573993e-01
-1.497438313464675153e-01 -2.276297466141823100e-01 2.175058254926210133e-01
-1.679044022270516356e-01 -2.275983948122852762e-01 5.326460962728010173e-01
5.544071969632864694e-02 7.074490512662176545e-02 9.270107938498994837e-02
3.787215680999797551e-01 4.847813264448334047e-01 -7.488258689155454784e-01
-2.297383458698447900e-01 -3.565030362716383738e-01 1.218552994433319409e-01
-2.280808305085385290e-01 -3.514889287106642835e-01 1.507939615691122059e-01
1.407670583664011876e-01 1.549457918833378467e-01 -4.178550078351297437e-01
-4.304108958667938190e-01 -5.938993541528372333e-01 8.697811910818242787e-01
-1.581126046028353271e-01 -2.612514779448624203e-01 -2.412968161292673025e-02
1.689904007763164684e-01 1.916229535756364677e-01 -4.852201625540096264e-01
-3.799069602881509078e-01 -5.664491879085514769e-01 3.101012691747128125e-01
4.677583969755663706e-02 2.631499390124507343e-02 -2.681097640592987053e-01
-5.418788115472049638e-01 -7.765016590097485460e-01 7.017115656514919531e-01
2.805118832640575710e-01 3.922799401044235745e-01 -1.104272489001570795e-01
4.484046920174640793e-01 5.846376671911621692e-01 -8.081783489350985450e-01
3.415375308698795354e-01 4.276989108442526000e-01 -7.608300874244566803e-01
-5.473412135154751695e-02 -1.020100161440135600e-01 1.547583027125944144e-02
4.481136140566523429e-01 5.801211944406605703e-01 -8.550782270652466099e-01
6.037436611578853030e-02 8.048773735134015506e-02 1.192404482756576484e-01
-6.409786355748976483e-01 -9.337781312475508244e-01 6.105433376034828941e-01
5.767615896156804700e-01 7.954577523785051341e-01 -6.083074704458689697e-01
-7.177257065727213337e-02 -1.091317645928822772e-01 2.288964752037292716e-01
-3.469062794874405720e-01 -5.027255021360405030e-01 4.709992244481695511e-01
-4.415908304496975467e-01 -6.526359189946366879e-01 3.880194499999221058e-01
1.493014848189295751e-01 1.822247468722804908e-01 -2.520407738811887288e-01
8.404721783004786423e-03 -3.368044853681259956e-03 5.558948259577387030e-02
-1.784598417268604964e-01 -2.724396645676208650e-01 1.998734364449478162e-01
-3.034622392742499786e-01 -4.290214127603748651e-01 5.656683043209115302e-01
-3.318340518036578812e-01 -5.005317027220552717e-01 2.349816981485348122e-01
2.177164515950405221e-01 2.910887839689733636e-01 -1.858121628672419756e-01
1.820598357124399158e-01 2.262763079192685323e-01 -3.131968992380787520e-01
-5.193591987964319978e-01 -7.445331108660884212e-01 6.790549096284633768e-01
-5.334894388572601898e-01 -7.548989260534655354e-01 8.047562742100107247e-01
7.376629055563806159e-02 5.521094799358799987e-02 -4.035988088161023279e-01
3.209724695595549959e-01 4.208870799926672790e-01 -4.827177431938778907e-01
2.609339306658731150e-01 3.228063163832070592e-01 -5.701147963747202896e-01
3.272977547507862628e-01 4.130181749599826091e-01 -6.828571872703799173e-01
2.360685753711389695e-02 1.455903400402858323e-02 -1.727063003237924938e-03
1.881811703997177121e-01 2.484165739976266496e-01 -1.646576609057945340e-01
1.599181932016317254e-01 1.923824459081561189e-01 -3.192352082975046246e-01
2.366074717507101258e-02 6.268945115335399811e-03 -9.800769037541114115e-02
4.740307049315824472e-01 6.233166607437039541e-01 -8.075000237319365226e-01
1.624279336592697187e-01 2.251824603216796283e-01 1.450493600110912273e-02
5.091366915703009893e-02 7.336375242570934707e-02 2.012891420524318409e-01
-1.687262194057168596e-01 -2.695949606279097188e-01 6.387692351193452467e-02
1.945917586560764467e-01 2.283600838201532979e-01 -5.064483824870610329e-01
-6.295408743175492372e-01 -9.138558520561982368e-01 6.414225532599517887e-01
-1.741594350618808629e-01 -2.351457102480266070e-01 5.542617321941971653e-01
4.008317334315840141e-01 5.557826831880541274e-01 -3.154586447435895336e-01
4.995486639296196074e-01 6.464884433130029251e-01 -9.833014058978002403e-01
-5.344851367961547112e-02 -9.846073994655407668e-02 3.401339873145064335e-02
-2.623926979438572227e-01 -3.945130569096745310e-01 2.506941864891271687e-01
1.452123306107503953e-01 1.952960707065324597e-01 -3.082607380076263920e-02
-8.349847421329842367e-02 -1.083660334049358770e-01 4.409500634615700632e-01
3.428516231842665407e-01 4.567708204227299840e-01 -4.492435489797791393e-01
-4.735825289457618048e-01 -6.614733412974088678e-01 8.408944017315835850e-01
-2.017825077087619101e-01 -3.148564235405506562e-01 1.162818311104470009e-01
-2.143064200317834275e-02 -7.208429586798015265e-02 -2.175941909593823720e-01
2.333531543037099532e-01 3.077606753662027739e-01 -2.650973674690829118e-01
2.207222840388327334e-01 2.662927672340045238e-01 -5.230983560633462037e-01
-1.224380541627926033e-01 -1.911662793383175629e-01 1.635871984807671375e-01
3.906215079310590976e-01 5.358811213687924013e-01 -3.673766312533903178e-01
-3.110711312400469275e-01 -4.356897988849912084e-01 6.208593710297253265e-01
1.579675748485103726e-01 2.032819764927331352e-01 -1.600664263828379952e-01
-5.251771326963933229e-01 -7.643015208555119511e-01 5.525361408493781878e-01
-2.502444141196260574e-01 -3.546233879800184674e-01 4.989081573322435847e-01
-3.703223446209959885e-02 -5.974931311757936819e-02 1.946983349441003264e-01
2.333307866798398078e-01 2.763179353515395897e-01 -6.263411095444664234e-01
-4.546219142073722463e-01 -6.395646188818777667e-01 7.642255780946337618e-01
4.046476850277744841e-01 5.502079209520810421e-01 -4.457179069975286678e-01
3.236174911836735557e-01 4.274182111894649361e-01 -4.534479651474339068e-01
-5.275883207470772884e-01 -7.367174223409401757e-01 9.115817619827332186e-01
3.197080392280525207e-01 4.055965694970457558e-01 -6.366614874968078430e-01
4.692012933164727562e-01 6.333452055161573613e-01 -6.084501633102605833e-01
-4.909749969020402727e-01 -6.894117496391305444e-01 8.210332744489510226e-01
2.199339919519140152e-01 2.872401382390864510e-01 -2.685134101477541502e-01
-3.314980192953362326e-01 -4.817085250774072458e-01 4.456476490290772197e-01
4.653871161070433082e-02 4.035807925780846711e-02 -1.024862735030764305e-01
-1.026355390291001507e-01 -1.739936653381298770e-01 1.785433717785827809e-02
-3.810433422590442931e-01 -5.300128735838195437e-01 7.488622246625533663e-01
1.927637357401588980e-01 2.583255957240029876e-01 -1.301215648121451240e-01
2.500939633329156697e-01 3.460403301403686682e-01 -1.150034783302228136e-01
4.383521609842324640e-01 5.673741501253843911e-01 -8.324888103988900001e-01
2.983753237911568879e-01 4.116579323786124789e-01 -1.971852109931001296e-01
-1.309033203270251744e-01 -2.099535430811488301e-01 9.423943366927288456e-02
-9.817479004902468498e-02 -1.670542568998481248e-01 2.034756879112487385e-02
1.708653429535906751e-02 1.006692353651934997e-02 5.962562552722568826e-02
-4.978181669809333965e-01 -6.993930409808880588e-01 8.248493603883622072e-01
-5.030503518820207409e-01 -7.159741880642002121e-01 7.248352945686326043e-01
4.371225369849653375e-01 5.925607837941913036e-01 -5.214972928487223713e-01
-1.564468812037106416e-01 -2.216378346433039992e-01 4.026053127036960944e-01
-1.126902714487691554e-01 -1.830934365237512906e-01 8.747547842148083175e-02
3.331913531130450412e-01 4.391302476232377683e-01 -4.846897437241022844e-01
-1.628617994656695600e-01 -2.401101710389578203e-01 3.013406487591878125e-01
1.948175804493676166e-01 2.723272929805486964e-01 -4.683838104088953666e-03
1.857109013725193603e-01 2.558461865952780800e-01 -3.639016575834574246e-02
2.123459495665376562e-01 2.861379428609902020e-01 -1.496654693194268693e-01
-9.520535086510735490e-02 -1.660233236892660613e-01 -1.926508979057899723e-02
-4.197247739809391587e-01 -6.141824227720674712e-01 4.512761142928722879e-01
4.224595213558103302e-01 5.843808561864010098e-01 -3.614207724065885419e-01
2.635307073566147129e-01 3.564173878628979497e-01 -2.285550768121350218e-01
9.534451644183088159e-02 1.256576525045219328e-01 3.260939019549573964e-02
6.131289459411022325e-01 8.513308127170460260e-01 -5.960567303571472353e-01
4.451404766848869876e-01 6.135646136173181775e-01 -4.189026315868162875e-01
2.017376229872456517e-01 2.349767152834399686e-01 -5.542089715397821026e-01
1.640127632014258818e-01 1.950196211917823996e-01 -3.598760910218176678e-01
-1.078076557632745985e-01 -1.838330963624545400e-01 -5.662601664547547813e-03
4.962064307784777029e-01 6.467486438629020951e-01 -9.223773799384056282e-01
4.583622794202824591e-01 6.410912872039239430e-01 -3.314862601548599907e-01
4.802474346696244956e-01 6.720357836426835707e-01 -3.549236717866240953e-01
-8.896548879079226035e-02 -1.203276850836505485e-01 3.981363969025444316e-01
1.298957050874062491e-01 1.504319734511089246e-01 -2.813349834304665342e-01
1.461345104028944075e-01 1.711291660546386817e-01 -3.247604396392451687e-01
-1.149141437471856569e-01 -1.729872395285172448e-01 2.422562649094584242e-01
-4.897905041362645151e-01 -7.014677844933553397e-01 6.618425853454913410e-01
2.988209084803317706e-01 3.758078310881839967e-01 -6.172302873155003367e-01
-2.033972928416546422e-01 -2.965388995740740885e-01 3.549459143185361709e-01
6.022625126445331212e-01 8.399552482101534379e-01 -5.385407791262405430e-01
3.063917574213826378e-01 4.278821681890796480e-01 -1.495358461599349820e-01
2.575827318767081042e-01 3.229728222883607724e-01 -5.101129751812205626e-01
-3.321349972944798723e-01 -4.729007412540394140e-01 5.579891767941662639e-01
4.287660067469236669e-01 5.871219186199441165e-01 -4.392062561780544772e-01
1.278865468902267155e-01 1.628677442733544312e-01 -1.034828085127207364e-01
-1.681100262188311989e-01 -2.746294742828713775e-01 -4.706939150428221356e-03
-2.955797479150312213e-01 -4.556310930578854057e-01 1.229948737234614481e-01
-7.700633635034331848e-02 -1.006952054584788481e-01 4.166452040518729971e-01
5.642361834181127689e-01 7.823042186734856518e-01 -5.424852164588421788e-01
-3.064729017855347681e-01 -4.369976764462132346e-01 5.261153713344892680e-01
1.036149431819010334e-02 -2.461473710841433418e-02 -2.226914709539134229e-01
3.633805835548939989e-01 4.812910663492449004e-01 -5.230608871653149583e-01
4.898743893436910413e-01 6.491389082248805176e-01 -7.851321546747683788e-01
-4.420380770556682215e-01 -6.411905612592667669e-01 5.274077870715592198e-01
4.448071696074458181e-01 5.834147253873595007e-01 -7.598873796587447549e-01
1.396347263464591260e-01 1.956204764755249403e-01 6.958239019923190272e-02
3.813088028008394526e-01 4.959712267966318033e-01 -6.649727001114577041e-01
-4.950841416983309262e-01 -7.235300876814291238e-01 4.998534305899869357e-01
5.828887216569152152e-02 8.757608623948774651e-02 2.369136177555386247e-01
-4.093900608404594799e-01 -5.759340814936581010e-01 7.120476039563002901e-01
-2.273991820400601827e-01 -3.536341946617130860e-01 1.143055714714937832e-01
6.047644356916851427e-01 8.316633257966610238e-01 -6.772745958128055799e-01
4.763698811970244473e-01 6.405452395545985222e-01 -6.498947522359591611e-01
-1.326571615218754586e-02 -3.988865905536245759e-02 1.117273326804407371e-02
-5.133284630355127165e-01 -7.141245220351464251e-01 9.242607242940018564e-01
-5.973002941884051342e-01 -8.643486657780856675e-01 6.519876390594001592e-01
-2.302810211608282975e-01 -3.324192937440964002e-01 4.082551912598947341e-01
-1.308484884038246254e-01 -1.796919245754260708e-01 4.413360701520744889e-01
-1.875872791403635290e-02 -6.968717462358599291e-02 -2.363369084692720501e-01
8.396222274753602222e-02 1.036222390332979387e-01 -2.353498034714730097e-02
1.778086599846784577e-01 2.140566356766516742e-01 -3.800524328107591776e-01
5.122536037857902125e-01 6.908525271674349488e-01 -6.932745767500735345e-01
2.271028849784766882e-03 -3.730461080288138831e-02 -2.284079786457526851e-01
2.918282302657490002e-01 3.998269806335760790e-01 -2.197745046293077820e-01
7.814784167809649129e-02 6.153713426298041550e-02 -4.067856635388488740e-01
1.030286137554343867e-01 1.085932171374863475e-01 -2.968428096000055860e-01
1.380901992516018195e-01 1.452541429651268978e-01 -4.829229099834602690e-01
-3.211604386816305223e-01 -4.417623216481214032e-01 7.258970074428743313e-01
-2.516036887476732486e-01 -3.813224555909097702e-01 2.153954663679914505e-01
4.569294071587025607e-01 5.886348986428480146e-01 -9.099651764978744506e-01
1.690135885708804742e-01 2.354301847594542640e-01 1.821671503066931916e-02
-3.759960679474704803e-01 -5.295090029120207431e-01 6.671722740353682735e-01
-1.083733803852100219e-01 -1.638539981377014620e-01 2.339281849139500102e-01
1.197930486717296850e-01 1.209003050714023003e-01 -4.458759356642796323e-01
2.753365569015081213e-02 1.666965531875780338e-02 -4.551597249646004845e-02
6.663811972218737500e-02 6.416844342040897708e-02 -1.770226648594616925e-01
-5.050275097501417676e-01 -7.390387148975677833e-01 4.938342941030771649e-01
-4.377755818727812054e-01 -6.427468090963581737e-01 4.356265423032243400e-01
-1.915612918767201911e-01 -2.596573921046331224e-01 5.739750498971852855e-01
2.093617406645080781e-01 2.967942687689467118e-01 2.462151778630023227e-02
-3.176701927243438806e-01 -4.407463273204916820e-01 6.770853169453728837e-01
-7.426545070326080571e-03 -3.019755270142674992e-03 3.340007917207821753e-01
-3.313518625213607988e-02 -5.517984597419075404e-02 1.797049351481293800e-01
3.083041623554417243e-01 3.953585794220424998e-01 -5.567464017633744211e-01
1.180949609212013363e-01 1.615167876826757720e-01 5.069838794911663699e-02
7.252931623543669437e-02 1.009074144770121112e-01 1.434092382033085034e-01
-4.108631870821684573e-01 -5.992974576561557187e-01 4.688730068118082128e-01
-4.256821045733685804e-01 -5.895134316537908870e-01 8.382600769400868623e-01
-5.359450308480470104e-01 -7.791147642038595000e-01 5.688064961837548950e-01
2.972568108971391787e-01 3.990964395504527085e-01 -3.222709933160231022e-01
2.251145778143407716e-01 2.790229564108737126e-01 -4.528172480052242710e-01
4.719387762869550196e-01 6.482834979672666975e-01 -4.840899988423342237e-01
3.628447636506969554e-01 4.734961348849995866e-01 -6.034250582904538973e-01
-3.105179330753332079e-01 -4.715389926536093790e-01 1.989594531147906020e-01
-4.244229538988800177e-01 -6.179486189629321835e-01 4.893942768433575674e-01
-1.815966191937589194e-02 -3.890636073268246425e-02 1.072978499484648074e-01
-4.471178689153466612e-01 -6.409005215595655613e-01 6.187923464118263439e-01
7.207321373062014480e-02 5.857661228054120844e-02 -3.355430604165701713e-01
-6.181726148497622697e-01 -9.003263211756785678e-01 5.999817285254496202e-01
3.593426218223875201e-01 4.840363396400576557e-01 -4.214962089193826089e-01
-4.432235692509352010e-01 -6.401017090606828663e-01 5.604792703034807699e-01
1.122889300742889312e-01 1.124568995047439679e-01 -4.129158981311622512e-01
-3.011214363254227644e-01 -4.411450100239491245e-01 3.856580774751861562e-01
-1.115489488934369999e-01 -1.827918618561825692e-01 7.116126849944791333e-02
8.735821372079009828e-02 9.299739730755635092e-02 -2.045973349291066168e-01
7.698804761233357663e-02 9.715510489631014324e-02 2.296910525844797837e-02
1.393102720255350591e-01 1.513352817646662629e-01 -4.341297806287092720e-01
1.526140406070597977e-01 1.667951594602588850e-01 -4.869176123997240313e-01
4.014995883832022661e-01 5.393797222013270165e-01 -5.156895504268980135e-01
-4.289305733240368346e-01 -6.335970657761873515e-01 3.875484551363865826e-01
-3.926307726157476224e-02 -7.608857432751889305e-02 4.544358637394187855e-02
-5.994638724407204133e-01 -8.688425525052524412e-01 6.378038352534097788e-01
2.424959562872745500e-01 3.325875617355005254e-01 -1.380300939957308515e-01
-2.278419424220256770e-02 -2.997489873744228067e-02 2.901786640194222167e-01
-1.474543759847378455e-01 -2.150463285608596453e-01 3.225476681090783115e-01
1.448407125216024938e-01 1.888199973371106621e-01 -9.886783461082419844e-02
2.116226005800848908e-01 2.652779836643437972e-01 -3.770435847580417277e-01
-1.140969023691902617e-01 -1.502046436655576356e-01 4.901196940041990247e-01
1.512776455906265916e-01 1.675906683819879395e-01 -4.546043299473531141e-01
4.945617797272590099e-01 6.506687596568763166e-01 -8.487841056723209876e-01
1.765609317061092309e-01 2.413309388826897217e-01 -4.473626021724705359e-02
1.879303666592421415e-02 -5.321353514615799647e-03 -1.469381454994230229e-01
-1.232639715860919805e-01 -2.158884310284494290e-01 -1.064332028157319449e-01
3.253553134047790785e-01 4.391765995286611712e-01 -3.483334785770843545e-01
-4.640712647896209075e-01 -6.496214767549957081e-01 8.123458398449978635e-01
-2.832972898567543210e-02 -6.109926054164427356e-02 2.833049481255315097e-02
-5.278042056711302887e-01 -7.507192985175930033e-01 7.542843664659338865e-01
-2.111044942443885686e-01 -3.234957552447887963e-01 1.784978254702115630e-01
7.288530931572106963e-02 9.593798865106797913e-02 8.008405265050128063e-02
1.872929475966953264e-02 4.566754216386366416e-03 -3.210750119080814369e-02
-1.483802209106300229e-01 -2.145029256004570839e-01 3.448452903597767905e-01
-4.884370518676096062e-01 -6.926260763116601771e-01 7.400738833655713389e-01
7.789006769235209612e-03 -3.514809824018042851e-03 6.457377248017685811e-02
5.841211367139130806e-01 8.108084404530161438e-01 -5.593191089480858968e-01
-2.531775263262418529e-01 -3.895190061289131034e-01 1.484042696543782236e-01
-3.719247437562961389e-02 -7.134759837063273102e-02 6.408078500728625615e-02
-1.377743329233918068e-01 -1.993434077843374563e-01 3.353656757545159794e-01
-3.788719252548635730e-01 -5.394446295099628585e-01 6.027475818906163907e-01
-4.573859121603690570e-01 -6.612097695454891566e-01 5.631876141713352268e-01
-4.635416761019470200e-01 -6.431536744813279860e-01 8.775543463303355773e-01
1.445993282699042648e-01 1.781228999803852464e-01 -2.177140931806377522e-01
-4.538641275649979434e-01 -6.697987610430141681e-01 4.033597245523296571e-01
-2.058619449377429855e-01 -3.054216083987158492e-01 2.955036370325588302e-01
1.321307751600694635e-01 1.545394342338825833e-01 -2.728347463588227106e-01
2.400910055561130407e-01 3.041946023648847697e-01 -4.228998430499710248e-01
2.252320092980829025e-01 2.771566066850551513e-01 -4.763180962995708922e-01
-4.769256609024405957e-01 -6.608047417938307522e-01 9.065311134552137551e-01
-4.639020489938835978e-01 -6.493870713480542900e-01 8.121087589485798119e-01
5.017828450410791868e-02 4.697700259377326354e-02 -8.944546897625421655e-02
1.779524975108560392e-01 2.121588564597321480e-01 -4.043724597523590814e-01
-9.599785221935316915e-03 -1.758809285310005896e-02 2.041154793184391247e-01
-1.586147441220593646e-01 -2.635028694548532946e-01 -4.131988960544083489e-02
-4.713841497682336734e-01 -6.604586315751470593e-01 8.144600420972182286e-01
5.893071099890998532e-01 8.036744308251756452e-01 -7.312584716170033028e-01
2.229393863828596778e-01 2.756247489251839045e-01 -4.541980561560354790e-01
2.449786628770655172e-01 3.292017395244310474e-01 -2.200044459796672569e-01
-3.204902331354138600e-01 -4.423360112254498544e-01 7.076820833353900664e-01
-2.827883728079944037e-02 -7.725707894100496131e-02 -1.583870505462568745e-01
5.342016990869511428e-01 7.092781494670695741e-01 -8.617858888656111382e-01
7.068483476685613609e-02 1.007266894095171922e-01 1.733013226425228481e-01
-3.053357578362062563e-01 -4.300484423619529428e-01 5.863301157444179568e-01
1.269722408506816225e-01 1.459062352128758511e-01 -2.827139112661175568e-01
-5.450529584522163518e-01 -7.828152906615352125e-01 6.841147102320440654e-01
-1.372462089166456845e-01 -2.173922399345770973e-01 1.186271371767202015e-01
-2.833011963476625428e-01 -4.167761970174780894e-01 3.570496933566829623e-01
-9.275959311544036690e-02 -1.627974493301945769e-01 -2.455609485401808248e-02
-5.876000607866798120e-01 -8.509414534974371058e-01 6.380521214377242734e-01
6.537333788405465251e-02 8.535931071564158146e-02 8.862186035746837109e-02
5.010949132773241388e-01 6.958366203577524001e-01 -4.425360501994933249e-01
-2.320236306042836594e-01 -3.400088650778534949e-01 3.511703723349043349e-01
-1.672735222631592245e-01 -2.748530390853537453e-01 -2.177745699742243343e-02
-5.856861110083743105e-01 -8.529912238299934835e-01 5.813024033016201964e-01
9.010390051407009271e-02 1.137519572642492621e-01 -1.348490534426077282e-02
-5.464590578164774115e-02 -7.168924733360590440e-02 3.626741270176727649e-01
-1.502919684643579668e-01 -2.274487171361303239e-01 2.290888308302521104e-01
-3.432421964215349314e-02 -6.761116652249883618e-02 5.733864086993093606e-02
3.788574585075090706e-01 4.936719590018323056e-01 -6.489277104131601082e-01
-1.053721281300137175e-01 -1.773865952322578321e-01 2.626501143375382583e-02
4.642348231346134918e-02 6.206568154221680372e-02 1.491760072717717434e-01
4.972414611438906729e-01 6.824661017684138242e-01 -5.295215763956728772e-01
2.051454475712349290e-01 2.478855794241699717e-01 -4.648089339051730273e-01
3.061269056885286832e-01 4.139624543048877614e-01 -3.050395225002045518e-01
-6.415082874588574624e-01 -9.340910164112390390e-01 6.161252901630696055e-01
-3.524069314752992788e-01 -5.312821143777529675e-01 2.379054773057757699e-01
-3.652015328943364336e-01 -5.360182576526196785e-01 4.052044095064439300e-01
3.281097470329297217e-01 4.296647266269451038e-01 -5.054750760468247339e-01
3.807896276561506532e-01 5.126851641441659835e-01 -4.637422589756837188e-01
5.719627704478819075e-02 3.430608515094009381e-02 -3.568209466732460422e-01
-5.630969537251615531e-01 -8.189608245406255760e-01 5.811542290606386274e-01
-3.939598100773810674e-01 -5.585664376608486803e-01 6.443428960945372097e-01
-4.640295399734668536e-01 -6.627034821166151168e-01 6.611629417247379958e-01
-9.622843032122928297e-02 -1.256987866316393587e-01 4.622514771110289855e-01
3.765918789860260851e-01 5.287803594416757846e-01 -2.058669138606582794e-01
-3.887378330072639998e-01 -5.526986072893058655e-01 6.213171473086281926e-01
8.290524245802671777e-02 1.167290605999501685e-01 1.455308990971921623e-01
3.147486294927942518e-01 4.315567369878926529e-01 -2.521244568912398565e-01
-7.197955734903387082e-02 -9.306164035005475010e-02 4.173110423720131079e-01
4.642096130474098192e-01 6.443127157935059079e-01 -3.957883820660416663e-01
2.214035408911016467e-01 2.922629890488675497e-01 -2.362161415811190046e-01
1.174371600479435090e-01 1.569621866890740514e-01 9.716445529693145886e-03
-2.053957785153152360e-01 -2.913630619682328060e-01 4.491146486355422351e-01
-2.764107326791334085e-01 -3.782929473843048007e-01 6.802225796031107219e-01
3.864913020712305580e-01 4.956811687280827661e-01 -7.581377124629825603e-01
6.742878709783096947e-02 7.297434395807619878e-02 -8.944837188314452847e-02
-3.378156419000483135e-02 -8.700469687526084239e-02 -1.751175103870806771e-01
-5.256792230627818086e-01 -7.728260752190106997e-01 4.631957410035395517e-01
-5.632671415356876876e-01 -7.998392450706273138e-01 8.040265666668212630e-01
-3.755694839471638291e-01 -5.361642846628839054e-01 5.832340420952464299e-01
-5.266613087805972482e-01 -7.736811199292917829e-01 4.703842683998316621e-01
-1.862188825334547271e-01 -2.930148375829054186e-01 9.772134257426502713e-02
4.348453015585813652e-01 5.876581803107095991e-01 -5.384118229243638476e-01
6.332871133958769549e-01 8.843323273834111653e-01 -5.659017017609029310e-01
4.257414313358666158e-01 5.578983472390275367e-01 -7.228890580260256549e-01
2.596121307640193443e-01 3.333175928374139674e-01 -4.263108271828082163e-01
5.173429200025914110e-01 6.844768548656098295e-01 -8.548167269104769428e-01
2.509862014967972205e-02 8.193326859793428896e-02 2.679435212247481268e-01
5.527657849514442390e-01 7.941137075515173338e-01 -6.872048468777839370e-01
6.014845947201692411e-01 8.693089143892536175e-01 -6.668143322254772576e-01
5.080263921183364451e-02 1.110368155881078511e-01 1.571399585712586477e-01
-4.278301841034588548e-01 -5.499849386478498081e-01 8.507591551168870447e-01
2.885066974306768062e-01 4.080749208803551298e-01 -5.467018818933452318e-01
-1.454486284754465675e-01 -1.760943958644363982e-01 2.564167122625273798e-01
5.330021691255876215e-01 7.517132591024030530e-01 -8.322983687629500471e-01
-4.907628887140726981e-01 -6.448197574680556432e-01 8.508595638444018672e-01
-4.317033295723466946e-01 -6.025720916898102963e-01 3.130738739683751048e-01
-4.409046040307457170e-01 -6.038258434033509925e-01 4.581410989628065256e-01
-4.290734988181290621e-01 -5.792022235874684233e-01 5.362738174701181526e-01
3.869748267249076279e-01 5.398837696065865721e-01 -7.374944165837754584e-01
5.046541336693696200e-01 7.458994460733746612e-01 -4.078041854274713218e-01
-1.449175712234630764e-01 -1.679685073811821305e-01 3.406698611386206887e-01
-2.063272689726640963e-01 -2.449419513780195790e-01 5.198002762630354878e-01
1.566429844673938310e-01 2.609018769292050788e-01 4.623316251764730128e-02
5.411350308892596273e-01 7.928825887751064228e-01 -4.997668085850942576e-01
-3.106809474076240862e-01 -4.168438162879555819e-01 3.514872425239676801e-01
4.718079515156909931e-01 6.930627645794298353e-01 -4.461657111485924365e-01
1.581523365892819888e-01 2.173221048011723111e-01 -4.811513732478042149e-01
4.948164406411544314e-01 7.132999500263917936e-01 -6.122216990669152592e-01
-1.604456419748808427e-01 -1.919290134187657815e-01 3.342438079332947787e-01
2.480346351647298442e-01 3.574687427485392921e-01 -4.272293521172009778e-01
3.151176407365179066e-02 3.989296459929785738e-02 -3.267332770030216271e-01
-3.915552411985581127e-01 -5.145361533128505194e-01 6.297066079442424913e-01
-3.696069191706106150e-01 -4.686645304520473676e-01 7.768552294648094492e-01
2.348444093803357946e-01 3.678624377392799016e-01 -7.906065280162892506e-02
4.768104575881327856e-01 6.882447233560055055e-01 -5.882884334479590027e-01
2.337089182359895767e-01 3.357993837886114052e-01 -4.281448691172570209e-01
-2.419906244299412368e-01 -3.419248438363620690e-01 2.253171198309632944e-02
-4.650813902244451195e-03 1.706792130197589893e-02 3.756069920806368728e-02
-5.022549181953473996e-01 -6.560620979018617627e-01 9.207513062533985160e-01
-1.016841735381034673e-01 -1.342054696658518953e-01 -2.038278311204798007e-02
-1.319709021021751860e-01 -1.903909917070303326e-01 -1.416235910712407009e-01
6.514719311149912151e-02 1.015300160960390385e-01 -2.008364449054352852e-01
8.194336360154871879e-02 1.511877605980883610e-01 7.916033869405086909e-02
-4.425739680101506424e-01 -5.674460842587871756e-01 9.054898488750000585e-01
-3.873369697350394492e-01 -5.016231092149827653e-01 7.051071326111253423e-01
3.802541059071578577e-01 5.253461396438217079e-01 -7.882044414121136544e-01
2.085804902710006736e-01 3.185846704018745479e-01 -1.905814209703695361e-01
-3.947218702301124593e-01 -5.390598293619263126e-01 4.025408064294341837e-01
2.074799380025553197e-01 3.292044095064703413e-01 -4.936490935973845973e-02
2.711050067699453670e-01 3.873601433025353757e-01 -4.833222227982530983e-01
3.785469213179802339e-01 5.613629373252773114e-01 -3.443746594385177495e-01
-9.547103355231398303e-02 -1.213939332593588771e-01 1.927294235812006956e-02
-1.666386911513119962e-01 -2.373319984397405935e-01 -8.060320528902689685e-02
5.741853221776894306e-02 1.024255191441040130e-01 -5.657507501034590713e-02
-4.969760066285201505e-01 -6.952208903522602013e-01 3.788753566389710392e-01
-1.222614499504809382e-01 -1.255953915333241910e-01 4.353128266770001642e-01
3.554865285672517139e-01 5.032740348112380024e-01 -6.127618376560060032e-01
1.578151657448438258e-02 1.603459781048218943e-02 -3.284802416144897985e-01
1.628694112301000696e-01 2.401182274091294144e-01 -3.007287183886786508e-01
5.161865575024261465e-01 7.260243891286654039e-01 -8.362856784023009471e-01
-4.200647689984487454e-01 -5.479918761221037604e-01 7.390828920428652582e-01
3.943474124508389300e-01 5.623337678489893632e-01 -6.070809721996429653e-01
5.043980569886229448e-01 7.165311799094536971e-01 -7.411379322022211280e-01
-5.298171253958942062e-01 -7.398730152313295338e-01 4.345588621945853935e-01
3.113278659788337732e-01 4.327283731901439001e-01 -6.587183386678223673e-01
5.164999241226426729e-01 7.315263825545194054e-01 -7.784373932852692857e-01
2.368494290485400333e-01 3.612631939321557795e-01 -1.897136208234658505e-01
2.405483975397592622e-01 3.496135889187336199e-01 -3.878136058840151446e-01
3.966907938086747243e-01 5.622618786991039341e-01 -6.485259417035337259e-01
1.963856651180623525e-01 2.848859725626179951e-01 -3.667846543108245205e-01
-3.432648550144766714e-04 1.922404146834691754e-02 -1.230452358338193948e-02
3.701012370714471533e-01 5.315069373907678196e-01 -5.413663640969975654e-01
-1.046566704262864682e-02 -1.199285849472922494e-02 -1.958855231156151067e-01
3.297975666378188953e-01 4.645130825268874442e-01 -6.132916883811896369e-01
-3.933538797723939995e-01 -5.032989731836526870e-01 7.901245019238376521e-01
-4.875271948951996337e-01 -6.773973559763039054e-01 4.200910784769270601e-01
3.970051414513330323e-01 5.740664162192880005e-01 -5.182073993193293537e-01
-2.059789154002509559e-01 -2.622071619079812121e-01 3.151903673227121616e-01
-4.547554373259417582e-01 -5.838717688694569086e-01 9.277167062270171849e-01
3.785748380131507829e-01 5.235666559856444469e-01 -7.795637809509690097e-01
2.918701004601026439e-01 4.389066313430544652e-01 -2.503963841724255457e-01
-1.560131098618555145e-01 -1.721918951002675002e-01 4.844160434198095389e-01
4.559336308496783063e-01 6.583674667042250794e-01 -5.700539062973138948e-01
4.326735671716428616e-02 9.045603021459822091e-02 5.104488170452493173e-02
-2.041250995718260908e-01 -2.568406017689797149e-01 3.447801785895487914e-01
-1.705072792068371701e-01 -2.202608785191915164e-01 1.827911260086103051e-01
3.910553680087248685e-01 5.690598763759262546e-01 -4.726607204790637118e-01
3.480525364494701512e-01 5.045039284233042709e-01 -4.697620862138375819e-01
-4.424041645172036019e-01 -6.050518561432474129e-01 4.700324845709855648e-01
1.930215125629795025e-01 2.896072664814131614e-01 -2.541724568568852760e-01
3.608561089264980537e-01 5.424801575893279937e-01 -2.549133115596310395e-01
2.330808024114765509e-01 3.600338783164767631e-01 -1.385301852610509865e-01
3.943191996451324011e-01 5.562632167772424419e-01 -6.764110028071631531e-01
2.823821815416658887e-01 3.988797866708591044e-01 -5.463005229009367802e-01
4.331674403315141642e-01 6.331687276360629113e-01 -4.652618815641739736e-01
2.900718797824725081e-01 4.301131982652754981e-01 -3.203632248779578195e-01
-1.688154388766508196e-01 -2.135154142047006043e-01 2.310476302338094756e-01
-4.109248530334390637e-01 -5.285823526517413606e-01 8.038936357580626080e-01
-5.340253403189311188e-01 -7.219639754861527647e-01 7.134771350914813626e-01
5.584919255111855385e-01 7.997485643341576411e-01 -7.216488232695467131e-01
-4.060624941139663879e-01 -5.392465377498153467e-01 5.969620241329882671e-01
-1.829703533058129605e-01 -2.233135946293846319e-01 3.637051997327354069e-01
-3.688700023069705347e-01 -5.074222339087702816e-01 3.183193346583961802e-01
-1.533926445368684610e-01 -2.017020311515147213e-01 9.959111257953510987e-02
-3.751392734131454576e-01 -5.040839537014951688e-01 4.653799393634893700e-01
4.056793465399531895e-01 5.559780189809976347e-01 -8.765981360078375362e-01
5.331467633482469548e-01 7.818680832230417987e-01 -4.879858656835371900e-01
-3.225874468918706328e-01 -4.254666192790724777e-01 4.586910582482212617e-01
-1.616036087396461873e-01 -1.823164283636311833e-01 4.648719422662644929e-01
2.259812508203120907e-01 3.258916074477656299e-01 -4.081521527072078381e-01
-2.556492463000387683e-01 -3.552525482149664904e-01 1.059929659089003523e-01
-1.575982870124867374e-02 -1.396731003800384327e-02 -1.268297876715599182e-01
1.432977028737870973e-01 2.409181461000617641e-01 4.771048862880497565e-02
-4.072409163252905390e-02 -4.310074029950999169e-02 -2.919221585693174484e-02
2.374237065266029956e-01 3.228351099548332215e-01 -6.416394220419007199e-01
2.249843366984216053e-01 3.245540497305150485e-01 -4.062561149165613839e-01
3.057841339675299586e-01 4.436310605783088112e-01 -4.372333138225500959e-01
-3.200621107532752307e-01 -4.182767983765275921e-01 4.976111295258430212e-01
-4.459644650414060912e-02 -2.030603447181083404e-02 3.000959132061876145e-01
7.633415733874954244e-04 -3.457308892253321657e-03 -2.923498207607745925e-01
4.909294561209668895e-01 7.269230476061026014e-01 -3.881651352940186372e-01
-3.349604253818490585e-01 -4.168176782412905124e-01 7.726274109113723254e-01
-1.120006048682162247e-01 -1.442061228168015630e-01 4.341313477585133362e-02
5.585101057966186389e-01 8.073134736279630186e-01 -6.349578801774891090e-01
-3.752900841320089831e-01 -5.132569380873875931e-01 3.624929920539833872e-01
-1.178073433313752971e-01 -1.579788772775481409e-01 -1.434203285275562935e-02
-2.768303357543736576e-01 -3.744772095658687183e-01 2.520196957772237734e-01
2.372517052078215727e-01 3.387470334825505858e-01 -4.556507703216038374e-01
1.831450864372138540e-02 4.375221642755105361e-02 -5.359712713558915237e-02
-1.555251825975517699e-01 -2.224994093081425484e-01 -1.026415724166632598e-01
4.330556822054746346e-01 6.055657251533054231e-01 -7.807943475354995888e-01
4.632037365600700785e-01 6.346856220174776908e-01 -9.684389438550434770e-01
-4.070051340609024404e-01 -5.655219960933586254e-01 3.110997912217616235e-01
-8.726649306580087917e-02 -1.116183658254111255e-01 -1.050605124023983906e-02
5.459484631132539567e-01 7.948803588783009966e-01 -5.602218012377974121e-01
4.827621911537381960e-01 6.949300839274150654e-01 -6.145605168565113630e-01
-2.290255448854153497e-01 -3.145935999257313265e-01 1.121502124928444866e-01
1.272450541183817452e-01 1.705610564380885819e-01 -4.832426179641051145e-01
-4.471496648955038400e-01 -6.255414145985167540e-01 3.166309540955651869e-01
5.767462409248192978e-01 8.392166419813300582e-01 -5.841203771252471144e-01
-2.932594373325504017e-02 -2.861883752142739198e-02 -6.019761454880583063e-02
-1.358283735448941217e-02 1.692769074323293571e-02 1.907678667751098178e-01
2.878096703266531664e-01 4.332762243790643786e-01 -2.447732182694656589e-01
-1.455881093131518589e-01 -1.573752225577916553e-01 4.741286197205611952e-01
4.008765716196465156e-01 6.026509370100096019e-01 -2.565531414283788170e-01
6.577454569687554709e-02 1.361818824522763594e-01 1.868300378050898602e-01
-5.517477213272637959e-01 -7.669820775148271652e-01 5.028962673263154270e-01
-1.410840312764496118e-01 -1.863283037975956846e-01 6.306160719814382642e-02
5.076229806386983734e-01 7.247480323765733701e-01 -7.025317406116189378e-01
3.574878380334371442e-01 5.125332475663576526e-01 -5.409581051529709361e-01
4.956588354936341534e-01 7.169846950835809807e-01 -5.844437976104034371e-01
3.837381589964149464e-01 5.259166166420013999e-01 -8.420328051782886014e-01
-2.106233561349649674e-01 -2.602144102467753850e-01 4.186122754811524849e-01
-3.801682473560223374e-01 -5.323793262662308567e-01 2.271151195375301912e-01
-2.837478810319542522e-01 -3.801334514809556198e-01 3.068684986373852452e-01
-1.892332944396825090e-01 -2.386235208094777682e-01 2.961780290353279721e-01
-1.891380180087562715e-02 1.719814574030185603e-02 2.862807863247401885e-01
-3.288999622595798478e-01 -4.625622345773868216e-01 1.414600713985140756e-01
2.814116974531248871e-01 3.939321199626327208e-01 -5.863834388514811424e-01
4.910057843680034617e-01 6.885952214200368182e-01 -8.303068217349404145e-01
3.769157858839694009e-01 5.425582497266824289e-01 -5.323797532855882864e-01
3.002314345378261362e-01 4.197569922670457143e-01 -6.155697133197761683e-01
4.816390122556115649e-01 6.905944951537769105e-01 -6.449570789657107506e-01
5.170638748428326714e-01 7.621524760346719551e-01 -4.359734581836921530e-01
-6.663145386530321124e-02 -6.911980649086789386e-02 1.206113686290599535e-01
1.050329076027552988e-01 1.390789538226241129e-01 -4.603205753215137697e-01
-5.411709769637209622e-01 -7.562424458155013740e-01 4.430874994758595697e-01
-1.149373239516217893e-01 -1.389294358362932191e-01 1.550042943570500431e-01
-5.038977997326280489e-01 -6.746139669031555597e-01 7.358575441924146698e-01
-4.258504665464368233e-01 -5.540676837181736092e-01 7.694876835715274144e-01
-6.486021412329498470e-02 -4.566147716838590137e-02 3.597108051999706735e-01
1.559611775471504702e-01 2.173453179317921258e-01 -4.429047302235470940e-01
-3.474068143049038326e-01 -4.534255634767344612e-01 5.673252173767725504e-01
3.743662255150462942e-02 4.830638908085535532e-02 -3.326646011521544044e-01
-3.859511017815669444e-03 1.969942244001635003e-03 -1.498009970191643003e-01
-5.501767336758710547e-01 -7.580829759736209539e-01 5.780170910147987007e-01
-4.732245397759038408e-01 -6.516685538663964383e-01 4.680950808212165359e-01
-4.228785215037610401e-01 -5.907409434800152681e-01 2.961854861945169559e-01
-3.648294992053269237e-01 -4.599345554978617190e-01 7.944533481156531574e-01
-1.940949305285195325e-01 -2.304200349117461744e-01 4.747959457870044586e-01
5.109893271173028273e-01 7.106944499423518691e-01 -9.225151357995881041e-01
-5.711357155353694592e-01 -7.895379368122141805e-01 5.795300223640837967e-01
-5.016359229927083024e-02 -6.275012890921198572e-02 -9.156897026498506120e-02
4.137705029857959849e-01 5.818416064772218288e-01 -7.193791654753348697e-01
-6.298813994727969767e-01 -8.694895001853604199e-01 6.782325627575035432e-01
-1.990511804283281172e-01 -2.603047386657548201e-01 2.169912629057574593e-01
2.223603349916767214e-03 8.118968097416282351e-03 -1.845188524452470724e-01
-2.351345834677148472e-01 -3.037955958607871931e-01 3.422297831029476045e-01
2.223439241866005667e-01 3.534633787835749774e-01 -2.799548024801979534e-02
-2.223564031375766525e-01 -2.956976394322364809e-01 2.138806007554266420e-01
