-5.732133334396801727e-01 3.866972006172202936e-01 3.558058377730639599e-01
-5.471553099828161404e-01 -3.148629522283690613e-02 1.333537457240416280e-01
1.281720242521649511e-01 1.646319034723260910e-01 -6.176638885682864122e-02
-1.012868988180306434e-02 -1.894506175463286923e-01 -1.802771930736768724e-01
3.710996027082678617e-01 -1.010644684672344085e-01 -3.016937829125200810e-01
-1.069242946136838984e-01 -3.975423419470199282e-01 -2.431669543540955769e-01
2.277393775562791545e-01 2.154109795651914724e-02 -1.773641965528755526e-01
-2.909065876230515491e-01 -3.219486534631701979e-01 -1.248774651517995660e-01
3.974626856382337259e-01 8.746142652228775516e-01 1.793566486702427298e-01
-2.074089543312012118e-01 8.648486555217804739e-02 4.493841844128636936e-02
-5.770218174986577742e-01 -3.604006916209827605e-01 -1.967784478987678193e-02
4.904976018996628495e-01 2.684199409666649383e-01 -1.671753320841257995e-01
-3.228876781842463517e-01 -3.988929838902261493e-01 -1.497911284643413110e-01
-4.814183856085417768e-01 3.262075289124264366e-01 2.852909799135480706e-01
5.259272075288956572e-01 5.222091851182759648e-01 -5.449053172646756149e-02
-4.409465379340704039e-01 -6.268675238309974196e-01 -2.134572329929133871e-01
-1.859631446823350465e-01 7.219589625290199209e-01 3.563917977132716186e-01
-2.684754094040500694e-01 -1.526164386918251459e-01 -4.916625367244562006e-02
-2.261627806412545016e-01 -6.834219415275428755e-01 -3.355503456575367749e-01
-2.444211027255576707e-01 -2.853524536094902420e-01 -1.266489747828466184e-01
4.592611037872608160e-01 3.714934107803224972e-02 -2.703187058304849510e-01
-6.930624700964340690e-01 4.150733834542156275e-01 4.223278154401935991e-01
-2.302579231753153211e-01 -5.254032600541957976e-01 -2.539974179816084088e-01
-2.676139381224773017e-01 -7.325838599801477447e-01 -3.423147144563392641e-01
2.787713747540051523e-01 6.369135157598819763e-01 1.110561065968432432e-01
-2.197515434427352587e-01 -5.064598155564259407e-01 -2.490103808865608837e-01
1.253465511699910218e-01 -3.185804922646284787e-01 -3.044661998739524589e-01
-1.618778923434879558e-01 5.809098558115614042e-01 2.746990683309000758e-01
4.346915084637660853e-01 -4.709701561581685070e-01 -5.161217390221843893e-01
3.683601876758194615e-01 6.836229726539034823e-01 9.561725376657205511e-02
-4.351657572987124856e-02 -4.676384552523679128e-01 -3.061678656271386578e-01
1.388009511796534090e-01 -4.906678864167168808e-01 -3.971973511792455391e-01
7.639493736913751665e-01 -2.525570051610386280e-01 -5.492649510994620510e-01
1.052535617915514310e-01 -1.631343063231659868e-02 -1.431277924814123581e-01
-7.057659657084648375e-01 3.468948337501582269e-01 3.934433130361359998e-01
-3.381660903643552984e-01 -3.447269959069539369e-01 -1.157934601707172884e-01
-4.409890539776583629e-01 -1.874973958724479861e-01 8.359652838407756817e-03
-3.404387546310552182e-01 6.050302887860289358e-01 3.646431776693483950e-01
-5.144639866899693992e-01 -7.945753655261643678e-01 -2.660990518745267597e-01
2.311395904162484860e-01 6.605152643072695895e-01 1.437153766888821238e-01
5.314338845232177144e-01 -3.427598007368563016e-01 -4.935336972794341914e-01
-3.625932636384204266e-01 -3.649594818264966234e-01 -1.153683521800466794e-01
6.420361376170929946e-01 1.570192158994256765e-02 -3.607488324087065878e-01
4.162979863432161309e-01 -2.130585529516760279e-01 -3.779145659828238024e-01
-7.163210287693808631e-01 3.631249240662736133e-01 4.062334256724061676e-01
-4.607937198607078844e-01 -3.532283813033473274e-01 -6.667753669621505341e-02
2.677362779827087147e-01 8.859887593335866729e-01 2.415978135481652023e-01
-1.495449193069541549e-01 -6.522420764645071589e-01 -3.531795042930561124e-01
-6.624607615007708228e-01 2.913288350896810486e-01 3.465325122251314283e-01
-6.956585485267600122e-01 1.973432847963770553e-01 3.135461760463788550e-01
-4.028036947902969844e-01 -1.688343561369282375e-01 1.150226889368164253e-03
1.182394039283724552e-01 -6.592969809819564375e-01 -4.733678933292908009e-01
-5.773075898152866259e-01 4.566425508149194457e-01 3.928980942325799863e-01
-2.376810136419486297e-01 -2.051169488974096400e-01 -8.908078482128273246e-02
-7.130829159502262427e-02 4.951710955704968775e-01 1.919718922097304603e-01
1.790329186361237779e-01 3.076006318484463264e-01 -1.174560225247060774e-02
1.925251332642485824e-01 8.739190343012558371e-01 2.682612976366197111e-01
-2.250728327526604344e-01 1.580709701857045402e-01 8.876886552236357142e-02
-1.485438662865232462e-01 6.839977152551240946e-01 3.209315218676402348e-01
2.097018677746634585e-01 -2.087626804947803061e-01 -2.857680103559214757e-01
2.122830351083974665e-01 6.748815609995352238e-01 1.591801426810099118e-01
9.089880590885547618e-02 4.130094118007009429e-01 7.985047552557145156e-02
1.255817540216425665e-01 1.864553684663417532e-01 -4.962155900825031274e-02
-4.670649281053677049e-01 1.314875210871452593e-01 1.807430994552254311e-01
-7.087565705332274923e-01 3.998912395428259048e-01 4.214989065737512197e-01
4.386351350000340932e-01 -3.544276862606151463e-02 -2.979807746798499024e-01
8.972619510304184753e-02 -2.682552815796383494e-01 -2.635479507314313352e-01
-6.064673272060689957e-01 8.542070938138689173e-02 2.182014719956970883e-01
-6.056832289674317638e-01 5.258786128755145173e-01 4.402074657185917061e-01
3.188004459811305535e-01 4.092384574975859723e-01 -2.131020230423687906e-02
-5.432803002908201950e-01 -5.532952926623452283e-01 -1.317482437365375680e-01
2.565480162625520810e-01 3.301419489704484067e-01 -3.412635461827882161e-02
2.822745215112634765e-01 -5.627987632723768785e-01 -4.960961817591575396e-01
1.258451903377849068e-01 6.280051345922081918e-01 1.731623794708495312e-01
6.240631494093921150e-01 -3.978735455386967490e-01 -5.616981009498601685e-01
5.935049978293042150e-01 4.611607175804685044e-01 -1.147402763186953778e-01
-2.397584004083457287e-01 -6.698028944104734705e-01 -3.227540722073277135e-01
-5.261877133131989126e-01 3.597512279449154859e-01 3.217223706006998030e-01
-1.891933591599800207e-02 -3.455984942658307801e-01 -2.552736256401085257e-01
8.501720085891419088e-02 1.631106814800295512e-01 -4.373927415597608781e-02
-2.353569778107320321e-01 -3.100978305560965764e-01 -1.430883458454372259e-01
-4.176991072087180568e-01 6.173677978819360757e-01 4.045201570521838597e-01
-4.880108125685346243e-01 5.788243233822644163e-01 4.156855989555243158e-01
5.028993613687003927e-01 -1.010344234223075899e-01 -3.590808221007148471e-01
-2.117166180287740340e-01 1.437531622464160164e-01 7.572411781809372522e-02
1.079506556810652107e-01 6.801239312528444270e-01 2.072659944678859056e-01
-6.758553149290279505e-01 -1.957760291453775059e-02 1.954175541687731277e-01
4.780840683902192745e-01 -5.298852961699421771e-01 -5.647612650574913573e-01
5.322097337080718971e-01 7.294685517936162489e-01 4.739983560182259303e-02
-1.447529266066478401e-02 -1.393075365275398816e-03 -8.345083514331316787e-02
-5.809126511605071652e-01 2.860088070786016012e-01 3.083305969416426096e-01
-6.598404812947388232e-01 -3.870692951292621919e-01 2.929253085886821678e-03
9.048929658643062313e-02 1.477997577546996677e-01 -5.385161860783205245e-02
5.705471633889876160e-02 1.853689222087555669e-02 -1.045431614732875991e-01
6.921482382196142424e-01 -3.019263130325910982e-01 -5.429158111674634579e-01
3.418384260946812914e-01 4.868857259150435879e-01 7.853267102059753590e-03
-3.469091443986868639e-01 2.277835958794255378e-01 1.770233529055900978e-01
6.340400422776948375e-01 -1.690806885552646188e-01 -4.505464078926232907e-01
-3.712557467440906755e-01 -5.332490737657252788e-01 -1.965498604745690159e-01
4.928770273582626649e-01 -3.641706023931206571e-01 -4.875495716326309625e-01
-6.908285802851802382e-01 -2.255942428456449850e-02 2.004335459764413074e-01
6.034533872220074757e-01 -2.093392927512593149e-01 -4.575480679531603312e-01
3.922633313226896457e-01 -4.049607429752243859e-01 -4.643209676655242757e-01
3.344975490896939102e-02 -5.265395084597267461e-01 -3.694225266280045106e-01
-4.941578709835797723e-01 -1.195852317518524000e-01 6.579877827040818417e-02
-6.026290003026830711e-01 -5.946092767681409458e-02 1.433921036127279169e-01
-3.678158463036281245e-01 5.542464148378178912e-01 3.509304098241672887e-01
-2.007615813701584540e-01 5.811342793666837009e-02 2.772113425914851312e-02
3.298197213311495624e-01 -3.480360074049186903e-01 -4.083889920056001377e-01
-5.090102947358355473e-02 8.161017113259785849e-02 -2.568562743857045680e-02
-6.482884588164903317e-01 3.420026184492940269e-01 3.659407326358988799e-01
-3.365013824616848725e-01 -1.636277336209466804e-01 -2.509779187042790113e-02
-6.175689902872278925e-01 -6.857918864806139547e-02 1.452958679717352153e-01
-7.359474350646869611e-01 3.251331054351135896e-01 3.956025892805916100e-01
4.273762046221834046e-03 6.583607790000858134e-03 -8.758982550518143451e-02
-4.651044765245215817e-01 -3.973114537170481797e-01 -8.705365982871181296e-02
-3.642143108800821039e-01 1.436536786423020517e-01 1.420905897949352181e-01
5.705499731434161559e-01 3.158941016814122982e-01 -1.780747877131884649e-01
-5.660127532748550072e-01 -5.317930495788228962e-01 -1.109931279507526958e-01
-4.531634883368669819e-01 4.055941970125671037e-01 3.130604129651707868e-01
4.080163441590362039e-01 -4.856522478375743801e-01 -5.119156790622645392e-01
-5.409548097690982660e-01 1.607132633503489394e-01 2.276774979935346221e-01
5.747531397433444100e-01 -1.346921670008071337e-01 -4.073657628821640286e-01
-7.632165935910392718e-02 -1.512719945616985417e-01 -1.321754966226238170e-01
2.445914433971298207e-01 4.307593051439663756e-01 2.187367494815511265e-02
4.583258584728265861e-01 4.870688941015736129e-01 -4.278755959635304612e-02
4.197678768867132426e-01 -3.534689723506013181e-01 -4.503063560729044790e-01
-3.710120999976543876e-01 -1.776022864103911636e-01 -1.712197307158372719e-02
-1.749429889053995268e-01 7.312577740035957063e-01 3.562863662801030173e-01
-4.287641332634236635e-01 -8.465950821684996574e-01 -3.296836216074405246e-01
3.857283366078030351e-01 9.661223827700675393e-02 -2.082758262039770547e-01
-3.975698362743078640e-01 -9.750941348759387117e-02 3.487627973778659879e-02
-2.546721999370311074e-01 -4.379257727585672555e-01 -1.992048711853734444e-01
2.340850450805312399e-01 2.725795157845524175e-01 -5.340123260884754169e-02
-7.211482183822561787e-01 3.950131337572048151e-01 4.244332740839770191e-01
-1.744650874973091847e-01 1.756740048466792770e-01 7.561406791237836045e-02
3.048286225157766371e-01 1.313204157489104851e-01 -1.555208769072635999e-01
2.086282280040079040e-01 -3.077140002124855167e-01 -3.352520134473416236e-01
-1.240521530770855585e-01 1.172039233862383900e-01 2.414165702033208016e-02
-2.521610494008100570e-02 1.019961295413619462e-01 -2.658104423217996434e-02
-1.605379496049008092e-01 -5.431888992534332772e-01 -2.933406368895820626e-01
-2.900478839240120399e-01 -7.165905043068239166e-01 -3.244705469094789629e-01
-1.276607903243180964e-01 -1.043650356465261088e-02 -3.872083301610268480e-02
-2.770212422405519126e-01 6.345667592480901398e-01 3.519335108745154095e-01
3.411990625673058664e-01 -4.220745292087975109e-01 -4.507203648293169329e-01
-9.477339594545614032e-02 6.136287524546538696e-01 2.619901446593558836e-01
-4.082512434475287777e-01 -3.044369974380735089e-01 -6.493077387490003849e-02
3.103988853042134455e-01 -3.829930971335765433e-01 -4.175773985237525299e-01
-1.123308156376153083e-01 5.388361322712691415e-01 2.318808038889224044e-01
6.178828357969416984e-01 1.275740572406357520e-01 -2.937552881437488494e-01
-1.716934889431653288e-01 5.801142452066367916e-01 2.785723826324271735e-01
3.388303221110103847e-01 -6.206029138801419931e-01 -5.499078014112387391e-01
2.016100453798765069e-01 3.362686132487521240e-01 -7.106645875165334275e-03
4.690752528538483790e-01 1.377071680057091740e-01 -2.238304400990334952e-01
-5.517160483201433152e-01 2.569668233661518419e-01 2.809540412378324081e-01
2.900468833348987530e-01 5.045055682210464187e-01 3.930449445177753437e-02
-3.666367521233243609e-01 4.715936805986177260e-01 3.086929693034402566e-01
-3.708917950647994122e-01 -4.705483713263482470e-01 -1.650564385713249316e-01
-6.289849213045951570e-01 4.447824974887785165e-01 4.094178378852673106e-01
-2.757870291930116236e-01 2.513896059761847740e-02 4.375082268632629612e-02
-2.311059058697671198e-01 1.734232028114109925e-01 9.914638328682383317e-02
4.128073262440407759e-02 5.398442689991188141e-03 -1.043056020482191343e-01
5.326152902707289583e-01 -1.045025180388392816e-01 -3.737736065922890871e-01
3.100697986612062709e-02 6.901051658320285220e-01 2.458155823355372138e-01
6.043557734940090409e-01 3.106638301007897396e-01 -1.954383813686406957e-01
4.723414725512151691e-01 -1.602107816695921283e-01 -3.756448792135389514e-01
1.010695883694350677e-01 -3.546722959290564692e-01 -3.121124522660633782e-01
2.388528364554898809e-01 -2.811466881484975811e-01 -3.350041718662567503e-01
6.652394241622485715e-01 1.390438869266088506e-01 -3.085902250714737116e-01
-6.473430831956560570e-03 5.573189492785128873e-01 1.951074810434867968e-01
4.570673257775415554e-01 9.462896467967969460e-01 1.895797238835541243e-01
4.384124323828261227e-01 -2.560859684811402359e-01 -4.092666428519414756e-01
5.602476705920282907e-01 -2.979901985676456158e-02 -3.480971616067015661e-01
4.118494555115188582e-01 -5.901332084589833160e-01 -5.663281164702669290e-01
1.521883152267042016e-01 2.830366970147783490e-01 -1.245419895095275370e-02
-2.044359141580463779e-01 7.107755502467493214e-01 3.587916702519689527e-01
1.888888947919602213e-01 -8.495098261778734339e-02 -2.142020571232590154e-01
-4.027858496907930075e-01 4.322499144350187561e-01 3.045757161786706302e-01
6.001987160355890527e-01 -1.765283991196695684e-02 -3.593653646433391247e-01
2.357578387872523440e-02 2.959126714088574084e-01 5.005980600366170125e-02
-2.490805671199599891e-01 -2.239186917018780032e-01 -9.360728922176146660e-02
-6.082200653810323487e-01 3.335278107208040632e-01 3.442117437889305465e-01
-4.518390291013846261e-01 4.743241835773622239e-01 3.471791509904758599e-01
-3.634245266185798795e-01 6.566988459260566513e-01 4.007368729531518015e-01
-7.528070922373648610e-01 4.054862040399443979e-01 4.435084421161226698e-01
-4.516764110324644199e-01 -2.199878422951716261e-01 -3.387223976968139604e-03
3.186152232385122685e-01 -4.106582681064742113e-01 -4.351214772018164867e-01
2.228256983425410676e-01 -1.348730039045098195e-01 -2.541835415898952011e-01
-6.075543883578674587e-01 -2.606447821480683547e-01 4.397764591789554006e-02
7.027949721248530901e-01 -2.087648861199762340e-01 -5.005239332750642811e-01
2.424939135699945639e-02 -3.740722569208735360e-01 -2.884485595823156334e-01
-2.308045668988668864e-01 -4.514075165853004279e-01 -2.164055602284100377e-01
-3.389689972331287326e-01 -6.561120361508149083e-03 5.526569192659584739e-02
1.236508450745873317e-01 7.109717288338039953e-01 2.160004277367215120e-01
3.364643730595417437e-01 -1.234029442811816618e-01 -2.978859266047892418e-01
-2.159186804263500958e-01 -3.233374684061985360e-01 -1.582377270862529717e-01
-6.631464760645933154e-01 -2.617912412755654117e-01 6.761069512263249981e-02
-1.230516944549718411e-01 2.471495158959076122e-01 8.930374663768955723e-02
-6.398363927257760819e-01 -1.979610892569846903e-01 8.968064005580951570e-02
-3.560543772357988579e-01 -5.630400955832883803e-01 -2.182092516431363427e-01
3.018408758527921232e-01 3.451210165663779472e-01 -4.629098638193581555e-02
-3.464995547229877682e-01 3.726807935388633530e-01 2.499904988158525021e-01
-4.271824593870303111e-01 -8.545145043882543812e-01 -3.343702838722518722e-01
-2.885637798129578324e-01 -3.667526797574039432e-01 -1.485153324458048929e-01
-5.316323030973824776e-02 4.503185091400201956e-01 1.614272208880179471e-01
3.012298796726311512e-01 -3.348501695779865783e-01 -3.892810351489353060e-01
2.421086466538517334e-01 6.606891910666931045e-01 1.390258687308026375e-01
-2.451330827866364526e-01 6.871166064058340517e-01 3.645730726159986945e-01
-7.058571801387851785e-01 1.991755953972951937e-02 2.284216900838394460e-01
8.674153461474659599e-02 5.585836856710172382e-01 1.551484023320061356e-01
-2.054221164184721615e-01 -1.785074911146848076e-01 -8.969765307916188757e-02
-3.128780721746301507e-01 -2.400729156498157824e-01 -7.397663591259427684e-02
1.358960887011561036e-01 -4.748192476125441264e-01 -3.879316593850883343e-01
-6.706875568813510657e-01 5.211644937546270340e-01 4.661387992362003296e-01
-3.343241205071322275e-01 -2.391229916373731612e-01 -6.415679578381425219e-02
-5.525814122813106632e-02 7.824013004665454352e-01 3.299782733489587949e-01
-3.264623238787286441e-01 -8.576927184252900460e-01 -3.798409035452120497e-01
1.572223300090973830e-01 3.998298471757186223e-01 4.431169009220826266e-02
1.660185073672619804e-01 3.033824373541424424e-01 -8.206875433252325269e-03
-6.215708431687558821e-01 3.011684042038010323e-01 3.336910058744422258e-01
1.297597440519283885e-01 -1.272918796714707368e-01 -2.098238835060192431e-01
4.482616233608285317e-01 4.857490609254270786e-01 -3.907058950555462179e-02
2.285047678157502427e-01 -4.264026097058509213e-01 -4.038239403111578141e-01
3.321499395415902223e-01 1.599955662806070433e-01 -1.529445191418324912e-01
-3.162631216146748470e-01 -4.801834981952127768e-01 -1.937125467560271153e-01
3.389518198869740928e-01 5.237231836093609871e-01 2.770637036226390390e-02
1.870427687165801267e-01 -1.443058158933245849e-01 -2.433609259990918428e-01
-4.690336411445999998e-01 1.381591915496676870e-01 1.849684499139270799e-01
-1.813327809804748114e-01 -2.411446633604943934e-02 -2.225006226607480556e-02
2.438393683063174236e-02 -6.328510541224889874e-01 -4.191412437731424911e-01
3.507657127075120007e-01 -4.204371012918783901e-01 -4.540602988321979505e-01
-5.559916215007658646e-01 4.241996230402940438e-02 1.745107949751254217e-01
3.403889737087843065e-02 7.382397768385554615e-01 2.687939296164311709e-01
-7.661875974196553918e-02 -1.694320760577085749e-01 -1.412134897571251935e-01
-2.800997350003016084e-01 3.507018286969638132e-01 2.099764607484804757e-01
-3.155570828634830516e-01 2.050879616031288377e-01 1.519117388668529134e-01
-3.886455813755242406e-01 2.506006159492408236e-01 2.067189079686372610e-01
2.006732839563257070e-02 -6.580745393173773605e-01 -4.299943128868827236e-01
5.293388923179110916e-01 9.286874361232703989e-02 -2.727116932219303402e-01
1.429385977859944645e-01 -6.642396092433027199e-01 -4.866201189727465959e-01
1.343762316942861967e-01 6.680141573453499682e-01 1.896438389839080474e-01
2.129812652508420168e-01 9.503270440686382992e-02 -1.338373697352909231e-01
-1.053790704664172989e-01 -2.329418574727524227e-01 -1.607479933608061407e-01
-4.639710701243351942e-01 -2.199127311480351954e-01 2.005335122849311470e-03
-2.853798317015941999e-01 2.770834731432507692e-01 1.751128083991245199e-01
1.524103970340216774e-01 7.331137896964284861e-01 2.146524289383660855e-01
2.956349722602000241e-01 4.759393578190902474e-01 2.245023266289852826e-02
-5.805554937603697452e-01 -6.227730207000140572e-01 -1.505869737646376161e-01
-2.737166445319175190e-01 3.741006438955368218e-01 2.190084120610121254e-01
2.466728802671802334e-01 -8.923661527752017875e-02 -2.415319079860585583e-01
-3.810012694448581261e-01 3.093396122373862772e-03 7.844552941248247868e-02
-4.618941458431172209e-01 -1.768764654164416417e-01 2.282591174984067994e-02
-1.062003798429240753e-01 -1.091544876340476422e-01 -9.790120809914810984e-02
4.490666078222453339e-01 -3.931367919628785401e-01 -4.830914178468456721e-01
-2.493534538609430418e-01 -2.969117440504251970e-01 -1.303360518906005738e-01
3.962939708114973647e-01 2.427587972772105585e-01 -1.391012106381948055e-01
-3.659607088983784506e-01 5.235413403654683995e-01 3.346222253874369668e-01
-1.607813664710251375e-02 6.945666662254380563e-01 2.685745786148691638e-01
4.031402623203831914e-01 -5.188888689750548178e-01 -5.265701929923002345e-01
1.612285269428913037e-01 -5.761890476007610618e-01 -4.501370655759363015e-01
-4.169754692785413996e-01 3.049454019836900232e-01 2.464910907639293602e-01
-4.861343843668574083e-01 -7.674560164968088349e-01 -2.647472123783262687e-01
-5.011302046526863174e-01 -9.251912372086938674e-02 8.249864801818827809e-02
5.968136381275953584e-01 3.808475412085476908e-01 -1.567241574328227249e-01
-2.823793362892749736e-01 -2.655911824692589462e-01 -1.001414972590937147e-01
-5.075872235105344243e-01 1.153099554575013896e-01 1.902250134271942228e-01
-4.191742808891126826e-01 2.167354393974865179e-01 2.029194720283471476e-01
-3.671257974489390841e-01 6.673438355684022660e-01 4.077225678377027207e-01
-4.721661770891489862e-01 -5.045469922025906939e-01 -1.381116627024712162e-01
-4.012238485922510756e-01 5.544018755917217156e-01 3.655589376283676084e-01
3.201961529263824824e-02 -4.154567300340543112e-01 -3.127239829417751693e-01
6.589181405157249483e-01 2.325575230070012211e-01 -2.586305377004842199e-01
3.574254616212693136e-01 7.896363949449671793e-01 1.538962299335885076e-01
-1.325368308651162508e-01 4.298136020449450090e-01 1.856453992253876140e-01
4.289728221235464441e-03 -1.579803251429165445e-01 -1.706702737134007664e-01
1.190498761385028609e-01 -5.058259462273628077e-02 -1.664358560453947089e-01
6.858930396538015506e-01 -4.628360857432683301e-02 -4.111405546479797724e-01
1.899374391865649436e-01 7.257720501666276025e-01 1.946022483409770576e-01
-7.530363414945914213e-01 1.121752159319537867e-01 2.955420097874115748e-01
2.724239339661876369e-01 -1.737984004807154315e-01 -2.954347805978670971e-01
4.881993256411145191e-03 -2.657300323422792099e-01 -2.253213341427475758e-01
-3.679493913612775779e-01 1.057529403203530116e-01 1.245846479389019212e-01
3.236320535037868762e-01 7.085485270824989357e-01 1.276801793074378855e-01
-6.484429223001042519e-01 1.898305164919599497e-01 2.891900293082456663e-01
-4.633045101991149495e-01 -2.493304575684826274e-01 -1.313532707905011240e-02
4.101901047732267602e-02 4.846683116176380146e-01 1.377485360233671186e-01
4.589502924525875049e-01 -1.586907805227650015e-01 -3.690453621284170427e-01
3.091821543519087112e-01 8.712507918087837311e-01 2.161071904647293151e-01
2.737467530539694147e-02 -5.913772282200513430e-01 -3.995073918973088278e-01
-2.999221497439540432e-02 4.730774772127785965e-01 1.628245952726193602e-01
-7.667578266024609179e-02 3.777270702000040115e-01 1.350226725011912376e-01
-1.809694887453905110e-01 5.522078649250871107e-01 2.685249049513197539e-01
-1.189888610896749910e-02 1.540569012713891017e-01 -6.100247278397862537e-03
3.922110470289562612e-01 -2.662062187066801533e-01 -3.942535457285641920e-01
-5.557451325602240644e-01 2.703697148715698551e-01 2.894747233766026828e-01
-3.943186670101459512e-01 5.590695374980783061e-01 3.649078340382260754e-01
-6.027009657266254455e-02 6.134121764566295987e-01 2.468537350485135451e-01
4.996157375250166455e-01 5.820832904771409133e-01 -1.280616730187205191e-02
-2.301528957733949832e-01 -5.636903055484360214e-01 -2.733708378791139815e-01
-2.370945542617993729e-01 3.523876983685277908e-01 1.920976350674188926e-01
-5.240651022122374547e-01 1.818852374856751164e-01 2.310094143188282378e-01
-3.425069470787606152e-01 2.532998141560867666e-01 1.879869203881806838e-01
-2.085244880486362973e-01 7.360576862736739612e-01 3.733350213346490754e-01
-2.419514340042343836e-01 -4.161247004522528048e-01 -1.937396979253701301e-01
-5.456896271503741680e-01 -1.357107536706880779e-01 8.010186953593813330e-02
6.351258311571215120e-01 -1.089148541679547527e-01 -4.206469911377158644e-01
2.869919549799086478e-01 4.457543514450673094e-01 1.097680181114422254e-02
4.083400051240212297e-02 1.502388657308374731e-01 -3.099416622231397633e-02
4.545463028172357367e-01 2.483617048058175125e-01 -1.616432060342779531e-01
2.253879215363076838e-01 7.521447574437701844e-01 1.924758481664110010e-01
4.808468187849508912e-01 -4.876448601040191816e-03 -3.009348760492183139e-01
-1.798839094417272189e-01 -6.737832987655825168e-01 -3.508403100643478489e-01
6.121399829222756717e-02 3.602968473995254300e-02 -9.752410242546612207e-02
-2.496409742004518373e-01 5.326624884816868466e-01 2.885664156891286636e-01
-3.745162354417315154e-01 1.889877904695098088e-01 1.694624508363462567e-01
-4.439886371296867251e-01 5.872931507130243478e-01 4.007879496077801917e-01
3.904887895653812863e-02 -2.882340016272382788e-01 -2.515621225846094711e-01
-6.052043434314274828e-01 2.753502367871520362e-01 3.135297063741432910e-01
1.817261009779014280e-02 4.139968160101294148e-02 -7.606763652453546465e-02
-4.407404721212107579e-01 -4.761021815484660635e-01 -1.374391499576106401e-01
6.368676484747592959e-01 -3.567597875261950269e-01 -5.465201616353099201e-01
2.381755054233209989e-01 3.215570450462712504e-01 -3.045839469267827213e-02
-6.018134453494023983e-01 -6.441555721580151106e-01 -1.521227082591776469e-01
-2.328785177435207798e-01 4.189559258235995287e-01 2.238657390495099320e-01
2.938728208145782728e-01 -3.188759603987151303e-02 -2.331383538757811624e-01
-6.599403905517471358e-01 7.423935590177802024e-02 2.358459177187788025e-01
3.468486505358633343e-01 3.053658311371891809e-01 -8.596184642456866642e-02
5.572262252625904688e-01 -5.941326977598994363e-02 -3.617308090630801387e-01
-8.434842993891032703e-02 -4.247918440914901783e-01 -2.667551448706554917e-01
-7.937748605679862957e-01 3.048231592166070203e-01 4.105352688819260409e-01
-4.728662645299889222e-01 -1.752532857503239644e-02 1.080465771309611633e-01
-3.373372227577172144e-01 -3.868312423580282378e-01 -1.374090918599684408e-01
-1.365193790413272157e-01 -5.748241312707620398e-01 -3.197711228070513889e-01
-5.676877784005098793e-01 -1.867739147082675133e-01 6.390544704151004951e-02
-3.113673684752261139e-01 -4.491800824721636776e-01 -1.801939442799850299e-01
-4.719159944530424422e-01 -8.082636740439482770e-01 -2.915397967367014398e-01
5.976456926820039595e-01 8.520058364314422872e-03 -3.450411200049232074e-01
3.784662910262882179e-02 6.334978118984980755e-01 2.142607881388439994e-01
4.059182375382717339e-02 -6.384956746023346952e-01 -4.290496580566684481e-01
2.195677406968136458e-01 2.494449462894250680e-01 -5.875712939200473939e-02
3.496819197500013465e-01 8.189593585841319356e-01 1.720712637584611016e-01
-5.729297048129199377e-01 -5.383056267086012703e-01 -1.112682296198904408e-01
-7.079518560473198330e-02 -1.741618813785309611e-02 -6.701068923573891278e-02
-4.721629864994607018e-01 -4.453332464153010317e-01 -1.082213700765497083e-01
-1.457191516330680892e-01 5.566038121537234540e-01 2.553915882341205035e-01
-4.574226356092825907e-01 -6.374690102767464062e-01 -2.116332008074324478e-01
1.317565842962826472e-01 9.583379156321820969e-02 -9.805752218173567625e-02
7.568581015148230229e-01 -4.431905198603388052e-01 -6.424101947483822350e-01
-6.013259274065743121e-01 -3.107597997737456333e-02 1.571535828689768211e-01
1.694214748544863591e-01 -6.744835367951458327e-01 -5.033253329279104848e-01
-2.685674075160291996e-01 4.540494844776201688e-01 2.571247483966673797e-01
-1.777985172900857502e-01 1.157243057002948911e-01 4.680266414897329280e-02
6.997073486006990528e-01 -4.259235072146895784e-01 -6.088030045543240121e-01
3.960873943423164900e-01 7.221930891731745961e-01 1.030119123975488798e-01
2.233172861105689744e-01 7.680080395159804008e-01 2.013856045530515726e-01
-1.571808577482723401e-01 2.185044636112615513e-01 8.970757601843097617e-02
-8.740937248385478864e-02 -4.647586221261563177e-01 -2.855976484467124266e-01
3.204912635410461785e-01 -2.489713405774346411e-01 -3.543173874550394897e-01
3.384575061185176037e-01 -5.628620304120062201e-01 -5.205972635951626737e-01
-5.270327998440029749e-01 -4.593853396340089046e-01 -9.141778127841407309e-02
6.192192021293678461e-02 -6.044572850303778777e-01 -4.211565527629992367e-01
-3.140037749515897092e-01 -8.239344425955675844e-01 -3.682254138588483827e-01
1.395278527093437582e-01 2.357034665445716659e-01 -3.083452087721924237e-02
7.318078501071255404e-02 6.661293026187589117e-01 2.153445466801727215e-01
-2.429130313302366451e-01 2.974464404381317872e-01 1.668968441780279144e-01
5.286294057674689739e-01 -3.671102634444315949e-01 -5.046046276543336706e-01
-4.345118721514515947e-01 -4.728287157414049480e-01 -1.384993886695290444e-01
-6.586600424481260374e-01 1.365651784804389549e-02 2.047054795070016864e-01
-3.422504226232855329e-01 -2.772492697650863480e-02 4.601113954410080559e-02
-6.206211601836183478e-01 -9.870548764952809251e-02 1.314171144383939893e-01
6.129914991330546181e-01 5.698871595800782813e-02 -3.272571600681241644e-01
2.049436454334730984e-01 -3.958723298805154611e-01 -3.781504756684295754e-01
8.863459965468549473e-02 8.331524709307067122e-02 -8.559626633276243290e-02
-4.202596131397243751e-01 -4.535935606293221012e-01 -1.349965205619540198e-01
-5.294071101793431655e-01 -4.128357487037061235e-02 1.206781820565280827e-01
-1.678577787289138312e-01 6.201382407698807775e-01 2.971063388075625977e-01
4.899810670558906595e-02 7.700598009333924354e-01 2.783418684013767019e-01
2.766882989413775307e-01 -6.492194271693793040e-01 -5.372892397414427146e-01
-2.534213945826296888e-01 -1.438850192041129239e-01 -5.131496019098593514e-02
4.156121094221896795e-01 9.483990088104965466e-01 2.086993703015536106e-01
4.637501823722152139e-01 2.492253761267189307e-03 -2.897690548409649347e-01
-6.695313842873888699e-02 7.627541001783972874e-01 3.251536470698542791e-01
-4.344713167582686664e-01 -2.962952135530031450e-01 -4.940120059028833832e-02
-3.452938923210726596e-01 5.959260301505777541e-02 9.141539870811225821e-02
-3.465775325537243656e-01 7.767915533933139258e-03 6.581284446846914771e-02
-3.786044319513407475e-01 -3.665762532062026291e-01 -1.092112360882981914e-01
-5.697760114826337929e-01 -4.278393070612693944e-02 1.375024890215550410e-01
1.380898775317259131e-01 -6.758589314049912034e-01 -4.903739240978466918e-01
-4.522077508112859467e-01 -7.970428075143661806e-01 -2.944588429790307438e-01
-1.797894464077963994e-01 2.435384429554126318e-01 1.121916009417831678e-01
3.885767806484090592e-01 -2.913595526525557533e-01 -4.053683794262468720e-01
1.749658408211782479e-01 5.845687261896529430e-01 1.298419379430081344e-01
6.921714373996060155e-02 -8.796988107076861296e-02 -1.636058817981461688e-01
-3.098872375774451293e-01 1.114023049845997149e-01 1.021489321005116940e-01
3.894192214155644538e-01 5.081771533097929616e-01 -2.121278478242928211e-03
-6.865300729519753231e-01 5.206007843218379838e-01 4.727540589561760598e-01
-6.085805342574539950e-02 3.647185823824301565e-01 1.215668292130915873e-01
-2.153908619477270525e-01 5.240698708898278158e-01 2.693119673101233569e-01
-8.536016034135741892e-02 3.439422838628307666e-01 1.217500507863254755e-01
-1.723297897563219050e-01 -8.153768835400930781e-01 -4.256081611937814202e-01
-3.612126299653508621e-01 2.810656549693184014e-01 2.101501994120862915e-01
5.039661904892344113e-01 -3.972290200385160674e-01 -5.090674040913367726e-01
-3.494283983562505164e-02 3.503001088818167297e-01 1.030014954754283757e-01
5.095423077465497386e-01 2.951694856777065668e-01 -1.619663607178249698e-01
-1.676988817806269183e-01 -6.771760760690938019e-01 -3.578599123978291052e-01
-6.740592274529541017e-01 4.053873070915823273e-01 4.091617846457528129e-01
2.846398796599150516e-01 -6.232778910915829362e-01 -5.276568159803957103e-01
-9.428792224302863512e-02 3.410155432380945761e-01 1.241608746687969667e-01
-3.729068998752012587e-01 2.271012027475610151e-01 1.880015695307867274e-01
-5.116475395408840443e-01 -1.458637809945099173e-01 6.015031106841126074e-02
-3.972764890653065484e-01 -5.907995563694021790e-01 -2.142692042778603645e-01
6.902351005819269414e-01 -7.768859700919955591e-02 -4.288851821104763262e-01
4.566463372233574569e-01 -2.050313957480156268e-01 -3.914351290781761250e-01
4.246458816406086245e-01 -3.175630956538193911e-02 -2.900271319124285152e-01
-2.717138611546218718e-01 -4.656891283521827352e-01 -2.057980020527796494e-01
-4.943420494775928042e-01 -2.634535304879808693e-01 -6.747141731158954464e-03
2.324954903964806044e-02 -6.201059720484446425e-01 -4.122133455416374659e-01
3.476206695076902720e-01 3.386302964523393855e-01 -6.950585087684077457e-02
7.269672080818614934e-02 -2.722180674731959349e-01 -2.581316272661626221e-01
-2.735216391695692861e-01 -5.852353218698966852e-01 -2.653587641194665170e-01
1.383542210628830038e-01 6.945994649303118829e-01 2.013318468237573211e-01
-5.579768270367555516e-01 3.022544069639058195e-01 3.065423907595948294e-01
2.855229653857870309e-01 5.628852786909808170e-01 7.074543077528863688e-02
-4.518365046538618673e-02 2.635568082032189313e-02 -5.606870501993564682e-02
-4.698213422864261357e-02 4.820692948386347543e-01 1.747633029711872510e-01
-9.128875435214679757e-02 -1.160973073975611614e-01 -1.079004107656277439e-01
4.413990792561674481e-01 -4.997936578411514841e-01 -5.335934473126715538e-01
-2.451690106118301071e-01 1.436789017135680843e-02 2.497854065790093211e-02
-4.722322487493861298e-01 6.144244545909353233e-02 1.476341571221827798e-01
6.237017593578957075e-02 5.127129010598312497e-01 1.426067358698099030e-01
-2.288458497952081672e-01 5.231603126008105287e-01 2.747128087836658294e-01
3.915856030510724284e-01 -3.522327290475513739e-01 -4.374081785876429151e-01
-5.585467003041005851e-01 4.785432363945594375e-02 1.783669170642342705e-01
-3.772998989982386253e-01 -5.279110271168914459e-02 4.862244123106741062e-02
1.034726612505429688e-01 -5.656881614476193948e-02 -1.626734793790187705e-01
4.975311516667216272e-01 6.666992573719967563e-01 3.081669746625744985e-02
-2.578029645946084414e-01 -7.907305941399473959e-01 -3.759406915908835578e-01
-1.412197998080956807e-01 -1.797733181599370234e-01 -1.182984256512712301e-01
-3.636142185097225865e-01 4.841303900702688123e-01 3.137052321286861734e-01
-4.081778756461926783e-01 -7.711812785295327766e-01 -3.005798386198199057e-01
6.112777770743795802e-01 3.071663738575374225e-01 -2.002186434539980631e-01
2.149450982364818630e-01 -3.221790519368838424e-01 -3.453052745420308600e-01
-9.940608968847677515e-03 -5.958177190558572311e-01 -3.854972232965152568e-01
-4.313111052485446018e-01 3.132130103535322729e-01 2.569082014254459589e-01
-6.614955277828973856e-02 7.002002073187860720e-01 2.932258433626973027e-01
1.077737979602788609e-01 2.865681524611201625e-01 8.672186382726579726e-03
4.353328735650460052e-02 7.734425482797053775e-01 2.824295828570127509e-01
1.524845470901780020e-01 4.102633799142642035e-01 5.164206729082084640e-02
-4.492791144970686434e-01 1.106252028737917115e-01 1.624654135282816159e-01
-4.435413849579248335e-01 -7.704393705306067375e-01 -2.848035925467635732e-01
-1.178554567087159409e-02 5.708754515871538454e-02 -5.510069622002648770e-02
-2.155555908183887925e-01 3.000059580751304189e-01 1.562740404701511154e-01
6.380733765596235951e-01 -5.917138581657185176e-02 -3.968197305853741752e-01
-2.242567040086069878e-03 -5.101372123620695476e-01 -3.455975559522389551e-01
4.079894761029789763e-01 9.575970881846200822e-01 2.166625054877728551e-01
-7.626626560163104473e-01 3.163880045748669878e-01 4.028231464000472384e-01
-7.327038060384249984e-01 -4.094349343515404221e-02 2.093908314179430685e-01
-1.793014614534088266e-02 6.487111913347634040e-01 2.462328812219066188e-01
-1.914860623363706105e-01 4.207185350376861366e-01 2.067280358689034536e-01
-4.846221405566482621e-01 6.116741475767899505e-01 4.307926594559300937e-01
4.378020370327190824e-01 9.579257257466929909e-01 2.038442630538346845e-01
-4.490097097794409908e-01 -3.959388541919794391e-01 -9.337044555906424959e-02
4.611102230616130337e-01 5.072828414718782986e-01 -3.379602267375664965e-02
-1.277101098982928729e-01 4.001045008938828862e-01 1.685457903794462531e-01
5.125630504132842047e-01 5.563579652109430507e-01 -3.143145479963817268e-02
-3.691824604828077283e-01 -2.704498524493681444e-01 -6.478919444898857682e-02
3.244571014133639797e-01 5.981027525397794031e-01 7.156673455635274850e-02
2.256386989484961969e-01 -2.206439946781367789e-01 -2.987067172665088810e-01
5.534856859375257843e-01 4.064308600387806503e-01 -1.249390014356824702e-01
-3.494084701145322436e-01 -4.307918029140616056e-01 -1.543434752409838240e-01
-5.729073334794343442e-01 -9.920037588357219493e-02 1.103866834928529106e-01
2.604848181158740950e-01 -4.626386635539014858e-01 -4.360443969026162603e-01
-4.886247122604864268e-01 1.715478919418600701e-01 2.103558133362442017e-01
4.253869856317851195e-01 -1.766432675066059166e-01 -3.634902655869801658e-01
6.032908717432763912e-02 -4.007132542231722078e-02 -1.355552403593776878e-01
-5.539494480970452717e-01 5.019104623197934156e-01 4.055767066227056739e-01
2.311240089823795862e-01 7.157093308849642455e-01 1.715846713525566170e-01
-2.258828650606498067e-01 2.470663009441970703e-01 3.125850080644391737e-01
-4.687996890837476394e-01 -4.979343141181359900e-01 4.229792249137339505e-02
-1.233728339840552829e-01 -8.029683136548024236e-02 1.026831021326298360e-01
-6.929880499276495076e-01 3.037013041691944970e-01 5.446113135519590198e-01
-6.663191964255634758e-01 -3.749362126413629398e-02 3.607577779930339346e-01
-6.646025353963295190e-01 4.553765062642694400e-02 4.019251317057307982e-01
-8.067395032318225301e-02 -7.931839006047073370e-01 -2.757857823323789925e-01
5.152291617394714196e-01 -4.762454291772996173e-01 -3.753233485271285086e-01
-2.595058152375744887e-01 2.697231881030371925e-01 3.386660929566437384e-01
4.296107973964115589e-01 4.921658374543042558e-01 1.508292127532910032e-01
3.216632777446672142e-02 -4.913272993962528590e-01 -1.725504580556845857e-01
1.013253176293044400e-01 -1.341828261574712911e-01 -2.238093969947266629e-02
4.853975253007634660e-01 -8.102104256217797229e-02 -1.628177348690018067e-01
3.520652114829883605e-01 -6.493869439551305245e-01 -3.916647674180345762e-01
3.283824896591779896e-01 -1.526945399936363024e-01 -1.306151104688010600e-01
7.977587386538949332e-02 -4.098535550632573243e-01 -1.521568988714122328e-01
1.025745374807804644e-01 -3.040240279051568129e-01 -1.086625190897128751e-01
2.022004811170808880e-01 2.838757017927425741e-01 1.447253790467631640e-01
-6.656119649159744078e-01 4.530494257361473154e-01 6.080807230154432474e-01
1.249707405668797067e-02 7.280944172958196958e-01 4.515921065989746963e-01
-9.857156759058538498e-02 -7.579728334473938567e-01 -2.502160131962858358e-01
6.093027765108822713e-01 -5.201938793336878808e-01 -4.384804532256264542e-01
4.108497391114591113e-01 -9.757728931786141535e-02 -1.387080009538292080e-01
1.190618296014273880e-01 6.135515430456891517e-01 3.473580260551888954e-01
-4.015654680698071410e-01 2.581065657848791162e-01 3.946725632585872945e-01
4.464426365791328982e-02 1.539229551588518763e-01 1.477437630075390529e-01
3.289781104081901941e-01 4.094984948630378541e-01 1.529260636495143044e-01
6.651617243914936806e-02 -5.388214623740203990e-01 -2.114862258260021555e-01
-2.664175160979849744e-01 1.542439076244065399e-01 2.833812391589940471e-01
2.463851909720398969e-01 -4.049912150450470372e-01 -2.222650116190766634e-01
6.305342603696239001e-01 2.302235614402333430e-01 -6.890919722583303819e-02
-2.673630103594086815e-01 -2.800880195428082642e-01 6.453799078050176385e-02
-1.718902147866616659e-01 -3.070867636594524219e-01 9.327885215317252912e-03
-2.398759977504275887e-01 -4.083104222794869259e-02 1.733459645117674530e-01
-2.193973381367925191e-01 -7.060360159179523976e-01 -1.713750456950086931e-01
-4.386137171288784220e-01 -4.876983749001727042e-01 3.431835336757640270e-02
-1.807694781783358018e-01 -5.069910076359909201e-01 -8.771859745006899134e-02
-1.747059870208284016e-02 2.214710287720345894e-01 2.088953262636121244e-01
-1.490640051758076456e-01 2.644527791028110086e-01 2.879052717645890769e-01
-2.577239251207368853e-01 -7.590119989536011635e-01 -1.814256231928275676e-01
-1.678211340401531970e-01 -2.422597863700023113e-01 4.028099200230188248e-02
-1.802446564180701372e-01 -2.399139855653101561e-01 4.687594090706723865e-02
4.591089704051966591e-01 -2.015126272388585715e-01 -2.121937277473950056e-01
-1.258731531905916134e-01 6.188277752134995618e-02 1.755457230928398615e-01
4.174979538655508304e-01 -5.093687510795202877e-01 -3.494798571625162831e-01
5.616744707271149606e-01 -3.803453821144842650e-01 -3.471401942138946373e-01
6.752805991867658619e-01 2.039293241799882417e-01 -1.016709759376545757e-01
6.889837954690204436e-01 -7.172487167224592119e-02 -2.467920262329291459e-01
3.278061579842813655e-01 3.064340453116144447e-01 1.014085298031268956e-01
3.504103770009950325e-01 -4.585496891497241045e-01 -2.946075179342695360e-01
5.542585271899713728e-01 -2.557273901191389753e-01 -2.810019688412669359e-01
7.456110899642157674e-01 -4.432028196394414699e-01 -4.589804063525614874e-01
-2.513351388042918688e-01 3.372328075933330588e-02 2.159724737402598516e-01
9.736986095195912516e-02 2.640394287124384620e-01 1.803682813567752674e-01
-3.028495465573210477e-01 -5.030018122850781204e-01 -3.253578280385929083e-02
-3.541598854875477320e-01 -6.048774940350811757e-01 -6.161664991557772031e-02
7.595578748711236949e-01 -3.724175031643123246e-01 -4.293214670697600432e-01
-4.242674077640186114e-01 -5.865522145370146712e-01 -2.183222777628291214e-02
5.003914720160435037e-01 -5.234370243774094655e-02 -1.548713829404094189e-01
-7.218033987242467031e-02 -6.799997918971213418e-01 -2.223485164259524083e-01
-2.373305231254408398e-01 9.914555418219724026e-02 2.428989092589285137e-01
1.561591631406309411e-01 -7.201823926942899079e-02 -1.488120279674366719e-02
-3.949827862791145949e-01 4.161240122457481316e-01 4.715743986242937336e-01
-4.274106627084389154e-01 -7.889432106846745452e-01 -1.226322275774264087e-01
4.836355749843477825e-01 4.947153719760786217e-01 1.285870539526715317e-01
7.420646450737974353e-01 -4.034593776726916881e-01 -4.373729567789987893e-01
-6.144640158362409954e-01 -3.186894863925988086e-01 1.962230618140922977e-01
-6.555484527522971172e-01 -6.673008657572797320e-02 3.413079846392907957e-01
2.506130044887674435e-01 5.795705367150629783e-01 2.729101377441390808e-01
3.006449367541630391e-01 -6.413100673580559574e-01 -3.651926200064096739e-01
1.706709559020223865e-01 2.017917366412683849e-02 2.534069817236498517e-02
3.485723021301079805e-01 -5.247625433413592028e-02 -8.881711847666780291e-02
-9.169537390236726787e-03 -5.581715948186455334e-01 -1.882912777324982356e-01
7.297463695053618693e-02 6.688907419717501357e-01 3.953659640981996848e-01
4.007649805623552663e-01 1.965610043721050249e-01 1.416808073621161727e-02
6.647094806543936141e-01 -1.238027893862631151e-01 -2.625093797489057024e-01
-5.090216233645274979e-01 4.081395535749732240e-01 5.172106304067066729e-01
-3.860601103546322244e-01 -1.147102077746262327e-01 1.997179986028340126e-01
-4.716068537483517065e-01 -6.404314049071914150e-01 -2.841341986311603229e-02
1.315412668761357651e-01 2.455469100119873557e-02 4.459149477957319307e-02
-2.432498890407570336e-01 -1.997575791116028010e-01 9.458770002995678383e-02
5.131518900981730802e-01 -3.581061199080405322e-01 -3.147807558081552881e-01
2.489304765534255948e-02 -1.208250832576708567e-01 1.765041235139627393e-02
-7.659976595304660019e-02 -5.356553985962585474e-01 -1.475572702522086055e-01
1.836324876959745112e-01 4.547712357287282958e-01 2.390819698575061547e-01
2.052897022333041999e-01 4.286489887764710072e-01 2.164629247789417177e-01
6.270937807113480256e-01 -1.775361358768388076e-01 -2.732518914857917092e-01
6.302539520778109861e-01 4.881229072722518270e-01 6.140301472985960907e-02
-4.045263345605594196e-01 -9.369068316888623515e-01 -2.072924383209609200e-01
5.696736267312602076e-01 -4.453316986670781130e-01 -3.834297664934110395e-01
1.225751409200721703e-01 3.782306556040290202e-01 2.270355858269855198e-01
3.268093363840649523e-01 -1.797009577619235465e-01 -1.435630672399365315e-01
2.702010316208267038e-01 -2.998053831266375702e-01 -1.795385824609322667e-01
3.324763010285112230e-01 -5.240516150753837810e-02 -8.177100503062650905e-02
-6.437411358349007795e-01 -3.020466944324763925e-01 2.173754506786595431e-01
6.131972124034386074e-01 6.744201591177800825e-02 -1.435321919129305956e-01
-1.426151625580942238e-02 6.648700935802692724e-02 1.292602279926451936e-01
-9.452144929333505807e-02 -7.815622321845698828e-01 -2.638881054130771120e-01
-2.979520222958824127e-01 -4.060569778492346127e-01 1.426992608265840144e-02
3.040143488646096515e-01 -2.208366409869234048e-01 -1.544009583157373855e-01
3.830166273575554281e-01 5.554715127222330517e-01 2.030795083088063058e-01
-3.704908702708095691e-02 2.050601313006759907e-01 2.091378819587262072e-01
-4.022288473841200140e-01 3.230705223958103001e-01 4.277559274015572122e-01
-3.468176546203141086e-01 -2.733504902674684378e-01 1.025437160045296753e-01
-3.172721922976650677e-01 -9.019509208566547920e-03 2.231127857108087531e-01
-4.272465745899786671e-01 5.965911910216953329e-02 3.056791237771699365e-01
2.227570095811578776e-01 -7.312456518687140417e-01 -3.766707808273301317e-01
-5.313955908922979310e-01 -5.067963747801020880e-01 6.508640235078885783e-02
-7.267860254725480029e-01 1.529953060428935752e-01 4.832533341670887106e-01
6.388140603459170619e-02 -7.188033647477347632e-01 -3.011953542497823322e-01
4.588103029375292796e-01 3.699619387897009060e-01 7.642234040725114086e-02
1.401992496636684724e-02 6.397964386626828759e-01 4.063551761417860120e-01
2.474845595890930172e-01 1.722902708303619412e-01 6.867356598064516815e-02
1.303988420147814964e-01 4.073687495258064284e-01 2.383373583642080518e-01
-3.703619870951848497e-02 2.767478044956234728e-01 2.453209124138932551e-01
2.849198261307318500e-02 -7.488478614524686217e-01 -3.009491022940515847e-01
2.016981547356914983e-01 6.614684499987311117e-01 3.355566942900009009e-01
4.551768924837763519e-01 -2.181660011010626288e-01 -2.188879932243351922e-01
7.003608599037427496e-01 -1.634825582017785661e-01 -2.980672163623601101e-01
3.469689767121164059e-01 -8.944860119213095262e-02 -1.067828336812463169e-01
-6.673287731271116963e-01 -1.098536124627896848e-01 3.246694383744950230e-01
1.034906179630858646e-02 9.309860645643268373e-02 1.319754806402463343e-01
-4.130297096491811204e-01 -1.715947724138118524e-01 1.827480685190401022e-01
6.968744546239136195e-01 -6.060250849515307070e-02 -2.446139340236267445e-01
5.074587504062573196e-01 9.433691691723321282e-02 -8.390354394284058048e-02
2.421453737544297935e-01 8.675344375332602609e-02 2.781908663993466410e-02
-4.490578038658685212e-01 -1.884619753216981719e-01 1.899245058596833735e-01
-5.981408762299856852e-01 2.781823449529475800e-01 4.904206925017598473e-01
5.296470362820303590e-01 1.101752089917472782e-01 -8.557179086505654897e-02
5.135979245306345614e-02 -4.443424477582426091e-01 -1.571912927285097905e-01
5.217457967046410655e-02 5.445864038068533031e-01 3.416748729297076625e-01
-6.922719625138183952e-01 1.397836078284029606e-03 3.916936701515082442e-01
3.025745899454911070e-02 3.352044023905668690e-01 2.455222492412885149e-01
5.725602627284929191e-01 7.869300488117147996e-02 -1.201541384683124936e-01
6.594035420429802397e-01 -1.643189181993529382e-02 -2.059966193093242248e-01
4.895086918250984853e-01 7.191702702424058735e-01 2.393362033912237175e-01
1.889040482006721366e-01 1.169404950560205547e-01 6.624578282647454464e-02
-1.300639995158169304e-01 -6.789445104805188480e-01 -1.966059680140205268e-01
-6.675432616602000602e-01 2.338439680900000206e-01 4.982647782394093450e-01
-6.555726698909859484e-01 3.918892176398628968e-01 5.728340746293362207e-01
-5.533461946134100584e-01 -4.359834587215545287e-01 1.103935160420291273e-01
-7.518863267390332172e-01 2.834874041115296728e-01 5.600588616626072103e-01
5.439663507296188527e-01 9.484432593105833476e-02 -9.954740372803316806e-02
4.900637061957231477e-01 4.446650179834600314e-01 1.005215246727439032e-01
2.231684931694582763e-01 -2.756673477255761062e-02 -2.162594302442024177e-02
-5.101320233003495824e-02 -5.465333093383862861e-01 -1.641921574629665037e-01
-2.691824063278291934e-01 5.847866374226665664e-01 5.019276318573373530e-01
4.697626107425483255e-01 6.890121654326216705e-01 2.327120243766465091e-01
1.851936020602336641e-01 -5.792605671120523159e-01 -2.835873765642467625e-01
1.312664814424175375e-01 1.459094374891525825e-01 1.059722424865152113e-01
