-6.032346912165871267e-01 -5.048674077177652819e-01 1.006974541397169381e-01
2.917510507544193721e-01 -5.675666230778879662e-01 6.558366206213167571e-01
6.754456253772864738e-01 -3.230959151105147198e-01 1.422092652673042634e-01
-4.100700443510113535e-01 -3.896930343356913018e-01 -1.359962708553221211e-01
6.341706325727960447e-01 -3.190780152735494535e-01 1.134874581880087885e-01
-3.473320604111036769e-02 -5.355582258581802479e-01 4.280192780261605212e-01
1.410118076629824080e-01 -3.505766185139687074e-01 -9.460673711842518263e-03
-5.741489367089338408e-02 -1.844164542047669608e-01 -5.542882441347586342e-01
-4.857481236245008716e-01 -5.247646070364164750e-01 2.058872655177381716e-01
-5.072483822906893591e-01 -4.003300053598958796e-01 -1.479525055469986528e-01
3.944154937972376151e-01 -3.451468135209347921e-01 8.350641474621754712e-02
-6.775463412061177859e-01 -5.158132235455353820e-01 9.934308170222118373e-02
-2.320114441419533491e-01 -5.609477589052567215e-01 4.142614830279701676e-01
2.928102156110266585e-01 -4.219806389643757094e-01 2.530243064648946549e-01
1.754084134473056500e-01 -4.005515228577040121e-01 1.436273139328829718e-01
7.447278597564972458e-01 -2.565906785625731157e-01 -1.247603237511316597e-02
-1.169155094841584086e-01 -9.309889221415124094e-02 -8.325927064690653578e-01
1.736312364373139572e-02 -3.155243590916002594e-01 -1.592554768268452936e-01
-3.115072923266354321e-01 -5.031249214532186320e-01 2.202127484321367845e-01
6.560033673502062568e-01 -1.379916800893176976e-01 -3.788042915794276877e-01
8.836119350381317628e-02 -2.560857161051044439e-01 -2.936354333608865441e-01
6.257031965821623354e-01 -2.194016764000690789e-01 -1.662185956958030786e-01
1.543994664823165192e-02 -4.414664387348479213e-01 1.887762280825540095e-01
1.730436299031368197e-01 -5.096935679801531949e-01 4.449357857255071824e-01
-4.196291768318464177e-01 -4.324222587071495094e-01 -2.171343648180047367e-02
3.354712096705227964e-01 -1.040636046390793074e-01 -6.094020779401317922e-01
-3.382477722894000061e-01 -5.563411262487595321e-01 3.562206992637783065e-01
-5.503206161029087218e-01 -4.780415727693131944e-01 4.894499329078307037e-02
6.935461391782617169e-02 -5.354544687586403340e-01 4.720968363438078907e-01
-7.550331838901070958e-01 -4.277868546286193729e-01 -1.775111903420844295e-01
-4.117072212690931488e-01 -5.000417053647605581e-01 1.689646016686091323e-01
-2.465242260181221834e-01 -5.503268001473585747e-01 3.786563860798904391e-01
-5.572389893501698138e-02 -5.174114686505152383e-01 3.688071506466735761e-01
-1.621984517659180725e-01 -3.909066409709403556e-01 -2.698528531157626600e-02
3.328587994909657510e-01 -1.869964981194078557e-01 -3.807968056854233452e-01
-2.160504027976868982e-02 -5.300873823092219078e-02 -9.030160178828143813e-01
2.032458862417474976e-01 -8.419430940711378208e-02 -7.207966410931888612e-01
8.144200472697737947e-01 -2.104152311856429258e-01 -1.106743963759438537e-01
-7.996597398771622123e-01 -5.034141404685901211e-01 1.295049050505377858e-02
-6.138322864038708859e-01 -5.326663154270269152e-01 1.731816571640722446e-01
-2.210189385465453626e-01 -2.340743394612320172e-01 -4.864714491157869913e-01
3.850027042676465450e-01 -4.361940292875138292e-01 3.316893347839806050e-01
4.551561115522541057e-01 -2.824783797878278047e-01 -6.419184832862173673e-02
6.367558966576927215e-01 -2.599612723775824308e-01 -4.916018799887193758e-02
-3.120605443630882284e-02 -2.932887371871781279e-01 -2.415481685921149202e-01
2.844642186697076136e-01 -2.269963544307848635e-01 -2.906268308923372623e-01
2.401681205282869269e-01 -1.582597898175724105e-01 -4.999028270625038295e-01
4.323820662606893406e-02 -5.555206462170789727e-01 5.165473520759868986e-01
6.365881170280860424e-01 -1.972766983660775020e-01 -2.228639150068416896e-01
-3.440403970471412332e-01 -3.596450672102680657e-01 -1.910836285450885352e-01
4.252025078210706077e-01 -1.272025125399625367e-01 -5.070629672680643241e-01
8.716444876310369683e-02 -1.286775998025168344e-01 -6.470577574483079575e-01
3.646715345633214644e-01 -3.540251547207796667e-01 9.542119000897723857e-02
-1.782063930871283230e-01 -4.016430737495622627e-01 -4.069065487975676541e-03
-1.843274286112457361e-01 -3.255687696912438200e-01 -2.173989123382025490e-01
-9.777033065996217076e-02 -2.789470755165545657e-01 -3.096450839573584579e-01
-3.781653835795720231e-01 -5.075603538325728081e-01 2.040871824639767240e-01
-4.359202348287478657e-01 -3.052558298777465207e-01 -3.808998940907363240e-01
1.726058740479977094e-02 -1.208440092926655746e-01 -6.985511554786112409e-01
4.214721293583861828e-01 -4.166501383235003964e-01 2.930982465683842353e-01
2.436755413336558207e-01 -4.937625936117614467e-01 4.309131904146363268e-01
6.528430484218572527e-01 -3.169349311479228160e-01 1.155099271518886112e-01
-3.455167770627243229e-01 -1.745379517379855028e-01 -7.044476356565216868e-01
3.215414494321666705e-01 -3.233043665304353720e-01 -8.056579394980960609e-03
3.524264686340950470e-01 -1.484506643461649122e-01 -4.792260179078405291e-01
-5.207834415671132311e-02 -2.539566246137643923e-01 -3.593918933103432689e-01
-4.810501294739165101e-01 -5.338501924420449019e-01 2.330561576632830811e-01
1.213497899789024864e-01 -4.021151845758971222e-01 1.249173526241714322e-01
3.031076464611444088e-01 -5.264734203833698611e-01 5.468515864270562243e-01
8.405095116583271020e-01 -2.001692962056145220e-01 -1.279349594890963893e-01
-1.438497412899916450e-01 -5.090477615691905156e-01 3.080786777992298164e-01
-4.813548860563396370e-01 -3.255399318169100997e-01 -3.440796838683823355e-01
-4.529189011883842375e-01 -2.408746045353958309e-01 -5.664770008752675334e-01
-1.055602662622358578e-01 -3.328509690290183398e-01 -1.636550608454205302e-01
-6.909761380407433706e-02 -3.719559195830283715e-01 -3.979553873945731318e-02
-1.928925405555394768e-01 -4.063955805235941465e-01 2.835449611402782871e-03
-1.213187454518231539e-01 -8.982162234102511467e-02 -8.435473066629481931e-01
1.051238485835361836e-01 -4.827967610567142076e-01 3.414841783831337740e-01
-3.518908306432846217e-02 -2.999570145587687198e-01 -2.247751429094183573e-01
1.079217347839591806e-01 -5.364955310037694547e-01 4.914188298268450938e-01
-3.062783928737851033e-02 -3.536276721909455967e-01 -7.416677151274089774e-02
4.745711168417104248e-02 -5.618853386081889001e-01 5.359753462503794585e-01
-6.158742501044331963e-01 -4.859815961705719056e-01 4.299766638742242436e-02
-1.707463210748801086e-01 -3.744320435239511524e-01 -7.626218057740136169e-02
-2.209091752194271979e-02 -5.654458298954176954e-01 5.161944827073451370e-01
4.056396035683232371e-01 -3.871061944792798526e-01 2.045151955953729561e-01
4.047785566987647798e-01 -1.628292769502172610e-01 -4.170843581829015156e-01
-3.751041304540123633e-01 -5.008384778335800425e-01 1.867728071561888248e-01
-3.510101005311363487e-01 -2.738077359155935420e-01 -4.318181538095587357e-01
3.320078490128204329e-01 -1.718645588902561472e-01 -4.230739958724619720e-01
1.079490886327703209e-01 -4.386736822846679096e-01 2.204702959250810501e-01
-3.457086151373744976e-01 -4.205761508637794743e-01 -2.301950677578008808e-02
-1.536354423928764368e-01 -3.770622616067990096e-01 -6.168354137722206754e-02
6.466042426738935478e-02 -5.918032009340238320e-01 6.261783925113562077e-01
9.974767572182215158e-02 -2.131020867092275894e-01 -4.078440888107452977e-01
3.432230236973086712e-01 -5.034874231925908772e-01 5.002800870606610717e-01
1.368557413153538849e-01 -1.121251621349068917e-01 -6.717272068696120702e-01
-1.141650200720839697e-01 -4.556932081803445334e-01 1.729424231553167157e-01
2.281942722309122096e-01 -5.134598319853416193e-01 4.788747435717959910e-01
1.502528813610886360e-01 -5.041541059356620114e-01 4.198778194514244944e-01
4.375350294040873944e-01 -4.553244202630420956e-01 4.070699349711097148e-01
4.388737230944645407e-01 -1.555613075085621466e-01 -4.226839092396764697e-01
-4.378422388238539797e-01 -5.260259313379110901e-01 2.297997967641666750e-01
1.468619067155991775e-01 -4.034191371721467800e-01 1.394031502206132811e-01
2.006445267216582506e-01 -5.141343059329859244e-01 4.690005686933541029e-01
6.585994747967073570e-02 -3.041165384849570108e-01 -1.701837836901168577e-01
7.283912829736336469e-01 -1.324749710629027355e-01 -3.632315905530896227e-01
-2.167226931065791284e-01 -5.709428797483221407e-01 4.484637878445387194e-01
-4.530789940574441177e-01 -3.824945769480800895e-01 -1.742670745067499138e-01
4.664329799187472148e-01 -4.290075180864312276e-01 3.464908828036625255e-01
1.517757049802181402e-01 -1.714299114935160240e-01 -5.010976077679318852e-01
2.179167707664511344e-01 -5.093178567552896219e-01 4.630211994585251012e-01
1.466932715353831684e-02 -4.020417672804894038e-01 7.924398030722393238e-02
-2.107854893229572923e-01 -1.623122403526655877e-01 -6.808860568853989381e-01
6.902245269795102833e-02 -1.036770206815339213e-01 -7.240403388510451288e-01
-6.587641732137454464e-02 -5.657424585250809823e-01 4.983535964484187564e-01
2.628576145333297864e-01 -1.493635466187658023e-01 -5.148739878018703253e-01
-4.279586921087975560e-01 -3.941135698476614380e-01 -1.313762842916504914e-01
-3.639845480842414660e-01 -4.045194004917839758e-01 -7.528534853431179119e-02
-2.344736166831928315e-01 -1.891285590574392772e-01 -6.167030899762092622e-01
2.610383110290577791e-01 -1.152558188862591038e-01 -6.101256220508797234e-01
3.757975040639109920e-01 -1.845829467110930988e-01 -3.691805849134175421e-01
-5.413518970914648065e-01 -4.303291022494645790e-01 -7.939276025160429962e-02
2.647742625140780404e-01 -5.085333800221605305e-01 4.808201415671427559e-01
-3.357358206557151670e-01 -2.605213025204033417e-01 -4.621104161306988090e-01
2.633025248240047356e-01 -4.963625258860134837e-01 4.464803697432440655e-01
2.355933172101146444e-01 -1.924596299436064362e-01 -4.071213834677685495e-01
6.844048366918914494e-02 -6.012830800001746079e-01 6.540482047250327780e-01
-6.637355875726370646e-01 -4.550918801063303931e-01 -6.296460613155198394e-02
5.843643255810182513e-01 -1.039767957040467206e-01 -5.035577593691088483e-01
-7.359452383311629875e-01 -5.215880580230829455e-01 9.044785805044516791e-02
8.981857197803691517e-02 -9.137077945376492760e-02 -7.492639795021226456e-01
-6.982623397224438921e-01 -4.872514839878048232e-01 1.139920890925105734e-02
5.297749687760059389e-01 -2.940951576152157076e-01 -2.096112664151357030e-04
1.362274208484910987e-01 -4.410964332269891597e-01 2.392341261512895556e-01
2.146454990274503927e-01 -1.855375728375175393e-01 -4.352235433684313315e-01
2.175997800840704655e-01 -1.986045818012243669e-01 -3.977695817792999966e-01
3.796634542944674062e-01 -4.487064459439043529e-01 3.640721911197508653e-01
7.129009618125393688e-01 -1.344457211879468705e-01 -3.643751213376373310e-01
3.940774982791572789e-01 -2.813255989908909904e-01 -9.341828344442544563e-02
-8.052929727300808249e-01 -4.701114189708622826e-01 -8.169692526577519709e-02
-1.813227134142571806e-01 -3.387602448058462667e-01 -1.795786912094818333e-01
-6.835990143620135351e-02 -4.929184150676109155e-01 2.955771810147622691e-01
5.799687461040674563e-01 -3.115303483165887677e-01 6.947864341539779220e-02
3.572691730911902730e-01 -4.241596442505560227e-01 2.865341083862872340e-01
-2.157142456634048577e-01 -3.974959304398738569e-01 -3.154321466010053671e-02
3.750653347460022879e-01 -4.477465082626824189e-01 3.594533866952474566e-01
-1.993899064270646670e-01 -1.262534110261642473e-01 -7.759095851627170193e-01
-1.762639659816650772e-01 -2.249776420741615435e-01 -4.925929693170670864e-01
3.881359041706772262e-01 -3.140090739745174941e-01 -5.419635281646274783e-03
3.467644276791127522e-01 -1.735007727538083189e-01 -4.122521484701011651e-01
-1.157632898405422384e-01 -4.504366494556137912e-01 1.577008710430070904e-01
-6.187472819638984989e-01 -4.197471425991573524e-01 -1.416920468096572461e-01
7.996657400870267607e-02 -2.800956911607316857e-01 -2.307073626626893470e-01
4.229807920175349123e-01 -1.412585566039850915e-01 -4.690755880443590042e-01
5.453654781593718637e-01 -1.484019343058724516e-01 -3.971253309079799121e-01
-5.456392140781228806e-01 -3.533914966473116759e-01 -2.943323175975498529e-01
2.196770134513405803e-01 -4.609684061284666790e-01 3.298466105595985742e-01
-1.641936378382202397e-02 -2.175711533870462455e-01 -4.449785021613903435e-01
4.422733258398121592e-01 -1.440140684011490535e-01 5.186728389863830557e-01
7.565048928207982470e-01 1.151852333185251487e-01 1.045368234926099676e-01
7.954365056909145082e-01 -1.453173216324896155e-01 1.214413081263673692e-02
8.433969438036298394e-01 -1.411633937677534145e-01 -5.603566475496702531e-02
3.112213701919898101e-01 -5.497271461048689467e-01 6.496054932207412369e-01
5.742070965126563342e-01 -3.502937048272100062e-01 3.005517529857039682e-01
8.727585838434562815e-01 3.561988535211828011e-01 -2.830280173992227172e-02
6.730462741067245735e-01 -2.248493281584909853e-01 1.764540995491886144e-01
7.324944152987957757e-01 -2.414840934838981268e-01 8.888512938404179164e-02
7.544317065794783339e-01 9.767742248793336024e-02 1.050511357882734226e-01
2.948963294399485346e-01 5.143242200881508602e-02 7.574145833325405253e-01
3.018056751504508695e-01 1.161457037802502285e-01 7.565941301745180425e-01
1.856180636536761130e-01 -1.259381137783787373e-02 9.051023641635441708e-01
6.993093066627215082e-01 1.878671267666028322e-01 1.967452550118454768e-01
4.706596033614552366e-01 2.095296599603403975e-01 5.276119185129142242e-01
3.962097113181415331e-01 -9.443003224171349352e-02 5.916779158837847108e-01
1.446655083391462371e-01 3.510060040154536903e-02 9.705141841889938226e-01
6.349908114579423390e-01 -1.378997280274114334e-01 2.432236805610860642e-01
6.333762224592576207e-01 -3.107327643604182454e-01 2.212727292722976025e-01
6.065908808301776478e-01 3.750938435408829319e-02 3.085694638016241442e-01
3.174812072367332871e-01 2.884776745538390405e-02 7.218627426271810865e-01
8.748184471795625861e-01 2.492359456672651186e-01 -4.627377397822377003e-02
3.550844924989408624e-01 -5.098768114290168629e-01 5.923119975959839634e-01
7.339471712028503569e-01 1.063962617167305003e-01 1.356448537470378024e-01
2.753060836021733460e-01 -3.394411058896908574e-03 7.778042691793050079e-01
5.026572896610657093e-01 1.887058983968075421e-01 4.788117467520322523e-01
4.615568228349652968e-01 -3.367533692302216997e-01 4.639645228181484837e-01
6.462730812726601437e-01 -8.868891272781589952e-02 2.339570166214303970e-01
8.947091083919478383e-01 -1.547840940322947334e-01 -1.315165475484710300e-01
4.326309399075960460e-01 -4.108396824866421548e-01 4.950350837786734459e-01
5.340593635880475087e-01 2.373716607790541111e-01 4.406219006315420517e-01
6.370947053429486528e-01 -2.464840721421157621e-01 2.249619291721706160e-01
5.445330293673850131e-01 -3.503838752213889185e-01 3.430841205424038365e-01
6.759515487763890773e-01 2.982939534185728436e-01 2.457383004706531482e-01
6.108774586700098652e-01 3.178387460962693312e-01 3.417820129140725638e-01
3.511222766391469130e-01 -2.339862638676498685e-02 6.662946236290423485e-01
3.229324976743606079e-01 1.183360189733114604e-01 7.266111882673136346e-01
7.722839104556683543e-01 -1.881720542961236309e-02 6.309972470813644818e-02
8.130242659024845553e-01 4.286034892481986325e-01 6.750659510489973036e-02
6.141597461238593736e-01 -1.848312912714201728e-01 2.665008849028944748e-01
5.187794211115677179e-01 4.903870530600324545e-02 4.360873756391186462e-01
4.697725700300212637e-01 -3.236484677856966141e-01 4.540251771175354834e-01
8.708286720181079854e-01 -1.882005426514741508e-01 -1.019697945762921970e-01
5.521326967189895685e-01 -1.355197399761080002e-01 3.623551901014300802e-01
4.023921330023471632e-01 -3.217807035895394185e-01 5.508937364183433827e-01
5.338748342474048947e-01 1.132187211858920323e-01 4.234553233265667127e-01
8.565695131275008478e-01 1.274558129221819991e-01 -3.720746875966690626e-02
8.592745737442927245e-01 3.996649399079916787e-01 -2.867513889792169552e-03
3.836692054666807628e-01 -4.514498708230838542e-01 5.595320020899753333e-01
3.108126675844880560e-01 -3.046518411192761233e-01 6.846001842172438900e-01
3.682358078418749847e-01 -4.057957394790179806e-01 5.880694161739742354e-01
1.399275137340779407e-01 -4.663026330508805717e-02 9.658321964232219337e-01
6.806655193577291207e-01 1.016972372779293698e-01 2.113773778162646166e-01
8.537890854635284965e-01 4.626623526482086246e-02 -4.462011028338441071e-02
4.277634764659666300e-01 -3.914571954014577360e-01 5.047350947245766717e-01
8.950524516322686530e-01 3.593378209367713016e-01 -5.982579693181371006e-02
6.583554232147533769e-01 2.285728230901025726e-01 2.611777595103653704e-01
7.830607710417536449e-01 -1.419618628944268879e-01 3.035887940199298585e-02
9.545516114623469051e-01 -1.339672977972332091e-01 -2.143927107358830630e-01
3.115190597753926260e-01 -1.058292852984938359e-01 7.115022013030825043e-01
5.017523484233089581e-01 -1.603230376955435132e-01 4.311053347522706414e-01
8.442601291858137236e-01 8.280781387131364371e-03 -3.629120250691608707e-02
3.077495047759151170e-01 -5.417031356578582146e-01 6.557098365634134174e-01
3.481116521274710829e-01 3.075921636444263821e-02 6.782148824025910905e-01
6.300108545074204480e-01 -3.194600313768549693e-01 2.248724933350741972e-01
5.429882932154963537e-01 -5.862120123494505425e-02 3.862625271380794589e-01
7.927074222357108901e-01 -2.030778768222711583e-01 7.947323252186645759e-03
4.990663207590731454e-01 -1.078789874886541822e-01 4.423195871402959556e-01
6.355392815320772826e-01 -2.032487482547291613e-01 2.332622740668295058e-01
6.998913354423089705e-01 -1.305867646907733770e-01 1.511996621997692969e-01
7.847489568483754230e-01 4.370162340196396267e-01 1.092273153385807244e-01
2.925695559396677137e-01 -3.041299069038154723e-01 7.108294232070394569e-01
8.207375892765813585e-01 -1.877081935147571767e-02 -6.363953226950820434e-03
7.497087426678634703e-01 7.023960506359415434e-03 9.909485984214491672e-02
8.743598720490391996e-01 -5.534806237946544166e-02 -8.838006703407962072e-02
2.110801335475751273e-01 4.040015365796207486e-02 8.760366477288922260e-01
7.410524684903412318e-01 2.346216529802856998e-01 1.434605933714743486e-01
6.970250221610885255e-01 -1.544606923351208028e-01 1.519573094278113268e-01
6.996172596434920843e-01 2.006931554533725737e-01 1.981045110677514265e-01
6.238023312740197390e-01 -1.029416070315908593e-01 2.641732419462033965e-01
2.226697440694370700e-01 -1.597231953939091606e-02 8.515053804157136641e-01
3.462526098042765788e-01 -2.850274805200818662e-01 6.365436372844622825e-01
3.603059170993442306e-01 -3.344049896589137427e-01 6.094621555628202403e-01
4.119095954629352629e-01 1.723138985581132987e-01 6.066192985828667839e-01
4.762112683751936748e-01 6.480986481957137779e-02 4.993335061588963786e-01
1.605544399137610323e-01 -2.019889868521318466e-02 9.399694355932711742e-01
9.088194183668311110e-01 2.430982490367445403e-01 -9.588421213222400596e-02
3.523122552711732691e-01 -3.018130763855232379e-01 6.254989470821551434e-01
7.490628129009756497e-01 2.746367886538299552e-01 1.375939553613250987e-01
2.780031804572989929e-01 -2.219392086388749796e-01 7.432535044813166625e-01
3.843096107296582464e-01 4.491187594108210501e-02 6.283033037094597484e-01
1.647174885413075496e-01 5.205807824048463289e-02 9.441456096974478740e-01
8.106735086360381537e-01 7.478110297254296490e-02 2.120011053198538054e-02
4.696759711228714052e-01 2.301348668670399333e-01 5.319151788059309771e-01
5.973714658237385677e-01 -2.939818169118268432e-01 2.752461901994078808e-01
7.026927294983597028e-01 -1.327822952901232950e-02 1.636533660002395529e-01
2.579540946481932440e-01 -1.654522925230219599e-01 7.799295649494089044e-01
3.194521711403756070e-01 -5.321955423522080064e-01 6.402660758744943559e-01
9.426497441306239677e-01 -1.269634745430565370e-01 -1.963451342498662155e-01
6.712666233407262872e-01 -1.127273030968975187e-01 1.947476616533063143e-01
2.446257002288492743e-01 7.010845037263875590e-02 8.321119416307440897e-01
7.002199790502265930e-01 3.548741677056285182e-01 2.188874696433193712e-01
5.444390537697029187e-01 -3.939465731614148480e-01 3.371026293015238484e-01
9.258709867994641129e-01 8.415808658379125839e-02 -1.426470944636564486e-01
8.669598675871964533e-01 -1.527897374258519458e-01 -9.145122016636915430e-02
5.685204081644436025e-01 -3.765858427486332149e-02 3.525991640248057335e-01
1.905955628397863477e-01 -5.554533374548271257e-03 8.989542213318506558e-01
6.466030746638010696e-01 -1.113700338764582638e-02 2.443722238004482072e-01
3.071172668605463008e-01 -8.236967360985102127e-02 7.211069904149500776e-01
4.662764701359930486e-01 1.943030794294879071e-01 5.317583904226804714e-01
5.668472292409326707e-01 2.763607417705098990e-01 3.990865716697645782e-01
6.791775582199093275e-01 -2.446381726660150357e-01 1.648850399761084273e-01
8.421210119876526567e-01 3.499933974388593216e-01 1.475239561645255888e-02
8.739909396779012019e-01 -1.216877136669491655e-01 -9.716523809108823517e-02
8.383896160255696062e-01 5.643433836966869725e-03 -2.824467228659184592e-02
7.700644901998826564e-01 -4.775131108236456423e-02 6.221944073783254592e-02
5.433263741820857362e-01 2.640593255495996550e-01 4.310823398240347104e-01
5.817347957273750758e-01 -7.496105551728235450e-02 3.284158211408343409e-01
2.593792192038377187e-01 -3.179273531828650246e-01 7.564787130526492431e-01
7.777764450624080617e-01 3.148356334906400877e-01 1.020698873939736989e-01
3.307330199638400803e-01 -3.810915102513246500e-01 6.453073164087427260e-01
8.342381261455712460e-01 1.103737567115324336e-01 -7.588298443204627777e-03
8.058061438527382991e-01 -1.562824776610944877e-01 -4.262794119327784938e-03
2.423890815080666228e-01 -3.128270206165508216e-01 7.815543174641156332e-01
2.464857896431842388e-01 -1.028204291481539107e-01 8.051657331932255968e-01
7.993120915584726038e-01 7.918335661212438925e-02 3.810755760077694926e-02
4.960079160238009544e-01 2.454341772704894953e-01 4.963099324322947647e-01
5.784026912173707569e-01 1.416307876819501987e-01 3.636028285712220032e-01
5.112699759802225019e-01 -1.505673570085297452e-01 4.188291928260898245e-01
2.783230576237153975e-01 -8.341935000986346049e-02 7.622431514209810910e-01
3.592459051111180912e-01 1.027328002877464508e-01 6.723563427715202323e-01
6.146500425405531098e-01 2.497271991056820017e-01 3.268101909553581264e-01
5.700368722301746294e-01 -1.806982280429141052e-01 3.303420926582202322e-01
6.760177233465609614e-01 -5.853490316812969343e-03 2.029409443553495951e-01
6.639005940780718928e-01 3.601443785629928045e-03 2.216412888316194041e-01
6.127523307491773430e-01 -1.267619070808041759e-02 2.926894354545359622e-01
8.391071432552090759e-01 3.927983037717863724e-01 2.508334687110110386e-02
7.526329003498691828e-01 1.657936286189397035e-01 1.171937192576168463e-01
4.279457544730183582e-01 -3.100683506402956424e-01 5.159007959815602451e-01
8.831300633429794988e-01 2.026002302881786399e-01 -6.473818876050414783e-02
9.138954988531647894e-01 9.206544705335620304e-02 -1.243671076812927628e-01
5.137506415421100314e-01 -1.141448714056302605e-01 4.203862907198516741e-01
2.990972440902804341e-01 -6.649446113018731008e-02 7.348345422348021572e-01
3.149140396885822257e-01 -5.453447277056938658e-01 6.449264431188684865e-01
8.990115289549189814e-01 -1.704172812456601072e-01 -1.398800275412521443e-01
3.129473125600421013e-01 -2.515754938644691463e-01 6.889915990885533414e-01
2.004467983923279573e-01 -3.719129069738872362e-01 8.333931379712236076e-01
7.100762972649699023e-01 3.952484576301772967e-01 2.104246024993988995e-01
2.727469151310190631e-01 1.020404497954975273e-02 7.833826938062370404e-01
8.550446147319985535e-01 2.779333485500341469e-02 -4.901382434256490450e-02
9.156038752054390661e-01 1.380560939007708862e-02 -1.378042096107313652e-01
2.021044963218710799e-01 -2.879841481446097640e-01 8.428000695980241153e-01
6.695182766854466117e-01 -1.823732743584819960e-01 1.874760088436148164e-01
3.766701674715811077e-01 -2.417301113871854201e-01 5.990116102890519212e-01
2.756460430392753680e-01 -3.002419001472458882e-01 7.356392934397890659e-01
7.521277776550181482e-01 1.867831294965025812e-01 1.208648742708642448e-01
7.621610370486976427e-01 2.647705094178661733e-01 1.174292185012024009e-01
3.967971718331024800e-01 1.369662058470865473e-01 6.233238146043613703e-01
8.969768789684000598e-01 2.477787663030749654e-01 -7.824789025550575594e-02
9.166825319837760278e-01 -2.388152803877992281e-02 -1.446420238249516710e-01
7.481572034183672226e-01 3.562389174967018901e-01 1.503493544217751610e-01
6.749939174013871446e-01 3.960405082048318315e-02 2.107910857127047177e-01
3.628341369368746627e-01 4.799874702655066577e-02 6.595270424551580302e-01
4.814410335902669646e-01 1.661392537738341502e-01 5.060620649561144990e-01
6.781458913518513265e-01 2.518533361612045329e-01 2.360718843157862956e-01
8.904409403791929689e-01 1.477760057982398789e-01 -8.291747088592735238e-02
8.929463536312673977e-01 -1.264916993683105062e-01 -1.250169390543439674e-01
8.308802790104653502e-01 5.621966107724430534e-02 -1.037727057253726159e-02
4.119009054990649954e-01 1.494504272392485067e-01 6.034217130464415435e-01
5.659323788273408207e-01 -1.105241454159948261e-01 3.460793692571507152e-01
3.020413088799254187e-01 -1.866226952794381444e-01 7.137474316165997035e-01
2.083538535697168348e-01 7.187955027563415478e-02 8.843651620406206559e-01
5.979904020708001200e-01 -1.030496102858431511e-02 3.141871900310772014e-01
2.160325841005193981e-01 -7.705654597648260024e-04 8.631557064884504138e-01
2.113050478807454724e-01 -3.721890168604544691e-01 8.177864176068136981e-01
9.154261771767542299e-01 -6.061353482550276006e-02 -1.479979273597437639e-01
1.593841684725831320e-01 9.425583224824818016e-03 9.458066002743760192e-01
5.406422889635132956e-01 2.118194036348549913e-01 4.275961164292824135e-01
6.667565096990772933e-01 -2.696792807467325304e-01 1.791778625126448921e-01
3.517651813077535272e-01 1.663631347974860175e-01 6.920155247366296392e-01
3.717446609373073474e-01 7.483502698785897411e-02 6.505194579637233465e-01
4.076958940600136638e-01 -3.311126128149808889e-01 5.419792932097953209e-01
2.324971560074799715e-01 -2.189302778943949257e-01 8.089199677408114297e-01
3.727621173254443976e-01 6.236117533440614646e-02 6.473093495113291240e-01
6.892825734559713258e-01 1.804079858284571847e-01 2.100737598331434697e-01
5.908268193677818081e-01 -3.587856057391423659e-01 2.755310506008105120e-01
8.316969856005498318e-01 2.186654619297453278e-03 -1.913448472806602782e-02
2.869327507829212420e-01 -4.086130833608891955e-01 7.042416620389887472e-01
6.409588762324835987e-01 -1.524340919622113599e-01 2.326263679409850682e-01
9.558877631130356933e-01 -1.074920892877647138e-01 -2.125912759458715717e-01
5.154404121076716638e-01 -1.954975543559170637e-01 4.065416274486334247e-01
8.047268514601304545e-01 2.945333049900281108e-01 6.057943442360536751e-02
2.768270203099651994e-01 -4.366286937010941949e-01 7.147972884409243832e-01
5.698462065983613822e-01 -9.192259717047704393e-02 3.430796088514240783e-01
1.980862217722678398e-01 -2.154126556438214768e-01 8.587503281453109372e-01
7.485488945019141971e-01 -1.196251159231469935e-01 8.297618136977877312e-02
9.039928113746932281e-01 2.856322776560863419e-01 -8.299228894202062556e-02
2.083544247528479054e-01 -3.989087099713001794e-01 8.182653964720424389e-01
6.277085282362158125e-01 2.005525473361156330e-01 3.011835104218770209e-01
1.798261389562872126e-01 -1.229953533065381022e-01 8.979060627998698418e-01
3.151316621449551936e-01 5.172855201003107722e-02 7.284438652520068835e-01
6.417934567131691193e-01 1.716460028994832021e-01 2.769308274052982854e-01
8.807518815110078059e-01 -7.419704516304571895e-02 -1.001909829805323893e-01
2.131165087883898079e-01 -5.743189707931758425e-01 7.868100821200255668e-01
5.613923648473156947e-01 -1.509428153580903431e-01 3.469137840065888989e-01
8.826058739256463781e-01 3.007044939923010918e-01 -5.021273921156496622e-02
7.327956436882956393e-01 -1.863780075893722576e-01 9.619017150484594769e-02
8.262978700435231749e-01 3.406422186148240216e-01 3.612582576899220355e-02
6.575108443543828951e-01 1.592081372746681212e-01 2.526498273285980867e-01
3.059097579334357775e-01 -8.466734948755359758e-02 7.225156545397474206e-01
2.760932717966494976e-01 -5.800404592890229423e-03 7.763378396183117092e-01
2.059447454823674362e-01 -1.667019084963863862e-01 8.543222311424530924e-01
6.877795581464337671e-01 1.198784122713910522e-01 2.037303121417583240e-01
7.389625898921462488e-01 6.278062215518077915e-02 1.223303640359220956e-01
3.778168687910791190e-01 -4.867180911527554943e-01 5.629710782854423501e-01
8.839932330144854022e-01 -6.873874227091683609e-02 -1.040719036270678910e-01
8.478112886757127598e-01 8.135847457530165361e-02 -3.112250673701842663e-02
5.816225968764309195e-01 -1.066737152362152025e-01 3.241242096728610411e-01
5.292485083963173187e-01 -2.165688044349433627e-01 3.837859309341380420e-01
2.786349662834466945e-01 -3.832928537203911246e-01 7.196935391064948062e-01
4.886381336170845247e-01 -4.347237995104573094e-01 4.113817395787311426e-01
3.607773522304148495e-01 -5.252007552206717778e-01 5.819984011917086475e-01
5.996211858054442123e-01 -2.784090694399510291e-01 2.742070896169525041e-01
8.082181452216069539e-01 8.342654607650057397e-02 2.593429933223623945e-02
4.966888163496243624e-01 8.045797154577161159e-02 4.721709397891416526e-01
7.634139166847964120e-01 4.110508640732656871e-01 1.361707565502827677e-01
5.634453534222773063e-01 4.867734638136984177e-02 3.719971104072564705e-01
3.979287393012897467e-01 -3.647925214319607257e-01 5.512542177926674780e-01
4.979414772837736369e-01 1.257284692723770018e-02 4.608438330568905283e-01
1.838216175726741786e-01 -9.138798100003731051e-02 8.966152612444439063e-01
8.694845565874401716e-01 4.390960499374280679e-01 -1.196986872143410326e-02
4.290420043220397051e-01 -2.243856330885340977e-01 5.263589574773210877e-01
6.751501928007693776e-01 6.797435114521746535e-02 2.145502334656841092e-01
3.088422944749031340e-01 -2.017301123895229031e-01 7.018754664358736184e-01
5.247762684887691265e-01 -6.315923254599896397e-02 4.117367733187096701e-01
3.760540647516021351e-01 -2.614859759917486648e-01 5.971212091861749505e-01
2.597646501733053004e-01 -8.686090025045414831e-02 7.883679684737661120e-01
1.691816016292417846e-01 -2.447775695103600879e-01 8.960693142956370760e-01
5.230707831224973292e-01 -1.435490387139891633e-01 4.028952276816936684e-01
2.192869388594059221e-01 -3.597295227819569674e-01 8.080917463753218843e-01
5.138701098245473942e-01 1.598680151856820275e-01 4.586865730162333898e-01
6.189867839771309166e-01 -5.437963293969554773e-02 2.778956354244421778e-01
5.324413766409943349e-01 -7.760454919803550997e-03 4.085249881728674204e-01
3.454318163380548645e-01 -3.543070324884454725e-01 6.279935557689216852e-01
8.204284405168247307e-01 -9.529969546631991695e-02 -1.666541181724442294e-02
6.097847551074155881e-01 -2.607167644153087216e-01 2.621191390237193053e-01
3.182608558631643825e-01 -2.551289923921042924e-01 6.808744228764442852e-01
4.028731013131004457e-01 -2.022152665871328470e-01 5.669912079681571626e-01
6.049406077611013677e-01 2.754697855804160156e-01 3.443453128497338533e-01
1.757406551019149443e-01 -1.290029159089416677e-01 9.029201370915515001e-01
7.620997402513974839e-01 -7.251740147727733787e-02 7.016168280453223549e-02
3.846738812334386526e-01 8.303757036285358550e-02 6.331339026742393017e-01
3.857705579256929806e-01 -2.790024837201963148e-01 5.807309136173185449e-01
3.350312919880759632e-01 1.591737172531625111e-02 6.948849718213983007e-01
3.882032544831293119e-01 -1.757645703897967870e-01 5.917377118698107230e-01
6.819886194205395658e-01 3.546200500241056264e-01 2.449909011077703869e-01
8.385946801362411662e-01 3.399195237425033933e-01 1.839387640434780868e-02
5.152989122255637877e-01 -3.402194123894219380e-01 3.864254687390598075e-01
-5.937260162689531606e-01 6.383621621558802084e-02 -3.488503956284668694e-01
-7.030543404637866756e-01 7.107364115831571461e-02 -1.910853845934127049e-01
-3.286515008152995354e-01 3.464166308667845917e-01 -6.892250419691093866e-01
-7.273193993692909087e-01 -2.977159273438761966e-01 -2.080737630813855321e-01
-8.772641364790376706e-01 2.072121127283091391e-02 5.161742394688995789e-02
-8.747818259922893747e-01 -4.982320446828918947e-01 -2.480291496699071202e-02
-9.735127296675111230e-01 5.298191037090010241e-02 1.941427262282451327e-01
-5.909910231860003860e-01 -2.700805391733850924e-01 -3.996537840743507042e-01
-7.170918965402662826e-01 1.172586033263841726e-01 -1.644747215520455386e-01
-9.454701153329664320e-01 -1.544968101296829710e-01 1.248066515156181500e-01
-8.304333755514792248e-01 -2.082692829765007136e-01 -4.767631628587887943e-02
-7.454836585426550810e-01 -1.922376555782287777e-01 -1.672216473034053574e-01
-4.583513929166757594e-01 3.763709709875421860e-01 -4.990629414157434218e-01
-8.840088992729120410e-01 -2.013906088057285104e-01 3.010306058486331149e-02
-7.307517629949484839e-01 -9.667660472535642702e-02 -1.749265926764386192e-01
-5.681770753071593294e-01 2.334238396943977001e-01 -3.616708452441244614e-01
-6.704074908564686686e-01 -2.507922668145468603e-01 -2.830827837482827736e-01
-3.913018931536695888e-01 5.491038065948692509e-02 -6.403280406705372796e-01
-2.492795978138557522e-01 1.312027974636649497e-02 -8.498190655620829759e-01
-7.962402437048787807e-01 -2.513468843012009457e-01 -1.027486478974410783e-01
-5.086144693721873500e-01 -6.719560238015018228e-02 -4.892755430310324338e-01
-6.695565480207876785e-01 2.277372466610730339e-01 -2.171169951603924841e-01
-8.857414895851496439e-01 1.151819950051204966e-01 7.703413066474520954e-02
-7.284061645689876574e-01 -1.508997819728748364e-02 -1.668347712753860679e-01
-3.516721339836458848e-01 5.036645724974169180e-01 -6.341416353036577469e-01
-8.912470156572452895e-01 -4.923349277470051577e-01 -3.680828631581789284e-04
-8.324082133826535834e-01 -4.097598678840361774e-01 -7.313429938260558594e-02
-8.662177291927359857e-01 5.822203960097752790e-03 3.368787005671004808e-02
-5.579465922336305228e-01 3.794060332790900048e-01 -3.558427578185311968e-01
-2.252515710790481684e-01 6.180825489702514164e-02 -8.774332941452250845e-01
-7.769127831996960332e-01 -2.778945334092879360e-01 -1.341865915588328351e-01
-6.201000841180235312e-01 1.134597457160690520e-01 -3.040695510821209702e-01
-8.555645448381848928e-01 5.769272927966714176e-02 2.569657871121730844e-02
-2.742284373320046931e-01 5.802042583588028490e-01 -7.344298849438343213e-01
-9.042117508856533092e-01 -2.436155692622617719e-01 5.314037680261586571e-02
-9.243057823508150639e-01 1.701574536393930248e-01 1.400440558699488081e-01
-2.278390559251801395e-01 9.053748124973812206e-02 -8.696899020871260433e-01
-2.618663323952811206e-01 -4.232126958947665663e-02 -8.395569312677858553e-01
-9.101132996788606766e-01 1.788295331480562744e-01 1.209132283733749674e-01
-9.500475909970770294e-01 7.722104456612603231e-03 1.541452119352170191e-01
-2.903181610603003948e-01 -8.318678034452832437e-02 -8.045018228809653893e-01
-5.712336569200499037e-01 2.093816098329084607e-01 -3.606640315910114025e-01
-4.300383391193319249e-01 -7.264937258165284073e-02 -6.026993421112120108e-01
-2.732697190147543864e-01 4.449548037448279869e-01 -7.547935443620549245e-01
-2.847770306799105033e-01 3.871584006621411334e-01 -7.464096494680191318e-01
-3.467800037901364596e-01 1.424841393086461461e-01 -6.918656432800249778e-01
-8.236657076034135105e-01 -1.052680114501824277e-02 -2.961626237981548199e-02
-2.559439784716297517e-01 1.304128222168461637e-01 -8.237961056769965706e-01
-4.083885867016235349e-01 -1.159471380567002746e-01 -6.398185849110242795e-01
-1.712101277082822282e-01 -3.196830109643526707e-02 -9.680811940517654035e-01
-4.519598124542161255e-01 -2.274171236527593454e-01 -5.929990351446758901e-01
-4.534811547091379680e-01 1.336040612123859106e-01 -5.401302340494205101e-01
-9.276122121849893487e-01 3.708291248756206970e-02 1.261008878401278233e-01
-2.266071387076420141e-01 5.309236040143259228e-01 -8.096256877132133045e-01
-3.734203284358183494e-01 4.729163480424343202e-01 -6.072773520109917555e-01
-4.206933934498804373e-01 2.914316200696702719e-01 -5.649804216537475110e-01
-1.948969937720557710e-01 2.581721523729747503e-01 -8.933843934449888780e-01
-5.918435245246910226e-01 -2.625028859188714009e-02 -3.641976054985451294e-01
-3.292536153028979840e-01 -3.407329958857187291e-04 -7.370467000579999928e-01
-3.929957452694733955e-01 3.967061794694625165e-01 -5.899111599567532505e-01
-5.398651148244358877e-01 2.795929628952909321e-02 -4.311103018474585213e-01
-8.150613679600959838e-01 1.615702695889323082e-01 -1.779015692039415467e-02
-8.278520452871344082e-01 -4.261043954591647864e-01 -8.196146108081289738e-02
-2.133259292923125883e-01 2.685070090645914065e-01 -8.655109904692449563e-01
-3.534993574628783608e-01 -1.547529995000378189e-01 -7.239640754434762959e-01
-3.753030483411091134e-01 3.004280196838139960e-01 -6.287954749136445143e-01
-2.157925484585526965e-01 6.193386315093096089e-02 -8.909774793648578273e-01
-4.220645890861472460e-01 4.806000016824318322e-01 -5.364551263555411564e-01
-2.126458811742698851e-01 6.008808286510880156e-03 -9.033409063141005779e-01
-8.028605996936040157e-01 -3.090756272772125432e-02 -6.230694012018635902e-02
-9.006399110419228693e-01 3.402964480901020383e-02 8.700082161264356684e-02
-6.202524127571890089e-01 -1.651218675100387945e-01 -3.429641719133935673e-01
-8.300485008406346399e-01 -9.406541709084269634e-03 -2.030768325400231569e-02
-7.655896905255756835e-01 2.291575686362211928e-01 -7.923060104594636943e-02
-8.729828080889820985e-01 -3.692928740921578440e-02 3.738492967421713081e-02
-1.901142695131138038e-01 8.365820185374299445e-02 -9.247434581118189056e-01
-2.640224516594226745e-01 3.796952974513659318e-02 -8.251927322421944710e-01
-3.196134597211874873e-01 -4.334213923180076783e-02 -7.569056416628382467e-01
-2.756520500662670292e-01 -6.027689837563254827e-02 -8.223127165519590331e-01
-2.468868817873452193e-01 2.472824851046017888e-02 -8.516198431683579262e-01
-9.432559377200879780e-01 1.506804878018506433e-01 1.644791575936990768e-01
-8.068857435801723987e-01 -9.040427365046746488e-02 -6.488928557648847295e-02
-7.114767901922568472e-01 -1.547965813343698746e-02 -1.911618782386945714e-01
-6.952370504947574803e-01 2.865809518853856819e-01 -1.720360280297756062e-01
-4.135656467767910849e-01 4.104473959655977611e-01 -5.584899040853765761e-01
-5.308780890375780492e-01 2.200109650173567577e-01 -4.170312332924094867e-01
-4.935005597273611766e-01 1.687230717352445064e-01 -4.778219067130610731e-01
-6.635072561109909284e-01 3.113016974799049374e-01 -2.140576358580600635e-01
-6.534862451975714803e-01 -1.122851354511108513e-01 -2.878970427978465585e-01
-6.151709371238278656e-01 -2.360628318890631017e-01 -3.602098619579863215e-01
-9.051001071894574368e-01 -1.085146750383338687e-01 7.338229711272362121e-02
-3.965751620111477305e-01 5.038650597808175258e-01 -5.697340218884409113e-01
-5.772565543566419155e-01 2.488216195233358963e-01 -3.464913357420571494e-01
-4.241061197206452693e-01 -1.372199416491784174e-01 -6.202703740419061029e-01
-6.370355985084463768e-01 2.275074453953167819e-01 -2.637759885702739560e-01
-6.790533884615302940e-01 -2.461657023497308416e-01 -2.700372041397645639e-01
-3.558370998175373057e-01 2.777489861712719582e-02 -6.949853269627033203e-01
-4.098425940451309035e-01 1.621941397747613534e-01 -5.986827122099613874e-01
-3.073675336362162724e-01 -7.751409661548838183e-03 -7.694662103708216350e-01
-7.894510923452279227e-01 -2.644369871139859995e-01 -1.143204137042870550e-01
-5.800321462841566689e-01 -2.689672185943969285e-01 -4.152097015803661861e-01
-5.582604061008260565e-01 -7.743055103117744975e-02 -4.195329521343472146e-01
-3.192831724072585642e-01 4.739743964328760883e-01 -6.847476455738131795e-01
-7.393473078135163190e-01 1.899128424618362065e-01 -1.223654527175148943e-01
-8.122696824569879404e-01 -2.328353836432612567e-01 -7.716750438350934715e-02
-5.870573142235957498e-01 3.991439095248819346e-02 -3.617702480625184513e-01
-3.773294337375996399e-01 3.208056742669844752e-01 -6.230291216011720756e-01
-8.578005405288824381e-01 -3.737884087183126341e-02 1.555432104372481139e-02
-6.951375756149457130e-01 2.183150468795286570e-01 -1.817632225055968997e-01
-7.180627358034785690e-01 -3.862567392970663316e-01 -2.337766343105348033e-01
-7.628517979280641237e-01 1.515104674002230589e-01 -9.405773757237478883e-02
-8.497761805234870236e-01 9.097489032112168750e-02 2.207037864606577887e-02
-2.238698636299801259e-01 4.814489366066123655e-01 -8.204965127142803683e-01
-3.956121036929924339e-01 3.877411875947402997e-01 -5.874186608180964608e-01
-1.909527852941461101e-01 -4.761194498767474387e-02 -9.419716460750608977e-01
-7.853536871565655053e-01 -3.925602578009926846e-01 -1.381836274567674328e-01
-7.431546952411913765e-01 1.500167389931814366e-01 -1.225080685452633322e-01
-2.393033739912487357e-01 3.720604932963328948e-01 -8.137270050078245776e-01
-9.224987601995062736e-01 5.939043486598668403e-02 1.219014938695459488e-01
-6.521200646556561953e-01 -1.108054305228972636e-01 -2.896480450604091983e-01
-4.099774735870271858e-01 2.530733538563705309e-01 -5.857298346997803495e-01
-9.372815806583429943e-01 -1.899496115897494064e-01 1.080887917724589753e-01
-4.527247161908104500e-01 -1.450119803490944603e-01 -5.803326284601413310e-01
-8.383485339545815318e-01 1.439788211379572080e-01 1.312783723297661700e-02
-8.084091646815969590e-01 5.141480059583913159e-02 -4.279360827251012939e-02
-6.357065022520512754e-01 -2.603461094483693894e-01 -3.341764968461537477e-01
-4.783026373097744588e-01 2.427405953821673845e-01 -4.892197392993165028e-01
-3.154756818603509094e-01 4.362665286981738944e-01 -6.955008204635907409e-01
-4.220063368864460651e-01 2.155730397074275551e-01 -5.737485853344562736e-01
-2.753341666746155769e-01 9.471868630338724226e-02 -8.010070094910862748e-01
-8.974120393080650127e-01 1.402033925895443400e-01 9.727973478165587162e-02
-4.918734953879315697e-01 -2.100226336487528156e-01 -5.333308192851360374e-01
-5.589426048205463626e-01 -1.455855277611320664e-01 -4.281238520711372897e-01
-8.365831902285024713e-01 5.938005223327769144e-02 -1.280930997193902758e-03
-5.756934786566688667e-01 1.221574815413583280e-02 -3.819519892678346906e-01
-7.111232503815222428e-01 -2.210692672941783898e-01 -2.205336651343466625e-01
-7.097391927634829623e-01 -1.500135294880990400e-01 -2.125417829122642766e-01
-6.105518961264417843e-01 2.402677170408755447e-01 -2.999552989064273034e-01
-7.892939628260264850e-01 -5.228654802798853724e-02 -8.475965174715585637e-02
-2.728333454508031219e-01 2.700912693307527257e-01 -7.799701348515588606e-01
-6.632832490651832114e-01 -5.361734442119247407e-02 -2.656136512688949680e-01
-9.495960288756770673e-01 1.326579981018412013e-01 1.710388596928107130e-01
-1.749118832762517339e-01 1.393930349976031935e-01 -9.387145910960806861e-01
-4.549802388784776608e-01 9.609767307778301071e-02 -5.432468493141947574e-01
-6.688912638626096641e-01 9.617769451134896772e-03 -2.486949445582290752e-01
-9.491397550796210059e-01 1.562740051303638522e-01 1.737003808702963226e-01
-4.208298220381325172e-01 -7.468268129693339530e-02 -6.161874796203269389e-01
-2.461907438457582309e-01 4.606058757146692106e-01 -7.914204536682802882e-01
-8.954481288223385960e-01 -7.515764056886040101e-02 6.422717431724636605e-02
-2.741119656487214784e-01 3.438337598526907124e-01 -7.677834315772759100e-01
-2.419736426266254348e-01 -4.373239480326493456e-02 -8.682760865869182387e-01
-6.436072067172394773e-01 -1.744126757546621553e-01 -3.107838018114301715e-01
-3.866724707068882050e-01 1.134598955129205305e-01 -6.387450630959282671e-01
-9.271451042559323286e-01 5.122924410141219825e-02 1.274173276824322465e-01
-4.390776574249931063e-01 2.267402095148473018e-01 -5.477047979857984084e-01
-7.233636738701283431e-01 -3.925579663032861127e-02 -1.774573090851112589e-01
-7.615245942643833477e-01 -7.541954393446048677e-02 -1.278217144887901779e-01
-6.284752673333816597e-01 2.374162600950963653e-01 -2.746581120670318898e-01
-3.947976775888776269e-01 1.133956648391605121e-01 -6.271046112711292642e-01
-8.734134913363434949e-01 1.801278288078068668e-01 6.847736522669459203e-02
-9.716123191541087278e-01 5.212404182810705805e-02 1.912975780565994988e-01
-5.760150609169085723e-01 1.818521832122229898e-01 -3.576738679687067046e-01
-2.962324886369424037e-01 3.412980173231031644e-01 -7.364242753959141519e-01
-7.399936609913593255e-01 -2.445668636013242081e-01 -1.824399518992445568e-01
-4.311865421970652035e-01 4.211868659249854985e-01 -5.317182161372144833e-01
-9.770372921894866503e-01 8.585350905346965378e-02 2.038112396483857947e-01
-7.205248113407608512e-01 -2.378991694570276039e-01 -2.094171578683021451e-01
-6.019387108710325673e-01 4.539308630628494795e-02 -3.396649169594476714e-01
-3.532437696234854152e-01 5.062367391230438995e-01 -6.315271778133253466e-01
-8.223813243315605259e-01 -1.204128025491784104e-01 -4.688579846158961312e-02
-9.540585044675105042e-01 1.060565146547646637e-01 1.737020452644889301e-01
-6.425458927940044251e-01 1.100577129883112577e-02 -2.862725964687745095e-01
-6.776050440805680974e-01 -2.101689516232633226e-01 -2.670597949612515953e-01
-8.950468568236720213e-01 -2.752276947976536325e-01 3.556190039993113727e-02
-2.524369735679259930e-01 3.553096230074751505e-01 -7.972486121599929865e-01
-3.712356350287219220e-01 4.889274333381362636e-01 -6.081616782199695814e-01
-8.039343051230075643e-01 -1.180484437899199240e-01 -7.300215155958424129e-02
-2.366332799110231755e-01 5.194814625543326958e-01 -7.968572472724215761e-01
-2.825059435648496486e-01 5.616426673274405035e-01 -7.251681149729940490e-01
-5.947355393277401481e-01 1.879134336961967577e-01 -3.299824838138177840e-01
-2.089241689043416506e-01 3.097222623489916948e-01 -8.660353441391901441e-01
-8.742705734438469545e-01 -3.972692785112789671e-01 -1.136068912028980783e-02
-2.989325127277307481e-01 3.049193656014428377e-01 -7.376607149252099038e-01
-6.367234898950511202e-01 -1.046601825520395851e-01 -3.108600014670092615e-01
-4.148532479808201834e-01 3.761708773044831200e-01 -5.614562563068783430e-01
-2.408174506868617781e-01 5.752468668944090702e-01 -7.830287205311898813e-01
-9.440923497041397994e-01 -1.284495368439778074e-01 1.264883401423064768e-01
-5.824890076869552180e-01 2.748346453144558943e-01 -3.353370910819905015e-01
-3.170729338945293407e-01 -7.115182002024163233e-02 -7.644526017556770858e-01
-2.930400712722598389e-01 1.706864356505959912e-01 -7.649553515974210072e-01
-6.523190153424655024e-01 2.039545266604530505e-01 -2.451703188468240535e-01
-6.871496397834311320e-01 1.805208719557096220e-01 -1.985222049826907142e-01
-9.107789164941901827e-01 -1.159425218583080980e-01 8.048138410943564414e-02
-2.866147572936401655e-01 2.079956710189736213e-01 -7.689293710880099608e-01
-5.455350491784926037e-01 -7.014184786783139725e-02 -4.367545231530284289e-01
-6.963273146565542859e-01 -2.152216438766614282e-01 -2.409262453495125689e-01
-9.502585038526906169e-01 1.356600081703236427e-01 1.724101634463854060e-01
-2.664815428856924240e-01 1.252505439527801800e-01 -8.094127186133291962e-01
-8.274977137873447131e-01 -6.309900318067537817e-02 -3.150331284424173067e-02
-7.712556023910503988e-01 2.674964519562189613e-01 -6.572433004508591858e-02
-3.654964677420420860e-01 2.318436625085436575e-01 -6.524848887048876334e-01
-5.204823811576108072e-01 -1.584233961450473294e-01 -4.850684265074775570e-01
-6.058294954160026169e-01 1.544931649080530101e-01 -3.187688116740065025e-01
-7.708092158955507367e-01 -2.498340942412705101e-01 -1.389978449443693420e-01
-1.475475136616871408e-01 -1.767110713184786436e-02 -1.000000000000000000e+00
-9.098383848192923562e-01 1.653972705346429956e-02 9.773348719479020563e-02
-6.053489045371245325e-01 2.063774534381135617e-01 -3.121732717487629150e-01
-4.009015110542572535e-01 4.842861523456638007e-01 -5.662800332207560405e-01
-1.946329965641690196e-01 2.439605138972071596e-01 -8.957582203032155022e-01
