1.796768990577314040e-01 -1.747954834451369288e-01 -4.336980757319510715e-01
-1.277302644888163863e-01 -6.097899432860743457e-02 8.614698602007600514e-02
-5.312914308529571583e-01 -2.220382744559121768e-01 5.458603921245225310e-01
-4.934632543907183089e-01 -8.016964409382930645e-01 7.609447547600173278e-02
6.141175858518483910e-01 5.894946611957191385e-01 -5.046740599407811834e-01
-7.546020674339320999e-02 -3.493255942612920051e-01 -1.952197317031325319e-01
3.524892949168780681e-02 -2.685900430972948741e-02 -1.216942943948299272e-01
-2.146446694509073216e-01 -3.040396194845951250e-01 3.566875764810762545e-02
2.211195582516866376e-01 5.895661698447383081e-01 5.557649507265382399e-02
4.222602162384335167e-01 2.800345418133046715e-01 -4.531959296289145844e-01
-2.127118914531722083e-01 -4.754306019669818362e-01 -9.004131172924806359e-02
-3.617423412605144661e-01 -3.334272032198857261e-01 2.242667169216711609e-01
1.318220282767875728e-01 -2.042222444785340985e-01 -3.865939274804452430e-01
-1.124111724521495159e-01 -3.561008447198538707e-01 -1.474084863290295033e-01
1.855206508046358116e-01 2.559501497547449489e-01 -1.330134018406422536e-01
-1.670606372969732356e-01 2.584117820850683755e-01 3.713397517399452119e-01
6.183517451995883783e-03 -2.573363012394262739e-02 -7.945564925507021814e-02
-3.767972799828578911e-01 -5.911948179285173577e-01 6.080565578773404478e-02
8.933452500486330217e-02 -1.204062259055493495e-01 -2.659009213752571155e-01
-5.512662471659051100e-01 -2.106977101570031430e-01 5.824691662653044277e-01
1.644122951852979297e-01 2.246123362142406488e-01 -1.254060673935184500e-01
5.056782893790200406e-01 1.947482922068545785e-01 -6.332881751316702390e-01
2.436554973097853627e-01 4.376883757069605640e-01 -8.550370284855994540e-02
5.778557397723689260e-01 4.218389391897334195e-01 -5.732599251409709051e-01
-3.299908838375782971e-01 -5.769943702939327457e-01 4.272779088520851226e-03
-4.932688565178584561e-01 -4.729394898904655808e-01 3.116658794895962870e-01
-5.172176191408320300e-02 2.414234738681138304e-01 1.947425652286614850e-01
9.586976402106084372e-02 1.567011027483169172e-01 -7.642124047369573681e-02
5.774148677262455065e-01 9.067030339166713970e-01 -2.247925309740051725e-01
-4.190875750496743657e-01 -7.273790735505614169e-02 4.930266425766595684e-01
1.167228418639985887e-01 2.237003661913653518e-01 -5.808135236828894377e-02
-1.448738276113887280e-01 -4.050784957031011713e-01 -1.362708860011482837e-01
-4.808176955875895220e-01 -2.948301942024362798e-01 4.216920377716901758e-01
-5.345302727228907758e-01 -2.017149872045509718e-01 5.650570204980779332e-01
-2.860461858495430554e-01 -4.381100311040871942e-01 4.126668000511918982e-02
-7.200639052466981660e-01 -7.221960085337538748e-01 4.561356904657160038e-01
2.263541637801328721e-01 -8.500814874599406379e-02 -4.358212465160957172e-01
4.449515007595961635e-01 4.447585204209134613e-01 -3.673691172778585923e-01
2.506459722952205094e-01 5.382542841749106133e-01 -2.332282516053323790e-02
-1.876870816518447782e-01 -4.098197733753844996e-01 -7.864407710772716720e-02
4.747400032361738242e-01 4.512560423059442383e-01 -4.051698665080827877e-01
-1.903435420998456779e-02 -1.595463797775920622e-01 -1.395053834069643062e-01
-4.767614333545443506e-01 -6.589779385266299194e-02 5.801449371618155881e-01
-7.693678841298087212e-01 -3.942528005534560731e-01 7.616808079131027753e-01
-3.305725118025014675e-01 -6.088301186297849776e-01 -1.773693751957338902e-02
6.093220108965864412e-01 6.065437372597025645e-01 -4.856072874275008111e-01
-7.140493404770345554e-02 2.489186977448563931e-01 2.281769880074455414e-01
-8.851070881636774815e-03 -3.213703182246407941e-01 -2.701127930542474020e-01
5.404401701370845634e-01 5.761534107809183070e-01 -4.092214900143840151e-01
6.081914697929040603e-01 4.653125437827287936e-01 -5.853142728057203481e-01
-1.292600369841606367e-01 9.323198011844344157e-02 1.989577435241659809e-01
5.918781456497254068e-01 2.643612748104309240e-01 -7.062218199720886602e-01
-3.154458014478178085e-01 1.304812650561158749e-01 4.910787853277684967e-01
-5.743150650921554634e-01 -6.930520383127491968e-01 2.692856569638205078e-01
-3.766028879533456220e-02 1.149138164570857323e-01 8.394126739227211753e-02
-1.845559150229588163e-01 2.409856900280364644e-01 3.837770181774523004e-01
2.939650112023694528e-01 3.855443819530638416e-01 -1.946252541838790207e-01
-1.055750892217280773e-01 -3.560461322792458083e-01 -1.571137345209583369e-01
-1.397700409629168972e-01 1.996648665496646990e-01 2.902936277499564288e-01
6.872683022501143713e-01 4.984290999424154101e-01 -6.742767439117339778e-01
-7.812459008225478563e-01 -5.346854579800420781e-01 6.778666831029350748e-01
-5.630163165960221372e-01 -2.718963278893962721e-01 5.553147425414611815e-01
4.093417535410487362e-01 6.271125204151670740e-01 -1.857893824242816683e-01
-3.370707542068441254e-01 -4.181747398738663302e-01 1.283011522361185430e-01
5.039094283048819456e-01 7.863913875770757178e-01 -2.063251044956924407e-01
5.227725171755109868e-01 7.737485895971283334e-01 -2.422833817385531829e-01
-1.597501401593857673e-01 -4.370447186395366446e-01 -1.379978383829108257e-01
-5.853581582846713038e-01 -4.710744531177946115e-01 4.442725930348619401e-01
-4.271888787237397844e-01 -2.477705928007979397e-01 3.790071218864277114e-01
-4.707355224171552721e-01 -6.150972985209546273e-01 1.775624613160986520e-01
-6.139210254075020412e-01 -1.661131528966191262e-01 7.037651814680859763e-01
5.497798578359128774e-01 5.993839177948638852e-01 -4.058693093727310242e-01
-6.717918807470651954e-01 -7.299510372567561411e-01 3.817628896910296166e-01
-2.349656198802643481e-01 -4.970745895367375544e-01 -7.384700518616446607e-02
-6.415927782151644720e-01 -3.861053328561489528e-01 5.853886632493232600e-01
-5.107596258135729261e-01 -2.365086292643233112e-01 5.062123628368475625e-01
2.085014457311555880e-01 2.491602495620195978e-01 -1.706424273440184936e-01
2.704910688532644047e-01 1.279870756828049572e-01 -3.459345677888356896e-01
5.037988341539393483e-02 7.800973330690910701e-02 -6.803043988341657411e-02
4.548971253997418640e-01 6.801983464667862300e-01 -2.126428197894156269e-01
-5.276066911134964510e-01 -4.971573724356538881e-01 3.432389831063699104e-01
4.659737346461580443e-01 6.634051265791255370e-01 -2.404793462194848297e-01
-9.059227666827936176e-02 -3.655525159074218822e-02 5.073008546539430758e-02
1.100214925643106662e-01 1.024523646008403954e-01 -1.355115893150218298e-01
-1.953706567219684609e-01 1.697006999392056681e-01 3.480534205142731263e-01
7.053449972503929022e-01 3.581708345123047477e-01 -8.006647211157995603e-01
8.050520050384539494e-02 4.819701403928103312e-01 1.788264828890144265e-01
6.422718516128427257e-01 6.873720257474238426e-01 -4.745898667535722870e-01
8.055962223025199542e-02 2.081370144898919416e-01 -1.769753770800943857e-02
1.829918051781470878e-01 8.083901395407154522e-02 -2.550324657988871091e-01
5.646500722874961964e-01 4.628172837930168426e-01 -5.250382501295214333e-01
-2.322948134973659151e-01 -3.954960279662098066e-01 -4.782181494644309819e-03
-1.660682532361800745e-01 -2.410056241202374883e-01 1.164573531264188194e-02
-1.548316293424480961e-01 -4.701480423719238133e-01 -1.687570827760395964e-01
1.931535678278401558e-01 1.076042066059268720e-01 -2.503163474525788024e-01
-1.457932021050038773e-01 1.782987257229481839e-03 1.569199260832513654e-01
-2.322429495684664724e-01 -1.840152566943973611e-01 1.468590826996420129e-01
1.905243144067102906e-02 2.346414134696747089e-01 8.899203781665170065e-02
-9.445399643445769045e-02 -3.616122630140070626e-01 -1.769594152958381683e-01
-4.256973176620348909e-01 -2.947349566573466140e-01 3.431889875865919981e-01
1.893443466770757672e-02 1.982611880914219582e-01 6.306125392825530362e-02
7.276697186923661853e-01 3.646787706484985181e-01 -8.278187484267637286e-01
1.353797442158896636e-01 -1.234500332220192231e-01 -3.337197158512832385e-01
-6.930906826547346133e-01 -7.347293460664462428e-01 4.086953449885137313e-01
-6.131257641825565291e-02 3.378558741715104174e-01 2.775938941307192764e-01
1.473986764167267149e-01 3.408541406544628449e-01 -1.776273566142555840e-02
-1.018362116779581439e-01 -3.414665683435115229e-01 -1.519840170468759744e-01
-5.038304750090222273e-01 -3.006303718185109886e-01 4.503345999507657460e-01
5.134007841627989954e-01 5.277433691753743439e-01 -4.054072917518735664e-01
-6.498741995923887904e-01 -5.419972383236896230e-01 4.853573863810748956e-01
-1.288144653296350861e-01 2.504016461732869181e-01 3.110752954279555338e-01
-2.810553672244893164e-01 -7.282955227718684865e-02 2.962028102559929321e-01
-1.317800395539470704e-01 -4.328334789289627338e-01 -1.748467124776161286e-01
-6.030507432456938544e-01 -3.506059895138328164e-01 5.559159405668725462e-01
5.330933409709202042e-01 4.312374203233079739e-01 -5.027109181319314724e-01
-5.623387835108303867e-02 -2.826753651069683348e-01 -1.748113880606061155e-01
-6.085112238560718145e-01 -5.747763702572915578e-01 4.028809328707802506e-01
-1.365310395704216195e-01 -3.010615406337632805e-01 -7.354190101221175224e-02
-4.382599339294467322e-01 -6.496293444504641634e-01 1.064970075720834269e-01
-5.927509319780539104e-02 3.600313150233410558e-02 5.814199165102688915e-02
-3.074379521113239089e-01 -3.244349752370846440e-01 1.533094725605835817e-01
7.344523363263194549e-01 3.748865650645495373e-01 -8.301640164152933599e-01
-3.927284958585871427e-02 2.260148127439187693e-01 1.659431637931085279e-01
-3.105708990885108212e-01 -2.405109829020004031e-01 2.179819645104342507e-01
-3.863011459904143741e-01 -6.134652595626793881e-01 5.837624906362842009e-02
4.198426095872224151e-01 5.610176207354956590e-01 -2.481739670658615060e-01
-3.697562150919153079e-01 -4.199366655026679496e-01 1.736286642882165221e-01
-6.751806807549933787e-01 -6.283795180180761220e-01 4.594603305208883048e-01
-7.088603087286931004e-01 -4.032508978352005724e-01 6.689750635111543220e-01
-1.102055020943664343e-03 1.710617410899271107e-01 7.210953889534543748e-02
6.284998797961950379e-01 8.153414977346681303e-01 -3.631539754043989765e-01
4.742448769918167772e-01 7.850509211498645223e-01 -1.650013970424822063e-01
3.152625142103689937e-01 3.522464950705367914e-01 -2.488715206059348983e-01
-1.964778057111992715e-01 2.227228539437209331e-01 3.876694212228291025e-01
1.475806059050678853e-01 1.840922822400255787e-01 -1.304822003576432687e-01
6.122991017510999168e-01 9.430592464216822624e-01 -2.484365258503953566e-01
9.869944699294609658e-02 3.373483315937383931e-01 4.914055877450833332e-02
2.647238517089479659e-01 2.156646748949948011e-01 -2.748142361343212103e-01
1.606950993057847665e-01 3.619506637517185821e-01 -2.158159422238584493e-02
-2.769565679824282367e-01 -5.631787264691401340e-01 -6.141374542471593478e-02
6.384689002485921527e-01 7.455328611972276143e-01 -4.274446700061346749e-01
2.992485069023945732e-01 5.534664634281655227e-01 -8.169019747532299536e-02
9.361424763920352110e-02 1.788152633525376791e-03 -1.843398495152192840e-01
2.069672709506706898e-01 3.933280839813267371e-01 -6.503029046421937576e-02
-5.434069515345273382e-01 -8.898531400625625531e-02 6.585819621916170208e-01
-2.695013555515213821e-01 -5.847958889859659060e-01 -8.754882085288340221e-02
6.974442884005472854e-01 4.806827948977492326e-01 -7.015132149348988211e-01
6.093173770372175557e-01 9.388341425749968661e-01 -2.472172920036288524e-01
-1.513975781843293900e-01 1.635753660965844347e-01 2.809776891716069258e-01
2.024127937121454057e-01 2.886892248752912504e-01 -1.336054758617035432e-01
-1.576568039898655904e-01 -1.913011303548552700e-01 3.531337290292031056e-02
-7.116017919463314412e-01 -6.227938165499682377e-01 5.153839764178202998e-01
3.531096255541498752e-01 4.602231860656624818e-01 -2.253587957945981379e-01
7.017897195679171363e-01 5.767822543828651227e-01 -6.387661651006857344e-01
5.802451572629204746e-01 8.748127647158768783e-01 -2.517048802475068681e-01
-4.885065501096625407e-01 -1.526472262791881696e-01 5.346534334911209330e-01
-1.528558884383411989e-02 -4.528410279113457421e-02 -6.287790617499625090e-02
-5.643334137078842572e-01 -7.703616498930184742e-01 1.995957975264818218e-01
5.765031155927005102e-01 4.445210959990723021e-01 -5.550597661923100112e-01
-1.953782996283178197e-01 -2.335702617887170096e-01 5.875984695220615173e-02
-5.568181571015295983e-01 -4.935185575778457401e-01 3.874889500534962061e-01
6.843278132422835336e-01 4.316629868401419268e-01 -7.179828808176206278e-01
5.951149161901820861e-01 7.114280100196965773e-01 -3.901123504933878272e-01
6.731226482437077108e-01 7.390510785610419076e-01 -4.814918709804671404e-01
2.983242833092450974e-01 6.930545141857337166e-01 1.976697142298227891e-02
6.157472825894507729e-01 8.729937338543071190e-01 -3.036163675432522746e-01
-4.253870475503087611e-01 -3.618345275006030759e-01 2.946098334711796385e-01
7.068704196196204936e-01 3.475908373730654533e-01 -8.104291696067761341e-01
5.468118610270771285e-01 2.448809792264715068e-01 -6.559571213673800472e-01
4.112675821680228383e-01 2.614984794167858340e-01 -4.508241470618387092e-01
-8.046342284639457221e-01 -3.153036305301135656e-01 8.685889574628352650e-01
-3.324853841667789744e-01 -5.154920083234769690e-01 5.195003714791683602e-02
7.432055236749497522e-03 1.486610075102841044e-01 4.387441820361970973e-02
4.928172699880569163e-01 6.799279932770084800e-01 -2.668900607537063596e-01
-2.035807443712543685e-01 1.154247958598102336e-01 3.208192461948843333e-01
-6.938677808433766359e-01 -2.811742915767194706e-01 7.351810720056805026e-01
3.081975876497105027e-01 3.902262904128606102e-01 -2.115543116079351693e-01
-7.730718136146653707e-01 -4.884241290956640724e-01 6.994025601551299154e-01
-3.486803608521887310e-01 -2.191936553001191113e-01 2.875980565563909241e-01
-5.541322305549939431e-02 2.736518787872777581e-01 2.231250488278117838e-01
-3.447941542464729725e-01 -2.529588885588011093e-01 2.578354603553785207e-01
-5.100944499836491675e-01 -2.878910073485316801e-01 4.684027396376007069e-01
2.847540715597972061e-01 6.123656146192252292e-01 -1.877515516540849763e-02
3.791252523332686725e-02 1.616848497775532911e-01 9.769251427133422011e-03
3.931263705435261713e-01 4.428063308824946032e-01 -2.948954473556987255e-01
5.861873971596480715e-01 2.388497720172533534e-01 -7.164117574023007862e-01
5.040700535992568287e-01 4.766381543958494449e-01 -4.287694091743987634e-01
-5.837573122567308453e-02 -6.939740150625985093e-02 -1.875379270969316364e-02
6.470820530046459407e-01 7.629816819199292111e-01 -4.272046010836647034e-01
2.410438192148797731e-01 1.802893060648709522e-01 -2.664376244098021207e-01
4.322192629219098747e-01 7.368006253414679518e-01 -1.397104708846766408e-01
6.756958931287299075e-01 7.969576303030869724e-01 -4.436180484867631169e-01
-4.921979179592800291e-01 -1.793762774318351516e-01 5.207400150317658127e-01
5.033282584245269975e-01 8.625819020861058561e-01 -1.508380009565329360e-01
-4.147253102440304207e-01 -1.839030969364054968e-01 4.070591271396308275e-01
-4.960158511532891668e-01 -5.779676125278352394e-01 2.402349614079353490e-01
4.696089372051642230e-01 2.430216634202103099e-01 -5.472420344328943198e-01
-4.671794687960577064e-01 -6.757301619454549879e-01 1.289957852179260123e-01
-7.313559583494954053e-01 -3.807831082732981987e-01 7.171597737935752059e-01
1.826285773590761441e-01 -1.805154014627399217e-01 -4.420089863127699137e-01
-7.280094856158624284e-01 -4.274496518593561833e-01 6.789112093250174729e-01
-4.706780984230903853e-01 -1.517736078111734666e-01 5.098665865032581124e-01
-7.816890097643515167e-01 -4.871101845666688246e-01 7.126285640553096101e-01
5.653187944866296943e-01 5.420808139018329364e-01 -4.691282407061176940e-01
4.964092755060717788e-01 7.899692160854051570e-01 -1.930672921891404270e-01
-3.970318480745419487e-01 5.843713413133475726e-02 5.556915796415063946e-01
-5.090196558120143600e-01 -3.693344374763513627e-01 4.084435850273896995e-01
-4.969901289160374991e-01 -5.509094877499636222e-01 2.610351026663532137e-01
4.228841196651714207e-01 6.327210248672427984e-01 -2.010698440684219324e-01
6.058746261853243942e-01 3.670329109693236669e-01 -6.525170187809231637e-01
-3.530428255738796151e-01 -3.642643777508381420e-01 1.897435605778184098e-01
2.403498618375415549e-02 2.254749717073272208e-01 7.531369527462260238e-02
-3.822376238279452387e-01 -2.627594033227454440e-01 3.041784369359798457e-01
-2.808854545804245206e-01 -3.934148313935260100e-01 6.597441410442256293e-02
-1.788613573970339043e-01 -4.293940930363580599e-01 -1.052672246442078463e-01
-7.851539424018957880e-02 -4.011254101249476234e-01 -2.280256286161508328e-01
-7.707423427215498446e-02 2.087979988368170448e-01 2.074759166357078299e-01
-1.532008052714824847e-02 -1.349735076609596685e-01 -1.271714475866654315e-01
-2.327110643019014366e-02 -1.857807168984559540e-02 -3.233617939783820644e-02
5.893733493649259136e-01 3.305457189507441940e-01 -6.551709843998487770e-01
5.890704592826151442e-01 6.045075173227465459e-01 -4.582004754949787206e-01
-1.893789772204195476e-01 -8.203005221038561778e-02 1.589222592980967519e-01
-5.305990646570442060e-01 -3.001246642826789768e-01 4.888546927487903981e-01
-3.859384229074343531e-01 -4.773659824035815791e-01 1.554961112722287042e-01
-1.607726842854331761e-01 -1.138628910117156501e-01 9.530869203803099543e-02
4.971220883575705463e-01 6.004802444012303786e-01 -3.300217638974454748e-01
-3.208088154655250324e-02 -2.888534725820439686e-01 -2.136724324974246525e-01
6.050652243034725791e-02 2.197343063051056256e-01 1.920700064311606226e-02
2.451243202254144160e-01 3.541468011239150004e-01 -1.475297237523763016e-01
6.124471310626463660e-01 7.410747649608909748e-01 -3.935501395813509884e-01
-2.055199939780450735e-01 -2.428654318504287757e-01 6.654802461152861670e-02
-6.916449067000133288e-01 -5.004839764500470523e-01 5.746808597073371772e-01
-4.915523028589470766e-01 -6.438017497045318560e-01 1.866433300782303628e-01
-7.534459566168896227e-01 -7.173012247454954027e-01 5.072316461535890664e-01
-3.396691634348714683e-01 -5.095205941477493061e-01 6.647402040659769473e-02
3.311183513106004117e-01 5.594051869323792836e-01 -1.228586757304059585e-01
1.678692116501426246e-01 -5.876229749752946013e-02 -3.336252035381601089e-01
-8.501429796272778894e-02 -3.534714103512301975e-01 -1.845750337782099126e-01
1.077083397272665319e-02 -2.979092729677980111e-01 -2.812520176014402518e-01
-3.886896857757221047e-01 -2.862401957175674805e-01 2.965305351590606375e-01
-7.511887567045965053e-01 -5.974304520217651460e-01 5.900087815448143980e-01
-2.719547965860094618e-01 -1.857867605327354621e-01 2.021954893804240871e-01
5.148146228870897900e-01 5.562829452049573575e-01 -3.869485071156458234e-01
-2.226431492930419365e-01 -3.586452733980543539e-01 7.896386065740116506e-03
-2.942662832556074831e-02 -3.069516440300791849e-01 -2.304394722781185345e-01
-7.181532330957464128e-01 -3.805546458507684804e-01 6.985038395435677616e-01
3.335921162817939156e-01 1.673283938485820577e-01 -4.076587357763291064e-01
7.018020411515353552e-02 -2.585473345653896970e-01 -3.376990893170366825e-01
-6.064371638005546794e-01 -2.848356787301633553e-01 6.079263908477089418e-01
-8.422561225488252312e-02 -6.806728047651448843e-02 1.904815628820157730e-02
-1.668446494675361047e-01 7.051222511609892690e-03 1.907071276098534773e-01
7.031220456354821957e-01 5.216615252147397408e-01 -6.802086513908830456e-01
-6.177436335916058896e-01 -3.681022404294722605e-01 5.643082107722509067e-01
4.218765952530179053e-01 9.649883539986872649e-02 -5.843166479081263187e-01
-3.201361965494713135e-02 1.068464942459872030e-01 7.010476520504647924e-02
-6.487903017956577756e-01 -2.716238071517239061e-01 6.777768219722615228e-01
1.528363751563088513e-01 1.298493863820903566e-02 -2.607255484071508422e-01
-4.074156251770795767e-01 -1.786199158230297179e-01 4.004296588911094301e-01
2.446696595380013217e-01 1.864291723743498330e-01 -2.672013726809835954e-01
1.957375228722549876e-01 -4.509599332969252417e-02 -3.635459683592594526e-01
-4.178397215495781580e-01 -5.691247313418160703e-01 1.351425908495823835e-01
8.048751522513303280e-02 2.913228769104705268e-02 -1.460118028037750704e-01
-5.526029067677625806e-01 -6.024287419734086768e-01 3.033487253432802233e-01
-1.333711130951809321e-01 1.801280322917591659e-01 2.671566502923324871e-01
-3.947172666129561414e-01 -6.808117806625497703e-01 2.205897261483994939e-02
-9.526733943105873681e-02 9.477214088434304448e-03 9.041760516602789788e-02
-7.114545642589642505e-01 -4.856281583263716284e-01 6.135760328271218089e-01
1.815185356932265959e-01 2.335076877827278741e-01 -1.434086888986760566e-01
-6.691308227205187142e-01 -4.341267495860435255e-01 5.901924720328148855e-01
-4.910562116684973888e-01 -3.037297962379418292e-01 4.299020084437917832e-01
4.566344239602008193e-01 4.783033856470928491e-01 -3.599576366099671576e-01
-7.486085045049510611e-02 -3.232536080204957089e-03 5.221125623742205180e-02
-5.317568707072695133e-01 -6.998489714220078595e-01 2.037449712330377527e-01
-1.854575975504412777e-01 -2.330627356662132721e-01 4.498247327893682007e-02
6.870704984496501799e-01 4.735749674783584218e-01 -6.918250083591249711e-01
4.525839393551310263e-01 5.243139070074412933e-01 -3.211761649275189368e-01
-6.737011851837202414e-01 -7.908395470638152069e-01 3.408034118780420840e-01
-6.193449310902188198e-01 -1.795131195587027773e-01 7.018836251671005666e-01
-1.020625524106806431e-01 1.039626998686891540e-01 1.678872360888948034e-01
-7.543775005057277161e-01 -5.163169021514970591e-01 6.527446124569649122e-01
4.118809808668192352e-01 2.012229692184825669e-01 -4.949398507528218194e-01
-1.640395401865335501e-01 -4.631680319029565229e-01 -1.506242383674713525e-01
6.424929592058984396e-01 5.668666274861150489e-01 -5.613549839692204557e-01
-5.857510457480060717e-01 -1.449865002147118498e-01 6.787664180152449545e-01
1.632455888170679936e-01 -6.071205650194157200e-02 -3.284332046828059570e-01
4.646636223658278109e-01 8.321293367740908442e-01 -1.175699844533408395e-01
4.385087078214785355e-02 3.205728299174641638e-01 1.152898352476820348e-01
1.619949819645399025e-01 -1.939270094172888814e-01 -4.222182334316569308e-01
-1.424961105534527095e-01 3.555888916189837295e-02 1.764507395967146453e-01
3.715015299705626273e-01 4.681308703342350053e-01 -2.459026149561112373e-01
-2.945351809258713871e-01 -2.817877226707254934e-01 1.655121250771128261e-01
-4.031897917251694441e-01 -6.081630345467533560e-01 8.625396679141865419e-02
-7.491911189981056429e-01 -6.806921099422328369e-01 5.274297720482024054e-01
-8.868605364008805281e-02 -3.097766866443211198e-01 -1.479947625181129156e-01
-3.432731796995094203e-02 2.838792230300177244e-01 2.004051767995593536e-01
1.096083380477243657e-01 1.221053050916526411e-01 -1.208237417793035506e-01
-4.097208138786436749e-01 -4.583591937649339476e-01 2.030321038523406618e-01
3.015472359797155555e-03 6.724800001044391184e-02 -8.235224932141441481e-03
6.899742166749956995e-01 4.176752545102704883e-01 -7.360662753502267286e-01
-4.120367620433153522e-01 -7.061743261321230536e-01 2.855210012200831357e-02
-5.152448925287557158e-01 -2.097557291300312377e-01 5.317982786780722781e-01
3.945120767338168855e-01 2.901307645067743302e-01 -4.063993517863429550e-01
-7.980298281358123857e-02 -2.873201854713173242e-01 -1.445469648258221884e-01
-3.796763261457771210e-01 -5.595381256483586974e-01 8.761993836592750495e-02
5.924226483406191263e-02 -2.686835317856429706e-01 -3.293792523440403075e-01
7.149778773222431605e-02 5.481288320473569342e-02 -1.147742665620819502e-01
4.538146138879697866e-01 5.229086298646533626e-01 -3.239385690541560781e-01
1.014685529023142130e-01 3.410053250944159453e-01 4.781684314389348517e-02
3.189095197239566470e-01 3.290717476027944510e-01 -2.706955886408511369e-01
4.535462823962180812e-01 4.628887083509529710e-01 -3.666140519801341369e-01
3.160076442131715818e-02 2.243054951958498577e-01 1.680751761459386706e-01
-3.158261090258089876e-01 1.607335954873501463e-02 5.139303648820700010e-01
-5.690558353644223910e-01 -6.988796777317051179e-01 3.619932670958075915e-01
2.417731946290403722e-01 1.810299126398426939e-01 -1.625609057994160667e-01
-6.545312970558428423e-02 1.788565190301893426e-01 2.738158464321084340e-01
2.417530474097072390e-02 3.847801455383481062e-01 2.937834723602532616e-01
-3.311859543006492324e-01 1.576010093878474350e-02 5.356003347161397699e-01
2.352969826250472796e-01 3.372574938391829646e-01 -4.125254028719085864e-02
3.343721013309115531e-01 2.443798453820554273e-01 -2.491091596532233055e-01
-6.756399613871215681e-01 -7.564341321949751284e-01 4.726344051932454549e-01
7.488725445099103650e-01 3.481407135684549403e-01 -7.655215434606573721e-01
1.466624035798397840e-01 1.225671358128773841e-01 -6.892606505378995330e-02
5.696774762150624838e-01 7.629028256868123359e-01 -2.125396755437833907e-01
-5.968375602258910728e-01 -3.271940187708811121e-01 6.682400800847563271e-01
1.539272574314721337e-02 -6.475192723445215293e-02 -1.618934160475951622e-02
-9.912361016087914423e-02 -2.258961324834333345e-02 1.772950549644130291e-01
2.294426517624172379e-01 2.248866643611700245e-01 -1.135217235213480808e-01
3.928836943143759752e-01 1.789976788950010667e-01 -3.794193646822940358e-01
-2.598937826200987122e-01 -4.401192723680420471e-01 1.069314032166022305e-01
4.209572829045412079e-01 6.333760257581185771e-01 -9.346823941701543070e-02
-4.935740028646939948e-01 -6.094777447524800662e-01 3.185341241268273005e-01
5.310783733105630677e-01 3.455494888903926642e-01 -4.569256530278203443e-01
-4.552658916246482557e-03 -3.275486617346913820e-01 -1.762871779847468290e-01
-2.405999049318526539e-01 -3.264984803833999027e-01 1.609398935513964568e-01
4.353506737651223757e-01 1.784909997086563394e-01 -4.403174329353879979e-01
-5.720620391163852014e-01 -6.084419023562743778e-01 4.311580465587958044e-01
-3.583891190103255520e-01 7.355682135901127697e-03 5.683478149761043152e-01
7.935220040849696455e-01 3.308644175343780636e-01 -8.415610641870158171e-01
6.580587016694537938e-01 6.108954563526127757e-01 -4.475720298208917813e-01
-2.772476250659371422e-01 -1.966432695016753496e-01 3.063368521205164230e-01
2.649282995127204554e-01 3.330573172390015602e-01 -8.650370189383027597e-02
-1.670904687442638370e-01 1.613402003150563868e-01 4.061287324212260463e-01
-5.950944943081777350e-01 -3.474892801707330503e-01 6.511957119654011583e-01
1.291999154923176574e-01 4.027754050897022764e-01 1.569857876794153173e-01
-3.329465270304659552e-01 -1.155096917872261986e-01 4.439376848032731693e-01
-6.577129367691680883e-01 -8.084961441215714473e-01 4.097313043774035157e-01
1.143724830924042063e-01 -1.577202776629367531e-01 -2.239750971899239218e-01
-6.969795939417908204e-02 2.678390174696542725e-01 3.437022178950775997e-01
4.260600546629589869e-01 6.897799855127484392e-02 -5.056381661892063173e-01
2.443853418877307004e-01 4.107932784884411603e-01 -1.453361642140488155e-03
4.350022476076985667e-01 3.664840476940809388e-01 -3.049555442391724269e-01
-6.988561227926375352e-01 -4.118045871840064764e-01 7.529633193101354927e-01
4.305005186734412459e-01 8.835400572100801653e-02 -4.980675823673163527e-01
-4.508751835427113330e-01 -7.072383660022329988e-01 1.875361127811773221e-01
2.093282897765908757e-01 5.472641608225187193e-01 1.464222262414077158e-01
6.213471515773536513e-01 3.973936216236085284e-01 -5.484066244654888234e-01
-6.240681603481240680e-01 -6.343791266773759485e-01 4.866829723484101256e-01
8.034859136820025061e-01 3.557020256331235863e-01 -8.379457551237655677e-01
-6.717672649903935200e-01 -8.543301039052288992e-01 3.968840124655751977e-01
-4.104703038303454954e-01 -3.542466731373514754e-01 3.831753396799196243e-01
5.787925939951904519e-01 3.390154128906783804e-01 -5.296274269811743762e-01
1.170610032176274545e-02 -1.361621625476147346e-01 -6.216356681086773056e-02
-5.583659474084288199e-01 -6.473449132851853971e-01 3.837261295371929837e-01
-2.160782178608002674e-02 -1.763116532847469053e-01 -4.347925178655463047e-02
5.093459216862388228e-01 7.256262020028885207e-01 -1.532820817686692261e-01
3.107605541164193963e-01 4.988125604263907165e-01 -3.292337431480000381e-02
-6.888033593927251896e-01 -2.933838227290037626e-01 8.235880361205886180e-01
-5.004399656165564592e-01 -4.986943818998422762e-01 4.077966166933646996e-01
3.061602780758268527e-02 -2.959089724399078802e-01 -2.037202550762781672e-01
1.615844013775017685e-01 4.444234868309542286e-01 1.407014193400487889e-01
-7.723969173560776835e-02 -1.717184313272984708e-01 3.911638118828075772e-02
7.611228095708566510e-01 5.083580217424312764e-01 -6.680446358441236576e-01
3.573035923078135556e-01 1.898503323026992096e-01 -3.209160521557161139e-01
-2.665010068664693255e-01 2.667119617424958296e-03 4.340023047616300977e-01
-2.504962307673416211e-01 -6.230149128045271434e-01 -3.767271330934318652e-02
-5.636387922438391707e-01 -6.050048627841564386e-01 4.216168387831899511e-01
7.576504653538401746e-01 3.319485289634169223e-01 -7.896502236878328862e-01
-8.988362924928913755e-02 -1.030408246017905649e-01 1.064086429477688056e-01
5.508669046833367666e-01 3.399020254548738573e-01 -4.891846865643663667e-01
2.104577547779242497e-01 2.672538336833577693e-02 -2.286195529974719143e-01
2.980285176697808902e-01 -1.142737236562431924e-01 -4.545993634521259263e-01
5.536815978281816042e-01 3.409554207999623276e-01 -4.924411921759103139e-01
6.103983635963895482e-01 3.877119726246738840e-01 -5.397452327026407426e-01
-2.108365039805585317e-01 -1.001717159394182877e-01 2.808792683821497160e-01
5.940349148712725791e-01 5.172115825972373182e-01 -4.235176062182395840e-01
1.184529234474691467e-01 -7.537067353682071202e-02 -1.707143900145744464e-01
5.207628609814261011e-01 1.514262499126135253e-01 -5.814843915243511629e-01
-1.315591335245068494e-01 -4.349698142222812036e-01 -7.230909887613201636e-02
3.577367052155940308e-01 2.992465953699559589e-01 -2.430531291065971267e-01
3.909483549273354841e-01 6.691919877151560891e-01 -2.499781364821812915e-02
-1.818781702681299128e-01 -1.719807507221610965e-01 1.880851715398878798e-01
5.527188248890920752e-01 8.142300753603471941e-01 -1.515440575488823383e-01
-5.850086129609189944e-01 -8.401019749688907190e-01 2.834210290127532894e-01
-3.129734496862336401e-01 -4.208893116281589020e-01 1.963893166487970243e-01
2.652367350366902077e-01 -4.777908108738248422e-02 -3.601533917718022781e-01
3.302151038817525280e-02 5.678968222719241871e-02 4.587500934855173046e-02
-3.318563219890339755e-01 -2.164234359086345261e-01 3.699886618470484834e-01
-4.289176716433995562e-01 -7.469725637391227968e-01 1.277316607467578191e-01
3.527270231380934540e-01 2.773671835761886140e-01 -2.516082500391909615e-01
6.152020251440706300e-01 4.147295499640937244e-01 -5.272103467385959030e-01
6.525590301398581650e-01 6.982551274735766533e-01 -3.770611511518210945e-01
1.476627003902102608e-01 2.502773944103062753e-01 2.126672951442652032e-02
1.686516049616636204e-01 1.229699816224926433e-02 -1.793778014000064203e-01
7.238323760853581090e-01 7.242690257722115277e-01 -4.599955475223621026e-01
4.844870123610121593e-01 6.640082246659797516e-01 -1.620513488136368085e-01
2.485153282674147091e-01 4.520657103997177129e-01 2.226817270060472628e-02
-3.032774155847225983e-01 -5.560878003704735617e-01 8.557741434183031848e-02
2.181776254208555033e-01 4.368952432563739108e-01 5.462985456204848267e-02
2.396350932852484850e-01 1.938204261685089469e-01 -1.503373008882240847e-01
2.193812462607535874e-01 3.826803023012464444e-01 1.402063891230171354e-02
6.445837406654717494e-01 3.937000296489598372e-01 -5.841789966576397264e-01
3.512753998871164570e-03 2.168323634991590476e-01 2.027520606896118793e-01
-1.660018934562331738e-01 -1.927350821829106609e-01 1.505652757118421670e-01
3.861619932072044015e-01 2.662990771037395676e-01 -3.072083479591372068e-01
1.606004709083761472e-01 2.506635416487840717e-01 3.101597396403409871e-03
-2.416031067827297263e-01 -1.546249831289680798e-01 2.856710516589035520e-01
-2.660198889764277541e-01 -1.369607253064015762e-01 3.331482130063885827e-01
-1.971027433245246818e-01 -1.656486074873663172e-01 2.143296938674266183e-01
-3.418689289490757788e-01 -1.725024432064763413e-01 4.157698272512727056e-01
8.040270642574567361e-01 3.287928238759058042e-01 -8.580216584020896597e-01
-3.360862206509190875e-01 -3.072546633276493355e-01 3.108563281309286164e-01
-3.447583748155283456e-01 -3.711562931147818767e-01 2.773753617554837736e-01
-4.230403339158865794e-01 -5.308192529520717740e-01 2.744210553904902761e-01
6.245388571320854565e-01 4.529529526904164660e-01 -5.130982708485858357e-01
-3.949823814659116916e-01 -7.639435906775553509e-01 6.718365713896606861e-02
-5.813005473069057238e-01 -9.129407868950387694e-01 2.258811839840307589e-01
-4.981201674787439915e-01 -7.748975774750128664e-01 2.063431385173168375e-01
-1.714670792090412232e-01 -4.358738342501124463e-01 -1.607083491666359484e-02
6.770206815470870554e-01 7.015593367426697924e-01 -4.095596032737972014e-01
3.991583831131121918e-01 5.695919358413410955e-04 -5.163669949654846603e-01
7.514401959156165045e-01 5.270832091188503155e-01 -6.408091978769071551e-01
5.837859393061418656e-01 1.389846982685886967e-01 -6.802461770143869435e-01
-4.699353014423460206e-01 -8.167389992356401951e-01 1.361501896573399928e-01
5.701765418930515583e-01 2.264584666291691306e-01 -5.980934323542191899e-01
-6.053007732911357408e-01 -7.153283973952091479e-01 4.018584088198260407e-01
1.940239042549596615e-01 1.504638602353952914e-01 -1.164245788379738578e-01
3.507358035631638615e-01 2.981270427121990862e-01 -2.338768511786020188e-01
-3.825062518622759367e-01 -6.770639673725766805e-01 1.117265363936205402e-01
-1.643440427559976491e-02 -2.200192182779332761e-01 -8.220928000574512229e-02
-1.515454014396340997e-02 -9.341333815852473355e-02 6.792729855301167519e-03
3.238111078146552191e-01 5.983235979568388707e-01 1.986240196579248593e-02
1.684913415078909127e-01 -2.476744328219952496e-01 -3.656514918180318596e-01
-4.174773127256492522e-01 -3.766244359304073974e-01 3.771097949734942278e-01
-2.050055099184710239e-01 -3.338609748374605363e-02 3.204791263030408732e-01
7.891312025882221137e-01 3.337045571176648351e-01 -8.332646925651912007e-01
2.214234029094492434e-02 -9.207614396286210867e-02 -4.541283283370749213e-02
4.556123471484829213e-01 1.952648446023132894e-02 -5.832397540702295435e-01
5.667171106036589245e-01 8.103112064120775448e-01 -1.743092976212552436e-01
-7.152013341434375615e-01 -3.665032480450924335e-01 8.087615524119698973e-01
-1.646386501260748425e-01 -5.089213025810278568e-01 -7.820829272327772808e-02
-1.547244670908546060e-01 1.925655149803748578e-01 4.109024851523884192e-01
-1.858588755350949751e-01 -4.148461488175339551e-01 1.952911008701416554e-02
6.259418241875128741e-01 5.642545102032026083e-01 -4.352509787088365001e-01
6.263539271491992411e-01 5.022250355179221915e-01 -4.803380301836223665e-01
6.062892336824034917e-02 7.469226524509618714e-02 1.936522624941023132e-02
-7.299408160404132762e-01 -6.256064410856337910e-01 6.438926862975797860e-01
4.246669796663777863e-01 7.263650589269624591e-01 -3.204638511330078210e-02
4.127465478163078738e-01 1.885606823418867206e-01 -4.008724317513018831e-01
-3.562650480528172237e-01 -2.530739822054060006e-01 3.784891846106192559e-01
-6.589352203662920404e-01 -3.250660731503567935e-01 7.582838009660987089e-01
-1.749996532118269776e-01 -4.950957967714194052e-01 -5.352084996919398430e-02
6.368967310185092989e-01 3.981427076306568447e-01 -5.700343906877760602e-01
-6.107300291611333920e-01 -6.839866720321573501e-01 4.320819336200816818e-01
4.788248214523979640e-01 3.603925064326407579e-02 -6.044818167024790245e-01
-5.655283830740621687e-01 -2.455837086616279308e-01 6.821572037416061551e-01
7.701380727954761085e-02 1.614075189578438596e-01 5.821845164001996503e-02
5.006861022953517093e-01 4.888008649221444735e-01 -3.108351893919425457e-01
-1.643087424989782622e-02 2.511756753426512834e-01 2.558184279615066115e-01
1.223985171215474510e-01 -2.494309564123496081e-01 -3.012085706781919558e-01
1.474969243757159321e-01 1.842894277537328873e-01 -2.583638538757064215e-02
5.416432770652529483e-01 8.465095301758311930e-01 -1.125993005904864508e-01
-6.222404178196283553e-02 9.997287874242462291e-02 2.126222323812677062e-01
5.792116747353159324e-03 1.244092560251200234e-02 5.287359864116929209e-02
-1.939800704806406151e-01 -4.644787857210604387e-01 -4.500720921319940199e-03
4.127315535752476561e-01 1.769968763318948701e-01 -4.091468718484623235e-01
-5.286395332509080669e-02 1.971401490807819235e-01 2.689871781109688942e-01
4.037495589524262019e-01 4.207602604457781337e-01 -2.214689122425381740e-01
-6.568616126814217360e-01 -6.688449193776180302e-01 5.087028385409553266e-01
-5.532864240608204032e-02 1.299817648264354197e-01 2.243213986745609401e-01
-3.975321367734835909e-01 -6.746577176898089778e-01 1.348714231973357769e-01
4.154405306231843120e-01 7.719939840944044229e-02 -4.846025707502454871e-01
-6.988030946733991833e-01 -4.536361390943605687e-01 7.228779948956759460e-01
-6.441141880842202738e-01 -9.933737997798227637e-01 2.577167022094646875e-01
-6.597929683494176967e-01 -9.480540587589976198e-01 3.125781721663077328e-01
-2.943080202861349526e-01 -2.698730017419604943e-01 2.781209769151551381e-01
-5.912045613938952116e-01 -7.750434772018105489e-01 3.389256714397624881e-01
5.180788907844589147e-02 -1.653137198775433692e-01 -1.402398576935033891e-01
-6.639897711141118375e-01 -3.703419850346579834e-01 7.330081119232538800e-01
3.185477913065624112e-01 6.061739864675633749e-01 3.299682683565392100e-02
3.347680034384081238e-01 5.953727279698914909e-01 2.126950441509248713e-03
-6.694224637053519666e-01 -7.117406475234522301e-01 4.958345406670973121e-01
6.982905240983731110e-01 8.465796464226759133e-01 -3.358419041994005760e-01
-3.797720220233622990e-01 -4.549730638216394341e-01 2.671558737476248946e-01
-2.585153007088543675e-01 -1.584541964596248298e-01 3.070314902986901462e-01
4.014212496970818306e-02 1.550924321940813921e-01 1.062468014652271919e-01
3.848528943252810253e-01 9.775593155853851135e-02 -4.262542589022217943e-01
6.935522707441621471e-01 9.769851789691852417e-01 -2.355355147723361131e-01
4.706938980640423265e-01 1.137630632735755626e-01 -5.371329328510900947e-01
7.323983117206050997e-01 2.769197467790569522e-01 -7.931318864508813959e-01
-4.121736586482540043e-01 -6.666678855035735873e-01 1.614740522367290321e-01
-9.687982136373132769e-02 -3.470883108643960102e-01 -5.869701495358686100e-02
-1.835737909284408387e-01 -4.101252170819642551e-01 1.965860658628505037e-02
4.749516327344840971e-01 1.196897198977424082e-01 -5.389503707754984552e-01
6.149667173320972902e-01 8.265950645583050038e-01 -2.314047718922167263e-01
2.122067542165904097e-01 -1.092712204991450886e-01 -3.286759139589456868e-01
-5.167819714943497900e-01 -2.554643215296494296e-01 6.055833047496230748e-01
1.533733283411625563e-02 1.597275846146719788e-02 4.180108343636284446e-02
-2.745694427597338283e-01 -2.682415453811981543e-01 2.511550089166200705e-01
5.419555825170675467e-01 2.724934518147498763e-01 -5.248405938658650127e-01
4.183618942890223180e-01 4.655254550520312312e-02 -5.107527213762436125e-01
4.430145299506013656e-01 7.072113648310568434e-01 -7.194067024299689861e-02
1.718203198680377519e-01 -2.538430638244696391e-01 -3.748221293123423781e-01
-1.776975657687191734e-01 -9.795857015820284841e-02 2.352290497901287358e-01
-1.907574485649871782e-02 -4.285860036704611242e-01 -2.280688951265657793e-01
-1.174632059164661402e-01 -4.314796625097862548e-01 -8.989833016291644274e-02
-4.556046310736905913e-01 -3.190757256795279662e-01 4.727435441593640930e-01
-3.147154896892068177e-01 -8.723905650623968444e-02 4.382314477210355608e-01
-5.305969381560359244e-01 -6.446994341761765890e-01 3.460406327974074880e-01
7.446626234474780504e-02 4.294636970312913915e-01 2.541519440824949738e-01
-4.877296734238162346e-01 -1.172485468806601094e-01 6.633259606508277173e-01
-1.784762310643025207e-01 5.912865165903539999e-02 3.490325458666276859e-01
-3.567318867903661039e-01 -3.455929536624257059e-01 3.127820163497240236e-01
3.832863050706000752e-01 1.780070951823260195e-01 -3.664494004426145923e-01
4.552894721015335322e-01 1.633195785651087306e-01 -4.796231017950797759e-01
6.398037312456744674e-01 8.010666777205426303e-01 -2.851226375941133817e-01
-2.733904947587955658e-01 -6.154457150684953248e-01 3.920305861283569760e-04
4.036004771585007256e-01 6.417129316808118933e-01 -6.274611861236872867e-02
-2.326958681870214818e-01 -5.565362266887299292e-01 -1.535478998816736107e-02
-5.940138350961129410e-01 -5.894646412653523626e-01 4.760634335916505422e-01
4.053999108161612797e-01 2.201556290825545104e-01 -3.677341152768688337e-01
-5.769649133023722065e-01 -2.690103073279171975e-01 6.816532933188622634e-01
4.109269012180217784e-01 5.786017673354806323e-01 -1.184651913838240395e-01
-3.986394130048701023e-01 -3.995588495387717987e-01 3.338042726642918567e-01
3.465119018322783684e-01 2.149972054448486269e-01 -2.874927964109252887e-01
-4.456076591423482891e-01 -5.484252394789091989e-01 2.939592193865173120e-01
3.411548923692308555e-01 4.781381303643435499e-01 -9.108072798351507515e-02
-4.062337999391161802e-01 -3.556960904053121930e-01 3.760966085436122097e-01
4.254347924027128691e-01 3.113366184452862062e-01 -3.308800858033835723e-01
2.129874993081152246e-01 2.553127358220549925e-01 -6.823821365319618359e-02
6.971821853380452128e-01 3.661909958202789195e-01 -6.788903148785572217e-01
3.283035886454286900e-01 5.488883919012962354e-01 -2.200596427869194391e-02
3.210984093164905295e-01 -5.833429789542284201e-03 -4.096898564144560440e-01
1.513239798857784202e-01 -1.191345711470142704e-01 -2.489664456352103650e-01
-6.389118029053546532e-01 -9.007400291896109357e-01 3.167559394798040717e-01
5.482735402557582516e-01 2.420460910434009127e-01 -5.556893067778957418e-01
3.285576942361644569e-03 -1.305248528417266018e-01 -4.611635076740205896e-02
2.522854638368899338e-01 4.007216038826559856e-01 -1.993996124991199298e-02
-3.835899914400087152e-01 -4.129938902665107880e-01 3.027138388019017801e-01
1.223605431073374328e-01 3.008947799737025086e-01 9.364634989377998431e-02
-3.450554322519795991e-01 -5.626811237702508128e-01 1.403998956813324039e-01
5.069164171805984331e-01 4.787971174657060791e-01 -3.268928310200895915e-01
5.750718252384380280e-01 1.372785105680534856e-01 -6.690486484006623602e-01
1.476814198274386813e-01 4.074217390410584394e-01 1.339745726901255540e-01
-6.879285193525607189e-01 -6.037616064354586198e-01 5.996776043749378893e-01
-4.877595002876415620e-02 2.830406472757228120e-01 3.247844974272046659e-01
2.380272834314512906e-02 3.257711717245420635e-01 2.519818339589546818e-01
-2.663196543275017092e-01 -1.182583595031354851e-01 3.469924926094774542e-01
2.686849278173146782e-01 8.135893223812636771e-03 -3.249555114183552140e-01
1.970636482371400100e-01 -7.048637947651079094e-02 -2.792661241159707930e-01
6.735617418364273634e-01 7.524777210299175012e-01 -3.681004745216339136e-01
-5.308846085020325622e-01 -5.847124174757925008e-01 3.894850631093935700e-01
5.379630790492919701e-01 3.687704597775014470e-01 -4.500808581650903029e-01
4.371651413911381012e-01 1.332734697022223413e-01 -4.753426851534957587e-01
4.443303886841988848e-01 1.216036762916549163e-01 -4.939282393076575572e-01
-6.241322034195092572e-01 -4.321451463884082300e-01 6.318558569948715675e-01
7.122994267979250171e-01 2.981180488415348662e-01 -7.492743693876430244e-01
-7.250884434605190387e-01 -5.453391268548956061e-01 6.945592184321416340e-01
6.243537927330605752e-01 2.199988169056009135e-01 -6.799545431860505307e-01
2.941373012899913333e-02 -2.281797619148006884e-01 -1.534178595759003172e-01
7.193891161005851187e-02 -2.433853109130010850e-01 -2.249437838835068870e-01
-2.047091997056688095e-01 8.387134878413791961e-02 4.041766263348982591e-01
1.107929205205133022e-01 -6.881799293339765922e-02 -1.550945759990486339e-01
-1.515347045672834070e-01 -4.701439649933473186e-01 -6.906866099159297834e-02
-4.088323583480998891e-01 -2.891978968552215146e-01 4.275061795648055774e-01
-1.891951010370537534e-01 -2.806949693178322214e-01 1.205240855744143802e-01
-5.140928338697533517e-01 -2.760486278983399488e-01 5.869829988528870723e-01
-1.332229405224268082e-01 -3.649786222400422386e-01 -1.972611105487123012e-02
-1.453658847454865066e-01 -2.489032267432368661e-01 8.085493406006426242e-02
1.810299051526503555e-01 2.389717550602764862e-01 -3.440717714955314477e-02
-5.409450038783725212e-01 -7.070613318367169331e-01 3.160531912097838125e-01
-5.353515658113976866e-02 6.392483109186521129e-02 1.743759762842582717e-01
3.219601188320693752e-01 2.117770692532617294e-01 -2.548055525761779849e-01
5.720355604846023151e-02 -3.519295957391031012e-03 -3.186064490343656214e-02
5.438632345062442974e-01 6.347219654986175907e-01 -2.676990257852082111e-01
-4.906642975580256805e-02 -2.945253523139508278e-01 -8.914425021189767429e-02
5.843701192549015655e-01 3.605005091557120234e-01 -5.221646183132797603e-01
-2.475186660201970368e-01 -1.500535155809818999e-01 2.973829356239048316e-01
-4.551260483281657776e-01 -4.950419271004200539e-01 3.458241201890878136e-01
-1.973538448521050537e-02 1.088918428638779856e-01 1.584551703936925848e-01
7.838914662242685294e-01 3.050372415150412464e-01 -8.463614890001545099e-01
3.941213711022145683e-01 6.584658412639526892e-02 -4.623576123493134959e-01
6.086034323820395109e-01 1.829507156010748148e-01 -6.840812964735109025e-01
-4.107700056688822765e-01 -6.879242615882266154e-01 1.442240018546651625e-01
5.269639791542297669e-01 1.660781339073076623e-01 -5.798125942820987477e-01
2.644413913135666705e-02 3.112901159798262540e-01 2.378280002233154888e-01
6.503428070389677407e-01 4.457738733335084858e-01 -5.550307592616580132e-01
-4.338812127948447062e-01 -5.488581318220563388e-01 2.769331952847416400e-01
-5.006632065913758645e-01 -3.841439238202273843e-01 4.902927321550591966e-01
-1.893056459054961171e-01 -1.422987370142194674e-01 2.199663913919756852e-01
-2.583913726432902069e-01 -2.176399167245215427e-01 2.643953123614086187e-01
2.452758104020086038e-01 1.507114171633366917e-01 -1.893040406692993172e-01
1.111136665874594975e-01 -2.166696378851797888e-01 -2.616197765622493288e-01
7.884565149036376619e-02 -1.988336502500051284e-01 -2.028278728797237307e-01
-1.262212499833224311e-01 1.122238993361169834e-01 3.126359058669779811e-01
4.550125242547726767e-01 6.709384339001152053e-01 -1.150652278187804661e-01
1.886941635589446664e-01 3.887601129588650339e-01 6.212518207319299435e-02
1.220683963178300913e-01 2.076813849409590296e-01 2.719199107626738693e-02
-3.987038674920352910e-01 -2.626787376425329668e-01 4.320932221117010363e-01
2.170442027205142232e-01 2.352155593208806184e-01 -8.843845254967704073e-02
3.674019577083441623e-01 4.411440418326876833e-01 -1.550339863929016404e-01
6.244658862514974595e-01 4.722285463148108153e-01 -4.991660449227710017e-01
-6.607719936863039045e-01 -7.894221542985807583e-01 4.277754187827127463e-01
3.277792076906674290e-02 -1.878752423447928588e-01 -1.292990964997592362e-01
-5.715250446832239595e-01 -5.370455029134929559e-01 4.816119892126314861e-01
-3.383812809249618914e-01 -4.083233037399832677e-01 2.416217116998927994e-01
6.056241106236593952e-01 6.566062905056385679e-01 -3.400364009677900867e-01
-7.123592796660755955e-01 -5.452472959118038753e-01 6.764803039202098578e-01
-1.971758861392519935e-01 -2.816722448996936135e-01 1.311992077324133366e-01
4.535769030091982290e-01 4.344454185497650944e-01 -2.826776668081266153e-01
1.397977538733023439e-01 2.669428606488560285e-01 4.443353973994090128e-02
-6.676100831384503692e-03 2.240992092588750886e-02 7.779813110483960181e-02
5.474602005188223819e-01 2.693120854183946866e-01 -5.349694501607826780e-01
3.324354201762900196e-01 -6.534141023455812547e-02 -4.685409171612954782e-01
3.788803744893213254e-01 -2.173787956152011328e-02 -5.034649591871976915e-01
5.614829716372397028e-01 8.303642743932154735e-01 -1.524623257856473069e-01
4.745576945265546007e-03 2.042281810448766111e-01 1.919525583023412030e-01
1.304195381778328333e-01 4.216424142133083919e-01 1.687823690207422289e-01
