7.866863161548732775e-01 -2.004040540610675936e-01 5.224444375613868097e-01
2.584428604317645650e-01 6.594682941398689602e-01 -2.800624360083944220e-01
6.810756161851240220e-01 6.614819623837599194e-02 -2.233255667438221737e-01
6.258318287435804539e-01 6.924858663449366680e-02 2.297439102149118895e-01
6.768998096260578912e-01 1.724290319773187918e-01 -8.449540200665965894e-01
4.409508635697376722e-01 4.044521021949780692e-01 -2.629877195156621883e-01
7.244039311880632326e-01 4.736862323104278766e-02 -4.775646106172127814e-01
7.078521653305293038e-01 -4.208184698426835346e-02 2.171586509611862503e-01
6.795985502016510527e-01 1.169349134119398587e-01 -5.248043127827828336e-01
2.736528068566854155e-01 6.776922381804738604e-01 -5.227940953540060054e-01
6.714684919929551077e-01 1.188353449342527228e-02 1.944153828814886853e-01
4.721624702860844902e-01 2.840990883663979671e-01 2.145619993589377439e-01
1.866825642827568132e-01 6.309159604733997062e-01 5.099618941688029983e-01
4.843628811488533970e-01 2.700442385565726133e-01 1.971946000764174534e-01
4.775011597026078136e-01 3.655346769891706371e-01 -3.347372800541018600e-01
9.462532619447458493e-02 8.541603712375646085e-01 -8.381825404849463368e-02
3.977233590066449609e-01 4.030811606858614726e-01 1.150162922940351634e-01
4.944535146525721458e-01 2.122842128897353131e-01 4.681697799978365437e-01
4.931627451047688182e-01 3.147948788702958356e-01 -1.548033442034003615e-01
4.198594521881698349e-01 4.782955071915620526e-01 -5.393964480899142711e-01
7.664777963374744818e-01 -4.953573785657777728e-02 -2.378946078649678830e-01
1.014413986349715635e-01 8.411829171002420669e-01 -6.182176404584926316e-02
6.693823082362466703e-01 -6.691667229109349302e-02 6.996117287824601405e-01
6.193386274342567166e-01 1.271387846090554774e-01 -7.278856647210901754e-02
1.873627517863098724e-01 7.682137524891630154e-01 -3.450108409121729891e-01
7.599769011426998899e-01 -1.868663918114115974e-01 6.670389776985800045e-01
4.344532745134645491e-01 4.418651819493539246e-01 -4.388359786061442058e-01
1.632695357721169749e-01 7.338353758468718624e-01 7.357015929317389791e-02
1.724832168355760753e-01 8.064272531601947014e-01 -4.541574995141748339e-01
3.888313289905753201e-01 4.684021510487364481e-01 -2.129679938305946707e-01
2.333291550994844032e-01 5.186235583499870794e-01 8.057143395258266061e-01
4.172823817383659040e-01 2.749614061316906777e-01 7.402123701405926015e-01
7.452788016646486602e-01 -8.599552643910247929e-03 -3.098593762061010448e-01
1.931891295649476314e-01 6.782656027683949818e-01 1.614936467913490048e-01
1.279219880533595810e-01 8.058607603895281413e-01 -6.972765752434882669e-02
2.835623164088442172e-01 5.825217459216717186e-01 -1.889465868967868042e-02
6.756166293063337047e-01 3.370900116640263705e-02 2.396957579617233630e-02
2.375408178150307248e-01 4.853672143103004988e-01 9.753950154695045782e-01
5.646362123857149307e-01 3.207443617088871490e-01 -8.025818302293389328e-01
2.151295666036696641e-01 5.418523531703486329e-01 8.176260351049163821e-01
1.945539284528971236e-01 6.841633326888575395e-01 1.133506001069608110e-01
2.086453621269469816e-01 5.983090092100530333e-01 5.238828082644734208e-01
3.510579845603603588e-01 4.337983916997196210e-01 3.239498524037395799e-01
2.571965870477305738e-01 6.078550070483460521e-01 4.980860552020803522e-02
4.495605638870566190e-01 2.228404824460354650e-01 7.866433393024817589e-01
5.111929356068026786e-01 3.932430724811240008e-01 -7.941179493296555147e-01
3.842305783217526138e-01 5.514142490728852763e-01 -6.870515701395473185e-01
8.639656365421836126e-01 -2.897173179573752644e-01 4.142155670411583612e-01
6.874831218584315229e-01 -4.048185310337580611e-02 3.813852936164822127e-01
5.698391916997289641e-01 1.226849025896673689e-01 3.778976248665640858e-01
7.999806778024378673e-01 -1.355734581435708574e-01 7.835489216863394599e-03
3.858098635968094658e-01 3.199997530729798978e-01 7.306985423700338433e-01
7.659255080090454637e-01 -1.593771192270478088e-01 4.461726179050271579e-01
6.715739857321185724e-01 8.739633950150985098e-02 -2.735173821754842693e-01
4.271534191185100138e-01 3.694927354404699549e-01 7.117444225360188004e-02
2.854388071035439123e-01 4.574522402135742793e-01 7.385932233257977986e-01
6.504264575155248584e-01 2.098168788955251385e-01 -8.498858573432441776e-01
4.924686246825874525e-01 2.079797310314154268e-01 5.117596920031566299e-01
3.837646750077399749e-01 4.169984818359913081e-01 1.482646600680436466e-01
2.946034590366291006e-01 6.409739543638335313e-01 -4.747932429244679509e-01
2.318101515823929037e-01 7.002365295415019508e-01 -3.045390301516679443e-01
2.796109532328971414e-01 5.874859189940285775e-01 -1.581929100380667988e-02
5.291631168375133809e-01 1.641644120556741138e-01 4.690699418627068407e-01
3.241648297100216958e-01 4.989476052709667653e-01 1.509083791366177263e-01
8.335620285410849650e-01 -2.309624353370244021e-01 3.107303768237583697e-01
4.037555776599825452e-01 3.680914857621679359e-01 2.798544593068434394e-01
8.235130623647786141e-01 -1.912845143998857522e-01 1.512330589388416191e-01
7.515132867849271259e-01 -4.569460674017676582e-02 -1.337289277982405544e-01
8.280398897930427715e-01 -2.695092002087899341e-01 5.963394119859999343e-01
5.803837414472969858e-01 1.343224146768148830e-01 2.157832464165781450e-01
5.440218266897796084e-01 1.914592164307889754e-01 1.732394041860914613e-01
4.425844972869670824e-01 3.662855277014048228e-01 -4.090032643896029940e-02
7.098931379217566784e-01 -2.060132636258964201e-02 6.685910267427766507e-02
4.131312981441421783e-01 3.941456582145895227e-01 3.856763411466452435e-02
5.723255357543677313e-01 1.131058658110848381e-01 4.158877640148607169e-01
2.737924500259222849e-01 6.708542864086989299e-01 -4.816965109503177911e-01
2.107108659428412745e-01 6.538835218733014543e-01 1.625093210238303387e-01
6.541420284226754367e-01 -1.422834828468548876e-02 5.040250871383662457e-01
6.591004418364544426e-01 9.243254656341820530e-02 -1.980367124125502198e-01
1.265298776658641822e-01 8.261621312698004260e-01 -1.833871213137869272e-01
2.335907682168648636e-01 5.819134308442414083e-01 4.120432978683568614e-01
6.361060534020770429e-01 1.232575802920115732e-01 -1.921184121297617176e-01
3.045131607884828950e-01 5.998640322451919138e-01 -3.052488112483390803e-01
4.452818351412666797e-01 3.552555728234999544e-01 4.259784199016068348e-03
4.659713043234950391e-01 2.443164541197659634e-01 5.135337262318266927e-01
3.304297463011374725e-01 4.479022990022958894e-01 4.130580907897974940e-01
6.850199571289447009e-01 -4.314244167968265403e-02 4.188965413602012688e-01
1.265332552168403346e-01 7.662244376735289908e-01 1.872861520882731778e-01
4.936685930238283171e-01 1.768380973131853662e-01 6.941064254462696592e-01
7.947891624559579871e-01 -1.188275380135417475e-01 -5.135550492604583350e-02
2.617388225266490398e-01 6.170495362250832949e-01 -4.588638485696097669e-02
5.299848905454084269e-01 2.712315020880095573e-01 -2.001425327805387566e-01
5.714619964179653566e-01 9.070761076925577815e-02 5.617981646094538650e-01
6.925889861578589102e-01 -6.720498446205987186e-02 5.030154377854192393e-01
4.029975911317368875e-01 4.246987399385800943e-01 -6.377005788251023655e-02
2.866377227435156771e-01 6.251126376253890449e-01 -3.086001835212171529e-01
3.548320686236923205e-01 4.733314633827941931e-01 4.718374633315822880e-02
4.178458746107603927e-01 4.554567880006613612e-01 -3.809309075709833570e-01
1.067937825098527194e-01 8.958416462351570519e-01 -4.456288122823135467e-01
5.341409345011491894e-01 1.474447552190436550e-01 5.299252714565160227e-01
7.236015310743858509e-01 -1.498657411513680017e-02 -8.505148864515865714e-02
7.048212620936089579e-01 6.602692903088507037e-02 -4.255622978065017881e-01
3.592133207950283236e-01 5.427008550306253731e-01 -4.193040840270474412e-01
6.586987776467061462e-01 -5.020125976332370787e-02 6.875572369352284108e-01
6.114476324776136895e-01 1.468723696732894823e-01 -1.273814751445140336e-01
7.170834651562049133e-01 -1.329358607638915502e-01 7.001591603509420558e-01
6.825188789993692495e-01 4.693186449932474497e-02 -1.168141142089502149e-01
5.263322897376243592e-01 1.956368932730033483e-01 2.986181817736873745e-01
9.118995776851808455e-02 8.935617459316949063e-01 -2.981407207631556755e-01
4.060719757185662360e-01 3.871844984413010948e-01 1.419667093238071998e-01
3.519541091409268407e-01 5.755564749946110448e-01 -5.604547665053744021e-01
2.576409074709304914e-01 6.077400179997464180e-01 4.672157015008775865e-02
2.475374919497216331e-01 4.962166580006899808e-01 8.228381233696029362e-01
2.813681300144832975e-01 4.350060409688691898e-01 9.122159727953342845e-01
1.567625096508401539e-01 7.975161539236399477e-01 -2.646576690620300876e-01
2.704501672368029297e-01 5.385319482635745336e-01 3.652606738982163148e-01
6.139669243070251525e-01 1.834939230180527014e-01 -3.754140093428123270e-01
6.743858648812668388e-01 1.242529160585063019e-01 -5.255046328103213371e-01
5.768495427256475211e-02 9.293398762675222358e-01 -2.330075864086623150e-01
7.906258193348861818e-01 -1.016677967298210139e-01 -1.218951009214708642e-01
1.083822445768581194e-01 8.464643022210848189e-01 -1.538190013368607445e-01
4.027924214891417387e-01 2.735123668878445269e-01 8.730400250472177826e-01
3.657557807734370670e-01 5.713254694157638980e-01 -6.522687768311361545e-01
6.256565296441407575e-01 2.054217733016720782e-01 -6.109603527472171614e-01
2.042213161927431964e-01 6.428170597605803449e-01 2.864282039239672284e-01
7.002627828174421420e-01 -2.286093615649535671e-02 1.631582286137972515e-01
4.697280895781091870e-01 3.924807915799947700e-01 -4.349462469837996892e-01
6.999531783438611710e-01 1.600662427499188745e-02 -7.458291812712060376e-02
4.276474878434134985e-01 4.122057821374159881e-01 -1.972203376034867284e-01
7.236384439178683570e-01 -7.954911016318333417e-02 3.139387993289173839e-01
3.220568641934372089e-01 5.227398117699709745e-01 2.177822423936285473e-02
4.708322066206013234e-01 3.051959248949804859e-01 9.545405715942520408e-02
5.923543075865925767e-01 8.458680796009696023e-02 4.210586934323928276e-01
5.061864025808059386e-01 2.091310544118695491e-01 3.873742538569321381e-01
5.852094313317428576e-01 5.783038625420846429e-02 6.476186854802382653e-01
2.719252218709504176e-01 4.930568692063476144e-01 6.339052387196471017e-01
5.871553655799300886e-01 5.794788152745142251e-02 6.302574212955240895e-01
3.159344565638477764e-01 5.178080978084305119e-01 1.046164986750609122e-01
3.922880128478777317e-01 5.031566082219364189e-01 -4.574661080964997351e-01
2.040496714971953562e-01 5.896158713715368149e-01 6.169337524918289128e-01
3.889019764104214572e-01 3.682643160559065931e-01 4.057597295829633022e-01
1.424480029064767173e-01 7.440372606515315290e-01 1.884639490346503854e-01
8.041173859668674373e-01 -1.490198151375088098e-01 5.563626278098478956e-02
2.289438200796855838e-01 7.293711733175332057e-01 -4.602282477538672256e-01
7.679917325089851143e-01 -1.205523571899227986e-01 1.883866875479472958e-01
6.119564842985172337e-01 2.515534632581989949e-01 -7.791620845231286285e-01
4.442298776644340030e-01 2.598343619422606721e-01 6.034126206193922703e-01
4.879727745695915941e-01 1.634646367479538343e-01 8.255084983850968783e-01
-5.185631026434999180e-01 -1.830884125478593472e-01 -3.505612867525819687e-01
-5.181642936519128551e-01 -1.583539454782819655e-01 -5.069479815650068666e-01
-5.432572754705092821e-01 -1.857803255974585510e-01 -1.228172558685685506e-01
-5.114532381553099638e-01 -2.157422643966921960e-01 -2.093818220832240340e-01
-5.372986443213060292e-01 -2.115287764922031966e-01 -1.450508016902100211e-02
-1.918485017517780333e-01 -7.510671196667069172e-01 3.693889506341135331e-01
-1.947526686993443223e-01 -7.310126210816120240e-01 2.701819707172607443e-01
-3.237426408298298974e-01 -6.134905163534514205e-01 6.459872065200766844e-01
-6.415234207347939588e-01 1.406690592211309876e-02 -5.188146436589496924e-01
-2.351510702242127493e-01 -6.010289501453291994e-01 -1.883991663102901337e-01
-5.407710150708473495e-01 -1.063536390630645118e-01 -6.353082546298256528e-01
-2.077479635009120418e-01 -7.585334158954299966e-01 5.514810370122958938e-01
-7.709243782490725616e-01 1.882099882863064455e-01 -4.896850985341318352e-01
-3.438483837242712338e-01 -4.581807086830647080e-01 -1.427001141002371687e-01
-6.358829332237538878e-01 -1.448188226259235489e-01 4.156434650882916970e-01
-6.062599884436359332e-01 -5.464692218578229982e-02 -3.952790629558111668e-01
-5.456632586387984984e-01 -2.240191624175142393e-01 1.342492344383175440e-01
-5.545968512328267042e-02 -9.167868196488285770e-01 2.284276834983445248e-01
-1.674169793009953333e-01 -7.578009850362557032e-01 2.021866298186607847e-01
-4.616992173283163137e-01 -3.680931121581231258e-01 3.075602782160258841e-01
-5.747347481518049195e-01 -2.503518513831125558e-01 5.456254936046659454e-01
-3.558267303089376332e-01 -3.182636978224690494e-01 -9.056622449248706852e-01
-5.405631620306202700e-01 -1.808739299948657897e-01 -1.761925888653464167e-01
-5.737769733671420624e-01 -1.621171183650012559e-01 -8.275365442106399905e-03
-2.162146629710578472e-01 -6.531303642409368448e-01 -2.803833254486751483e-02
-7.350550216032326611e-01 7.191983417796671274e-02 -7.707952482973946806e-02
-4.185467170943198423e-01 -3.231777838373449119e-01 -3.391155275890790355e-01
-4.204055037255582383e-01 -2.375772870795651026e-01 -8.526471542186266905e-01
-2.411109091245496050e-02 -9.906882239148649960e-01 4.175128553070835968e-01
-7.314998465580536680e-01 4.573389239618975283e-02 5.448409075474864444e-02
-7.082407171891655917e-01 4.516178103183810660e-02 -1.408053361328935882e-01
-4.989599269738738130e-01 -3.573627811240357444e-01 5.597140258417275804e-01
-3.832091015297529046e-01 -3.903740702477124236e-01 -2.255997727026230748e-01
-2.085799138881081483e-01 -5.439825105945861328e-01 -7.683597814894328470e-01
-5.876172581276357665e-01 -5.489346118009302833e-02 -5.531193656566639749e-01
-3.199255966713363541e-01 -5.989153040131498518e-01 5.232130210354296596e-01
-7.261698869784843913e-01 2.361026064900341795e-02 1.457516371665009691e-01
-5.634783172521248273e-01 -1.584875958920126393e-01 -1.187600051343816882e-01
-3.335200133261126410e-01 -5.738621188941642748e-01 4.844744957430924814e-01
-2.326404382898595857e-01 -5.337614338228645616e-01 -6.258965679318260200e-01
-2.350495205429835310e-01 -4.837177925464673511e-01 -9.148123175366686954e-01
-5.525553321585251476e-01 -1.443738236422336951e-01 -2.994245448941807441e-01
-8.780284501848329981e-01 3.447019947785592286e-01 -5.419895203770614955e-01
-4.403980798768331595e-01 -2.449509445947625486e-01 -6.361385322196325687e-01
-3.636172465991784897e-01 -3.325871113080355324e-01 -7.504786434129542272e-01
-4.834687316545274172e-01 -3.777308498685872928e-01 5.532617026517114844e-01
-2.298873857755969474e-01 -5.189809904921413031e-01 -7.408446621752600159e-01
-1.876005493876392316e-01 -6.164984761975631500e-01 -4.992031699437403103e-01
-5.215576935035193262e-01 -1.446398419110573319e-01 -5.627587918985470505e-01
-4.197345247139346869e-01 -4.169331856699076688e-01 2.508959252553483732e-01
-4.069031983834238697e-01 -4.701135552979707755e-01 4.701184101215924449e-01
-1.582329288593653793e-01 -6.795355450213955706e-01 -3.603775383876904326e-01
-5.265819653062675521e-01 -1.398884648952264942e-01 -5.491956970557250184e-01
-3.872515762019934082e-01 -4.747061647041806998e-01 3.305332589011851230e-01
-3.593702692733032333e-01 -3.859774943371443445e-01 -4.565750141641020665e-01
-8.072765537754185150e-01 2.354257834402348204e-01 -4.709528367565893880e-01
-6.572467904239676084e-01 -1.240549678539997064e-01 4.698496644256168198e-01
-1.355745671793407436e-01 -7.338748091820215258e-01 -2.179927394663974116e-01
-5.575400182352693301e-01 -2.990983025936708728e-01 7.001250962119409671e-01
-2.259652735861292505e-01 -6.748425613728677996e-01 1.895989823379287953e-01
-8.602116015119486425e-01 3.003375636990523456e-01 -4.199099051549128325e-01
-5.955346548787476824e-01 -8.318694054398906301e-02 -3.104491954907493412e-01
-6.615697664461576144e-01 -6.490097624050923664e-02 1.409489825560343856e-01
-3.788271146301294690e-01 -3.879754299474110213e-01 -2.778937410656576734e-01
-4.293652735402538334e-01 -4.368167289180054924e-01 4.561987730845568634e-01
-6.427474169667128923e-01 -6.935217096972513817e-02 7.578147070738830079e-03
-6.883254090568194927e-01 -1.057110535260839534e-01 6.220681385178050693e-01
-6.308406980780016937e-01 -3.464297104696154733e-02 -3.088741492509356479e-01
-6.988853504809164896e-01 -8.625507385982317254e-02 5.920073231248551560e-01
-7.050253587073821437e-01 -5.933028384722226212e-02 4.779702148021657826e-01
-7.289130975098142562e-01 5.311863239904061895e-02 -1.330149461565118853e-02
-5.720363214346486924e-02 -9.377168108367204269e-01 3.727832352615237932e-01
-4.254846371739455790e-01 -4.609326019756816994e-01 5.721772787292065399e-01
-3.668156123446895678e-01 -3.198583406737053325e-01 -8.018626000153594724e-01
-2.527889104401650489e-01 -5.945859027246116479e-01 -7.747315693987233409e-02
-4.051171553943274661e-01 -3.093190406805270132e-01 -5.396299284291045106e-01
-6.590731009354811043e-01 -5.799504080350207855e-03 -2.459237471775626571e-01
-6.771852349080695888e-01 -1.179457151381948787e-01 6.025065580890940353e-01
-1.653063814788245378e-01 -6.832664445172177414e-01 -2.768361596914505895e-01
-4.562070097312740935e-01 -2.831441077754505709e-01 -2.647810769485194893e-01
-3.609305072565696659e-01 -4.710445290236314198e-01 8.288437354618820307e-02
-1.126806540065667800e-01 -8.140992853249819916e-01 8.247311893302813890e-02
-1.060492235937560007e-01 -8.409052396348156710e-01 1.915743908704161946e-01
-4.231208175684144090e-01 -2.442427832372419394e-01 -7.882109217772643728e-01
-4.842458847254829113e-01 -3.035804906663120972e-01 1.013005790854288740e-01
-2.180035547181816136e-01 -6.016221438753062145e-01 -3.313138211716912251e-01
-8.746645801295617473e-02 -8.443227079837211102e-01 5.385822670621823877e-02
-7.232646183025968067e-01 -1.621853902915684070e-02 3.672491310845687473e-01
-8.561280661470612730e-01 3.218090043354264185e-01 -5.876138931322102410e-01
-2.250120727540188548e-01 -4.964567723736917348e-01 -9.218282737649836633e-01
-2.762283043323519038e-01 -5.668353631417535343e-01 -4.873567637189498564e-02
-5.268514881414058104e-01 -1.328209196520123703e-01 -5.906030088368335873e-01
-4.368373026597968667e-01 -4.168421889205966013e-01 3.965341302524679756e-01
-7.183765366856814660e-01 5.739750086521118455e-02 -1.298359032200320229e-01
-4.096335227392470801e-01 -2.927599433445469135e-01 -6.034368824545400800e-01
-6.111486521935853844e-01 -2.058485589568226359e-02 -5.641557027735427665e-01
-3.751686974758817739e-01 -5.057438421748517987e-01 4.192058191400867551e-01
-5.279009525867354169e-01 -2.652477918511405020e-01 2.374008207802651149e-01
-3.375481589065287835e-01 -3.830538481051827815e-01 -6.612007925920181384e-01
-6.854162828940977281e-01 9.504678762661993019e-02 -6.444455865497656921e-01
-4.881000183797862824e-01 -3.937455113245786897e-01 6.918990337640820165e-01
-7.358339207171892271e-01 1.563925830901741476e-01 -5.928675520938789800e-01
-8.085845799846256288e-01 2.146332501732233500e-01 -3.311738492131447997e-01
-6.915737157624348708e-01 -1.160390037055578777e-02 6.780275659476760197e-02
-4.498299836987708078e-01 -3.560637978903755663e-01 1.316987871222602968e-01
-4.360680374015591387e-01 -3.387812566219973731e-01 -9.283244062642875827e-02
-1.800800648516941715e-01 -6.652933580376194644e-01 -2.617049331497441345e-01
-7.135648530846706583e-01 -2.178746369281556530e-02 3.187745157250380101e-01
-3.793409217271797029e-01 -3.552210747279393455e-01 -4.760803862505355033e-01
-3.402204959941184104e-01 -5.291465067736607075e-01 2.651960067300088708e-01
-6.532700436067885308e-01 5.466716883149540934e-02 -6.695042442823345707e-01
-7.433534161329297119e-01 1.329185632604791001e-01 -3.834061457343420076e-01
-2.368483093688611152e-01 -7.004258822304767484e-01 4.408587885987862998e-01
-5.723905142035912164e-01 -1.250654663450168347e-01 -2.492840891397984093e-01
-3.189634911539718232e-01 -4.701507931498622450e-01 -2.813930897391163644e-01
-2.827111256694185282e-01 -4.549146868012498013e-01 -6.855241356186404511e-01
-1.792040057635747030e-01 -6.546220821602218853e-01 -3.351934346659083963e-01
-1.011463733082931249e-01 -8.623338490954585156e-01 2.821944607067259914e-01
-2.293549860870706669e-01 -4.782115492027523285e-01 -9.975463151099043246e-01
-4.382919289087330861e-01 -4.295642292150392838e-01 4.876519928382931912e-01
-4.696457301476803514e-01 -2.938377687373399660e-01 -8.376375782750007659e-02
-4.920567517118024092e-01 -2.194863070139201067e-01 -3.520341854990916008e-01
-6.677804600977372829e-01 -2.386233046454323825e-02 -5.977513713873718049e-02
-4.216645008179606413e-01 -2.329657853028756498e-01 -8.704059495071077013e-01
-2.368511754494243282e-01 -5.729173455743106214e-01 -3.477304419802247915e-01
-2.131026752560314930e-01 -6.936164724998863385e-01 1.957573656174573240e-01
-5.696505475252421347e-01 -2.452416701271853405e-01 4.705584214487089079e-01
-5.786325390137032620e-01 -1.466327283355294275e-01 -6.253588360302421434e-02
-5.877243888325667243e-01 -2.704532842854875940e-01 7.809890188532175870e-01
-3.673554775705887288e-01 -4.423737932198600897e-01 -3.951508222431582285e-02
-4.658455099582895498e-01 -2.692079180688510265e-01 -2.685799687007636161e-01
-2.719051603356069102e-01 -4.500548126087312584e-01 -8.079549150085615361e-01
-2.750143117122572645e-01 -6.303581098159329876e-01 3.337616087882547267e-01
-3.070471620955363967e-01 -6.184905804559061027e-01 5.341923076111178004e-01
-4.908586263314893561e-01 -3.313065050461560523e-01 3.293084119723406755e-01
-1.331274963915373699e-01 -8.595755609806791098e-01 5.385217341015061665e-01
-5.112784653058004558e-01 -2.111373095581355330e-01 -2.393565325304293501e-01
-3.232110496579969627e-01 -4.627083265479042251e-01 -2.911134616879726411e-01
-1.639216357168283289e-01 -8.026371683063642237e-01 4.496095648638812614e-01
-8.487078357153753361e-01 3.100682273065246686e-01 -5.784305638992784937e-01
-5.575051384683717970e-01 -2.380808215903714442e-01 3.224465246946576213e-01
-5.251593098207526511e-01 -1.010233242008355681e-01 -8.017298901588894022e-01
-3.963225426950928720e-01 -4.131338721865176478e-01 2.726350439332005104e-02
-1.240758069831536942e-01 -8.114869081401923090e-01 1.637261788548181329e-01
-6.734370607505417716e-01 -8.266614554470808063e-02 3.522689638160700354e-01
-5.031985442621363935e-01 -3.651828694024485400e-01 6.443129427605497339e-01
-6.572320314330554192e-01 -1.590302299963514687e-01 6.860382077349925778e-01
-7.285263352259744307e-01 1.167621470738290645e-01 -4.102295617826809959e-01
-1.696208541678126402e-01 -7.241486138893209468e-01 1.289328041055090579e-02
-6.624802521298428504e-01 -1.202430071821031371e-01 4.910110878601419704e-01
-7.340917419783027364e-01 6.003297871678940634e-02 -1.179627840719587283e-02
-2.804399068130893902e-01 -4.385825002346477319e-01 -8.059505424821535868e-01
-2.822801967352503438e-01 -5.395423345492756928e-01 -1.658035109002762575e-01
-7.612703253624252264e-01 1.133492676955940304e-01 -1.092136278007635047e-01
-7.388560813998361620e-01 1.303536248608615049e-02 3.196015568925351658e-01
-1.990959576435895884e-01 -6.663402146498015322e-01 -9.267531443541478231e-02
-4.019762190974796034e-01 -2.875153812202947967e-01 -7.013309280133072088e-01
-2.630293944994835376e-01 -5.854238645191546242e-01 -4.659893141958924151e-02
-6.974667650851755774e-01 2.248493399035974075e-02 -9.265357120499786991e-02
-2.461292961167245719e-01 -6.522727297000322499e-01 2.223789512394013235e-01
-5.149492488447956484e-01 -3.505087548263958741e-01 6.540060594833225771e-01
-6.038859616476027758e-01 -1.702846337813639088e-01 2.996220113506606886e-01
-8.301191595795742728e-01 2.738419525031395851e-01 -5.132816220005057550e-01
-7.628742313546430509e-01 1.124120578536173531e-01 -8.970638643087978925e-02
-2.757651016595490390e-01 -4.521805426776372983e-01 -7.618114821768104949e-01
-4.869964423621669924e-01 -1.644588037650363266e-01 -7.356252615122733651e-01
-2.167039407146387764e-01 -5.855778367312803878e-01 -4.416541087990273895e-01
-4.908631993332377985e-01 -1.870051177517319807e-01 -5.631265093574520098e-01
-7.604506704021291030e-01 1.708030281534173855e-01 -4.715598848469872428e-01
-7.101368925932034504e-01 4.108685795447157563e-02 -9.939356294876654230e-02
-2.860144366285196638e-01 -4.321623810675089272e-01 -7.980044569632858131e-01
-7.612529865012127583e-01 9.992897421973710725e-02 -2.636012810023283248e-02
-2.890270084678312479e-01 -4.848020381286471947e-01 -4.466865451876610438e-01
-5.999510787287353208e-01 -3.144330223390522788e-02 -5.927195589343945414e-01
-5.953129968024436502e-01 -7.442683134753967644e-02 -3.665234624676693143e-01
-3.678018717581840735e-01 -3.821390665063779113e-01 -4.082383701488015992e-01
-2.624517487821030892e-01 -4.396041799274575390e-01 -9.534012305293484424e-01
-1.943694624768299017e-01 -6.022000000524814212e-01 -5.297730417439632244e-01
-4.511661363746724551e-01 -3.349304572627485044e-01 1.241541616005734615e-02
-5.489667067913669429e-01 -1.790074307506974161e-01 -1.158998254382420934e-01
-6.636828212618048894e-01 -6.588593793889907513e-02 1.651039555172031381e-01
-1.709637121188907205e-01 -8.102161413926887157e-01 5.566822611654468345e-01
-6.311712531047556363e-01 -1.316154689871059658e-01 2.937062539750026069e-01
-2.238257716059591507e-01 -7.188768154722257053e-01 4.436523983181027142e-01
-3.615396154174281840e-01 -3.411956983305238222e-01 -7.149967019017360315e-01
-4.234151008151604834e-01 -4.774059502868222005e-01 6.563703276726048363e-01
-2.536268866684062151e-01 -4.930024891277626775e-01 -6.985820665467185053e-01
-6.400305168083955110e-01 4.778511091960056106e-02 -7.401166221037367432e-01
-3.076173227560303203e-01 -5.744044925645560573e-01 2.664029885154661770e-01
-4.876406941815775165e-01 -3.593243137707505253e-01 4.750846224547299324e-01
-6.744157582328329514e-01 -8.527470297782262232e-02 3.767686234735877493e-01
-1.802192103191760375e-01 -7.401982434125834454e-01 2.027556433202178376e-01
-8.592864520186936639e-02 -9.140528746424906315e-01 4.719789738516559363e-01
-7.589178292285244654e-01 1.531733723426778326e-01 -3.756274419462758418e-01
-4.902174041760371526e-01 -3.408368694158676604e-01 3.827703208064273110e-01
-5.091531441392943558e-01 -3.534277851827757333e-01 6.225123633851932237e-01
-8.299207308698068608e-02 -8.702333003556389501e-01 1.758611105682150455e-01
-4.407292953939051516e-01 -4.034518862056233890e-01 3.469881208634099101e-01
-5.467536788458258190e-01 -1.207890772916678651e-01 -4.948860090570281201e-01
-2.868070344483266143e-01 -4.421617752828208570e-01 -7.293848619526485111e-01
-4.950601556154278216e-01 -1.875121652052270382e-01 -5.241133601637661954e-01
-3.175332131843740524e-01 -6.182007454651547995e-01 6.220384610107473344e-01
-4.072498577429722877e-01 -2.601357925107889990e-01 -8.255869256816881219e-01
-6.524873456001203387e-01 -1.423743306503866268e-01 5.424655755122937961e-01
-1.535232419873095444e-01 -6.794096969567117172e-01 -4.014160633906762587e-01
-1.734239263623619798e-01 -6.676773175896036916e-01 -3.038598240672366058e-01
-3.212627021696468632e-01 -4.242471338857640717e-01 -5.456431340308284250e-01
-5.872744970602371550e-01 -1.359920512905908874e-01 -5.447153489265887244e-02
-4.962088349529193976e-01 -3.061557097069664279e-01 2.194915859509886380e-01
-8.077665120389767583e-01 1.842579501228122363e-01 -1.503021011074345825e-01
-5.569232951924770747e-01 -3.044539696470462409e-01 7.279767996664380236e-01
-7.008833947610844106e-01 9.339669351699209088e-02 -5.020213883590343151e-01
-6.462014464303820205e-01 -1.116240315842606662e-01 2.985471444998196167e-01
-8.520665691121026564e-01 3.033919584360044719e-01 -5.084275112832429278e-01
-5.611260352423916853e-01 -1.022546300478397036e-01 -4.866573763392876839e-01
-8.087638167275894574e-01 2.644750117188953698e-01 -6.379025757728068458e-01
-5.777842607365898386e-01 -5.141515462453905005e-02 -6.586881398830198853e-01
-1.493155122837473425e-01 -7.465582025720800541e-01 -2.208580916673237929e-02
-6.035138726535458353e-01 -2.277576839048940927e-01 6.519000938418572089e-01
-3.889813002421593224e-01 -3.304605642101058893e-01 -5.468093904975154240e-01
-3.424766058356922271e-01 -3.524819384175423842e-01 -8.081514594184331379e-01
-1.048098076476433743e-01 -8.254721776416545920e-01 8.552912285444137785e-02
-5.029535942016654104e-01 -1.732595766053270092e-01 -5.447865586833717799e-01
-4.375140181880033952e-01 -4.137268456198973099e-01 3.830512008115861677e-01
-6.049316991840317792e-01 -7.348481270373319330e-02 -2.901253531803910657e-01
-6.136384405384041063e-01 -1.713396389030956701e-01 3.895148686097938406e-01
-2.886468097959730139e-01 -6.006439151604365811e-01 2.665212451308267561e-01
-2.965288461707603629e-01 -5.450224244379517913e-01 -1.010746359760371881e-02
-6.549775562359759773e-01 -2.449715694134733945e-03 -3.016517522284920538e-01
-2.384736025161644790e-01 -4.764586692047856342e-01 -9.304381378109298772e-01
-6.295860406650511942e-01 -9.445275612233505758e-02 5.031162407407678561e-02
-5.741804171278069857e-02 -9.600260375039924021e-01 5.125940076617233609e-01
-7.607801111243251979e-01 1.155225841055535496e-01 -1.268456732809081222e-01
-5.282030465902964878e-01 -2.916086014545744565e-01 4.030193490714334970e-01
-6.122799106278853376e-01 -6.104481847774095166e-02 -3.042488405749206870e-01
-5.033944418122529019e-01 -3.480638658119892259e-01 5.401100787481101229e-01
-6.861447967336896658e-01 3.924852780775723443e-02 -2.931173647062195742e-01
-3.783479064678076376e-01 -4.117382138274649495e-01 -1.350223263347614111e-01
-5.859167108483341879e-01 -1.684362066565355809e-01 1.345819368186589315e-01
-3.236054366340354038e-01 -4.998233082451897791e-01 -5.819366462551935071e-02
-6.587791496245206657e-01 -3.629472781792677377e-02 -5.982994924554260047e-02
-9.516650992091346684e-02 -9.013545331342367462e-01 4.724111317492995510e-01
-6.097501193818478660e-01 -1.454298265526904055e-01 1.960292411139280544e-01
-4.927065887617707030e-01 -1.944467542653403602e-01 -5.013435495164795253e-01
-4.568212773933425508e-01 -4.412597517213133758e-01 7.183822269259579896e-01
-4.035443824734801233e-01 -3.982019775758010582e-01 -3.352140348687345471e-03
-2.990727349680006794e-02 -9.918977103691264396e-01 4.745412333788694981e-01
-1.386915748673633042e-01 -8.162610316489198325e-01 3.181942382560003502e-01
-4.696288393730385091e-01 -3.859042931488305128e-01 4.855041235105511110e-01
-5.965959225527293075e-01 -9.309733749455649174e-03 -7.582922094713335781e-01
-6.163719949451439417e-01 -8.930135456457782839e-02 -9.450737134063690037e-02
-5.036037269925034421e-01 -2.981982292489598341e-01 2.334905555638253638e-01
-6.442679574608716209e-01 2.179649016253810967e-02 -5.431591758153595517e-01
-4.868951798731510072e-01 -3.790703185174791323e-01 5.908366097536852379e-01
-1.743903755038444248e-01 -6.157820099798614333e-01 -6.165599164485571215e-01
-6.034141000530193200e-01 -2.999977603931603884e-02 -5.720442543501017552e-01
-4.374519910496450503e-01 -3.350389067104981855e-01 -1.041475369294737746e-01
-6.215018241599922222e-01 -1.019125302745938211e-01 2.734183896417270027e-02
-4.754395110361262500e-01 -2.590420498241391978e-01 -2.494406033361715735e-01
-7.650999739881563233e-01 2.103855800333572501e-01 -6.766257187847484200e-01
-2.802390292581711240e-01 -4.623819206506460944e-01 -6.604732633286416466e-01
-7.195385630858851522e-01 5.796429622295793532e-02 -1.234079741583917200e-01
-5.877606118955480685e-01 -2.357886691896146636e-01 5.669052457875455309e-01
-3.135351815600667669e-01 -4.160489607913626098e-01 -6.624048891538136807e-01
-7.951681782240989094e-01 2.126120857184174706e-01 -4.333618341608578839e-01
-7.988270358137959937e-01 1.912321971205484528e-01 -2.698543823726631263e-01
-6.500762855194269774e-01 -1.470336231518448444e-01 5.506716772319936171e-01
-3.991127183443445858e-01 -3.073530542213023797e-01 -6.031173391766808667e-01
-4.823636688387498705e-01 -2.196102453781557939e-01 -4.341277833705583511e-01
-5.780270551721764516e-01 -2.473634967250206984e-01 5.552870257281650179e-01
-1.356530123598037318e-01 -7.654084565953408470e-01 -2.229312170976217519e-02
-6.364410604780462721e-01 -1.543408009746898291e-01 4.793059995515072114e-01
-7.941737974267114308e-02 -9.186848850532680633e-01 4.449662384215260502e-01
-4.782058408442110831e-01 -4.013503073032442248e-01 6.543539484160663111e-01
-6.271720182786042486e-01 -3.125387306054080994e-02 -3.611962737119429057e-01
-4.760527472651047143e-01 -3.368109709184673450e-01 2.367861440575154686e-01
-5.496309491011188708e-01 -7.272146549992293540e-02 -7.675781802851189273e-01
-4.955911745056638673e-01 -1.789387149548977429e-01 -5.725990136615229931e-01
-4.040026201796711458e-01 -4.880695290325371971e-01 5.563771290334124098e-01
-4.661644099815377973e-01 -1.973174637050243985e-01 -7.104813717349096613e-01
-5.994448957044331561e-01 -1.448373182677391013e-01 1.042717593654166330e-01
-4.621359743426341482e-01 -2.403908749651928467e-01 -4.785178863586024844e-01
-2.456336877267991103e-01 -6.581654908436986862e-01 2.545878034954471847e-01
-4.455531832487254484e-01 -2.302335676822904187e-01 -6.830946725407537334e-01
-5.774626887454861190e-01 -3.103725704590773807e-02 -7.874701091185638546e-01
-4.450935225815628726e-01 -3.824500258949925513e-01 2.544030520694602338e-01
-8.221213360911762136e-01 2.132735326279978361e-01 -2.070469791775179369e-01
-5.362429737062460733e-01 -1.203200133012446577e-01 -5.876365466581735530e-01
-5.856453258067789713e-01 -3.248617813608611210e-02 -7.085605641321425230e-01
-7.041306278318446576e-01 6.148789917212660328e-02 -2.769135701259233806e-01
-2.367996604399705274e-01 -5.238595037683262401e-01 -6.515833413628647763e-01
-4.303018808047896493e-01 -3.631908823448699031e-01 8.844725468530587054e-03
-8.317677563799601437e-01 2.313354152900006788e-01 -2.362947185321715160e-01
-5.031976696612344008e-02 -9.485874838822498933e-01 3.811702052892672055e-01
-4.399259210763709627e-01 -4.161038619621494905e-01 4.183704078086823430e-01
-7.324101825653230868e-01 6.640491827765969413e-02 -6.558000143079686928e-02
-3.900043863955742207e-01 -2.858276307988877329e-01 -8.141090571303606360e-01
-5.518784064099603315e-01 -1.563566725496966792e-01 -2.310997379951744146e-01
-7.244369960109661166e-01 1.441173361545146636e-01 -6.143729214228675906e-01
-6.396439086046082911e-01 -1.159561877610393588e-01 2.692843194575700871e-01
-5.050524489090304492e-01 -2.398017494102587244e-01 -1.152952827337923314e-01
-5.866487001299532933e-01 -1.252818125870719113e-01 -1.260616779890302019e-01
-2.055920645433784999e-01 -7.173628197071910684e-01 2.784200401109553913e-01
-4.058584210468125231e-01 -3.072173706035703500e-01 -5.462917013697484725e-01
-7.574724379488042558e-01 1.571687468808787846e-01 -4.126937511580255347e-01
-2.811495057611785864e-01 -5.938077940568414759e-01 1.601514759383940723e-01
-1.799997271857048664e-01 -7.132467778818122328e-01 3.419022008751994995e-02
-6.438805415628865436e-01 3.415624890299535921e-02 -6.229134856026256051e-01
-1.705258938704966032e-01 -6.537982112116131894e-01 -4.144726806328885571e-01
-6.447499586243282677e-01 -3.002567983806028740e-02 -2.185295244164395800e-01
-4.813149137379430509e-01 -2.847479360224515199e-01 -4.022989357287612422e-02
-1.269312034675813550e-01 -7.371899148589687867e-01 -2.713762368528701008e-01
-3.798344094555550221e-01 -5.063873294103410361e-01 4.630699205792825901e-01
-5.581424967765343803e-01 -1.982926469772025857e-01 8.181333454484822354e-02
-3.214730498404806958e-01 -5.403939797531356337e-01 1.744990380163944921e-01
-4.865159917166488879e-01 -1.748990129418389050e-01 -6.751618165796102744e-01
-3.313218606188829685e-01 -6.082010619189498479e-01 6.780630643380967104e-01
-2.434248087211916545e-01 -6.725677605168470796e-01 3.247805090662043703e-01
-2.801361002867597816e-01 -4.369098902996341738e-01 -8.188923392688879366e-01
-2.474407844550321756e-01 -6.478543369300149291e-01 2.062632099016647458e-01
-2.965374537418480339e-01 -4.084597663685321511e-01 -8.546454681286667077e-01
-5.965421419680265736e-01 -2.669000311883476528e-01 8.343903706804211007e-01
-5.236193157337437620e-01 -1.140632399330884783e-01 -7.342451791064579236e-01
-7.093782387824311142e-01 -4.633359822230358194e-02 4.347984840407961848e-01
-3.100119285219619658e-01 -5.203480404833820128e-01 -4.745491026441443771e-02
-7.134392418071064945e-01 1.290202306550570499e-01 -6.150134233990659505e-01
-2.841844800676293081e-01 -5.838716180176168891e-01 1.246424033386533681e-01
-1.801610986119029645e-01 -6.657639366238726764e-01 -2.581017954792259594e-01
-4.463316355454097772e-01 -4.145856311728037258e-01 4.637389316933751005e-01
-7.888890261693107808e-01 1.469664548716368146e-01 -8.103384730327330143e-02
-9.268904947843990827e-02 -8.804526638091274560e-01 3.219591582663198781e-01
-4.003455450425650874e-01 -4.030366922029300913e-01 -7.953074516455485229e-04
-3.793583565915417677e-01 -3.132222084044423704e-01 -7.356855835716528125e-01
-7.518312538439752002e-01 8.693774631934041153e-02 -2.655261722210821781e-02
-5.575073447043940034e-01 -8.431151975935514964e-02 -6.285657072697869996e-01
-5.979482507898400412e-01 -2.499435344797831249e-01 7.415379205886275527e-01
-4.344111999655432266e-01 -2.161094276131994840e-01 -8.656954142830836085e-01
-2.976417132293988632e-01 -4.938399980557365843e-01 -3.171468985081583036e-01
-5.270931886392202781e-01 -2.781672328639900882e-01 3.103998003916920156e-01
-5.053909220892759402e-01 -3.557000524525942842e-01 6.044049689406544301e-01
-3.540025613907332169e-01 -5.681438676405333732e-01 6.242008547447870370e-01
-4.239852946959222213e-01 -4.640096738831207546e-01 5.783913819285485536e-01
-6.602159118884111111e-01 -4.531182475667001365e-03 -2.439988726755146775e-01
-2.723515744169855979e-01 -4.630565869493461495e-01 -7.237255337686694379e-01
-3.362280022465308216e-01 -5.216261725405683114e-01 1.845549630426332466e-01
-6.735722516676641014e-01 -2.850302551094718168e-02 1.843701508354698981e-02
-3.092161169102967122e-01 -5.545371510156524852e-01 1.571947165504639365e-01
-5.510581553194853210e-01 -1.127082685427593794e-01 -5.080678378898751957e-01
-1.608191849849958110e-01 -8.109781095685483221e-01 4.746756288069435281e-01
-2.782683403241756892e-01 -6.463351581128701229e-01 4.603929881819294190e-01
-5.613674284944314419e-01 -1.071855723626986140e-01 -4.540970049303287848e-01
-5.412992511817069641e-01 -2.787915046500518135e-01 4.356995756766456340e-01
-6.021382976290741151e-01 -1.459102077482271054e-01 1.339315734641353950e-01
-1.133774943396866214e-01 -8.230741006750310618e-01 1.439373360106061817e-01
-5.024605478553874072e-01 -2.746287453966014258e-01 7.794588225895318634e-02
-1.358099751606037797e-01 -7.573695006770103655e-01 -7.067061176531400091e-02
-2.336702221510383592e-01 -6.835069526839313570e-01 3.090512456303194377e-01
-2.377435632542042043e-01 -7.234771476805953450e-01 5.910790304384865301e-01
-7.821050659040189590e-01 1.671908325865634481e-01 -2.641092622174106563e-01
-4.901162062099012062e-01 -2.888873600480805215e-01 6.060835141059579129e-02
-2.803992000250793981e-01 -4.827658283384720361e-01 -5.330338414016237980e-01
-1.959718181856320851e-01 -7.460551677007813964e-01 3.736387371670948365e-01
-5.926307924596421195e-01 -9.042308133274057358e-02 -2.905184844244719233e-01
-6.460385448416381404e-01 -8.031518451622923771e-02 1.035159047841809066e-01
-3.841278811889754508e-01 -4.648699960849751456e-01 2.429960815654402251e-01
-7.902419733714978189e-01 2.176708109365323718e-01 -5.067600539368857238e-01
-4.055587811412697530e-01 -4.685021083833179056e-01 4.486593607181334487e-01
-7.593276842413386740e-01 1.908351800970704004e-01 -6.050542801692494477e-01
-6.956532295310252634e-01 -5.130556561854539288e-02 3.482225071333314159e-01
-5.547486899692141149e-01 -1.491242593325170507e-01 -2.512944395755542515e-01
-3.131000862445342259e-01 -5.325007390167093568e-01 5.410573573523463214e-02
-5.822460178888597682e-01 -2.285443400898679589e-01 4.749597488436387849e-01
-3.773176458234149822e-01 -5.427019301225118886e-01 6.661539138745925515e-01
-1.101265513362759130e-01 -8.631507190715926869e-01 3.640125824467833060e-01
-8.240230048860890388e-01 2.355600339395544085e-01 -3.286281634652885031e-01
-3.979956182081136329e-01 -3.263938933958608346e-01 -4.949031099124474031e-01
-6.085775767572318973e-01 -1.982798329210296584e-01 5.128721815124122063e-01
-4.652471058932344111e-02 -9.351334873106866841e-01 2.655184655689752371e-01
-4.402927231822340581e-01 -3.175590942117599846e-01 -1.879728846168040313e-01
-3.337561765145046211e-01 -5.148768185634655659e-01 1.216815157315027790e-01
-1.154359873178984197e-01 -8.861960511764258586e-01 5.519302223726135770e-01
-4.724745722826292904e-01 -3.836797938101034755e-01 4.960724575756278454e-01
1.670447127620362238e-01 2.343606699569221186e-01 -8.038925592767082184e-01
-4.398497737422609188e-01 4.110576887624395881e-01 -6.527039272173721374e-01
-3.356050258963994004e-01 -1.022729789618358337e-01 -8.529383035624863441e-01
-2.363355475193898714e-01 -1.480319957310770040e-01 -8.837502914025967549e-01
-1.326997929029958834e-01 6.865670602851993432e-02 -8.204969512937728693e-01
5.028369135473212959e-01 3.830521372094929933e-01 -7.986198106684511133e-01
4.955092119292811570e-01 1.368807338060713807e-01 -8.863857965478585399e-01
-2.413381591940077786e-01 2.703145198692817330e-01 -7.320849988822699661e-01
2.248837534322179615e-02 -1.115746685401144828e-01 -9.078843247811378969e-01
-3.937567745980891654e-01 -1.117168268321175745e-01 -8.479679448150257981e-01
1.835676560047618255e-01 2.967872781272827276e-01 -7.837487001742533543e-01
4.119359924505762716e-01 4.759086616629216171e-01 -7.520201046117592769e-01
-1.975312825881527790e-01 -3.144940802440719940e-01 -9.494023207626604011e-01
5.099414478223923686e-01 2.499296002405105022e-01 -8.476755988070726611e-01
-3.008433958781099680e-03 8.837096552055899723e-01 -5.451002038053522902e-01
-1.675750546969889676e-01 3.639576134143508446e-01 -7.089243320239158042e-01
-3.308914998180739753e-01 -1.158030866690134691e-01 -8.584992020934878454e-01
-1.062716637284843169e-01 -1.044188103023794417e-01 -8.867521812156901051e-01
-2.023516670805625417e-01 8.625715913060945095e-01 -5.240080650136080820e-01
-5.139768016369355291e-02 3.199919534344223410e-02 -8.454364783496151059e-01
-1.314261037209401572e-01 -1.855226255044401251e-01 -9.123914828104396912e-01
3.120071361824660050e-01 5.912711934350598497e-01 -6.959993159159519882e-01
-7.119552102070748900e-02 3.228573125968366986e-01 -7.376390487562213272e-01
2.078621768554176907e-01 3.647288943269900718e-01 -7.627345951264552504e-01
4.434540559552088701e-01 4.331245400054699046e-01 -7.719978920470079720e-01
-4.721289275240486694e-01 -1.300965710918734197e-01 -8.433086511353601322e-01
-4.919068404876091316e-01 1.297454978232799871e-01 -7.467050647718892487e-01
-3.735396955725977519e-01 3.901825896619640632e-01 -6.697890909671294635e-01
-1.174746398902167116e-01 3.555040840691946480e-01 -7.191923440554449654e-01
-3.180657547909510607e-01 1.262706440659186469e-01 -7.730037999744089339e-01
4.577198737095675152e-01 9.616436904678919706e-02 -8.956325220575132029e-01
-5.964415960168286679e-01 1.735003428693761285e-01 -7.158576479884779520e-01
-9.437041663582500239e-02 4.346779800544407490e-01 -6.939540101333829814e-01
-4.025082934793260958e-01 -1.831045138331809929e-01 -8.724646863305570710e-01
-2.210887038730176002e-01 7.397337849975815782e-02 -8.058446027063459471e-01
-2.510587278780070375e-01 5.568305163907282251e-01 -6.273060739787719164e-01
7.468479168256440814e-02 8.129193634727142903e-02 -8.458155198690313625e-01
5.711794613199719928e-01 2.001137630430319114e-01 -8.744722142964304057e-01
5.214782491512558182e-02 6.277795521926953226e-01 -6.453891978512922289e-01
1.852178865415709808e-01 8.509683126632890462e-03 -8.880005527470183901e-01
-1.030406454771547603e-01 -2.600917624732488470e-02 -8.589265063537466771e-01
-4.188782278149434934e-01 -7.148402046513321895e-02 -8.298322512280528196e-01
-5.132773782011118557e-01 3.977230227218523373e-01 -6.469366591721987803e-01
-7.221982128613806118e-02 7.251428956074030818e-01 -5.923418865320644322e-01
-2.097456237928351785e-01 1.903413842240186671e-01 -7.654917696383206627e-01
-3.076508662760494769e-02 7.099565765015960483e-01 -6.037936048128859090e-01
-3.401771273268597295e-01 4.811232689116820560e-01 -6.417830575925068670e-01
-2.901223062851948087e-01 3.821546961924041086e-01 -6.847034435079235593e-01
-2.028629106547264610e-03 2.473025375237792034e-01 -7.748648889653093619e-01
-6.401901420420533229e-02 -1.570468017211114620e-01 -9.118282701496123188e-01
-7.076797223461966935e-01 3.981400090571979300e-01 -6.187790175476987065e-01
-5.333151287608219049e-02 8.965722740302108917e-01 -5.332092591758427202e-01
-5.522647582389329513e-01 4.735504026500595987e-01 -6.139603664881748690e-01
1.554254393787994903e-01 -5.464701549739502118e-02 -9.064961244773466209e-01
-1.915963135293206887e-01 -2.288636016964971931e-02 -8.450417037883136695e-01
3.803697642246016766e-03 5.119395404644825343e-01 -6.802208514337064749e-01
2.389281525607518109e-01 4.805591357767466376e-01 -7.254172352942478419e-01
-4.387646999390324432e-01 -1.308824886129676124e-01 -8.483989427002136541e-01
-1.819881965063724072e-01 2.197260153239053160e-01 -7.588883942632265178e-01
-2.095651689789379268e-01 -1.547765038207640498e-01 -8.900405521422958266e-01
-5.046796999655422944e-01 3.613317313886756088e-02 -7.786413821608715313e-01
4.454970383796633127e-01 4.186948098135218621e-01 -7.774986451432311929e-01
-3.307657725520330438e-01 3.110351471856943051e-01 -7.045088233869766237e-01
9.412199101038903892e-02 -9.203230461427010234e-02 -9.111533223087019406e-01
4.008266019867912089e-01 4.907218223887385156e-01 -7.450748243417051331e-01
5.455578707209549627e-01 2.859374454445747782e-01 -8.398147172363439328e-01
1.444391551254662065e-01 6.751015676178820923e-01 -6.416110738675668834e-01
-1.671035436104341687e-01 9.738986764458393286e-02 -8.051731876599071969e-01
-4.380563859010511707e-01 1.065243738275131052e-01 -7.628416681681182698e-01
1.784951124494435215e-01 -1.318660102981170368e-01 -9.376812942097879633e-01
3.431724298756563263e-01 -4.535246172551151561e-02 -9.301908982699433892e-01
5.485848935436568041e-01 2.070026424348884175e-01 -8.687314639816959838e-01
2.811323658082119301e-03 8.220432732957629884e-01 -5.681886356886206579e-01
3.808099858205031274e-01 1.575189013315385356e-01 -8.624147851712591351e-01
-6.155807536886471754e-01 2.109641857727187486e-01 -6.995828888291460990e-01
-9.989006416521176157e-02 9.325649780758735741e-01 -5.135150434776075690e-01
-2.961574497009717422e-01 -2.967291336455677997e-01 -9.287836189034662793e-01
-4.642459526778562884e-01 1.988428422483573266e-01 -7.257589450358361560e-01
2.140898825401115271e-02 7.900105319961060468e-01 -5.824257745856994406e-01
-2.719993059939847524e-01 -3.302580463507400199e-01 -9.443616828599858959e-01
-4.356734224710577252e-01 -8.119450921332811710e-02 -8.309162623958183946e-01
3.638699590429460978e-03 9.152620074951316465e-01 -5.346733667720481309e-01
-4.046422754390189280e-01 5.206634609890642418e-01 -6.182290940816095315e-01
2.718004282820153938e-01 1.593715263792523096e-01 -8.460415289720648602e-01
2.861954298147783571e-01 4.522070564581553431e-01 -7.424567243288409113e-01
1.728516632189213142e-01 3.776571447784149438e-01 -7.530260228866179073e-01
-1.973746394849331953e-01 -2.279430730910960157e-01 -9.181962186448007213e-01
-4.432960641283667513e-01 6.389785420795731641e-01 -5.699707754024725403e-01
-3.247604529985169131e-01 7.551261320148487943e-01 -5.451405016686734495e-01
2.170126409009143498e-01 -1.024455934516119299e-01 -9.326151948616370202e-01
-4.429763173762519823e-01 4.741990261767748960e-01 -6.294713196017330814e-01
1.188377268166957434e-01 3.698225365089919947e-01 -7.480711576708002353e-01
-6.092859695244658980e-01 1.075292452280171285e-01 -7.378103673177378585e-01
-9.339964606856622498e-02 -5.631362577422870108e-02 -8.712496860284328903e-01
