-6.094653458974864657e-01 -2.122335356091304970e-01 -1.856302410649801702e-03
4.490020103847508492e-01 9.116706791625385220e-01 1.258865376556244919e-01
-4.676459077127740338e-01 -2.204609614485626701e-02 -5.542639074400477345e-02
1.630945813163061642e-01 5.062499268220541637e-01 2.731595808287017313e-01
-5.459472730663993412e-01 -2.114344488145041279e-01 1.247707147444184206e-01
1.610656483552304341e-01 6.298321476126185203e-01 4.847782950147404291e-02
-4.009857803040154378e-01 -2.268000528234150395e-02 8.009291906940352312e-02
2.383103776554276465e-01 7.713491024381387007e-01 -4.840013695262119359e-02
-8.873496938596381334e-01 -4.440698170048896221e-01 -1.482528571573591969e-01
1.464182343675362874e-01 6.194046636121411931e-01 3.756124424758316982e-02
-2.428091397539489452e-02 2.644870737399476757e-01 3.269489033220655538e-01
1.598870640596626036e-01 5.504375953831261992e-01 1.878192172180609409e-01
-8.633947465916145259e-01 -6.367622066888268817e-01 2.439921070018034877e-01
-7.687992696655980840e-01 -3.935887350287984865e-01 6.389822702355492856e-04
-6.166807099829770683e-02 2.998743745521340043e-01 1.884103354696946286e-01
5.324976409717363524e-01 8.686678839690942233e-01 3.709739465114225143e-01
-1.708987535743320685e-01 2.422988108955597963e-01 7.097071709824086250e-02
-2.803854970157384496e-01 7.556335074368601690e-02 1.478627551500218407e-01
-8.274475587122517295e-01 -4.630783698653131442e-01 6.440553024345393660e-03
-4.163925124054996818e-01 -2.794573994612405739e-03 1.353768787372969240e-02
-4.470368547037051332e-01 2.646653422008602569e-02 -1.004721549339090414e-01
1.307917194661957494e-01 5.260804496099488192e-01 1.726395140901628988e-01
2.163409642724555548e-01 6.388040564436470170e-01 1.438990301153202644e-01
-2.025418441635068179e-01 1.112421790387767007e-01 2.411108240672694691e-01
-3.934814124789048351e-01 3.492429098717490105e-02 -7.600495477709464515e-03
-6.531897732559402980e-01 -2.800005540714237684e-01 3.095716267874056363e-02
-4.332074321574850284e-01 -8.927714304688769142e-02 1.340079387997596405e-01
-1.655164151079197843e-01 2.902511706706532024e-01 -3.772257451104301263e-03
2.774198321472455715e-03 4.852645892670919281e-01 -1.259032799430967811e-02
-5.769236552318693922e-01 -3.398650424590555774e-01 2.915674985036663669e-01
-2.430542000894581611e-01 1.174956211306507209e-01 1.482750701718893171e-01
-1.300112434167540187e-01 2.229142249217570260e-01 1.880015741636465454e-01
-1.112179752169124569e-01 2.674084947380164778e-01 1.464678413190418360e-01
-7.147031891114461466e-01 -3.356503777831950641e-01 6.278854383187129976e-03
-3.871332120409007871e-01 -3.485917486959843464e-02 1.297594350425751997e-01
3.281927545500848507e-03 4.060401583885554500e-01 1.298470299072332357e-01
-2.932955763831871510e-01 6.398099940277930664e-02 1.425100733977268663e-01
-2.218804990835445412e-01 2.616582870053421606e-01 -6.636544629324692135e-02
1.975425251826740392e-01 6.118176176703794544e-01 1.541712667560546646e-01
1.220062721715328008e-01 4.673685444230282759e-01 2.597273097773756811e-01
-2.467795602668903798e-01 1.057279604153011920e-01 1.617696902458714836e-01
7.393935923079522632e-02 4.941303456955855600e-01 1.150545132697218115e-01
2.130244894378055809e-01 6.266719303668057961e-01 1.588685312526308957e-01
3.384524783061580444e-01 8.434867672359056545e-01 2.472375447541248425e-02
-5.288167536380167233e-01 -2.648682598442661518e-01 2.546842048662035229e-01
3.202833675641131861e-01 7.683377725288076387e-01 1.222337695911953209e-01
-4.088430110334616008e-01 -1.555510299024216170e-01 3.014243180825224022e-01
-1.397478333388651184e-01 3.611919250643310098e-01 -7.845001608725567233e-02
-3.724020884957818245e-01 -7.600554341246569447e-04 9.859146075850364066e-02
-5.786206928575226005e-01 -1.888283661511483968e-01 1.854928786274872080e-02
-5.264772206666965548e-01 -1.520105792979405401e-01 5.795240022240719796e-02
-6.188710318752853601e-01 -2.225744103679851704e-01 -2.360082429299041086e-03
-7.007227398081876668e-01 -3.621638881557539547e-01 8.178964565354017446e-02
2.021924269524941753e-01 6.399067733058640961e-01 1.134070469234985945e-01
-1.746907718604254200e-01 1.805180159514299942e-01 1.736032359783883094e-01
-5.955092858418695734e-01 -3.457918605371274046e-01 2.646778265514617146e-01
-2.702881548900591957e-01 1.811998027037236003e-01 -2.033946696222625750e-02
8.063831649598758589e-02 4.839519621291328844e-01 1.467278877575300955e-01
-5.576591331315345901e-01 -1.744841230665952758e-01 3.520395978195235004e-02
2.060368916233093206e-01 6.320562105042470957e-01 1.351706164033523172e-01
-5.773857952857276432e-01 -1.726216420030771137e-01 -7.889766517825946499e-03
5.200398703458208871e-02 4.354020383714388709e-01 1.756611444908641184e-01
5.881975316567421286e-02 5.899935485372604926e-01 -8.654042448089870054e-02
1.142025269480084204e-01 5.025507778106649281e-01 1.811953755643501418e-01
-7.191255691611399270e-02 4.357541160064781760e-01 -7.478488003297315001e-02
-6.081741916148231120e-01 -2.043710577033110154e-01 -1.328765677299509340e-02
-7.351494302363584810e-01 -4.107025347306694218e-01 9.902528802336366121e-02
-2.112859423549455773e-01 2.548144224498335997e-01 -3.279052497984182718e-02
-3.315864562063660093e-01 1.070152373057888379e-01 -1.150001793333479440e-02
-4.707702255363920285e-01 -1.191185079495739874e-01 1.115469381716957947e-01
3.363414536112179221e-01 6.900983758147607450e-01 2.942626123356453793e-01
1.365236931288023488e-02 3.177182626736204663e-01 3.084065246254482640e-01
-4.493537315162187129e-01 1.610558446525758164e-02 -8.664895807145163442e-02
1.779385331001819698e-02 4.667515312522313997e-01 5.073489564710922245e-02
2.818313117235599630e-01 7.325760157759424462e-01 1.085477646597332035e-01
1.092820162872582268e-01 4.366922414809160657e-01 2.888315108550075783e-01
-7.594858970851687818e-01 -4.309104744955937760e-01 8.603331606511274710e-02
-6.789546482980798325e-01 -3.782715167146262769e-01 1.544261808333193819e-01
-9.100486429075091976e-01 -5.225345954754988531e-01 -5.395646567788663778e-02
-1.968066340996421915e-01 2.517720318670120805e-01 1.830569802390676461e-03
-1.509599322904078660e-02 3.218278328111281450e-01 2.431139159432925967e-01
-1.197133798124741348e-02 3.954370411772938909e-01 1.180225402452220740e-01
-3.262755120688768436e-03 3.871744209773406720e-01 1.503277563778911974e-01
-5.669011747458247985e-01 -1.118325386518385228e-01 -9.525975442468789800e-02
-9.193629106348132352e-01 -5.049061580616042155e-01 -1.042005175154542412e-01
-5.955923860127877445e-01 -2.278553581911058890e-01 5.399637897621670235e-02
2.840967117877907233e-01 6.713809486312518615e-01 2.223466174631510139e-01
1.806255984407972304e-01 6.318491726477495352e-01 8.431063357532514457e-02
4.185484124174311815e-01 9.473736751160197755e-01 7.626182877515199406e-04
-2.883905076294477343e-01 1.138118484741413583e-01 6.345185634520780771e-02
-7.759395238896494851e-01 -4.849670278838573712e-01 1.493522543489453347e-01
-1.365862369024405665e-01 2.131756961990944610e-01 1.921293381401186218e-01
-4.313290143238472929e-01 -1.301476255008930938e-01 2.107477183107930307e-01
4.103069138816271555e-01 8.326437951079211919e-01 1.889378061354585747e-01
3.101816451197462743e-01 8.462765673501525532e-01 -3.725038918015832062e-02
-7.434996622261446086e-01 -3.508154102871097191e-01 -2.470602805524899775e-02
-5.547763372447883645e-01 -2.149427611184879239e-01 1.132334475235057536e-01
-3.680573217282091525e-01 7.047336620796966489e-02 -1.979942807998184839e-02
1.911974535753258597e-01 7.215944723053147047e-01 -5.456962571016815700e-02
2.556377066875655246e-01 6.385146105075574230e-01 2.236384947404177759e-01
4.048625736930692720e-01 9.560627569312620810e-01 -4.233804290428973272e-02
-5.773851476357800827e-01 -9.996494718603067542e-02 -1.375789729014237628e-01
-7.741393297894186842e-01 -4.927436115763634827e-01 1.668624933177363934e-01
2.550258471172542896e-01 6.052771267593495264e-01 2.817331130634773695e-01
-1.669373572159073005e-01 2.211405907720144226e-01 1.167238816926920025e-01
3.316149549546049680e-01 7.217502592773370473e-01 2.282360450235860760e-01
-4.785328595557268860e-01 -4.800910849168537470e-02 -3.103127190978802880e-02
-9.823338743297424513e-02 2.960488738397520914e-01 1.215225499278714399e-01
-5.483745328130162910e-01 -2.726577827451207581e-01 2.291595519451276874e-01
-2.482524011069374981e-01 6.028471538937318214e-02 2.399155579504751723e-01
2.615490478615278280e-01 7.113246080198573074e-01 1.055916916369441794e-01
-1.490916325441119239e-01 2.188054505284821039e-01 1.568692960329568231e-01
-6.886230141577345254e-01 -3.704905332431376874e-01 1.210457384354469007e-01
-1.228897288701315260e-01 3.821509490139275433e-01 -8.187520043408005876e-02
1.145770345195785099e-02 3.410457328426095280e-01 2.623430537560071940e-01
-2.451304023125720211e-01 1.795738747479235231e-01 3.328117566474938366e-02
-7.903665718592624012e-01 -5.389003637061478003e-01 2.165368648614548752e-01
-5.999447418828127709e-01 -2.689034385062145094e-01 1.184918351664495523e-01
-3.979927156274752909e-01 -5.234554317679955548e-02 1.390792773109333080e-01
4.199739056906724444e-01 7.856831269837567522e-01 2.922503051842246236e-01
-7.457879874335550108e-01 -4.102895610151522932e-01 7.684065184481123079e-02
-8.377656802972995864e-01 -4.069088234916204971e-01 -1.146222669294342800e-01
4.333929534569301301e-01 1.000000000000000000e+00 -6.324733590267396510e-02
-8.826007676489666665e-01 -4.695440379320726110e-01 -9.320805965307936425e-02
-2.875172925112163824e-01 1.216319427995796870e-01 5.125358419002636057e-02
-3.994355129293351014e-01 6.756683061746852903e-02 -7.787022429261547529e-02
2.813603874455651854e-01 7.618478037871357911e-01 5.534891292884709657e-02
-7.814747110459314694e-01 -5.058900114308522156e-01 1.755402751585752041e-01
-3.803717210050941988e-01 -4.936319349057571686e-03 8.997909852128821440e-02
2.933318011649241330e-01 6.266827754050352528e-01 3.207498940370883678e-01
-2.831113097348382235e-01 1.185360075044572387e-01 6.566228280041580545e-02
-5.314838436768050123e-01 -2.001253653374577834e-01 1.337427497625103823e-01
3.172717852152438511e-01 7.848936380023586734e-01 8.661054011547386633e-02
-3.842615282823619305e-01 -2.891429105941817541e-04 7.384208790720743487e-02
-7.659052493607932943e-01 -4.370249626488161843e-01 8.400602679779570203e-02
-4.613558925527786458e-01 -3.895720958455365507e-02 -1.255968316415131611e-02
3.068935716291245619e-01 6.796989275900877647e-01 2.534580228359726850e-01
2.043347050133268450e-01 5.579725973146389961e-01 2.639765113718950396e-01
-4.960018236721976947e-01 -1.669291272681121610e-02 -1.221476421571981996e-01
-6.523353238341952354e-01 -1.972604031287343851e-01 -1.150095016755129512e-01
-2.670535501810322385e-02 3.427473762234790611e-01 1.823683730025685845e-01
-7.780731019046662755e-01 -4.024939467177288677e-01 -2.161603894831050192e-03
-9.051362420420808741e-01 -5.187787480978468535e-01 -5.075709362418311110e-02
-2.879479252601134798e-01 1.728797465549210266e-02 2.366369809220978671e-01
-3.283871466725826749e-01 1.389867383272993528e-01 -6.211854934381419446e-02
3.395275909144691018e-01 8.403075126424428554e-01 3.256609287617936999e-02
3.872013283100099734e-01 8.150053549732848568e-01 1.738408117882482007e-01
-2.885258909925469406e-01 1.197886670546284976e-01 5.251043920154154637e-02
2.583968827881194877e-02 4.431204660614662116e-01 1.091363195075321230e-01
3.005854255793942165e-01 7.785991744227055422e-01 6.420606504364985423e-02
-8.104838896778550072e-01 -4.843971144162828590e-01 7.869302283465191838e-02
-5.688351773531419991e-02 3.053001936928004811e-01 1.883711040827145411e-01
-3.828346268328335356e-01 -1.027694264765161986e-01 2.596436672193422335e-01
2.176114154553664415e-01 7.585030541825350525e-01 -6.719965135829725211e-02
-7.596385826331871760e-01 -4.960396135103773418e-01 2.019794996085503003e-01
-1.574402495320233464e-01 2.020915668782613528e-01 1.698722554293284337e-01
-2.158413571819674803e-01 2.734051020736615323e-01 -7.515823940413510207e-02
4.595184644464954671e-01 9.539262135862631720e-01 7.166271650112021607e-02
-6.901209984093721328e-01 -3.340931521678378591e-01 5.305730064551340830e-02
4.983502564227391129e-01 9.254919418061778869e-01 2.007026943876918379e-01
-5.596500197406779620e-01 -2.070410381006630163e-01 8.930363998201819309e-02
4.225977366462616569e-01 9.473720003979330118e-01 8.929104789316362478e-03
-4.642810756416957951e-01 -7.341635446804835319e-02 4.305187768145505439e-02
3.774767420429768761e-01 7.977704811200158064e-01 1.849997522988664489e-01
7.498309554847662484e-02 5.519646970439252565e-01 1.392572766473157940e-02
-6.547052128264434501e-01 -1.936206940253355768e-01 -1.262840289004497907e-01
2.663649958257693906e-01 7.018146847649590070e-01 1.322757055702734885e-01
-6.254236598357172383e-01 -2.401674415916745242e-01 1.583287523822701770e-02
-8.760589310663224882e-01 -5.161440826607424093e-01 3.160376138989293929e-03
1.646897141384761065e-01 6.515246440169002451e-01 1.706339734064967958e-02
-1.179202192969722035e-01 3.321505196279760375e-01 1.739300859894064161e-02
-1.234709121828105743e-01 3.828565099779808190e-01 -8.430628446257554254e-02
3.870684839483577444e-01 7.959963532372026362e-01 2.075036220233028861e-01
-1.299363030183940948e-01 3.765072203518171068e-01 -8.600727296997644211e-02
-2.575817734037857965e-01 1.044039159398838512e-01 1.423556583980611079e-01
-3.022517624656367863e-01 -5.129230335447306464e-03 2.478144248958781271e-01
-2.388750513118534924e-01 2.441795652981251230e-01 -6.942760127257155411e-02
7.770232759894650509e-02 4.200459376105876719e-01 2.548796598794722534e-01
-3.616977525253928238e-01 -1.423384387403165037e-02 1.442219587230936517e-01
1.098964739603915802e-01 5.092919468379552006e-01 1.604814793628536185e-01
-6.041277672002336452e-01 -2.060655447182672406e-01 -2.105385722490954632e-03
-3.339310103375648930e-01 -7.183229106173980028e-02 3.030120090517088860e-01
-7.187562323265849207e-01 -3.132746652972390744e-01 -4.183226719979120378e-02
-8.748324412527719307e-01 -4.411762915904501869e-01 -1.281827675366731534e-01
-2.730706216683259080e-01 7.392387622531715330e-02 1.655360752977746153e-01
-4.591615785959893281e-02 4.605405197071692491e-01 -6.661891208748800530e-02
-9.088807945693254675e-01 -5.722373945538165030e-01 3.711627523896981334e-02
-3.491990833209434042e-01 -2.778023242993992240e-02 1.935994483836802615e-01
-1.119865357962402663e-01 2.415269628213356223e-01 1.911163450022392296e-01
-1.484616479412175227e-01 2.094557089343127010e-01 1.748284257553550658e-01
2.645480617028344097e-02 4.906324131693302615e-01 2.556868458088791193e-02
4.652636130006742449e-02 5.415544941822442171e-01 -2.486149665720426005e-02
1.983948328684222440e-01 7.039906446195928202e-01 -8.637179866312395121e-03
-4.878030800285634849e-01 -8.656957921830762959e-02 1.910937163529185731e-02
-8.664486525671252770e-02 2.956760553065217456e-01 1.455506534009383401e-01
3.218748897638418205e-01 8.222262482898032854e-01 2.925262461682623036e-02
-4.908093248213521442e-01 -1.912442644298577299e-01 1.998906189076024853e-01
8.728649633601028024e-02 4.370434759206041631e-01 2.438612739945230923e-01
-6.288408686340308806e-01 -3.132379404325709160e-01 1.393728746924531581e-01
2.833292879971670564e-01 6.726499719062729588e-01 2.185343027605455568e-01
-7.954704377430587003e-01 -4.804703719880154544e-01 1.019512186308530882e-01
3.643460004897310922e-01 7.123974778063490998e-01 3.109168115669999066e-01
-3.946245776613183098e-01 -2.966018339636794336e-03 5.772818846984525271e-02
-2.397498565148903082e-01 1.258339751629164172e-01 1.400529071864343722e-01
3.987176776554747226e-01 7.646562410804548238e-01 2.869299397810612384e-01
-1.184540162040304545e-01 3.056931258198393175e-01 6.354269939234206965e-02
-6.262753776395402205e-01 -1.977680216392865564e-01 -6.156617983007987849e-02
-2.145752872338663186e-01 2.918894906957694713e-01 -1.056000279800156233e-01
8.693524887281280089e-02 3.883484917752130228e-01 3.300725692072331574e-01
-6.375673262726891943e-01 -3.249233547629875041e-01 1.426384008844721329e-01
3.915323715631705004e-02 4.697627550337623026e-01 8.842076297160378351e-02
-6.779478733871201479e-01 -3.145820724967195448e-01 4.277167576115234460e-02
1.842281564121994730e-01 6.940892171923647158e-01 -1.952358995033576586e-02
-4.469617901248447711e-01 -1.644535017836888380e-01 2.404670045615355523e-01
-4.951902699418205267e-01 -2.417316080363337560e-01 2.811773044005886346e-01
-8.887341446677246015e-01 -5.404189227234797999e-01 2.093698467939516042e-02
-5.881945066595642979e-01 -3.436109230045587548e-01 2.755316060860691363e-01
-5.003660646068602835e-01 -1.099441342636217067e-01 3.550524769820138232e-02
-8.644044144354449954e-02 2.845930044717454033e-01 1.657457630363750600e-01
-3.709655424690819769e-01 -1.096655332450579001e-01 2.958813061166431502e-01
2.791299169500224275e-01 7.081023756477154985e-01 1.467865920658110446e-01
4.146338979718812712e-01 8.514181953337454090e-01 1.641492014901587415e-01
-6.286384068082565557e-01 -2.431253186460686777e-01 1.463163990137551079e-02
-6.179793218656142173e-01 -3.849734305935137435e-01 2.893160957864124860e-01
3.569650543377903551e-01 6.966616041025945893e-01 3.241248845628611486e-01
-7.902846852201025341e-01 -3.389813345449593784e-01 -1.401488723638990297e-01
-4.012892570528228675e-01 -5.515245863918321646e-03 4.884240874760188700e-02
-3.287144636690955690e-01 1.414044800917541589e-01 -6.709403809303929322e-02
-8.007382025912674894e-01 -3.653658686499108854e-01 -1.141275367191476875e-01
3.358706975255577043e-01 7.122984122900867243e-01 2.536870118609225178e-01
-6.181243940068399390e-01 -3.091156413778722856e-01 1.536192370383739625e-01
-8.964349278284903244e-01 -5.046807210230652707e-01 -5.837976702188245326e-02
2.562482397790268318e-01 6.620278593226007757e-01 1.828987356276292331e-01
2.754126182749134233e-01 7.432806730271588336e-01 7.650001984661448928e-02
-8.163381304131492877e-01 -5.037647291368668734e-01 1.014615297232052543e-01
4.332561901061822707e-01 8.444079386931441222e-01 2.142051613915434694e-01
-7.101971231943871032e-01 -4.052953981185133392e-01 1.396778925916537240e-01
2.518085460924372465e-01 7.967202727812017216e-01 -6.647458052427618336e-02
-5.606254317263896503e-02 3.586381757538031345e-01 9.481914220897338930e-02
-7.684218149779704632e-01 -5.146963362215736248e-01 2.175741906383863722e-01
-4.838352754879147177e-01 3.626227552308370142e-04 -1.280634367211469227e-01
-7.283771952923907556e-01 -5.015597224578127733e-01 2.748561822272166388e-01
-3.255924204103613495e-01 -9.192146648506129003e-03 2.080115265975465422e-01
-2.480713490131269128e-01 1.579879720989904868e-01 6.588251856127293193e-02
-6.728851755788902711e-01 -3.728112673386293485e-01 1.569159087877570191e-01
3.771967931628422699e-01 9.048889870866813068e-01 -6.768672988938562000e-03
4.125480485002041009e-01 8.290366305331906549e-01 1.998946714229444255e-01
-4.175334424344581130e-01 -1.488211827615567862e-01 2.718916598553297037e-01
-8.958298162803767228e-01 -4.614624634811764214e-01 -1.343034387733058610e-01
-2.054280870793995240e-01 2.756063371007563267e-01 -5.809408718387257947e-02
-8.862805352511089751e-02 3.723510388932900761e-01 4.689452556197719162e-03
7.345707356772429586e-02 5.616873744900566789e-01 -6.505508413314231055e-03
-3.980281618263010190e-01 3.698473779774624076e-02 -2.044465867934179559e-02
-3.900468457455242843e-01 5.339977360409532692e-02 -3.365466564614560951e-02
1.032960894787339316e-02 5.311560536219731565e-01 -7.927370668611109783e-02
-8.762188290853605288e-01 -4.856451190289937658e-01 -5.160192205090093076e-02
3.355643781042694229e-01 7.711365327427024408e-01 1.480447895125618363e-01
-4.500543152852876094e-01 -4.478063590423053686e-02 2.061914340769545329e-02
1.726850389784533590e-01 5.749427861316255273e-01 1.698789266762107675e-01
-7.479893568077077282e-01 -4.448733475620579303e-01 1.341339142522553207e-01
-5.622702764554815547e-01 -1.686486375561598861e-01 1.549162101156054301e-02
3.030284960006448536e-01 7.936218119833875484e-01 4.231627193321079589e-02
5.074351126894960373e-01 8.472127969834617467e-01 3.587443528418233774e-01
-8.190242548906335740e-01 -5.528166573760434632e-01 1.836028154671379420e-01
-3.268616781303690377e-02 4.180529046630288570e-01 3.589234796714453612e-02
4.305189014206394806e-03 4.046370421378506776e-01 1.344144699754762917e-01
-3.005382801516073843e-01 1.266964232364721776e-01 1.596310179830995671e-02
1.245224186050351844e-01 5.835308344554999138e-01 5.745290931998276590e-02
3.085152126977497300e-01 7.572652619153011910e-01 1.182731705667429550e-01
-3.200384349348591728e-01 1.299883775044990697e-01 -2.922555876803576563e-02
1.407044020624890479e-01 5.290803097792223797e-01 1.872689472167767266e-01
-3.109168857057937885e-01 1.250719644564620148e-01 -2.060698382394083542e-03
-7.025060221101238067e-01 -4.173987662368062734e-01 1.767874963004362476e-01
3.763835084915006512e-01 7.668676716845992392e-01 2.379565741981991278e-01
-7.382764740907974410e-01 -4.212366835599750670e-01 1.115243325438094596e-01
1.748077775207651785e-01 6.777938281753348448e-01 -9.428321502355278827e-03
8.318271277594670166e-02 5.770692685416515255e-01 -1.435480028738975525e-02
-3.506415438089872660e-01 -6.075165160032596628e-02 2.495446439577575226e-01
-7.447252573540840137e-01 -4.187769998547065109e-01 9.413301242795590884e-02
4.721958944624655291e-02 4.033579202072624104e-01 2.232137349956207217e-01
-1.743426968985881953e-01 1.973012587010516683e-01 1.443472618719771339e-01
2.975695094350512271e-01 8.253699811232901862e-01 -2.535886946742917439e-02
-7.734767443628227934e-02 2.406450385032853911e-01 2.625230130966949016e-01
1.583064258032698679e-01 5.996089868350817920e-01 9.686283602394889225e-02
-1.029481067684301782e-01 2.312152900094102403e-01 2.277440471589057269e-01
2.851296607817420392e-02 4.378267186604966055e-01 1.239749029565481442e-01
-4.843429541497846214e-01 -2.514116916525477308e-02 -8.356324837384290771e-02
1.743524024672626349e-01 6.329728567755990021e-01 6.965802822014352524e-02
-6.121833920367664161e-01 -1.418492086593212131e-01 -1.329703115928992652e-01
1.492136952304646269e-01 5.171173979342682525e-01 2.257773270090245310e-01
3.260947958513477768e-02 3.531278838409858678e-01 2.834189865618630955e-01
-3.661480913156308081e-01 1.128252704994378158e-01 -9.154755660853575172e-02
1.892549013512720701e-01 7.093619039978061869e-01 -3.665098934586324270e-02
-5.039451229957705447e-01 -2.559315120359635376e-01 2.888738906528475758e-01
-3.539060026212191845e-01 3.598384349370187252e-02 7.029283593209685599e-02
-5.879477418619379891e-01 -8.459341869345522458e-01 1.541817931058909463e-01
-5.495223578358247041e-01 -5.765277732262432675e-01 2.225434572947332934e-01
5.900211282858771611e-01 8.387119996058324256e-01 3.557395246587362614e-01
3.037171378122215382e-01 -1.650451384800451227e-01 1.355236709608386714e-01
-5.141912921339735210e-01 -5.718409948923174335e-01 2.153813653627232871e-01
-3.312640469484610661e-01 -5.289610169967009501e-01 1.836624730953570761e-01
6.010291056071584981e-01 2.690202043774365670e-01 1.889514901237069611e-01
1.067034718529214637e-01 2.142006961899333151e-01 2.922565562699511177e-01
-5.494339117342731393e-01 -8.878135122573864724e-01 1.328365492278857085e-01
2.552297371564845041e-01 2.070258966015738888e-01 2.544045383341349553e-01
-3.976373007592506892e-01 -3.826790023174028166e-01 2.417997841131069026e-01
-1.030247913301137082e-02 -1.470644506308334543e-01 2.163618012995158768e-01
6.687927886920834730e-01 6.861442941366459047e-01 2.928040378826343715e-01
1.675552186591867943e-01 -7.388421130519806646e-02 1.945942416322625768e-01
3.776002122021105967e-01 5.581783545472901453e-01 3.260932016704697900e-01
-5.556842699269566310e-01 -7.183963741504789668e-01 1.831538169334167854e-01
-7.937277703121392580e-02 5.186110617857431909e-02 2.903162298358789584e-01
3.210271399143596605e-02 -4.360586472694176763e-01 1.228818896920965409e-01
1.850885722930141475e-01 -1.855762500731544251e-01 1.581899049813383917e-01
8.021960667154791613e-01 6.072926045986326571e-01 2.379445711210394776e-01
5.328290832687737621e-01 7.186850747867422617e-01 3.349376015228017756e-01
-1.332141932241315552e-01 -1.218331506245048657e-01 2.532447515288692164e-01
9.041360676665406437e-01 5.140082651471129527e-01 1.865074024307140366e-01
-1.882659700625927690e-01 1.624382152407208291e-02 3.062903635595624063e-01
-6.796274281161351905e-01 -5.091959020021247229e-01 2.732892631045737986e-01
2.684560485086641760e-02 -3.785545958694918056e-01 1.407161890176938657e-01
-7.766809361830958602e-01 -6.903464391568986391e-01 2.444807444232089122e-01
1.516018920702188466e-01 -3.683798118520064113e-01 1.135897883732445851e-01
2.775787829041112889e-02 2.799272518601758630e-01 3.302138487034823600e-01
-1.115122952095493475e-01 -1.326376108690185962e-01 2.449031406072813555e-01
3.386185162726458933e-04 2.221791183964759164e-01 3.201820379598472321e-01
5.895230779281918077e-01 8.514280232715641938e-01 3.595231784210176085e-01
-2.622327185116105075e-01 -7.241956678720649077e-01 1.107808331109058630e-01
-2.368379701723691624e-02 -5.290617741553917952e-01 1.095272460008616666e-01
-1.574293178753751465e-01 -6.351904777566854676e-01 1.111738368405518207e-01
-6.422258073121217548e-01 -5.189690884334512422e-01 2.614621964700011847e-01
-8.070705006510185964e-01 -6.529037315355149529e-01 2.625903364271064411e-01
2.951944659243758706e-01 5.590376282044038359e-01 3.461950242988993121e-01
-5.552006707778265465e-02 -3.190094632522899598e-01 1.777165398770125249e-01
-6.501338009080576130e-01 -4.716777989368373114e-01 2.769927472933432777e-01
-6.178567044307284872e-01 -8.424250241738967526e-01 1.623988826853000333e-01
-2.330468744106767576e-01 -5.578109434345398521e-01 1.516866752234864169e-01
1.243970811815265365e-01 2.166370428068299381e-01 2.886955280458237683e-01
2.093873349991843755e-02 1.199463501475002275e-01 2.857641604115875866e-01
3.926211747340848102e-01 5.012371458220669929e-02 1.760967985503640032e-01
2.632381733687101932e-01 4.766396309423570621e-01 3.301543774302002632e-01
-2.695142194517242684e-01 -4.621246564145387592e-01 1.880413612305109894e-01
5.865329521501213422e-02 2.357264766928826305e-01 3.100352902617399264e-01
-2.938539898166515063e-01 -7.338683718225249564e-01 1.156126014934534679e-01
9.660407079155575172e-02 -3.160660808500892482e-01 1.419128601220291941e-01
4.187688671378005933e-01 -3.370931511946284598e-02 1.456435387360143219e-01
8.418166990630517044e-02 -1.342287566509615948e-01 1.972955981692810223e-01
-3.475205686083450707e-01 -4.889446004867927797e-01 1.991084703600311812e-01
-5.070181556836628189e-01 -5.651163290666911809e-01 2.155905873500190695e-01
-1.542284052603009881e-01 -3.158516445526902694e-01 2.024084347093347003e-01
4.046613416380160366e-01 2.351646666145957576e-01 2.265087076839090441e-01
-5.422974863470407803e-01 -4.494689610312927464e-01 2.574100969172682940e-01
4.486299775726997896e-01 2.098782952751862552e-01 2.086298743946657930e-01
-3.969758072431305296e-01 -3.497853291885796856e-01 2.511175171921705140e-01
5.798334723220599507e-01 4.729463492031099614e-01 2.528120740092286711e-01
-4.341922072467094273e-01 -7.560082373190188942e-01 1.430459010378542506e-01
5.726998240228844406e-01 1.087599740235475343e-01 1.496038228598619568e-01
-4.517325341201272604e-02 -5.828791728440221309e-01 9.919924804399414542e-02
-6.093344937169076214e-01 -6.467420523703265589e-01 2.167244918592101943e-01
5.292343488273589802e-01 6.969284381384848182e-01 3.295353123037669252e-01
-8.187835805013025936e-02 -1.557079010945117414e-01 2.311164903845098484e-01
4.037210366884256274e-01 1.638145908225938086e-01 2.061783438028627069e-01
8.231612792369900899e-02 3.259945300933565770e-02 2.458105144205327830e-01
3.110613698861610099e-01 -1.164867994534357770e-01 1.477445129919787992e-01
1.364979515672502253e-01 2.432603910232073730e-01 2.934505742825924135e-01
-2.655018069240630552e-01 -4.661728901575005191e-01 1.859082886325841288e-01
1.345470168641592912e-01 5.154067308809538728e-02 2.386835952296048058e-01
-9.049785462646502132e-02 -5.691981142885683687e-01 1.140611316204942632e-01
1.903932652049390162e-01 5.887304852270550115e-02 2.273409531421510532e-01
6.064580383432965904e-02 1.113630415934515616e-01 2.737244549489494250e-01
-4.630293399017994527e-01 -4.497813400681335283e-01 2.382217929535460077e-01
7.437398365669264932e-02 -3.284912854890292278e-01 1.436889510063821540e-01
-1.803654644277911112e-01 -5.622712621293441543e-02 2.835070194127577436e-01
6.316776626244002824e-02 -2.578379161220973326e-01 1.667450811129165267e-01
-4.423948406083194618e-02 -5.219010392609517712e-01 1.165428908363454058e-01
-5.952402810160902780e-01 -3.909215959643421723e-01 2.870340387940550908e-01
2.789729753312600313e-01 -1.431955295921464311e-01 1.477805189800463492e-01
-1.479418001171480153e-02 2.368028554741866826e-02 2.666378494402295019e-01
4.281183095718592568e-01 3.084286368284039348e-01 2.419654856112588293e-01
2.404157960782747072e-01 1.057635870664872108e-01 2.287986737316564656e-01
4.891437457061329486e-01 7.172377873823243544e-01 3.450458530999822582e-01
-2.317641805650381415e-01 -1.083873050015659034e-01 2.808626130452281378e-01
4.668369944679328087e-01 -2.212940730308116805e-02 1.373986728751413200e-01
-7.973816510173253880e-01 -6.996881898731456273e-01 2.467767436751906740e-01
-2.579279707676055966e-01 -2.799473492361420068e-01 2.377375796821457887e-01
2.142410616190143779e-01 2.148648403666373607e-01 2.665385631541807854e-01
-3.313345376847382506e-01 -2.765883426343123119e-01 2.563914106512100166e-01
1.244487201094894718e-01 2.536349067206118413e-01 2.993426675898853140e-01
2.711563919868298367e-01 4.748991659360362050e-01 3.277451668352605041e-01
-4.424840842980008737e-02 -2.810630595463746717e-01 1.859336947199212442e-01
6.016527106601488040e-01 3.701809349626331014e-01 2.179470070939391879e-01
-2.950447276268894359e-01 -6.601499176018547077e-01 1.371387652650474798e-01
3.032844932827848394e-01 -5.861483782532277143e-02 1.662919070406492228e-01
-2.228617991233867168e-01 -1.098227340444638406e-01 2.783041702141961782e-01
2.742070673861852215e-01 3.232463626319654337e-01 2.833169511752038905e-01
2.154622577858968657e-01 -1.744622588347614911e-01 1.540739752582965250e-01
1.472474883446756311e-01 1.363174241329843661e-01 2.600489535466334323e-01
-3.899401730985875281e-01 -8.192998333794211385e-01 1.141489725726954479e-01
-5.142008612139690321e-02 -2.028244251158781430e-01 2.102031881779918565e-01
6.853145542547284252e-01 3.715023463237388524e-01 1.981708339284883880e-01
4.698964612499237359e-01 3.413313332399992711e-02 1.528715396404015936e-01
-7.958818440374277881e-01 -6.799277946761956848e-01 2.521086258663550739e-01
9.108264087545565879e-02 -2.047822394252692135e-01 1.753055221809539932e-01
5.994855588671137436e-01 2.852452578570228159e-01 1.939980369240541236e-01
4.440526350756943685e-01 3.831549945411723002e-01 2.596560489591780430e-01
-1.815432202012840501e-01 -2.462943459206566599e-01 2.290298630419168036e-01
1.003983994630472110e-01 1.555296374571313867e-01 2.768717362482611688e-01
-4.926219540209776926e-01 -4.384740598914002030e-01 2.486094060565445241e-01
2.038479640757710765e-01 2.469558533676856626e-01 2.782884536184201396e-01
-2.405988926867736744e-01 -7.471865370431275410e-01 9.894455507994050214e-02
-4.335737185195441823e-01 -7.627555546319403357e-01 1.409528941045572470e-01
-1.887007405535733595e-01 -7.192558741294386992e-01 9.448778223677414823e-02
-4.890367234073881297e-01 -7.437831882595742350e-01 1.597819493328124507e-01
6.510777087639844085e-01 2.043833360765328344e-01 1.582703865680819000e-01
4.583659627305602391e-01 1.459290973174202088e-01 1.878595333302658654e-01
-3.478452122847957573e-01 -7.631475502381152021e-01 1.201851384036038278e-01
-5.361333561537017650e-02 -4.910511303311567155e-01 1.276896326849058794e-01
2.158519132972551435e-01 -9.621033105678296338e-02 1.765255248698793245e-01
-1.445960845685646257e-01 -5.129019599246307237e-01 1.433148518413195904e-01
1.085186461920002871e-01 -7.792758559819044917e-02 2.076531430853179594e-01
4.033819925976696030e-01 8.075261082934270807e-02 1.823287596473066041e-01
-6.364631062403421080e-02 -1.998389552943437009e-01 2.140090416616893254e-01
1.990079719536672898e-01 1.415660944643545305e-01 2.490903631506368177e-01
-3.013701401814650183e-01 -8.513404239094053416e-01 8.357821476128489413e-02
-1.389214703466926937e-01 -1.406120385664728634e-01 2.492093726770085171e-01
5.130366036237088423e-01 5.620548022649036746e-01 2.945789774829080110e-01
-3.010302060205050645e-01 -7.977357879914410976e-02 3.057950750107861215e-01
6.862955246706964330e-02 2.968063017405403459e-01 3.252295990138494020e-01
2.822286501984241358e-01 3.078013713965881415e-01 2.769343788418356378e-01
-5.885434226011373449e-01 -4.413512953472951694e-01 2.708910722645221925e-01
7.338064046150366559e-01 6.201653668115292284e-01 2.581307053833532539e-01
4.260559251257464153e-01 9.202200891367864899e-02 1.801127284330732437e-01
1.806903246842170019e-01 3.278685018653123562e-01 3.071799103153574073e-01
-1.645960217594239772e-01 -2.709294496543264152e-01 2.178490216355780384e-01
1.462279966036507117e-01 8.632264616120531586e-02 2.458904162320842690e-01
-8.480908312689158790e-02 -2.587387624986259849e-01 2.021380247184778323e-01
7.928594423364425658e-01 3.809770816600586141e-01 1.749895319490065437e-01
2.724973904280945103e-01 3.991366580220458982e-01 3.055938810382592963e-01
-3.500758321429490727e-01 -5.551765538244956000e-01 1.806418028713679402e-01
4.813699991458395694e-02 -4.289512205527993283e-01 1.210664479035033075e-01
2.907290609363880063e-01 3.728008204920934543e-01 2.936135638401677905e-01
6.326523723634511764e-01 2.122389225461323581e-01 1.649729559356458153e-01
2.628747745153350301e-01 1.471247193532048414e-01 2.353042644454598209e-01
-1.408077946353714638e-01 6.421426813350103457e-02 3.086770577148059691e-01
2.529131973858576507e-02 -2.330079302039954892e-01 1.830246148551421814e-01
8.407859528094125956e-01 5.691238181604832969e-01 2.176500589031192257e-01
-8.185213677043140512e-01 -6.174190467374354174e-01 2.755728407368877031e-01
5.200476553587795037e-01 6.120034439117290059e-01 3.072806584560493492e-01
2.078841195734187075e-01 3.138199810523578659e-01 2.965804634434439646e-01
-5.949784684503373056e-02 -4.231660086455791836e-01 1.486660194578275918e-01
1.364983154747199945e-01 -1.203521019221750754e-01 1.886888481487424829e-01
5.088474899961611397e-01 5.677953699917881458e-01 2.972422073168087819e-01
1.248281231207100939e-01 1.942642115610323794e-01 2.821457629687944557e-01
3.749096866842241971e-01 1.427182547906156174e-01 2.070418080401271732e-01
4.265621471484782878e-01 2.213638710721452518e-01 2.172558889985655439e-01
-7.197818375755281328e-02 1.078478278966808757e-01 3.046651549310904206e-01
-5.735204301168567165e-01 -5.482641849040420512e-01 2.364685011909513634e-01
-8.267308270101357826e-01 -6.458997233274488270e-01 2.693451043665317512e-01
-4.002324134287602031e-01 -5.053703139852487869e-01 2.070760188404793534e-01
-3.563124900226827263e-01 -5.061716263709121755e-01 1.962633960457800530e-01
-2.071921065076212654e-01 -4.052314173385624940e-01 1.894176202500605366e-01
-4.743736648882488360e-01 -6.047094372847102717e-01 1.963181501683699259e-01
-3.363828281618952420e-01 -1.497208590595242861e-01 2.941599342761473390e-01
9.118957606722778442e-01 4.640793940943615525e-01 1.702526594572433549e-01
-1.072886476177861703e-01 -2.207332408156017778e-01 2.185039918750546761e-01
-3.115806447736115814e-01 -4.040669253731067889e-01 2.149037579071861881e-01
1.301026865009751732e-01 -5.889980626494129533e-03 2.232078385899115558e-01
4.683121680492355332e-02 -6.256021799807259809e-02 2.269432183571870321e-01
-1.206005307209483540e-01 -2.597199199955583238e-01 2.104786768769855432e-01
-1.193834253945282309e-01 -4.172296639842898447e-01 1.648047653438504956e-01
5.980057050374965044e-01 2.160066208693861289e-01 1.744060019648465687e-01
1.050633481539145903e-01 -2.055045362531477127e-01 1.717290066053691333e-01
-3.140387708294765101e-01 -1.690067777393334247e-01 2.832199840700863613e-01
-1.475604235979200984e-01 -5.769944127657329336e-01 1.255631628951888457e-01
3.033271685784297844e-01 2.389602756853469179e-01 2.520170084582931125e-01
-3.132436722641313009e-01 -5.442005303185293297e-01 1.749300639137318369e-01
-1.962194146506223702e-01 1.544669387400379821e-03 3.039715869504948098e-01
4.616475026214429955e-01 3.602758925502933529e-01 2.488250904313218104e-01
5.041587123250266256e-01 8.907411502507542322e-02 1.604458706426829528e-01
5.988165743748249774e-03 -1.044424701562162994e-01 2.247168137080688410e-01
-2.768442212502844266e-02 7.901335393857601697e-03 2.651974054132955061e-01
1.058344917707245147e-01 -3.508359582708472368e-01 1.296712798926057675e-01
4.762283552187544095e-02 -1.781187187265302341e-01 1.934585366593881972e-01
-3.855077225155526532e-01 -9.278078167116989849e-01 8.181844341349994720e-02
4.373573456579603058e-01 3.200678587233412586e-01 2.430929139859734911e-01
4.357708004239708166e-01 5.776975218354170050e-01 3.177017279300369812e-01
-6.582883963684410533e-02 1.224956643971984865e-01 3.074038139508469270e-01
6.162168255524380633e-01 1.984778359731941833e-01 1.649680659797412574e-01
1.661739259152157089e-01 -2.809822833617532933e-01 1.352593069162351114e-01
-7.325553756579439302e-01 -5.123878433922606224e-01 2.851217051631706467e-01
1.686314068453186876e-01 4.232269352074680691e-01 3.375593444450615821e-01
-7.561389232634520285e-02 1.816182875424687815e-01 3.267953760270389529e-01
-1.170479998407401856e-01 -5.451903543015163001e-01 1.273748925649787478e-01
2.821671254843699517e-01 1.821590326711275687e-01 2.407499584140855853e-01
-3.649613841923089741e-02 -1.466500389116544897e-03 2.646214384655452001e-01
9.862445781600767680e-02 -3.235157863709504922e-02 2.231680376356994511e-01
-7.363393544410482550e-01 -7.281419276910812144e-01 2.238717432509534366e-01
2.870096521922903543e-01 5.418525286508267813e-01 3.432157573164634212e-01
6.255542930573224636e-01 3.881707468624558399e-01 2.173714360525504374e-01
2.436470952276594548e-01 3.030542187051465386e-01 2.848622258750685976e-01
7.600056051305733584e-01 5.533969359992236825e-01 2.325815754971807536e-01
-1.860226490087963369e-01 -1.888424775644843567e-01 2.466617589645564157e-01
-2.734835650502507806e-02 6.893345635385772496e-02 2.827006091789182052e-01
-3.741920249722876513e-01 -4.780693048938501333e-01 2.086678199363318498e-01
-3.768296036005112093e-01 -4.616330926138915713e-01 2.140387926818679287e-01
6.193059503157433143e-01 5.601956610519081003e-01 2.684395534522042159e-01
1.310562851905151538e-01 -3.951386163122774797e-01 1.108303301185357137e-01
-1.253806862373155473e-01 -3.697066902569242086e-01 1.799417091444616146e-01
6.990955124363659179e-01 3.594385370646422384e-01 1.913748025586931301e-01
6.086599725838990338e-01 2.245356208020008737e-01 1.742963578552801929e-01
6.265539070029457758e-01 2.110910979861674863e-01 1.661115731431790643e-01
5.336916097229025269e-01 7.593924998867056519e-01 3.464581459496935412e-01
2.931590635434133674e-01 5.196802319234565815e-01 3.353460256736806033e-01
3.587725542718716021e-01 2.214670561663805437e-01 2.336183603302348644e-01
-2.301497288333055058e-01 -7.875745068597628240e-01 8.479069180403803196e-02
-5.287623893347455084e-01 -4.541539812267473830e-01 2.527992297324502258e-01
-5.974393732970838256e-02 -1.216011878808982566e-01 2.356101822455123340e-01
4.932070137812547550e-01 3.368726789836299917e-01 2.344785864234537887e-01
5.683881719239328723e-01 6.536022503556395691e-01 3.076190125822226284e-01
5.402308628069842911e-01 5.696150596770273022e-01 2.902051977175449382e-01
6.336797805680373097e-01 6.611117117864826476e-01 2.940516934197764942e-01
4.578256879543531332e-01 6.932341451970249757e-01 3.456756317564790293e-01
4.316211707170619083e-01 7.172629383251152291e-01 3.589121794848075808e-01
8.079019075278369710e-01 3.731013111958705331e-01 1.690961922285781349e-01
4.853891131082853638e-01 4.072570119579477232e-01 2.566408466053502480e-01
6.546060951688790208e-01 2.158440331597854811e-01 1.607222628633937500e-01
5.519605348320353322e-01 6.395669622847548474e-01 3.075332157838458480e-01
-4.505613186403380488e-01 -4.002175860287007225e-01 2.494978192199205080e-01
-3.864297616973603189e-01 -2.176608724150778662e-01 2.866434569387651399e-01
8.931087056102898769e-01 5.707735785355401159e-01 2.055191051160173976e-01
-4.782240116816796616e-01 -3.341187346863286334e-01 2.752066377552286891e-01
9.416776654177308470e-02 1.653621568126544816e-01 2.812057813927410499e-01
-8.167399389795202413e-01 -6.715735953591084328e-01 2.595409838248911583e-01
9.492636456819540658e-02 -2.082426798911551913e-01 1.733824434016311145e-01
6.638953799770125341e-01 2.333108709062004515e-01 1.635165989947934273e-01
2.697206395720730399e-01 -7.984483578515205737e-02 1.682618959214826349e-01
1.900413364274770034e-01 -2.706681389669412519e-01 1.324805061993833966e-01
-2.693209497217711190e-01 -4.362629768467370939e-01 1.954458931123833065e-01
-2.017533998354653912e-01 -4.416088796982859388e-01 1.776264219026079394e-01
-1.965582971901283227e-01 -7.436598079486836932e-01 8.934982523756902772e-02
-5.725267991435077919e-01 -6.296855722381233811e-01 2.127705085446183197e-01
-5.490203377457487655e-01 -3.543302288646061893e-01 2.864405982974519427e-01
-6.305583343703344834e-01 -6.402694929538375046e-01 2.237028442832022512e-01
5.355052807914149060e-01 5.277462957145806488e-01 2.792807931097329166e-01
4.371341719505030810e-01 7.993790126746377900e-02 1.739620208755537634e-01
-4.970250842377545997e-01 -8.771230258585617223e-01 1.232896116988986129e-01
-1.153482577260643988e-01 -5.015203560692019780e-01 1.395472812792913353e-01
-7.599430947351879517e-01 -6.802578448523624033e-01 2.433547073565945906e-01
-1.333495870847319908e-01 -6.576248448276698078e-01 9.890859558742429170e-02
5.448757787065171276e-02 2.814493469018822941e-02 2.512319208242992374e-01
-5.886031684059456204e-02 -4.765783157785211666e-01 1.331236150998645895e-01
5.680406486424586232e-01 7.934846905748784707e-01 3.480047504497260080e-01
6.119330979989707764e-01 1.683814535641056376e-01 1.573289851973504738e-01
-4.866632099221906427e-01 -6.362213756622520089e-01 1.902000934349161454e-01
-2.256562088868554750e-01 -9.204062837506550576e-02 2.841006986836767667e-01
2.757838275477563772e-01 1.188212611616514952e-01 2.240394429266200915e-01
2.507024867580852079e-01 9.788524802662239288e-02 2.240504164531814668e-01
-7.708634983573430244e-01 -6.721889554708354586e-01 2.483105470341956389e-01
2.768824718256794881e-01 -2.206797114839119389e-01 1.259599574781243292e-01
3.380228896494193447e-01 1.581824770574916930e-03 1.752657511738695550e-01
7.151815683206129703e-01 7.374522017050368916e-01 2.964099519419780004e-01
2.988648412753783790e-01 4.489712973728700041e-01 3.135991232998102118e-01
4.286999424750255749e-01 -6.196667225601285370e-03 1.511775791284579173e-01
5.398994627616420239e-01 2.107815108602358323e-01 1.869002823617398057e-01
8.414351245466004103e-01 5.163964471665024591e-01 2.023021889615229663e-01
-1.820679389496110967e-01 -5.205367775815095133e-01 1.501433604822414725e-01
3.310698489051052129e-01 1.180511202908749724e-01 2.104973342701370043e-01
3.617571911648359007e-01 1.769045263664277556e-02 1.741884892349303271e-01
-1.343518836014400142e-01 -5.040070261915571281e-01 1.434094366948678034e-01
-6.722272671496930252e-02 -3.140906854766371548e-01 1.819532613303681545e-01
8.375392081240905506e-01 4.672194836424090614e-01 1.890723002662251517e-01
-1.673290032134955030e-01 -8.559080784593514624e-02 2.719060364724348311e-01
2.871007402873139158e-01 4.236986637944377132e-01 3.091520972519505306e-01
4.565685213308489088e-01 3.862114228962161555e-03 1.473611918814079214e-01
-2.502985424557920835e-01 -7.140540852525028015e-01 1.108274236600644835e-01
-6.809170485725403177e-01 -7.287193396021552916e-01 2.103523269732205936e-01
1.425385912912788822e-01 1.413538837347848576e-01 2.626345533028326407e-01
-3.084019267468592063e-02 1.178034042638885365e-01 2.976219951166187982e-01
7.532979349971767880e-01 4.026456542894767399e-01 1.907642066674820336e-01
-7.396383817320631437e-02 -3.742558146894292559e-01 1.662430357063701680e-01
3.785098483413936732e-01 1.668178353187039498e-01 2.131178232356486513e-01
-9.720578216801370464e-02 9.179887465435707106e-02 3.061193942619865327e-01
-8.374202225124899313e-02 1.944764482443239739e-02 2.820301715353237815e-01
-2.211757256214493816e-01 -6.241733103736045729e-01 1.297066366558142780e-01
2.137993832005499195e-01 -2.919758064506479678e-01 1.206173864753537772e-01
-1.226413120799783874e-01 -6.702633848986313536e-01 9.268728698723195658e-02
7.807121063619589796e-01 6.089949613580791787e-01 2.436112355395119722e-01
-6.048712636883868399e-01 -5.636866398830475688e-01 2.395785318035912603e-01
-1.599008133691268707e-01 -5.078012795898045884e-01 1.484718387856484301e-01
5.822594234924712842e-01 1.863948711109761347e-01 1.696682565780621155e-01
-4.019483733271138615e-01 -3.456329325425355203e-01 2.535119330885187150e-01
2.615079377764019108e-01 5.594371152576770312e-01 3.544263143598171406e-01
5.868500823509026354e-01 3.131103943690788372e-01 2.050706585054146436e-01
-3.733825584744694392e-01 -6.778247344649381834e-01 1.509205731008500528e-01
-2.861089357094145358e-01 -4.813166874993760613e-01 1.865100924383471526e-01
-1.438858703983325604e-01 -4.214760596423052230e-01 1.694847665870102549e-01
-5.162188989868901068e-01 -7.558649499701985963e-01 1.628501116991264985e-01
-7.307532065921596987e-01 -5.849863727023822957e-01 2.637708928887300686e-01
2.759818316088604728e-01 2.710895487347312893e-01 2.678622741422330700e-01
5.991817831204595546e-01 7.984335665400089654e-01 3.419276645884594679e-01
4.876465701944860953e-01 1.929592885514484768e-01 1.943549012230954276e-01
6.666510042979263417e-01 4.346248617778090129e-01 2.208539406315276898e-01
-5.912714315686175004e-01 -8.124038812555726130e-01 1.646431102646488398e-01
7.961926680263257117e-01 5.044196638143910727e-01 2.097519126289876246e-01
6.055762732708009910e-01 5.129853566446128665e-01 2.581455619756250486e-01
-2.774927676505317131e-01 -2.106546006001439597e-01 2.624155533857757683e-01
3.168603920039125277e-01 -1.382084679339325162e-01 1.400890336835806937e-01
6.716085288589338509e-01 7.575739867074782197e-01 3.127054864047165150e-01
-8.388616202168275304e-01 -6.369698151447734658e-01 2.748406377715890692e-01
5.464511096405313406e-01 2.790614993208671568e-01 2.049941560747067792e-01
-2.663803655843899887e-01 -1.605669709513525556e-01 2.741691284914049564e-01
-3.739899906715560274e-01 -7.607668307164047183e-01 1.271701925812955547e-01
-4.122443502038037333e-01 -6.146294418182157715e-01 1.784910685925779061e-01
-1.944595649879358457e-01 -6.907023302893980365e-02 2.832024803379868949e-01
-2.956989349821370072e-01 -2.707813985640435961e-01 2.494786805203131896e-01
-4.093871902957441078e-01 -6.622998179950336795e-01 1.640682097520429761e-01
4.764049480765046862e-01 4.460144031748695115e-01 2.699719519107022792e-01
-7.589285676997193919e-01 -5.420210489425573153e-01 2.829381503008757126e-01
-2.671166612802806650e-01 -5.455083295270050925e-02 3.048911983046202478e-01
-5.910149652848782909e-01 -8.411046007677860370e-01 1.563122566821419923e-01
3.569819318842583078e-01 5.986166284714569685e-02 1.874890977878312381e-01
2.376608557844488157e-01 2.534229223550725774e-01 2.720050653561832954e-01
2.034088930968843134e-01 1.335980787547030035e-01 2.457343442670064382e-01
-2.701488269189223912e-01 -4.275769337777398649e-01 1.981479215199374866e-01
-3.791239980403436627e-02 -3.647684276932772751e-01 1.602905020818331527e-01
-3.440576203210225781e-02 -3.224676695363991041e-01 1.716330537696306169e-01
-2.756847770039128065e-01 -4.907281151103711214e-01 1.812870112020366353e-01
-4.619398693825031432e-01 -2.349403839735179356e-01 2.998578660321454814e-01
-5.256479058476781763e-01 -3.261689463797617927e-01 2.889230541778317063e-01
-2.736779036092042983e-01 -5.582005574880158916e-01 1.613637733537648389e-01
