-5.984761623265790753e-01 2.271892294762497821e-01 -1.705279568715888372e-01
6.472460046912817955e-01 -1.592501973617756195e-01 2.161999473190821808e-01
-2.413752958794148640e-01 3.477141418863357591e-01 -1.979074593013096517e-01
-5.693556760706233177e-01 4.236148792036627253e-02 -5.642291757762267490e-02
5.582773463853955009e-01 -3.406984110754139872e-01 3.135189091404796957e-01
-6.396536573130541248e-01 9.038598157576127612e-02 -9.391542706232394733e-02
-5.847682667027888082e-01 2.864596689963158985e-02 -5.015297546896028968e-02
-2.154522948363891688e-01 -1.490781288595704746e-01 1.022457408231610965e-01
2.609142907190045158e-01 -4.732228989277672548e-01 3.555398729190260565e-01
-6.650644045006910421e-01 3.069342224646178785e-01 -2.265145865910819789e-01
-2.180811208443163562e-01 -3.562302870281080502e-01 2.257230940623137228e-01
-6.258472648072183064e-01 3.360594994521975409e-01 -2.390176836425733919e-01
6.780637423759763305e-01 -2.393563601225855153e-01 2.679295647816969383e-01
-5.025635504244900797e-01 4.696277461383858154e-01 -3.034299433745219488e-01
-1.542278497442782781e-01 -2.704977834950531013e-01 1.824688428133717788e-01
-3.667148956865831644e-02 3.701205705405924418e-01 -1.857019576677556572e-01
6.139679417141590684e-02 -4.630735348085215919e-01 3.245256670697007073e-01
2.349647739322092976e-02 2.812295449447914097e-01 -1.250519451630101031e-01
-3.816415730358280745e-01 -1.583143385894277277e-01 8.698494755524731337e-02
-1.029044683193672122e-01 -1.607668820305031276e-01 1.233049846717079873e-01
-2.007294857439109459e-01 1.165110256586109755e-01 -5.464465631544114521e-02
4.765117615513823207e-02 -2.920146470864484201e-01 2.205722154470191043e-01
-1.035989974457959539e-01 3.472357704115426325e-01 -1.803935300033167044e-01
4.558824120402425045e-02 1.691975132978642826e-01 -5.533271420659603007e-02
2.054761381378966967e-01 -1.967432832796026099e-01 1.833675380852568537e-01
-3.600372397182871054e-01 1.758337203528030357e-01 -1.100197131756139590e-01
3.616404635672093582e-01 3.105478093847648946e-01 -1.002915314183053797e-01
6.645970109777862289e-01 1.519213180927800333e-02 1.141127859704204467e-01
-7.839027013506510988e-01 -1.178314721150348909e-01 1.248992420087046730e-02
1.691562180732192056e-01 -4.238020433007435583e-01 3.145293726565158154e-01
-3.327573900435293330e-01 4.644514094983052677e-01 -2.791031140895064433e-01
3.060726166150598004e-01 4.297253862507217081e-01 -1.784673178114810632e-01
3.322664931773936653e-02 3.309950637180555377e-01 -1.535779933635238181e-01
-1.370914330401273862e-01 2.970554992805535949e-02 5.192822945354673599e-03
-2.327458748586569426e-01 2.018612544678420051e-01 -1.096583134752716071e-01
6.334838398362031553e-01 1.214631528735106297e-01 4.670859891621542692e-02
5.263221175278878228e-01 1.900576768880285761e-01 -7.687316678400559281e-03
1.898573684596051581e-01 4.787363793827791869e-01 -2.222910707999716240e-01
-4.241909649096591295e-01 3.654127178382056140e-01 -2.313450547801729207e-01
-1.082631078985187012e-01 -2.377203512207511915e-01 1.686267508494321277e-01
5.789355283599280089e-01 4.479556062060296301e-02 8.570866112016159444e-02
-1.145751417106568998e-01 6.042274548671549006e-01 -3.353590698355300992e-01
-7.096730517707182662e-01 2.880967910112844921e-01 -2.208342718971962049e-01
4.918830469054812360e-01 2.541435174095932892e-01 -5.029509014682076451e-02
4.350108603396685147e-01 -5.517176979209936077e-02 1.274580598597783443e-01
3.081556592304562914e-01 4.163358564223391123e-01 -1.702044920774719305e-01
1.055121119890673892e-01 -4.273903666329665341e-01 3.087156814287483342e-01
4.557313572965123738e-01 1.553116710616304214e-02 7.326689212034648464e-03
-6.275049198057808253e-01 4.465800958432501744e-02 -1.455328176049079658e-01
-3.165458245729432241e-01 3.242320240128758191e-01 -2.737389589559053316e-01
1.720084974285536195e-01 9.556482099751474613e-02 -7.598372772774518447e-02
-3.455390855351294088e-01 3.834214199958226876e-01 -3.127393719617876378e-01
7.280868574115063607e-01 -5.310026809009506937e-02 8.240106884291968636e-02
-6.320017582313333104e-01 -2.116502023414362776e-01 7.089444143620497740e-03
-7.698191876411293322e-01 1.552123450896986390e-01 -2.294019316695167510e-01
-2.305376459988024429e-01 -4.732835848282407887e-01 2.136571021802246839e-01
3.460564918984038174e-01 -7.313259606980495597e-01 4.399774343955861200e-01
1.487647140284190095e-01 -3.399704239744196221e-01 1.814107571916618589e-01
4.483023128203948438e-01 -1.306362974978613201e-01 9.375583819192669088e-02
-4.331410822459346721e-01 3.187561435315444669e-01 -2.850457331485797274e-01
-6.337758653784286711e-01 5.208740629399649658e-02 -1.507571941546883565e-01
7.243401825562882923e-01 1.918672734562615681e-02 3.872969622985922289e-02
-2.276998472664232553e-01 4.281883923257217006e-01 -3.247596674938684203e-01
5.936144334275833545e-01 1.596375804839965662e-01 -6.155823149092511104e-02
-1.822286684879574625e-01 -1.263959562571277673e-01 1.237778175092757622e-02
1.174679724635746686e-01 4.829793718440935080e-01 -3.143449320805042912e-01
-3.545031063620860401e-01 7.907088773625474409e-02 -1.319628422407546353e-01
-5.999737128821892584e-01 8.993603287984355821e-02 -1.691509765821642697e-01
-2.721985114936708583e-01 1.091636721439715740e-01 -1.396563724357447189e-01
-4.814341414550422638e-01 -5.833896151342955055e-02 -6.571069302277446345e-02
4.778218806016948927e-01 -3.143052746468262271e-01 2.072182356208081833e-01
-2.981881284126048359e-01 -1.999862304882197572e-01 4.185959799961382760e-02
5.303760419779232071e-01 -3.327707238624585950e-01 2.248258073802796020e-01
-8.827882535772539618e-02 3.073317198826541752e-01 -2.350950645291876584e-01
-1.174199285966391615e-01 5.963195145318345158e-01 -4.114547337599124832e-01
1.334852704314078709e-01 2.084207301686536729e-01 -1.482500026165061990e-01
2.712212233542684037e-01 -9.540720634447644177e-02 5.055806804988337982e-02
-9.138307521300908717e-03 7.361855316387876449e-03 -4.591977679004088930e-02
-4.553744840223875601e-01 5.543366164726296714e-04 -9.765013273810640992e-02
5.061183179512977054e-02 3.193439588179753930e-01 -2.249069007344216553e-01
-2.687687636869731667e-01 5.832166692751001857e-01 -4.225489021936767453e-01
4.772072776652906689e-02 3.115362044557306587e-01 -2.206020503484711626e-01
6.058968537155815515e-01 4.064380142975416305e-02 1.109514663082504342e-02
4.284294891915850778e-01 -5.696046766065193667e-01 3.536236784896088503e-01
6.647883359895667699e-01 1.810538850105225528e-01 -6.545801759204752934e-02
-1.778982586351337269e-01 2.389390764627111197e-01 -2.054260036393626143e-01
-4.803849296313051354e-01 5.168722884868723888e-01 -4.093588963371982969e-01
-3.275552736874502435e-01 1.392352176901345828e-01 -1.645508633239132490e-01
7.620817661778928054e-01 1.563991506070455950e-01 -3.855701865343623413e-02
-2.571045392521371098e-01 2.933343717115656224e-01 -2.478399960912539002e-01
-4.127923714408791023e-01 4.458529549034475070e-01 -3.584616404956906255e-01
6.228242945294125699e-01 -2.903855722130209704e-01 2.110540481331894536e-01
-5.997144162238201570e-01 3.261204251505421259e-01 -3.102759606317864183e-01
3.595231541934174047e-01 2.175732443307895614e-01 -1.254555105259133607e-01
-3.960679752536269693e-01 1.667663966789940388e-01 -1.895721490778485840e-01
-2.269260625679412335e-01 -4.573797478108193038e-01 2.046036573570493289e-01
-2.693782897316075453e-01 6.585857253458864413e-01 -4.676700119198396455e-01
-2.996092943002712783e-01 4.437507008123715568e-01 -3.430524071556669830e-01
-4.140954846942289103e-01 -3.015419236957325722e-01 8.806167588422278425e-02
-3.361066908492207350e-01 -3.809221671339930917e-03 -8.012855963148012017e-02
7.344579509007271856e-01 7.631900645736602873e-02 5.849313805146825161e-03
4.207548892350107539e-01 -5.092841745959317823e-01 3.166130107439236729e-01
-2.676517812822331033e-01 5.034231879501083196e-01 -3.747200467886416253e-01
1.949264452422685423e-01 4.365319910462691633e-01 -2.768996234163389469e-01
-2.163514260863282912e-01 -3.106946728462741669e-01 1.182584903393923276e-01
4.155413314358344379e-01 2.059985544054024620e-01 -1.115331011520046683e-01
-7.101331195270618180e-01 -4.663219243478066572e-02 -1.013046476639449939e-01
-6.330250660657454898e-02 -3.823396581658390914e-01 1.802154319762603041e-01
-7.752245039659244261e-03 -4.442424365973736688e-01 2.241582983460718159e-01
3.868061532400174918e-01 2.987407165591354219e-01 -1.705543097674241948e-01
3.964230104524045228e-01 -6.077508339275604632e-01 3.724198197192123971e-01
5.519424017061909105e-01 -3.951767912206796129e-01 2.648200030934000360e-01
-1.238000025563581880e-01 -1.520607416793310906e-01 3.502266028008848425e-02
-2.776865684798021650e-02 -4.803923959991343584e-01 2.432606762477034223e-01
1.484544777261097570e-01 -3.365039446184821537e-01 1.793001962823891349e-01
-4.431984573912494674e-01 3.589167790729060337e-01 -3.103056530857372097e-01
-4.697744200326125705e-03 3.425196202532503897e-01 -2.456741134463023002e-01
1.530498286193222035e-01 -4.991832665832217630e-01 2.771013551928406815e-01
-5.531402441712433005e-01 1.424235677992968796e-01 -1.946643334287399829e-01
1.911111985984583206e-01 7.585057535147361751e-02 -6.181269001562900156e-02
5.481872292067713898e-02 -5.846996539590564312e-01 3.159277191170006271e-01
1.832543855693557211e-01 -5.693981363548781260e-01 3.228426915437063727e-01
-9.133840372466815738e-02 4.210813605893560796e-01 -3.034609870921513575e-01
3.493918657723155130e-01 3.416988486274187831e-01 -2.009069782300966223e-01
-4.936174763094158813e-01 3.848229929409062167e-01 -3.320932690864810688e-01
3.749473927619841052e-02 -3.263491410359173339e-01 1.593563091788688935e-01
-9.550877354222393478e-01 -1.008018681179906062e-01 -9.955970296014010623e-02
-5.783769196098721699e-02 -4.213341770892362059e-01 2.042041436856520675e-01
-2.805988444324395981e-01 4.514550647674122064e-01 -3.452798464793024880e-01
6.082928603208066082e-02 7.279474337463998079e-02 -7.627725156475964607e-02
-3.816251543510179589e-01 -2.217707516838703097e-01 4.444602806403778750e-02
-2.228450018010650069e-01 5.498625612148304587e-01 -3.968720978519826303e-01
2.987066815630289862e-01 -4.969614134968020069e-01 2.939868865511151008e-01
1.495147281759526964e-02 -4.698056973069001524e-02 -1.042934126325675316e-02
5.793856756638124939e-01 -2.970771043918612464e-01 2.096215776997890079e-01
-2.127607957009652606e-01 -2.880577521955972609e-01 1.051783465743641593e-01
1.421614715394832473e-01 -5.620859332304519729e-01 3.133340967441021752e-01
-1.479778184325891421e-01 3.628632705436737882e-01 -2.757488897196789246e-01
-2.910549374391293020e-01 -4.000884234072705214e-01 1.623441621306022098e-01
7.869029934897450174e-01 2.858717124805366591e-02 4.093452027014361783e-02
-4.504688029874743815e-01 5.068519731626393021e-01 -3.996293618988279173e-01
-2.889835547392007875e-01 -2.105944435201339004e-01 4.935064947068844299e-02
5.369322615092434609e-02 -2.481719176326011023e-01 1.146586091001079583e-01
-1.993579932440261993e-01 4.622334000922515562e-01 -3.415629627474015551e-01
7.663727118873644439e-01 -4.176252522631963837e-02 8.041237638772108509e-02
-2.342527308070116721e-01 -2.892952883113716345e-01 1.032305432744831108e-01
5.442199094519031832e-02 4.671616268483195222e-01 -3.127748243975633780e-01
3.231599843574518849e-02 2.433833731210705564e-01 -1.817962506142849766e-01
5.387797231930796515e-01 1.749994922778585205e-01 -7.759611813807160141e-02
-8.407214028619812707e-01 -7.603602547641422071e-02 -1.000604346409749990e-01
-2.343690520263909671e-01 -1.632420991515757536e-01 2.787934602903818782e-02
1.759426054488164859e-01 -2.623195925580962262e-01 1.384005621895404436e-01
-1.167371043703995448e-03 3.775756630607290387e-01 -2.661841752717441500e-01
5.881422916375125265e-01 -3.847295778923222609e-01 2.631027061697820413e-01
-2.230990021143660074e-01 -5.399978455198474470e-02 -3.600091213784379490e-02
4.078362895543441446e-01 -2.408241638795272643e-01 1.545504466870847582e-01
3.869279395310282754e-01 1.441042979032552962e-01 -7.811944355548186558e-02
1.680062402564624080e-01 -6.009911983725380047e-01 3.398178454967944462e-01
4.238770043495298512e-01 -1.621724479189229629e-01 1.095494341356435392e-01
-4.586852670118231057e-01 -3.813131589792951304e-01 1.301619031467825260e-01
-5.453086234149682188e-01 1.668363990810601272e-01 -2.082755555899896693e-01
-5.987145260800866842e-01 -1.089635908530466601e-01 -5.011964300282852752e-02
1.533620499135632254e-01 -3.573620297748789087e-01 1.923798501857308108e-01
-8.884841499660478537e-01 -1.914006898012758640e-02 -1.400371577508843501e-01
4.156690134369779577e-02 -4.847507204285369520e-01 2.545354211944735323e-01
-2.310425182842706371e-01 3.153314392138146550e-03 -7.115218344703405640e-02
6.108452035381951584e-01 2.308000978933992531e-01 -1.019344586313843670e-01
5.061558339192846478e-01 -4.615631201884413670e-01 2.987709885715946201e-01
6.500695058278370686e-01 4.833265355179704875e-02 1.202334724364744097e-02
-5.224550293446089677e-01 -1.451027442917373622e-01 -1.898504934379793146e-02
-4.226553706543480504e-01 5.222788728112855994e-01 -4.053714782047512233e-01
3.113281384952455433e-01 -3.574321724297815916e-01 2.121743998994945479e-01
2.750477354604539126e-01 -5.194542305927518644e-01 3.044714938195043907e-01
-3.123778428090912551e-01 6.635560028691611656e-01 -4.760173497518557784e-01
8.192907378995912815e-01 5.605572203282416927e-02 2.856760698903454063e-02
-1.552015034982408004e-01 6.267037996982703918e-01 -4.343384734053138407e-01
-6.888959182078344123e-02 -2.362827790394194660e-01 9.222479318366016976e-02
-1.417200502572894538e-01 -4.961011672934925731e-01 2.384002654395035170e-01
1.758890674700905321e-01 3.374665059442480408e-01 -2.200728788449500539e-01
2.744204817365318849e-01 -3.598867088344473997e-01 2.090263107420849698e-01
6.958173236417225516e-01 -2.748214150955180166e-02 6.305510507778744334e-02
-4.072041922017192728e-01 -9.657668379104912548e-02 -3.357565532287118404e-02
-5.787064328063459134e-02 1.209167462132047788e-01 -1.198803858715905557e-01
-9.066306281258467159e-01 -1.604008292770615907e-02 -1.441589867728811369e-01
-7.803414028197118713e-01 -5.481764605991950451e-02 -1.051916363514345115e-01
1.618947675542943831e-01 -2.403930398418434589e-01 1.235393999086058237e-01
-4.989156738209885034e-01 4.779461668813114739e-01 -3.884115508342493306e-01
1.778249695082533555e-01 -5.240723460615700491e-01 2.950744734666057578e-01
-4.208707075314456758e-01 6.802662610120508990e-01 -4.995706879227155839e-01
-3.363069484964397171e-01 2.591563271076058328e-01 -2.373169708467159356e-01
7.555115464696603167e-02 -2.628068067431792443e-01 1.261384537481296253e-01
-3.732307126697927413e-01 3.141676979526996649e-01 -2.748120128612109858e-01
3.976627254373337750e-01 3.148104537598451214e-01 -1.788009675420489109e-01
6.385479841853872740e-01 -1.748628567618582264e-01 1.439771589743079616e-01
4.729084191796090186e-01 8.312866298012314137e-02 -3.092559142051655441e-02
-6.495847397418829106e-01 1.288529509251159777e-01 -1.986135052530512979e-01
1.139697827715184242e-01 -6.205565352243636035e-01 3.447543122788311876e-01
5.984813265735182686e-01 2.688930040647179165e-02 1.838836603299790970e-02
-9.531916771081124784e-01 -9.087091809391603658e-02 -1.052579214353069059e-01
-4.139238546129606067e-01 -2.426359154193042655e-01 5.287751098920166065e-02
-8.507446207167289609e-01 6.461176399802717740e-02 -1.853729990911838210e-01
-6.007898038880417069e-01 -2.822932005098475194e-01 5.321262317266817199e-02
-3.125347329516850459e-01 4.521624399201907840e-01 -3.496959890779086089e-01
-5.738755867063453087e-01 -2.606353180358766397e-01 4.363407136633143391e-02
5.235961897996113112e-01 -1.345660309171052005e-01 1.055194813231118828e-01
-6.487389382685678774e-01 3.199884538807799550e-01 -3.127413376561645753e-01
5.143036316108056116e-01 1.060618640634310855e-01 -3.945559319559114458e-02
-3.524656658764259709e-01 -1.288087524314930621e-01 -7.467217653108765806e-03
5.417807776410179521e-01 -4.309757647425556670e-01 2.849448884915612989e-01
-3.754912451381278160e-01 1.839304735345691569e-02 -9.832269689814858438e-02
-2.181907807212716821e-01 6.597822183704971089e-01 -4.619844411926419259e-01
3.408660575602587284e-01 6.008549741953262552e-02 -3.366470293724048435e-02
-6.251058699905842619e-01 2.928900572077829945e-01 -2.935906127995972503e-01
-2.196944737905159872e-01 2.274514861797964638e-02 -8.144239402809490269e-02
1.467264952343385886e-01 3.203089244470221919e-01 -2.134651084428419443e-01
3.979588850099869957e-01 -1.923949965808117446e-01 1.243712796906058377e-01
-7.162665163464886353e-01 -1.504729313914492661e-01 -4.001037752388525437e-02
-2.774957273339663244e-01 4.054401176686830977e-01 -3.173906370724245973e-01
-3.901114266558378674e-01 -7.897877026170772863e-02 -4.195584408343561861e-02
5.696232712228369577e-01 -4.984152734498973891e-01 3.287321484795125981e-01
-3.260682190467548147e-01 2.509272244336214763e-01 -2.311184984362179007e-01
-2.986558382736981820e-01 -3.609123216200319506e-01 1.379798223977592719e-01
-3.246669542910719519e-01 3.712214232478973086e-01 -3.028380268589248581e-01
-3.120819791315664060e-02 2.631556429065294855e-01 -2.015565849544714017e-01
-5.401116929345569639e-01 -2.430095353264971614e-01 3.732184215871048316e-02
2.384969006033798855e-01 -3.685760947924928699e-01 2.097275793131205546e-01
-5.254632632681288662e-01 -2.287422449529170065e-01 3.062657753715450348e-02
4.412879464001159269e-01 -3.462105235946754123e-01 2.217183214990757767e-01
-4.683770799375173710e-01 -3.015570644573685802e-02 -8.092193051669731296e-02
-3.023831096989619827e-01 -3.616709504162629041e-01 1.379671517307986817e-01
7.416816667168669996e-02 -2.440044880701839058e-01 1.147281706503358589e-01
5.159909049396909086e-01 2.166722900966459031e-01 -1.053517772886927162e-01
-3.413347440281637724e-01 6.376028192798810501e-02 -1.211657238798493214e-01
8.594159031693497930e-01 5.645511099965978136e-02 3.334629916236133557e-02
-4.157355180907658654e-01 -3.326369022366490458e-01 1.064407520226723497e-01
5.454938409643230735e-01 -2.699006185571498073e-01 1.891413904711010396e-01
5.459194408255695075e-02 2.793763038463227821e-01 -2.005222391673173732e-01
2.929334205792835655e-01 -7.660494233918155316e-02 4.203571980446284273e-02
-5.837064544399905852e-01 2.868026541378414507e-01 -2.847757030999735206e-01
-1.455629308206174422e-01 -1.623130601854551325e-01 3.842872465785407421e-02
7.145808947906240327e-01 -2.474518205130313286e-01 1.968679272675893654e-01
-2.493408305451202400e-01 -3.297911692300505293e-01 1.255465476503946354e-01
-4.116799564431903868e-01 -3.280897999614357796e-01 1.042302631060342821e-01
-3.616604647110678861e-01 1.395951156959650552e-01 -1.690305906699088589e-01
4.411851845451096876e-01 -1.948351963028290348e-02 2.643458042020356905e-02
2.078496414916307933e-01 -3.816287481321168906e-01 2.136963576201678927e-01
-2.166817124576297660e-01 5.192470291079935851e-01 -3.778038119590247379e-01
-5.394475060921677390e-01 -1.041438118472019919e-01 -4.558926672100920008e-02
-6.465402403878854620e-02 5.159586933319685320e-01 -3.568284427106692136e-01
-1.565021405888974426e-01 -2.405876915086206935e-01 8.384227960225679177e-02
9.688993303007161773e-01 7.102314020483199708e-02 3.832979317673936709e-02
1.793913722966301305e-01 -2.203618133399226353e-01 1.137554205059216894e-01
6.659335456609499944e-03 -6.017037621690251026e-01 3.200683372732479604e-01
-1.816821880948232548e-01 3.522880084760015018e-01 -2.736430149654511812e-01
-4.696645805503373294e-01 3.899852563561010399e-01 -3.321833819888885819e-01
1.522483624318933526e-01 -3.659340314977865133e-02 5.307692169137415801e-04
-5.940546534198410944e-01 -1.134123499861802720e-02 -1.078817035285227210e-01
3.433938731344581274e-01 1.830400774462762337e-01 -1.068333606997175361e-01
-1.204507985990646568e-01 -1.625184595912317898e-01 4.169159142407929952e-02
-7.422219628081931642e-02 -1.163948862131772705e-01 1.990607024326567637e-02
-4.704982102272657341e-01 3.908713336183642362e-01 -3.328171927882039860e-01
3.133131760553933276e-01 2.026813699498149490e-01 -1.223335241497090081e-01
-1.478377937416308907e-01 -3.993717741134115151e-01 1.798242203224833802e-01
-2.492481322427080037e-02 -4.615600632788625091e-01 2.323609927303941503e-01
2.310973318399587029e-01 -3.150453395745407836e-01 1.768092464937545683e-01
-3.839650433632268989e-01 -4.844863557581944452e-02 -5.943384733027975292e-02
-3.348153612871117568e-01 4.488411116439438575e-01 -3.504970190058069868e-01
-3.795060227415079090e-01 3.665606299990587513e-01 -3.069097357527131309e-01
-4.313179703948685217e-01 8.694694762224032536e-02 -1.462752270544203925e-01
-5.474076410379460356e-01 -2.747927098239848209e-02 -9.240377850657138792e-02
-1.068749373171914985e-01 2.902326341740056326e-01 -2.272009876861462996e-01
-2.784097701961223970e-01 6.260547114831912507e-01 -4.493569305104211931e-01
1.063436345384586278e-02 1.428691155128350432e-01 -1.244342831867938787e-01
-2.487865703247570115e-01 5.689494769476054481e-01 -4.115233627752926671e-01
3.829298977365165890e-01 -1.648565232362650679e-01 1.060334238229352216e-01
2.917413425329932197e-01 -5.419459699022789456e-01 3.200012803563647701e-01
-2.938317581019767033e-01 -1.661265641202701870e-01 2.216784525149016402e-02
2.862363136885345827e-01 -4.610450854797077391e-01 2.709618804562747840e-01
-6.183397465670531501e-02 1.999517568352076335e-01 -1.676118528256497209e-01
-4.326495909123057038e-01 3.283549762473145783e-01 -2.907210911098551120e-01
4.750083784881016513e-02 9.314858107878701277e-02 -9.010851370873942945e-02
5.750733954298850592e-02 -3.360640850274114744e-01 1.676649647673945365e-01
-1.619148592802104603e-01 3.664036180962459421e-01 -2.796075414950888738e-01
2.161352518656803612e-01 -5.995255088979600799e-01 3.449600837690754429e-01
1.634827314607232018e-01 -4.685383781822909932e-01 2.600907698048736671e-01
8.105594091569896520e-01 -1.041894926832201140e-01 1.232475887836969736e-01
-1.173521572751804326e-01 5.279717879771061995e-02 -8.660598083038172079e-02
5.025479845460389949e-01 -2.279562435081421423e-01 1.587029150442492709e-01
4.455273746825518244e-01 2.321733201964294724e-01 -1.234270909979476027e-01
-3.006810606504451977e-01 -3.220649294298643414e-04 -7.778294166079803562e-02
-6.230704595598567375e-01 2.550667847481016826e-01 -2.707307301073512140e-01
1.591744864811683868e-01 5.688285972296868581e-02 -5.446996720043414258e-02
2.937224118056315780e-01 -6.422442472001028690e-01 3.801930322340663637e-01
8.409314149511919467e-01 6.413623194705511676e-02 2.644425390096949435e-02
-2.409954419499100997e-01 6.260283565625754942e-01 -4.446627617260875964e-01
-1.942521165308211117e-01 -3.452703374218638599e-01 1.416862749949912570e-01
-6.742181686112896921e-01 1.283096298617489306e-01 -2.013690347778134548e-01
7.304699462837512813e-01 -2.714500277279735183e-02 6.718669583761481545e-02
-1.653502269732526064e-01 1.229962081577489208e-01 -1.345628126788933621e-01
-3.011872583000668735e-01 4.804275682535180669e-01 -3.651699314349212133e-01
-5.338147030924366154e-01 3.942054359339670633e-01 -3.427271587236648820e-01
-4.760520115415407538e-01 4.060008567698529802e-01 -3.425539345556318227e-01
-4.677714892974749739e-01 -2.868813915372673828e-01 7.258786271438752435e-02
4.276292516693551704e-01 1.826847632281363987e-01 -9.608792011317887627e-02
-4.580361900294178112e-01 4.494626660159267706e-01 -3.662764561673743646e-01
2.993552752642150150e-01 5.884386833743727313e-02 -3.811328623368595570e-02
-3.059401122784007332e-01 5.301963257578109490e-01 -3.955089231542473494e-01
-4.513774101249592996e-01 6.349838689158117111e-01 -4.763219842124242764e-01
-7.391903975089000323e-01 5.170911248094244017e-02 -1.637125032262881086e-01
-2.408134429653166209e-01 6.648156534897037284e-01 -4.678215284346036729e-01
-3.014985559823061823e-01 -3.493427111897918214e-01 1.307096929908585503e-01
-2.291939631911984743e-01 -4.298564284475800967e-01 1.878705489832009357e-01
5.954205529633020966e-01 -4.083182581823911472e-01 2.781107603316625432e-01
2.600818912484624268e-01 2.537837785738479290e-01 -1.595314940382364099e-01
-3.559881127700728065e-01 -6.147238893689615374e-02 -4.815176900136376725e-02
4.492961188255245042e-01 1.252198602509163872e-01 -5.903428126410202592e-02
4.825346379663780216e-01 -4.211194375500479370e-01 2.716458361048821879e-01
2.702382503147229276e-01 -3.504913599264954938e-01 2.028881479061912241e-01
-2.287777709453080004e-03 -1.243846351756965479e-01 3.367613434956335389e-02
5.514766032288681563e-01 4.661274991476989371e-02 7.228617903561432604e-04
8.635385333366049632e-02 2.805890654984464772e-01 -1.972754359794609003e-01
-3.336344173091725929e-01 4.670582793037799108e-01 -3.612369791703800570e-01
-6.329415118165871990e-01 -3.065299659332401672e-01 6.367755005069480889e-02
-3.438754630989172001e-01 4.077439668408547879e-01 -3.270679028741143579e-01
-7.100031980352787542e-02 -2.763473846790486660e-02 -3.273923590205670558e-02
-6.702765163585094887e-01 -7.525238395169475680e-02 -7.921576333046989604e-02
-7.072877760339001119e-02 -3.676944215717857789e-01 1.705339876584812397e-01
6.013255425309688151e-01 1.441856477153193039e-01 -5.135904189185171859e-02
-2.262515724035403797e-01 -9.996910875248596340e-02 -8.921202485243175107e-03
-1.332977780102768683e-01 -5.079835938595651523e-01 2.465550386814745198e-01
8.517073320721837426e-01 1.405649917444919683e-01 -1.788652049629359947e-02
-4.597796714597210399e-01 -3.921133331024860280e-01 1.364798616330470671e-01
5.546653010356641378e-01 -2.986709025487382929e-01 2.074830018399945186e-01
-8.788537382355656735e-01 -7.406308493326570208e-02 -1.060077773073144491e-01
2.066748737607230491e-01 1.918834546367596539e-01 -1.292144912577150029e-01
1.380698994764502363e-01 1.482176583066894260e-01 -1.116958985927240661e-01
-4.402008673935044886e-02 8.918827524670867868e-02 -9.918570096944005765e-02
4.477822297336374324e-02 -6.022287535689344606e-01 3.251486204994590290e-01
-8.678796772688147920e-02 1.779498267144236368e-01 -1.575825650814904610e-01
-6.009060897218615471e-01 -2.165006659880520101e-01 1.387667122124614655e-02
-3.261986895242191542e-01 1.624801909256343713e-01 -1.782737672638327608e-01
2.975219054752581416e-01 -1.555920393032389770e-01 8.981672216223782201e-02
3.548588855898934802e-01 4.142396831484262965e-02 -2.076178559977268079e-02
-9.433097701527684564e-02 3.266887627937190008e-01 -2.474207312535268710e-01
3.301384488769600334e-01 -3.206813334972508697e-03 2.821012930996107809e-03
5.790462939688235666e-01 5.442442744284221173e-02 -4.984371008625154004e-04
3.959863252921712040e-01 -3.951546948412127946e-01 2.453055075067393787e-01
7.683826880718770402e-01 1.814179992758529758e-01 -5.272183564107890685e-02
5.034011354024154894e-01 -5.380013323009222859e-01 3.441104132535869331e-01
9.590213377752188073e-01 8.588134405191449883e-02 2.821449557616036163e-02
7.483681726203096352e-01 -8.768663536706663986e-02 1.056079217217972543e-01
-5.064558565431617199e-01 7.306678666634022767e-02 -1.473751450403599783e-01
1.533893227370217681e-02 4.537923117455097133e-01 -3.096716324463753556e-01
3.112359687560642962e-01 1.666395228038459186e-01 -1.010525799195584745e-01
4.945052683328432508e-01 -5.943831382485992298e-01 3.766950604350229326e-01
5.433348071765389253e-01 9.229792412013780589e-02 -2.759931024457246140e-02
-6.152197741407205989e-01 1.821161796089411020e-02 -1.281907522111939424e-01
1.945329494784222846e-01 -2.840138380151648878e-01 1.536908950070646762e-01
-6.231101527968714304e-01 2.566531514325809393e-01 -2.716837976625511852e-01
5.044384191690667318e-01 -4.343683680913151823e-01 2.823030856015726342e-01
-1.399458840999084630e-01 -3.652213503040823567e-02 -3.604880825805107519e-02
6.818540875870283957e-02 3.693628097017076506e-01 -2.526035881966257612e-01
4.354450188360146634e-01 -5.455750210815899504e-01 3.401394173810171062e-01
6.072091071708131116e-01 -1.473139623341784277e-01 1.235936296001446250e-01
1.888759534172947396e-01 -3.714575359610488570e-01 2.052449190557245895e-01
-2.739628699203118245e-01 -1.155705729364918215e-02 -6.772732721949085988e-02
-1.784892203760748419e-01 -4.091606506825069545e-01 1.818418563732099869e-01
-1.467323817219606807e-01 2.550943151576775536e-01 -2.111842160284671255e-01
-5.298070333503460683e-01 3.163802713265355671e-01 -2.957132212648267977e-01
-4.028720483338878999e-01 2.860939914659527128e-01 -2.617400031597151289e-01
-2.067304540297913718e-01 -4.983007523172826581e-01 2.315857375375002525e-01
-9.580193309120837997e-01 -1.426827866831756886e-01 -7.489582873027038346e-02
-9.674854501007661423e-01 -1.106707100480706640e-01 -9.521176745196446856e-02
-2.865212817182283822e-01 -2.910595287358100358e-01 9.774911388623942765e-02
-2.839760724375466339e-01 1.809069167406919809e-01 -1.840069780957505896e-01
1.126809959881893142e-01 4.219933476136351058e-01 -2.784947486959485352e-01
-4.226335747451354652e-01 5.707154728042601599e-01 -4.343172569976528341e-01
7.354255017890649615e-01 1.591706251764811453e-02 4.206998322952312103e-02
1.709575142940509551e-01 -2.050506852472202823e-01 1.035500088648758921e-01
2.444095459437976015e-01 -4.153973974601502528e-01 2.384500264598684582e-01
1.889476170061603899e-01 -5.815653380035724213e-02 1.800714134488651252e-02
4.336874650719902968e-01 -4.904936248759363404e-01 3.069998292758110980e-01
-1.612798623899208417e-01 3.333056114248896806e-01 -2.597468625940820841e-01
1.094103097912183242e-01 3.754158244375350728e-01 -2.510663138999774113e-01
-7.955350150795714725e-01 -1.523500180338683285e-01 -4.880053076877743923e-02
-6.800711697865622352e-01 5.681568749269405756e-03 -1.288113162980838999e-01
-1.883406268624140401e-01 2.438809520075868320e-01 -2.096853033290975443e-01
3.890944203958365821e-01 1.852215739139761452e-01 -1.024225935658692188e-01
-1.096054234066768246e-01 -4.976942963646125428e-01 2.433681356998094458e-01
-3.053478619046456344e-01 1.547424594815987042e-01 -1.710419930080409323e-01
-5.867144803998340929e-01 2.096390406742062451e-01 -2.390344136990027735e-01
-6.994306047338059162e-01 -2.517789511369611377e-01 2.264116041602144691e-02
8.859451536480439371e-02 1.488189940760611084e-02 -3.819333696957265961e-02
4.668878273071428442e-01 -8.068010307750848875e-02 6.622313402691622219e-02
-2.003053506345300050e-01 1.134962732738801910e-01 -1.332560140603332444e-01
-4.428043245082027846e-01 6.239022909508269710e-02 -1.330350101349828673e-01
-5.894900162174212220e-03 -5.944688347881699197e-01 3.141745023916214241e-01
-1.821204777409188569e-01 -6.486355205031230087e-02 -2.438400142244263533e-02
-2.566022546686203346e-02 -2.015000148682488390e-01 7.684215843007904945e-02
7.073521917618225130e-01 -5.141244036584709937e-02 7.879959108617427821e-02
7.337514551888935088e-02 -1.362750236642060742e-01 5.024367065803696242e-02
-1.361549540930308555e-01 2.907204770577443420e-01 -2.311538257179756584e-01
-4.843911363831436556e-03 -4.487101595695363598e-01 2.271921352761769874e-01
-4.744305619592008028e-01 -2.293358397117330472e-01 3.736265021860692842e-02
4.715518852042582809e-01 -4.932495621019977183e-01 3.133816348424298681e-01
-3.430271187550069656e-01 8.044256653141818036e-02 -1.313476392047797092e-01
7.460535168929079974e-01 1.118729884330270374e-01 -1.394984544330741746e-02
-9.994860295461018007e-02 1.547026085789270367e-01 -1.453343390070347130e-01
-5.637117256297523582e-01 2.731745435908168318e-01 -2.741305483167851831e-01
-9.603135429725130623e-02 -2.234478005322701188e-01 8.115996991147667039e-02
-4.275201274785127986e-02 -5.503477727848640200e-01 2.831964710466172708e-01
1.349455278086107435e-01 4.408232810595046902e-01 -2.869645679576569575e-01
-2.017253036005506872e-01 -2.037630195587968318e-01 5.617887154021986018e-02
2.507927093557563158e-01 -6.611414470693962597e-01 3.861190090708292999e-01
-5.917383251319446869e-01 -3.060522967483284007e-01 6.854425699560633134e-02
-2.778242321737531828e-01 4.250544653283965246e-01 -3.291543792671127178e-01
-2.166320837165346125e-01 2.352527651545243681e-01 -2.080662635405119698e-01
6.046393155140468156e-01 5.202858309162017303e-02 4.133697901921183117e-03
3.480235684433785059e-01 3.923620667732621164e-02 -2.030896493297476915e-02
-4.663673619557125449e-01 5.760862449503950655e-01 -4.429957646887556222e-01
7.104561760276288940e-01 1.292078340716442120e-01 -2.876136359567294312e-02
-2.849409409993733933e-01 4.126187527204698280e-01 -3.226119785617810320e-01
-3.873541887429494263e-02 8.992325145855990798e-02 -9.896415189409631108e-02
9.162393414573150041e-01 -3.082623298943920880e-03 7.603488126767329880e-02
7.293905904760879244e-02 3.891358575579216827e-01 -2.638266884464078310e-01
7.744172795095667639e-02 -3.218447531389580923e-02 -1.145834162582999929e-02
4.612491416304134728e-01 -2.601514238181628635e-01 1.727804598805483816e-01
-7.405877064186150438e-01 -2.587106465337716821e-01 2.163751419887629396e-02
-3.091514284088185960e-01 3.367641242345277841e-01 -2.803042434659862581e-01
-1.941476245307682258e-01 -2.586447454260208390e-01 8.992689382615645655e-02
-5.113274022128753149e-01 3.160408815286398082e-02 -1.232038013302269863e-01
9.646347675032043711e-02 1.083421445454016835e-01 -9.306660460966965920e-02
2.849134833680282974e-01 -1.266156265776267331e-01 7.092214670839412649e-02
2.210445096831293033e-01 -3.019125757124003218e-01 1.677033099848412867e-01
-4.776059670357645226e-01 -3.599372986711977807e-01 1.150205467861961928e-01
1.689870920652500330e-01 -3.790225605673538389e-01 2.072792415293004675e-01
1.864268497565479132e-01 -2.757868337139938175e-01 1.477603481340868941e-01
4.007370092595295974e-01 3.732740108090585318e-01 -2.133577401727949630e-01
-1.825027386817644204e-01 -2.605957171922566040e-01 9.254902399092324039e-02
-6.637204580845715296e-02 1.569131853960389622e-01 -1.424569778036340884e-01
-7.646702532679400255e-01 1.531890262738469337e-02 -1.451497058148579489e-01
-3.318009814934856361e-01 6.832795794193464722e-01 -4.902340327700266398e-01
8.386695382410707111e-01 -7.332422573324283432e-02 1.083157142435205861e-01
2.680226254704059508e-01 1.623469773253137238e-01 -1.038906538509290073e-01
-6.340491564663429669e-01 3.265729044166869044e-01 -3.148397235073718270e-01
6.795624036445342409e-01 1.867040951578778918e-01 -6.698750813802220594e-02
-4.299100069625853560e-01 1.617835826544286593e-01 -1.908258573850542261e-01
-7.646419827985317941e-01 -1.208386159357163481e-01 -6.377058903692589542e-02
2.951985328598624170e-01 -3.771251513987964460e-02 1.907460090751483123e-02
1.199217921692245920e-01 -1.528252606638465516e-01 6.595540068822992874e-02
3.453309787956281296e-01 -2.658337576184560394e-06 2.805751917737505340e-03
4.548605452349449019e-01 -4.618055498182207508e-01 2.925017374189191610e-01
-4.658212544709983832e-02 -2.842147465085378411e-01 1.236611030090698782e-01
-1.558095441078798660e-01 -1.108018403876194213e-01 6.361378282773899780e-03
3.579147402729345728e-01 -6.484529176592600530e-01 3.919305233193133287e-01
-1.151745105825830590e-01 2.910025631773154875e-01 -2.286989491103308403e-01
4.347428740055684360e-01 1.800150239436073829e-01 -9.360281797616049060e-02
8.952635623852240876e-01 5.955296035308019903e-02 3.597736164382951685e-02
5.428752795225779693e-01 5.251507992766651922e-02 -3.880250251913960197e-03
4.020243677728416176e-02 3.417826877500893534e-01 -2.396192055101512008e-01
-6.434737781074925111e-01 2.834610044062322864e-01 -2.902520543511011297e-01
2.750359674226482420e-01 -2.094348300951514585e-01 1.191845578463613248e-01
-5.340594065080351838e-01 1.034471886340628116e-01 -1.689838682703659334e-01
6.350456421010421959e-01 -4.157620215208844838e-01 2.875144411757534213e-01
2.436125510359650297e-03 3.726934347504707312e-01 -2.628156804769193333e-01
3.718593541935407143e-01 -4.736018473669410533e-01 2.891731275814438118e-01
-6.483202561165751776e-01 9.368997982950311165e-02 -1.774399713716559579e-01
-3.202924776480930436e-01 -2.913473274113391187e-01 9.369825131944321817e-02
7.983691506969824436e-01 -9.889709573828379952e-02 1.185602350337839478e-01
-3.132712103856183372e-01 -2.333017933364198160e-02 -6.560628227142246971e-02
-3.755548438156890434e-01 6.228780822377060211e-01 -4.596057512040938042e-01
-6.666005210445047346e-01 2.560864491155057099e-01 -2.767832904027507923e-01
3.432669396294212305e-01 -2.978072065573004190e-01 1.805328219149916202e-01
-4.546709719837759844e-01 5.298364974572747910e-01 -4.138916923420948302e-01
5.612248896533905684e-01 5.548794816890954829e-02 -3.362508691417285134e-03
2.284550265732311278e-02 -5.725035416580382952e-01 3.046405768523256508e-01
2.464591858671971725e-01 -4.977873990970864242e-03 -6.584044841311183748e-03
-5.578700635858893087e-01 4.206000085219340212e-01 -3.615100426213478380e-01
7.671297423098277779e-02 -5.882312417074431199e-03 -2.726915622806129827e-02
5.623783728511321245e-01 2.589485471706772790e-01 -1.248180553664021003e-01
-4.788637217550739678e-01 1.015662173985546479e-01 -1.609578312868868710e-01
-1.966874442354807073e-01 -1.654648537349830140e-01 3.391963142352162619e-02
6.176765583702958917e-02 -2.276680462419805873e-01 1.034139683693947737e-01
-4.550565354710988109e-01 1.195892596806886060e-01 -1.687525070041983044e-01
1.986804313536871258e-01 -4.837176277749475894e-01 2.735640070079124464e-01
-3.388884048213618438e-01 2.624931428876586814e-01 -2.396340385695606978e-01
-5.279052934819744580e-01 4.298087171066101164e-01 -3.632667987591703396e-01
3.825432740400272480e-01 -2.325489384624068734e-01 1.464419684452066273e-01
2.958210773606734234e-01 -4.486361407482062358e-01 2.647440919278280513e-01
1.152750538885527337e-01 -1.429564655357127012e-01 5.947619554875926973e-02
1.170890068499956093e-03 1.831288425983185544e-02 -5.117564507020527093e-02
-7.306150587474662395e-01 1.496221558774879223e-01 -2.211586919016342856e-01
-3.247546754489905041e-01 6.204248222271626645e-01 -4.517873120967105249e-01
6.028101635379091716e-01 2.506093148126829484e-01 -1.147783178541411514e-01
4.315046815513712275e-01 -6.824870557029188989e-01 4.214732279498374923e-01
-1.334799882646647839e-01 -3.408134819798197546e-01 1.466217592860430408e-01
-3.633952007809504448e-01 -1.388011886401979145e-01 -2.861828780831750674e-03
-5.251186527731377396e-01 -8.343611819904518667e-02 -5.617364852579518480e-02
-4.501235928192313662e-01 2.111775185441417957e-01 -2.228740977190795114e-01
6.040184382121609463e-01 -3.297516484414439453e-01 2.322299349034020466e-01
7.417003734593392572e-01 -9.871890959891779782e-02 1.113676799777398585e-01
6.443704106780961949e-01 -3.007383092387980184e-01 2.199356417564856114e-01
2.092019350782949316e-01 -4.247473996222074222e-01 2.396356447641269094e-01
-3.138062022925987571e-01 7.546189709779904664e-02 -1.247170191512909643e-01
5.583304246642265545e-01 -1.666305630489259004e-01 1.290263834276494659e-01
3.379869500665811932e-01 -5.289164852958638807e-01 3.179968206881816917e-01
3.031720600712647373e-01 3.060222300444359056e-01 -1.853640594782006989e-01
-4.475767948488334480e-01 -3.203471071974617335e-01 9.511411822764530288e-02
3.110729634517002684e-01 3.616420794961906493e-01 -2.176177312512981299e-01
1.670863841738546851e-01 7.601629725359736189e-02 -6.491588122431925234e-02
-4.061201508400936744e-01 4.900929191952408392e-01 -3.840676756791844282e-01
-2.535227539974667724e-02 5.751549979155419212e-01 -3.872931394676233929e-01
-3.069151268154198253e-01 -2.074327312164397641e-01 4.521880188596939104e-02
-3.773619434995728605e-01 3.631240824436851033e-01 -3.045877537217201447e-01
3.627124981824858541e-01 -5.562998985574003630e-01 3.374544953612414466e-01
2.057930263040430863e-01 -3.957747804322612334e-02 9.009635147700470123e-03
2.028687098991767065e-02 2.107269154981838422e-01 -1.637830329737419710e-01
-5.424573959685171642e-01 -1.018106442515988447e-01 -4.736006925411397062e-02
1.424846444470112827e-01 -5.459984208673346329e-01 3.037596826722733234e-01
-4.466782989680384008e-01 4.137010191069847020e-01 -3.434830043841436975e-01
-5.106137581435943318e-01 3.774635582761174946e-01 -3.298201208225126080e-01
8.087068111832264317e-02 3.258912841900481472e-01 -2.250362881648738100e-01
7.536848366397271848e-01 1.430864926890524635e-01 -3.165058812509507352e-02
-1.864481722205471870e-01 -2.389444530094836372e-01 7.911562973817663769e-02
4.517121109052445460e-01 -5.112834919188589122e-01 3.216789165537110029e-01
-6.876292272196912747e-02 -1.754374512488936222e-01 5.587595707970303277e-02
-1.120917925354256439e-01 -4.780584167615877234e-01 2.313216979284651587e-01
-1.402087802567095198e-02 4.515010170739836015e-01 -3.119734753342714439e-01
-2.469408031156179184e-01 5.631109994255732998e-01 -4.078031509124583343e-01
-5.780943157975846347e-01 -3.378104102987735113e-01 8.923083063443165708e-02
6.580901063422449626e-01 -2.058350527269105570e-02 5.421454009988611183e-02
-5.031165699849036166e-01 4.300787171287248634e-01 -3.603284982452046870e-01
4.588340652862939462e-01 -2.349231533344739442e-01 1.574006016492698057e-01
6.381905155418320097e-02 -3.536237388414920635e-01 1.789488644871205791e-01
1.351403334272123155e-02 2.667439014209156967e-01 -1.981089119424985778e-01
-5.034688066944620344e-01 2.659494436185132482e-01 -2.622794282499142926e-01
-8.542386207805084952e-01 -5.617301182698608737e-03 -1.438369633683247995e-01
2.218783991832795795e-03 1.005069151668586541e-01 -1.001685036265677897e-01
2.703106233687766480e-01 -3.323829767555637194e-01 1.920745840639438151e-01
6.759103660122032231e-01 1.646401303860683951e-01 -5.425747440906426855e-02
9.260030977622361048e-01 5.521119001543022681e-02 4.241603215303368229e-02
-7.112672139346258929e-03 2.296344745143833188e-01 -1.785094141934438217e-01
-2.321255052527315677e-01 6.614223166202308490e-02 -1.089334117851164518e-01
2.443859265422705651e-01 9.889144406799103837e-02 -6.892158429085999682e-02
6.009055226321423637e-01 -2.676809210912253212e-01 1.947436404646821773e-01
4.031695896968923165e-01 2.428590588218383292e-02 -4.478153334343430020e-03
2.668304505570526786e-01 -1.926378469922636061e-01 1.081196661697123168e-01
8.933579921855825390e-01 7.793014977755938211e-02 2.475581479449464814e-02
2.413314397996306482e-01 9.733996436628554461e-03 -1.601789783784733981e-02
6.588598028650619054e-02 -4.493947659172457532e-01 2.364456068289452484e-01
-3.068335475315343563e-01 3.019181521950178859e-01 -2.591884460421530756e-01
3.348176187224664174e-02 2.378118200328654119e-01 -1.783205982134241641e-01
3.574945070411240655e-01 1.757343210769790609e-01 -1.007038273183268468e-01
7.638696446733764800e-01 9.582881666663228826e-02 -2.133133044542964533e-03
1.186950827661486796e-01 -4.162280041275205344e-01 2.232266717320398053e-01
3.674476556111966885e-01 -5.230900476123738763e-01 3.181984746247177864e-01
-4.480099880239866300e-02 -4.483072157466516106e-01 2.219549398139819829e-01
4.296823172771787047e-01 -6.750620187298033148e-01 4.168077230878786121e-01
-3.319841424252903961e-01 1.305876071870976096e-01 -1.599363539364143938e-01
-6.993897613465885899e-01 1.393434426171554774e-01 -2.111110207026570540e-01
-7.973617946387786537e-01 -5.873530824523073152e-03 -1.365717498588457646e-01
8.054949044050693230e-01 -3.157742528183205000e-02 7.921714839771022698e-02
-5.481038480269729424e-02 -4.953476126933427370e-02 -1.762607416464607307e-02
5.536299977644129067e-01 -4.304565972880235458e-01 2.861162717370375752e-01
-3.705865219061335591e-01 6.447613056292965661e-01 -4.720631707073915106e-01
8.629155290651606691e-01 3.113389225615566594e-02 4.891732447478765178e-02
3.915414338312617204e-01 -7.348272933355472214e-02 5.249999383307343143e-02
9.882237058299721266e-02 6.146502160684917497e-03 -3.169363348918464302e-02
-6.537840773152767682e-01 -5.998375032904920690e-02 -8.627890706123142461e-02
-3.776110477976733493e-01 2.445667726196493197e-01 -2.337622201348847351e-01
4.114741270395661510e-01 5.995249523987682128e-02 -2.475613489932395120e-02
4.244553662080351453e-01 -1.317154873185802655e-01 9.141891919941878830e-02
-7.233291159371727508e-01 -8.268559255315298395e-02 -8.140713072364819114e-02
5.904085861166864513e-01 -1.187357297728664635e-01 1.044128349513346460e-01
7.392581964500619662e-01 -1.754178868181766882e-01 1.569020316939232496e-01
3.763572001702457648e-01 -6.267230346393098950e-01 3.812496018783680940e-01
4.227530522946600366e-01 -2.565098266296841345e-01 1.657903467561766819e-01
-3.586482699567885013e-01 5.380796736914396083e-01 -4.068112774268103360e-01
-5.918340196745308646e-01 1.901134143352678496e-01 -2.280049388399977561e-01
4.620103314870591671e-01 -6.543837574107236321e-01 4.084916093383812452e-01
-7.769105564980785528e-02 3.787501511226228912e-01 -2.764549043718274590e-01
3.720107178826195793e-01 1.064769772589982955e-01 -5.749648896460347186e-02
3.372305160164217885e-01 -2.430592698990080569e-01 1.470574837083902242e-01
-6.286207330590608544e-01 4.052187083037844806e-02 -1.432003478275128416e-01
6.201616903160927369e-02 -4.041407396573871158e-01 2.089152974773294258e-01
-6.820747818337248303e-01 2.496233048026330614e-01 -2.748554981204531233e-01
-3.922647979159363807e-01 -3.864850789602727876e-01 1.415583868277184298e-01
-2.584592798264163105e-01 2.353199885170901562e-01 -2.133366579875757563e-01
-1.842877752443818629e-01 3.692886016867533705e-01 -2.841293611160870536e-01
2.959955794307656540e-01 2.034288607140921079e-01 -1.249457201542452101e-01
-2.829860241995009740e-01 5.559624353642562689e-01 -4.080379766078141013e-01
5.253076552492879081e-01 1.422891109674375432e-01 -5.973110288548418023e-02
-3.022114796545052884e-01 -3.038786014433788041e-01 1.034485738266098104e-01
-5.202063479024487958e-01 4.919016482723288508e-01 -3.994144108029803464e-01
3.316440133526934453e-01 -5.664207576926041376e-01 3.396183929248155486e-01
3.882468638933853633e-01 2.165886744246428852e-01 -1.212753623613520848e-01
1.180612468467789333e-01 4.061742851130663301e-02 -4.988975019878532507e-02
-5.197334624515009827e-01 -2.588667763332244687e-01 4.934720818161652395e-02
-3.171375764570514844e-01 4.508904714230383970e-01 -3.495113429229516067e-01
-5.890819431934912753e-01 1.625878570577418414e-01 -2.112099499285017279e-01
-1.463020838730397510e-01 8.503717440860672494e-02 -1.094944600266306994e-01
-7.168783894398498280e-01 -2.152148453284900842e-01 -1.393388517307556996e-03
2.895076489493375593e-01 3.513316730530491316e-01 -2.141522398627476731e-01
-2.990408263334083938e-01 1.910543301584388398e-01 -1.919554064457887899e-01
5.179350387910152884e-03 8.317675278644159897e-02 -8.944080010447208462e-02
-7.611017538287764284e-01 -2.480232727794193237e-01 1.268497583683662021e-02
-5.267240835467782434e-01 5.048350993421315547e-01 -4.079591870011961552e-01
2.071249407887549576e-01 3.882268420138744180e-01 -2.465043396033669010e-01
-5.795020214437702766e-01 3.091739019935841326e-01 -2.976203134778018233e-01
6.679864242021907872e-01 -1.600008504516716584e-02 5.271269392641317331e-02
-4.113278112858572040e-03 -3.752112988845004438e-01 1.833563402912845308e-01
6.740579411709281266e-03 -3.406273497082880630e-01 1.640441827570754962e-01
2.192597100469638738e-01 -3.029600213087663696e-01 1.681061463059492500e-01
2.309235931076264736e-01 -5.582111249588358470e-01 3.221174119628730237e-01
-3.680923771973416692e-01 1.823340818423929977e-01 -1.953781291574955004e-01
-3.177685931164568878e-01 -1.514305402475227789e-02 -7.106174865220296621e-02
-2.639366865016251618e-01 -4.318444523586308925e-01 1.847143558664051388e-01
8.362294111359926119e-02 -3.472776004948347484e-01 1.776323935355325068e-01
2.435314252090628739e-01 7.192203049139571369e-02 -5.290995793085207649e-02
-4.326815692175942085e-01 3.421876821547905068e-01 -2.989923122092993935e-01
7.688977534710267348e-02 -1.976951159251871537e-01 8.739133980727112339e-02
-2.221557278300080596e-01 -1.525630072307732239e-02 -5.903830110549341398e-02
-7.866878467629097038e-01 -1.604545428505135540e-01 -4.285051890471080344e-02
-3.491604455871718388e-02 3.161916399270084943e-01 -2.337175959982366602e-01
2.770144493242033823e-01 -2.917396162546367355e-01 1.686220386713769559e-01
-1.219996851703120805e-01 2.696351739545451154e-01 -2.167820091497559554e-01
