1.406635434073717217e-01 -6.792857881159066746e-01 8.892600784302152617e-01
6.352242481839895927e-01 8.342144027873665824e-01 2.107628646883790147e-01
6.587559362320659639e-01 3.329992029284258859e-01 2.381118142929504189e-01
2.991121758726572599e-01 -3.502807641326919352e-01 6.880989176823029130e-01
4.533422365164310186e-01 -1.004454051672636211e-01 4.996182246231449242e-01
4.205167253533609317e-01 -1.992295275495950535e-01 5.444782785172712636e-01
2.742750231762412505e-01 1.101838997239548285e-01 6.663645955579016178e-01
7.592043848457289412e-01 5.719643891429561089e-01 1.074240613857421756e-01
2.702047501261188867e-01 -3.471174311661508471e-01 7.182255304352105352e-01
5.759120702451735463e-01 -6.091177987529969862e-01 4.234003654471218958e-01
4.460587905873545922e-01 -6.729550288999931462e-01 5.668494467834598316e-01
3.945163185027138475e-01 8.908566722241630931e-01 4.584705322980620612e-01
7.043165749727589020e-01 2.614442473058183336e-01 1.975547727391287200e-01
7.006430626545664397e-01 4.021674431461297328e-02 2.244391413328006291e-01
7.181340001363153425e-01 2.766097091499445382e-01 1.814196440777965380e-01
4.482734828793688564e-01 -1.265801274404054766e-01 5.076772303685574972e-01
4.728727406788827969e-01 -1.968892029253606346e-01 4.890746419352229868e-01
4.700861549134723871e-01 -3.943802557358679906e-01 5.125552983837576848e-01
1.887587235640354744e-01 -6.307907177827435374e-01 8.335440468931269997e-01
3.870706924370172497e-01 2.996862890968081672e-01 5.278138834650366595e-01
2.761502771828285852e-01 4.976125449569407388e-02 6.706746192812508278e-01
6.048215798836035217e-01 -5.608132577162235899e-01 3.879173989619915108e-01
4.498776744058931576e-01 -4.312778792716957521e-01 5.376845616946659412e-01
3.369259356443279341e-01 -5.580230035094464469e-01 6.698711185028960458e-01
5.486205023604272535e-01 -5.472680000949841084e-01 4.457194738303573711e-01
4.404971630185404163e-01 7.855351672511228234e-01 4.209834837791708306e-01
2.446253139471576965e-01 -3.671467010493357219e-01 7.472586146635752380e-01
4.228961645838387184e-01 8.250147792071781117e-02 5.126631660421751002e-01
6.507410705231000403e-01 4.509242423643621267e-01 2.342883123666052170e-01
4.043632254962055139e-01 6.582831199787354537e-01 4.722906550239732715e-01
3.449436032542539943e-01 -5.609878711026983211e-01 6.617324616361454082e-01
2.773706672924857730e-01 -2.368546651327502472e-01 6.992052709181214576e-01
5.679109270222588712e-01 -2.376336025547594322e-01 3.931848672261829547e-01
3.633108655958800504e-01 1.141871369231357153e-01 5.721435892122000988e-01
3.543906504817794789e-01 1.002292073880595991e-01 5.829935974162390178e-01
3.041780848948498761e-01 -7.555868834996115613e-01 7.249253249196041526e-01
6.015593983858795735e-01 -4.416665641252139896e-01 3.789595740574132066e-01
2.690272648377527442e-01 3.236823916795341510e-02 6.799885165180358237e-01
3.422100451863298587e-01 3.767327893638722919e-02 6.023342281180872337e-01
4.209587575890842426e-01 -1.469489273862925049e-01 5.385738658539505064e-01
3.009048541303407931e-01 2.612297724777196822e-02 6.470532702890312571e-01
3.646459311580023677e-01 -6.443678376152884857e-01 6.496488334046700563e-01
3.772799108380120447e-01 -2.274891928115457540e-01 5.929706614142117305e-01
5.820543450240377448e-01 5.570187445679309901e-01 2.956169421066940362e-01
5.543364879775638521e-01 8.843760853277872203e-01 2.907646524757469542e-01
5.959974867712273250e-01 1.485633031226399337e-01 3.234182781683329622e-01
5.633044504989198620e-01 -8.884085117617993577e-01 4.657376126427870133e-01
4.139536138251170283e-01 4.316115481865190340e-01 4.857670575125660473e-01
2.564163364062376771e-01 -2.937506152690111949e-01 7.272007404887702586e-01
6.710161648546199009e-01 7.503962555145253788e-01 1.817734817492322741e-01
4.074406141500307443e-01 -4.485552291279256698e-01 5.841918752023017580e-01
6.417295673607609219e-01 3.137434078551832872e-01 2.580532697310448098e-01
2.851712599327678732e-01 -7.312042401900180622e-01 7.424136397437560708e-01
3.349360893717777676e-01 1.770932179036202314e-01 5.954940378437759696e-01
6.772221373931225363e-01 7.855463052130445822e-01 1.715784916034659990e-01
5.641477893154458467e-01 2.018105791118714465e-01 3.514345599908703099e-01
7.368558805076780294e-01 3.954396723259105406e-01 1.493332522595003098e-01
2.056914224981650774e-01 -1.453108340020544953e-01 7.652003913104279409e-01
5.510092323364578215e-01 -4.896397446276451459e-01 4.372077874325362989e-01
3.528424967865050332e-01 -8.008558083423117369e-01 6.783637608855400680e-01
5.580224486045424204e-01 4.174652977339289306e-01 3.354535975102130307e-01
5.969022697895277618e-01 2.518805187511974353e-01 3.117170352685185719e-01
6.983454481571047534e-01 3.554905853258876619e-02 2.273453900937571215e-01
6.402876667524123322e-01 5.651342575040185778e-01 2.334204260069989434e-01
6.195767966650004288e-01 -3.185889053080052102e-01 3.471735119157963734e-01
4.983973721006224600e-01 4.625757029007990795e-01 3.935793639751002382e-01
5.316442073837485127e-01 -9.946071474389044098e-02 4.170200068720845143e-01
4.359282543595954795e-01 5.362775082794298820e-01 4.517271584280189156e-01
4.172084434833783773e-01 4.147952107125171817e-01 4.840872899530569429e-01
-2.877239399089944957e-02 -8.093515620675936217e-01 -2.577464118820843031e-01
1.846701289793390988e-01 9.508967043108595973e-02 -3.663435863514894475e-01
6.450339651108657479e-01 -3.454915386371184005e-01 2.418365845355493204e-01
6.839582903276755776e-02 5.527559204027253370e-02 -4.667258109026460877e-01
3.803019107423357137e-01 3.695245432434496879e-01 -2.705291671545790311e-01
5.596536803970936225e-01 -3.756412726638687638e-01 1.684479228303334408e-01
-2.132702458577192262e-01 -7.536772962713181867e-01 -4.588953169619200412e-01
6.743157150375924669e-01 3.353728347988116920e-01 3.079577712934422618e-02
1.231417205304405488e-01 5.374752732690304402e-01 -5.827263447527657458e-01
6.267877730328076380e-01 7.740998151763514024e-01 -1.705224129065856520e-01
2.154522457299156424e-01 3.569608835310038308e-02 -3.151326422215474099e-01
-1.646409587807717290e-01 -4.381052642140159659e-01 -5.222152651232213616e-01
3.009198296410478535e-01 -8.702234337876553205e-01 8.809710334904030660e-02
4.341658748342028251e-02 7.527429906813269955e-01 -7.370054318497963886e-01
-7.964585242225574735e-02 -2.884398427399741463e-02 -5.827576809562599047e-01
7.059574983388158809e-02 1.692005790552838507e-01 -5.046942985132178983e-01
-3.214816642554895187e-01 -9.598466953937813129e-01 -4.927410232338397256e-01
5.344329078859243465e-01 -8.512081159238812367e-01 3.111630261199842540e-01
3.000263108734257389e-01 2.434877287251006883e-01 -3.051163242407426979e-01
9.749561970458210658e-02 -4.342688206749402147e-01 -2.656381649691900715e-01
1.429557350032143459e-01 7.008012835179575628e-01 -6.207663105123959468e-01
6.149369786967801010e-01 1.769328109087980327e-01 2.818492197384841330e-02
3.243476613801568598e-01 -2.373551985572034950e-01 -1.117957404859971776e-01
6.826087485631445739e-01 4.666580609709182759e-01 -7.293012432835001974e-03
2.938238120116285976e-02 -1.445086398538157060e-03 -4.851316279495015427e-01
-1.389108295686315442e-01 -8.267747217641888691e-01 -3.599790631159848764e-01
1.015614022135158563e-02 -4.033733344919995245e-01 -3.624593666769450051e-01
-2.898949083112006275e-01 -9.174897729810986835e-01 -4.765826664455528050e-01
5.619381671373495646e-01 1.056463141104397041e-01 1.149438768415126473e-03
-3.551690636270340984e-02 -4.909615799619321264e-01 -3.765439602248346618e-01
1.823528957995719513e-01 2.175372766156141169e-01 -4.117590339166520841e-01
5.189129617637934233e-01 -5.382092448069062396e-01 1.856300747076617408e-01
5.074844852337195844e-01 8.500000547924978223e-02 -4.515690766244935539e-02
-1.291465454565164372e-01 6.723797201487338171e-01 -8.784883770458066232e-01
5.650591256542663032e-01 3.807475228169491799e-01 -9.269138886390175525e-02
-9.677193308949352812e-02 -4.484551506219054406e-01 -4.517896962675201911e-01
-1.266091213546138017e-01 6.808476020189467848e-01 -8.789747210010186995e-01
3.263510328772149804e-02 -1.927909924340062177e-03 -4.817610333322936422e-01
1.643876647261048318e-01 -2.872587736253740531e-01 -2.516080976762470889e-01
-1.052247396729171364e-01 1.517956050013817837e-01 -6.715610383396730665e-01
6.770991706639724328e-02 -3.084847562268726584e-01 -3.392564957639472301e-01
-8.147236701773741263e-02 -7.573546713121204199e-01 -3.279176919731985884e-01
3.285468157676080247e-01 3.973190242415852724e-01 -3.312447971940166158e-01
5.186953973866857970e-01 6.950723693465891972e-02 -2.866822245034565675e-02
3.095100791208184599e-01 7.095897712631342724e-01 -4.599815842907309937e-01
3.366921358798156960e-02 -1.823374471363805593e-01 -4.171894858604944800e-01
7.106098252290081740e-01 -1.319344627806837700e-01 2.311286418864264280e-01
4.042888342916470257e-01 -7.357942327350835976e-01 1.424505142127711621e-01
1.362873076415439810e-01 -3.044752519812649050e-01 -2.731924088126835293e-01
5.696822688339369112e-01 7.632198594941690395e-01 -2.228784693051007737e-01
6.407583916033263716e-01 -5.021171759224969389e-01 2.928051741163414379e-01
3.898332442735303882e-01 6.705592764232032321e-01 -3.671982941573209147e-01
2.230466192021973992e-01 -4.845871884739629820e-01 -1.243766153651016670e-01
1.408650034699047982e-01 -1.844736036385314359e-01 -3.109619558962986585e-01
-1.261513896389888090e-01 -3.539112542429798114e-01 -5.140031257468556936e-01
5.963005929519449300e-01 -3.801527285294172276e-01 2.060958347492594933e-01
3.800619391215967480e-01 1.495240544009813766e-01 -1.932642879730066265e-01
-1.046077395460976722e-01 1.628828302142643347e-01 -6.748597114182661727e-01
5.349658203512254184e-01 -1.231138850492655978e-01 5.519690847541405820e-02
-4.139466399270622793e-02 -1.834975144414437431e-01 -4.906397240696580009e-01
6.457563501456249355e-01 -9.808860268405786287e-02 1.553931370366526954e-01
-2.196368528675446755e-02 -6.315871367247196666e-01 -3.136692277518583483e-01
-1.147044618429246127e-01 -2.865505490626912843e-01 -5.264695439558862988e-01
-6.772354399192145880e-02 5.540061768065464992e-02 -6.007041494415835681e-01
7.814768361504507987e-02 1.644014198427820317e-01 -4.955729624288988666e-01
5.952689374133708355e-01 -1.923658699981000697e-01 1.389278458202891364e-01
6.732411614679042478e-01 -1.224161449508063132e-01 1.910067650611948498e-01
3.310708051844852284e-01 -5.620726176874323299e-01 9.209789577416338177e-03
5.740871100130576776e-01 3.212259305899783923e-01 -6.284027045945309031e-02
5.993668446738893429e-01 2.131061888551460948e-01 1.216996398129535959e-04
5.392204327687426524e-01 1.456076328091054639e-01 -3.528104835845306125e-02
4.255551260651995182e-01 4.913166294005844037e-01 -2.689068741851473598e-01
-1.468694678526548669e-01 -1.662993307337021498e-01 -6.004798923973840852e-01
5.397393241392857144e-01 -6.768647760950489145e-01 2.549672015653547397e-01
1.024153142330229138e-01 3.594326726229426505e-01 -5.403998157845937289e-01
-2.608196354840949110e-02 -2.089970602188296334e-01 -4.665899428843576224e-01
1.097341882429018478e-01 -5.890322279739585998e-01 -1.990765490891898970e-01
5.317106616101009431e-01 6.388905333454152347e-01 -2.164422333754789929e-01
-8.865026205947337812e-02 -2.893161420602805567e-01 -4.998593300189007604e-01
-7.638114731052482453e-02 -7.596639876245324385e-02 -5.629452645682813117e-01
-1.486517227733150925e-01 -5.702866935359656164e-01 -4.599182897620184285e-01
4.506323887355921931e-01 -8.611150469614666791e-01 2.321977070809551069e-01
6.343027438433352927e-01 1.737916431288230312e-01 4.834637460794898728e-02
4.328996181247072861e-01 6.494261995503295415e-01 -3.173785641729896523e-01
2.559792008321283840e-01 5.641295922476625702e-01 -4.614109491851357547e-01
5.431250866461257987e-01 3.029370634193860323e-01 -8.686253316025686899e-02
-1.563248144092794223e-01 4.865716583384917526e-01 -8.397745518192324399e-01
6.220832816055488212e-02 -7.953832747734469466e-01 -1.731468715038952944e-01
3.688751272352919774e-01 2.295828357509284712e-01 -2.324743477487586085e-01
2.763735672475605698e-01 -3.303819483639452992e-01 -1.262285864631030041e-01
1.381161172459658424e-03 -3.481158098635533937e-01 -3.905594104400094135e-01
4.007253619253505761e-01 1.110069249742774017e-01 -1.593638891634475141e-01
2.982869004036636795e-01 -5.247160800593876351e-01 -3.620767602945504371e-02
1.898474945776823797e-01 1.864363088327064821e-01 -3.934286038181962208e-01
-1.851809908280043215e-01 2.184148708519420556e-02 -7.044539992419540653e-01
-2.116211640403254102e-01 -6.184608977412325848e-01 -5.049062647063454756e-01
5.169121798345098773e-01 -1.464442058240126021e-01 4.565180028605458906e-02
2.331277866269490517e-01 2.288956682815030119e-01 -3.658005094486141973e-01
3.478137588928850721e-01 -5.049659806071432611e-01 5.566649028682871952e-03
5.177930993838594231e-01 1.856617250949738340e-01 -7.047453082353989651e-02
6.142607591569830827e-01 -2.217768065402593858e-01 1.679755796048041094e-01
-2.045506955679657068e-01 -3.976191847527931200e-01 -5.757466381672428080e-01
2.915718766418299857e-01 -6.770121280251496509e-01 1.083541046237777861e-02
5.548056840738129214e-01 5.847112228570435777e-01 -1.746318504783947734e-01
1.052972894964238487e-01 6.156923059099222995e-01 -6.278383464174396300e-01
1.724536708160268050e-01 5.261742681339998118e-01 -5.302249041111624095e-01
2.008208255884347260e-01 -4.897344339617337727e-01 -1.444323723191621445e-01
3.651246433933699742e-01 -4.157383794587278247e-01 -8.833137802773369934e-03
2.212525466206863023e-01 -3.285224939880311834e-01 -1.811198101101564317e-01
7.256895831070824254e-01 5.363917418250977454e-01 1.053072421532854665e-02
2.897741782594075444e-01 7.629516205912185711e-01 -4.981987960809785565e-01
-2.691504545394499681e-01 -5.068079333893177330e-01 -6.008447707133229843e-01
1.573402364363906403e-01 1.522097565373759231e-01 -4.133568244902881550e-01
5.548718557754223069e-01 -4.768872784530832076e-01 1.994094461227616244e-01
3.518543023283094429e-01 1.964657082749315942e-01 -2.375555579154340069e-01
1.804401469743441844e-01 -2.770427448759086309e-01 -2.394121671603893775e-01
5.641886374827069783e-01 -6.641087161943983741e-01 2.745303784553884685e-01
2.119821418531769586e-01 -4.341218166331533013e-01 -1.530412421561026803e-01
5.420053758692136014e-01 -1.813225826652960504e-01 8.262901571511520327e-02
1.627730633493956053e-02 -3.798174006132968850e-01 -3.647346631214742341e-01
-1.666755298843375366e-01 -4.659599996526284094e-01 -5.144046076932456968e-01
4.668106732999791619e-01 -6.104486752287038298e-01 1.598124191230408386e-01
3.793418226188978726e-01 3.246873105557688821e-01 -2.556787406397717510e-01
-1.283057212345319331e-01 2.450371763892226773e-01 -7.271183216431147400e-01
3.648139664941715266e-01 -8.722930706824028046e-02 -1.248648483929608310e-01
-7.645364060640356951e-02 6.297700634871917780e-01 -8.116309534865553399e-01
-1.110448727457289120e-01 -3.011408313273519211e-01 -5.177288876677024199e-01
3.548565951829540377e-01 -2.749563580840166388e-01 -6.853055197812658872e-02
1.379373509316540181e-01 -6.895735161700997651e-01 -1.359077907239606420e-01
1.513089373322780151e-01 -5.659463955783237132e-01 -1.663017811904960730e-01
-1.857132206963004739e-01 -7.324257224564540980e-01 -4.392670850653784820e-01
6.422392348909897741e-01 1.963348121356554010e-01 4.821403555054148971e-02
9.308927939249515837e-02 5.512759265292526134e-01 -6.171580098599201980e-01
-7.752791889868093644e-02 -3.863200391253817645e-01 -4.547433382942558944e-01
5.750540786583904773e-02 3.445149934027114114e-01 -5.793336510925637395e-01
-2.452513605516754569e-01 -2.015305753208641026e-01 -6.848713550172298437e-01
6.775282936943034795e-02 -7.608218948615308452e-01 -1.798665356772292667e-01
1.219570061489042567e-01 4.168791389569158068e-01 -5.414088591745807033e-01
-2.587858815990735084e-01 -3.405631775842684061e-01 -6.492106947500830838e-01
5.204950872359558334e-01 6.332588580244613574e-01 -2.254938611628608536e-01
7.510510293760944700e-01 6.362760269092359033e-01 2.981670730618941065e-04
3.087310553999572105e-01 4.977892644852670023e-01 -3.861357648369746487e-01
-1.256615800380168624e-01 3.238715194571894496e-01 -7.522881111174076763e-01
-9.763529608124309200e-02 -9.125121971668842535e-02 -5.784737447255998699e-01
1.089621644863405375e-01 -1.849056919514233954e-01 -3.422004548860839712e-01
7.477174694055054027e-02 6.040428906903507755e-01 -6.537700577723769557e-01
2.764082433620406176e-01 -5.806245166007460989e-01 -3.803989498466497921e-02
-2.373585296615881579e-01 -8.758501827327914713e-01 -4.395582848797269238e-01
2.340342990118052802e-01 1.647072449088781698e-01 -3.422964769200139146e-01
4.974594810495835961e-01 -7.455848479185379629e-01 2.375745277024045032e-01
5.635057315946031542e-01 -9.034246212652871089e-01 3.581638005529451108e-01
5.254512892425140524e-01 4.173680509202574718e-01 -1.445639649968177842e-01
1.036867980602522860e-01 5.967837937869965304e-01 -6.227619610189329968e-01
1.652487199810878105e-01 5.235310421711842910e-01 -5.363830499688594378e-01
-3.163114465138961440e-01 -8.973213829858832646e-01 -5.096799984388460381e-01
4.121253071474130780e-01 2.399036971323531831e-01 -1.935542450461780195e-01
6.078265586494940864e-01 1.017333625743191460e-03 8.315952884919573795e-02
4.309000830315806718e-02 2.864474009143822553e-01 -5.730617978424142889e-01
2.899526901692882075e-01 -8.358013122825330710e-01 6.517991171860927635e-02
1.738538121878267003e-03 7.565316080288593259e-01 -7.793490784330693311e-01
1.530145490056796787e-01 -4.798755880971458110e-01 -1.949442705299547773e-01
1.794320180601496895e-01 -8.779298500232856073e-01 -2.872571642782779933e-02
-2.524341456276239445e-02 -3.790299719147151580e-01 -4.058662585971787862e-01
4.103483836778479277e-02 3.764829125414739242e-01 -6.068013702757668604e-01
-1.979433088726832435e-01 -2.416270075931092609e-01 -6.241976932600395989e-01
5.580380577272794351e-01 -8.988313714467804916e-02 6.619236403636462318e-02
-2.465186167038954934e-01 -2.589796342341200708e-01 -6.658803158714846626e-01
3.521026070584023504e-01 6.701552950894221761e-01 -4.041809411401323104e-01
-1.111896958965811755e-01 1.927002295480268190e-01 -6.918399784482779369e-01
7.423441312765312328e-02 5.158966764332898469e-01 -6.232469275390115637e-01
5.476637803181148012e-01 5.910827821189007514e-01 -1.839036581703699935e-01
1.040364295351377949e-01 -4.947221523851969560e-01 -2.379060654158563770e-01
4.519452765893210433e-01 4.490731912097846168e-01 -2.280589859223701721e-01
-1.088855036203848214e-01 -9.628559681594804631e-02 -5.877698638407921061e-01
5.403560347665276042e-01 -5.398900474989107856e-01 2.073210366021391027e-01
8.067550434203260012e-01 6.791762607976161714e-01 3.999523994931016707e-02
6.571682686454402011e-01 -6.620691601814147897e-02 1.553906954107111826e-01
4.201527587449743195e-01 -7.497866941480664238e-01 1.629889955778330290e-01
6.171121834462950373e-01 5.327236728778956820e-01 -9.501154488320930069e-02
9.048091035190572451e-02 -6.428882244873322938e-01 -1.990485595699277299e-01
4.208936774940358894e-01 1.923792684828220800e-01 -1.681848917576133362e-01
1.580083917583960385e-01 5.607917633210833808e-01 -5.566332274873079244e-01
6.971240115504119261e-01 5.840908252625646169e-01 -3.437955930853270337e-02
1.143356075386113696e-01 -5.531620662792788856e-01 -2.071852092462898587e-01
8.139087722325745802e-03 2.190541765852062686e-02 -5.142597435124275362e-01
6.859170952765156759e-01 -1.662520279040210214e-01 2.189215671143973085e-01
3.920263101368211545e-01 -1.937615257408542013e-01 -6.056053986981948384e-02
2.758590039011251105e-01 3.171111637367359237e-01 -3.548314864427435378e-01
7.215611680805004979e-02 -8.013880496542186149e-01 -1.612434303496532439e-01
8.090403615035469675e-01 7.010619040934065183e-01 3.453407513375217341e-02
1.366487552964759655e-01 3.228015580797905654e-02 -3.914677742735992449e-01
4.869730977751293710e-01 -6.124589954968873151e-01 1.803593715989805779e-01
3.081409878627134336e-01 -6.301950309729478228e-01 1.064598104043082763e-02
4.518399463580138886e-01 -1.944382601790504150e-01 -1.468674014153666845e-03
4.758329027358608188e-01 9.559608048341981801e-02 -8.003314609647166344e-02
-1.037884772905861425e-01 2.044546697712187888e-01 -6.886983819612004787e-01
5.942002786684473792e-01 8.037892854998259784e-01 -2.130456934964606586e-01
6.357629904026856904e-01 -1.524969340073140112e-01 1.647269729465946353e-01
4.587685361111589755e-01 2.684555171377329685e-01 -1.577178987546931643e-01
1.137160365245402371e-01 3.015863838746492553e-01 -5.089026129563740675e-01
7.974200117389385056e-02 -9.638813766069675992e-01 -9.653674176801109452e-02
6.575539886778335175e-02 -6.729199087888679820e-01 -2.127977046682056339e-01
1.878208405765241784e-01 4.416337169572080446e-01 -4.853227702115143760e-01
3.884675295732584743e-01 -9.187318862605160508e-01 1.913278168455564976e-01
-2.391921053573317080e-01 -1.200472687685976980e-01 -7.076140197008423671e-01
-3.136370865681913922e-01 -8.374101722615673316e-01 -5.281538797328606538e-01
3.383383748907163313e-01 -6.568393153585143640e-01 4.974477448112236272e-02
-1.047148298328494376e-01 -5.776369311587428168e-01 -4.140973849820519526e-01
6.153926591700719095e-01 7.852218016769312303e-01 -1.856526191715170415e-01
3.403154356426448257e-01 -6.434989087611833192e-01 4.699058662097526512e-02
6.650771534677455410e-01 5.228970460749712279e-01 -4.435485070336236263e-02
4.582676536289767566e-02 -2.070273116067539443e-01 -3.965294364979924380e-01
3.195239690530323196e-01 -8.952444823929459616e-01 1.152169238485774017e-01
3.818141187056138808e-01 -8.561465532103977871e-01 1.627338698661235372e-01
3.519760311074109915e-01 6.291050570144013365e-01 -3.898444516866799159e-01
3.076825988776174525e-01 -1.203776392141917874e-02 -2.075673179858492645e-01
2.327529530853817905e-02 -1.426003755186946442e-01 -4.414149899604225546e-01
6.578791063998368216e-01 1.371136500740783304e-01 8.446506824329295948e-02
4.359512354783382504e-01 7.658860217439351914e-02 -1.125787188679790857e-01
-3.133809375466367619e-01 -8.384512598588358401e-01 -5.275350919066007505e-01
5.124268268943489302e-01 7.037179029812430375e-01 -2.582536690620950703e-01
-1.724619135333888276e-01 8.236357695550212965e-02 -7.132596059816981304e-01
-2.319058044927567452e-01 -5.423991561787102622e-01 -5.516600455737464825e-01
4.173100208687379742e-01 5.371697018363781329e-01 -2.931725826313749117e-01
3.453832655621680847e-01 -1.200779362327170502e-01 -1.324118353041085772e-01
-1.286897607986204894e-01 4.668661628466442282e-01 -8.056413316800643543e-01
7.244363140769944920e-01 4.875020511146265778e-01 2.652026181960365561e-02
3.743984382247177445e-01 -5.639185698164100868e-01 5.249218436048888603e-02
7.387696710049899140e-01 8.145795556746175947e-01 -7.459818296485627720e-02
4.681878689003499128e-01 -4.188150584674528720e-01 9.365949040071198939e-02
1.809059098922916609e-01 5.973282019246135555e-01 -5.469742035554316928e-01
9.163007815570659020e-02 3.976113977764096918e-01 -5.644613871778644265e-01
2.815730438071677999e-01 9.196791522577864308e-02 -2.698965001673958586e-01
3.411871919697376798e-01 1.223769568056961715e-01 -2.219517079246952074e-01
1.417804357756129174e-01 -3.030080213080571516e-01 -2.683043308617942269e-01
6.085640770306991465e-01 1.912685335251061991e-01 1.686418438001057937e-02
2.958223217776589364e-01 7.214911414804465739e-01 -4.776421895638885418e-01
1.052910369534122426e-01 3.494183311285800619e-01 -5.340424390565458035e-01
1.476414628410004926e-01 3.397954217255893528e-01 -4.889819254891945022e-01
3.881185036872100702e-01 5.495228026177985114e-01 -3.262472052048877580e-01
-1.074415994780684308e-01 -3.508264077034510819e-01 -4.966803963865421556e-01
3.394364008657912990e-01 5.059906342889798347e-01 -3.588124715724420599e-01
-7.940342351791254694e-02 2.886954158202942322e-02 -6.028502616306815609e-01
3.492673440101967119e-01 5.259565944922306446e-01 -3.561728794743279081e-01
4.509011830341699278e-01 5.064469962269252390e-01 -2.492977612854963276e-01
2.786542607068691613e-01 5.590612064140685344e-01 -4.373144112082886781e-01
1.826245213625428132e-01 4.807343447901901712e-01 -5.042099063605023357e-01
-1.996224502697074854e-01 -9.611581169812682957e-01 -3.723759908499830740e-01
1.814035907836931416e-01 -2.497153006657762131e-01 -2.480910051419570883e-01
6.642448900344312124e-01 -1.824075785158353336e-01 2.032884789863211306e-01
7.647519736908452437e-01 4.208950280635959662e-01 8.965283570743332042e-02
6.217437992004325453e-01 -6.954635317075206213e-01 3.422071908593858347e-01
-2.029935575360627409e-01 -6.611452089366079976e-01 -4.813804751833661855e-01
1.072594061318308117e-01 7.260372964478094548e-01 -6.647796722336062336e-01
4.723416861622812268e-01 -1.393332748014006195e-01 -7.082321606238024987e-04
2.975936266475329717e-01 7.081194763566023287e-01 -4.711887956787822462e-01
4.127687871233302608e-01 -3.332497830002249806e-02 -9.666905761142065290e-02
7.845992558108224602e-01 6.780388274118785974e-01 1.859580270933230278e-02
-1.838495309433265945e-01 3.050196502169235657e-01 -8.029009203963881625e-01
4.108830827646725581e-01 -6.284324060909081133e-01 1.111178606813218450e-01
3.778422092441269808e-01 -7.091373008067536343e-01 1.070378176120896502e-01
2.146027930762202940e-01 7.529531591319984507e-01 -5.686412576955136577e-01
4.579120440898212796e-01 -9.028289588480027383e-01 2.540553347997513978e-01
-6.086715253789516666e-02 -6.696355343384424730e-01 -3.385446351306882207e-01
5.684699767695166051e-01 1.093604454507670770e-01 6.267994349763533063e-03
-1.327701747240347084e-02 -8.901642748638086133e-02 -4.962569056698710179e-01
5.231977914627539139e-01 2.147957731663338310e-01 -7.541983844175403906e-02
-1.872201323133959316e-01 -2.020440704441757718e-01 -6.275907901261535971e-01
-6.746405793454164634e-02 5.022702833471078820e-01 -7.578705033141894809e-01
2.147440949519291431e-01 -3.443492203523121353e-01 -1.819484003021596408e-01
-1.344099576450595024e-01 -7.342752088211088601e-01 -3.881358453237911954e-01
4.840874468227662764e-01 2.095910391847203569e-01 -1.120688526127436163e-01
1.792713501535798393e-01 3.040524261136670625e-01 -4.452683652076944165e-01
1.478696837102273787e-01 -5.246598421804645751e-01 -1.842301074965276286e-01
5.032249659696550470e-01 -7.526460874716358607e-01 2.457349698908556368e-01
8.257663160709416417e-01 8.347202653926143467e-01 3.906836097255499129e-03
5.517152608022790616e-01 -8.050880218082548390e-02 5.666870706563748028e-02
9.133435776998329036e-02 -1.651428047900123097e-01 -3.665072888031430387e-01
6.148010969273092208e-01 -2.860930164160971345e-01 1.911643317756492322e-01
6.182301424595049166e-01 -8.902492814541465016e-01 4.073683766506657755e-01
3.060591388051361328e-01 2.740763469308759581e-01 -3.099559901099473991e-01
-8.729300185289522174e-02 7.616930150318972081e-02 -6.272757843477682060e-01
1.444875610125562482e-01 5.053410600526848234e-02 -3.901852396331202955e-01
5.313766105694351927e-01 2.074564958561390116e-01 -6.478685633759130591e-02
-2.973240398251313366e-01 -6.407881638922842127e-01 -5.813680105146848964e-01
3.859808649793651791e-01 -7.618707007329978964e-01 1.336225629691192296e-01
-2.275780352222281921e-01 -8.655675061365730727e-01 -4.335571385510729736e-01
-2.131286227143455031e-02 -1.097076035711787578e-01 -4.968747390261944452e-01
3.604616010892175426e-01 5.732128176551167797e-01 -3.618055761316840147e-01
4.803248068095584133e-01 -7.030152226049009023e-01 2.057186326527778997e-01
-1.820830373230471477e-01 -5.366566705893245359e-01 -5.046600090002129058e-01
1.793886657326149436e-01 2.153660656432373754e-01 -4.139108136380891811e-01
8.507494056873529664e-02 4.611071480402369194e-02 -4.470858727548961409e-01
6.560964652474150505e-01 4.217250010901419377e-01 -1.755084272997858852e-02
4.987014269681377954e-01 4.448641918349520719e-01 -1.805706646509076529e-01
2.279572232843743163e-01 6.147179764705924532e-01 -5.068041975511634600e-01
6.683848325872869811e-01 -7.078339145745687899e-02 1.680393883353988038e-01
1.442197289771044721e-01 -1.352254368474171964e-01 -3.250100536839600762e-01
7.122824330212439436e-01 4.411305152754540493e-01 3.089708447854634318e-02
4.656373979711230793e-01 -6.193662237154846650e-01 1.617994206087302878e-01
-3.984366294597670166e-02 -3.469868971773094057e-01 -4.315201558453904407e-01
1.650620882022700020e-01 -5.975049750398633286e-01 -1.416520595788872405e-01
5.561821214423115500e-02 -9.312767389196237033e-01 -1.317591269195645676e-01
5.323125391231026127e-01 4.857835843548179433e-01 -1.619140399790278406e-01
6.439423960532064672e-01 -5.756070299106917920e-01 3.218268141736532750e-01
1.333010549626146568e-01 -4.057660900381413471e-01 -2.404483439306538406e-01
-5.469708230627019774e-02 -2.308108860900561499e-01 -4.870612149827284743e-01
1.915991273214328605e-01 4.443839364440569373e-01 -4.825739726710856492e-01
6.012607274673354568e-02 -6.890923597630763675e-01 -2.126394909665202115e-01
1.864935918813799554e-01 6.190437258353334027e-01 -5.491260871328754734e-01
3.319953909878106124e-01 7.384405063241605838e-01 -4.480206569998795851e-01
7.612145472187026307e-01 3.391938085325009178e-01 1.149536126709348877e-01
-1.013116586127607160e-01 -1.904236118066000155e-02 -6.075285746339231796e-01
5.635872766004266232e-01 1.475356912139141052e-01 -1.198456683274721178e-02
-1.913028517613819812e-01 -9.693482529909378531e-01 -3.613047517173444412e-01
2.745180008393781623e-01 4.944769628191116873e-01 -4.186327628651389521e-01
4.457294992489485574e-02 -3.341647454582362675e-01 -3.529755967199891264e-01
-7.689570014997224034e-02 -7.913255716791546268e-01 -3.114473434556916387e-01
-1.075515409731179345e-01 -7.182956562906835929e-01 -3.673377982718251666e-01
-1.199815402539219922e-01 3.237350330412046007e-01 -7.466511701287350533e-01
6.367639533023417009e-01 -6.333906301506656011e-02 1.343036464423013610e-01
-2.231413788282015087e-01 -2.264358229287353752e-01 -6.543427642706739489e-01
1.713645460666810560e-01 6.338742994642790896e-01 -5.692367338409587418e-01
-7.815734304673001634e-03 -8.538838728443879367e-01 -2.214384764874010592e-01
6.246946353893904069e-01 1.977169081360589942e-01 3.046419362870098763e-02
1.991153216035026208e-01 -1.799259865012486359e-01 -2.552487289163256068e-01
6.875602899324566586e-01 7.964255780225283632e-02 1.339155041135849378e-01
2.167778710251104177e-02 -7.705444495884296030e-01 -2.217769235427730357e-01
-1.153402128293165435e-01 -9.853181723466319930e-01 -2.809356882011246892e-01
-8.146019174033944377e-02 4.744055013713254776e-01 -7.618258545228947520e-01
2.942224527770462839e-01 6.678735360114255171e-01 -4.603281548921668853e-01
-5.907600673506155364e-02 7.204694824345601045e-01 -8.264835492509876591e-01
-1.032239572987311421e-01 -3.459586559514772619e-02 -6.039310419941859021e-01
1.993637803791286356e-01 -3.433685792716564267e-01 -1.974272766988375560e-01
7.192721048444372656e-02 -6.792733320945643083e-01 -2.044868054263990209e-01
-2.178883121809592482e-01 -9.033250089821889817e-02 -6.971200230221006322e-01
6.691625808767804884e-01 -3.741592034897108232e-01 2.756768159947900476e-01
3.760586885982038496e-01 7.849384850353193777e-01 -4.210448369842957339e-01
-8.582479272396721648e-02 5.029092575838055579e-01 -7.761615950593108160e-01
3.210223224196147029e-01 -4.342955201941977039e-01 -4.569025490632593750e-02
-8.564020900512518686e-02 -1.108665994090575341e-01 -5.597611737253782582e-01
6.497479937930935590e-01 2.848790288111674451e-01 2.441021359395323387e-02
5.742094558486973144e-01 6.137995972106210507e-01 -1.657867110971905089e-01
6.469575472842387098e-02 -9.612284476869434879e-01 -1.122760203993500294e-01
-1.342763713231369949e-01 -1.809074712856492129e-01 -5.829428441838560015e-01
2.286767924992758605e-01 1.721954143762514933e-01 -3.502058872087617791e-01
-1.219377468341518583e-01 3.619933005103125739e-02 -6.472839080044000548e-01
3.343412526325653666e-01 -6.590667841344690636e-01 4.659650153736444311e-02
-4.260702312084153898e-02 6.950091300820242513e-01 -8.013098532387893380e-01
4.920436370707796381e-01 -1.964730531536759139e-01 3.880645021604830353e-02
3.968885433820511233e-02 3.848749517136139664e-01 -6.110820657312648896e-01
-4.259155261239516710e-02 1.950585483716107682e-01 -6.251737981297773583e-01
4.680874346143489850e-01 -7.116805913468056133e-01 1.967303084687475057e-01
7.084045859416612245e-01 4.991142488361319240e-01 6.655181391556105712e-03
-4.266689737519115122e-02 -3.356274726126032837e-01 -4.382997279932711043e-01
2.108863830938627892e-01 -1.959253246142166616e-01 -2.380304337076624421e-01
-1.572463957650777067e-02 1.244839278275142180e-01 -5.738763913637802139e-01
8.020683667985289284e-03 5.905803211075991710e-01 -7.147070422161021508e-01
1.028316137977555028e-01 5.819866475034212588e-02 -4.338725418744210360e-01
1.652555288533445743e-01 3.146358711309634737e-01 -4.627874940833847095e-01
1.292775968321915880e-02 2.165633938579582807e-01 -5.781213698542514434e-01
1.705926585724525379e-01 -2.419490746353479896e-02 -3.381739242465567896e-01
3.602705028533993020e-02 5.875358322452467474e-01 -6.860777504620265699e-01
2.749353621074561715e-01 4.301562751175666555e-01 -3.955634356638107474e-01
-1.975871833601749450e-01 -3.772367953306934307e-01 -5.760751453314147952e-01
6.266608347936051260e-01 -4.603187516006252977e-01 2.642093186556959683e-01
-9.435185208131073586e-02 5.650005949259123694e-01 -8.064250904144192322e-01
3.641213094169158393e-01 3.393488134928452499e-02 -1.682296807261307592e-01
6.568945713434756195e-01 8.229541939571447529e-01 -1.581091575767984703e-01
1.880780998931612935e-01 1.498999958482846451e-01 -3.822987111454818621e-01
7.075673099647464825e-01 1.605184138589556830e-01 1.251106960592355544e-01
5.623771491823890134e-01 -5.133486370053479408e-01 2.196387387842579086e-01
5.935319143480947135e-01 2.887104063319341773e-01 -3.225315241539583599e-02
6.207406552579095571e-01 -4.594761170432625774e-01 2.580873334131126851e-01
6.949623389858750055e-01 4.222260991830013022e-01 2.051460525930563425e-02
8.400552305100432438e-02 3.447126946319465923e-01 -5.533285787527691957e-01
-2.321530641301153552e-01 -3.859962339732330161e-01 -6.070004075093813345e-01
5.398087560880939773e-01 -6.389702936305317049e-01 2.416861839128354450e-01
2.846979123675434931e-01 4.224336543785085496e-01 -3.832371026295597338e-01
-1.241052942707681905e-01 -4.170464522141941743e-01 -4.897488301145430101e-01
-2.976911729978508059e-01 -9.436003661837142342e-01 -4.750556323817846094e-01
6.616164616279797128e-01 1.478185240077093121e-01 8.437135362922092152e-02
5.623254829786044073e-01 4.009953394908063462e-01 -1.025139789620943959e-01
1.052223899229939030e-01 -2.628180541079702670e-02 -4.017596610977953175e-01
2.099080948541487412e-01 -1.583768874495804502e-01 -2.522204492308096069e-01
-1.062499175111958349e-01 -6.486839728040102449e-01 -3.905796284117794559e-01
2.270659454923598941e-01 -5.004009958282291670e-01 -1.148509775066964833e-01
-2.377636418528269457e-01 -3.568844458799564356e-01 -6.227763188762718283e-01
5.153172263089307314e-01 -7.705018332644030243e-01 2.639232766221022985e-01
3.445466208718985235e-01 2.346705866184795874e-01 -2.582046118452376304e-01
1.685955369673295678e-01 -6.985487771182442573e-01 -1.025799767723717670e-01
1.997294791610247366e-01 -9.535157809022241082e-01 1.787306236798579667e-02
5.822991067883984684e-01 -7.167706511098391742e-01 3.109016878026302777e-01
2.299991080762839868e-01 5.442615571067089403e-02 -3.074174579853359290e-01
1.231971414608934723e-01 4.932581799996147986e-01 -5.670951713397791583e-01
-3.110392654510097873e-02 1.893589017745339331e-01 -6.118627275618713224e-01
3.151204521788614709e-04 7.813044505640873161e-02 -5.417648702395139182e-01
-2.612609328614630688e-01 -3.727116033432448794e-01 -6.403208804723886649e-01
5.483117874119558532e-01 6.034681857202325306e-01 -1.876291397441397779e-01
-1.621261417461378473e-01 -3.277524231079390060e-01 -5.586155284225690076e-01
2.347341398350193953e-01 1.265455771047488409e-01 -3.281644122581593992e-01
-2.192768425631561879e-01 -9.157485215723498717e-01 -4.077116104535870034e-01
6.373425209641618849e-01 -7.234905157309350354e-01 3.674287590190432606e-01
6.150678639312504581e-01 6.227825022252773124e-01 -1.287486553588583771e-01
4.704908595964872320e-01 -1.273686123739886655e-01 -6.744217244424689957e-03
4.418911555393221779e-01 -5.756404773023582333e-01 1.230308163510456659e-01
3.720547685448155617e-01 1.221754458368287388e-01 -1.915086505004079398e-01
-1.813263406741619788e-01 -2.590847986674267300e-01 -6.016975023574261394e-01
3.317082135710367474e-01 1.237667073386740507e-01 -2.317680999325107960e-01
4.548890533950805115e-01 -7.023522028444544318e-01 1.804576244818648922e-01
-6.822199037126332188e-02 7.289828020470145997e-01 -8.384817578148016093e-01
-9.188098219933336919e-02 -6.413052184997762861e-01 -3.790407143601138840e-01
-7.757417955291376344e-02 6.707946937193609571e-02 -6.145108409018237294e-01
-1.873108868690182560e-01 -8.870761854644130251e-01 -3.863593831361070152e-01
4.700177625463743403e-01 -9.110660931612939439e-01 2.688684729797247153e-01
-1.881933808934792007e-01 2.106131689975496435e-01 -7.739178567567083222e-01
4.139020900309075546e-01 -4.933776203659741566e-01 6.651177982835479452e-02
1.671223122937114114e-01 -4.036688234768424088e-01 -2.079088254497754584e-01
5.918443294876821748e-01 -8.870839397650828184e-01 3.802910507358374104e-01
5.859081644268838707e-01 5.149632428201006418e-01 -1.194580745303948227e-01
-1.231780564667035865e-01 4.838913729903054350e-01 -8.062156860298864691e-01
3.600357762109164250e-01 -9.016191510083843008e-01 1.573240545656131584e-01
2.177311917289479759e-01 7.692984347663951450e-01 -5.713211343895951977e-01
-2.271717482985846082e-01 -3.806633665394016930e-01 -6.039776988371654554e-01
4.070182204219838784e-01 3.410719124828452964e-01 -2.342185326072043217e-01
-6.518191768707042033e-02 -6.509565559882054542e-01 -3.493703016320417465e-01
4.002132113653664724e-01 -3.936868596157038214e-01 1.792393343084229193e-02
1.568080384615047618e-01 3.377920300126621700e-01 -4.792567500067273500e-01
2.769352962568308874e-01 -5.093037027096376096e-02 -2.241200939909281098e-01
1.766674362369261564e-01 -4.679355259951897827e-01 -1.758772781589041934e-01
1.780494111904519228e-01 6.671550762230852305e-01 -5.743832135983577558e-01
-2.680103134590390290e-01 -5.000578867693696861e-01 -6.021008146185794496e-01
-3.110503143632951661e-01 -8.091432084714376138e-01 -5.355664187124467013e-01
4.340149534483337401e-01 -6.590230390496095714e-01 1.446547639113573980e-01
6.507702429516738496e-01 -2.756977724414030329e-01 2.228940773169480472e-01
5.397369776491574012e-01 3.862018331874230159e-01 -1.195284743029441099e-01
5.899313983346222701e-01 3.737077620964274899e-02 5.274517054347759026e-02
4.379335262992064409e-02 5.383318397838677827e-01 -6.611027084843286161e-01
4.209611547513792962e-01 -7.162346416107974179e-01 1.519648155892316943e-01
2.759062400521950509e-01 6.041751515520267235e-01 -4.559109007789792223e-01
-1.063869867534054381e-01 -5.629785933326761915e-01 -4.209064870414049864e-01
5.365075080271066721e-01 4.595433974135316735e-01 -1.485426106994996165e-01
-1.631648412390508396e-01 -4.482927169008270318e-02 -6.593047269609799699e-01
6.614124359409497000e-02 -3.225638026817672088e-01 -3.358402708747793008e-01
-1.861308553997408355e-01 2.576298886423071810e-01 -7.884513249554967462e-01
6.146901682398009381e-01 5.374081856216572639e-01 -9.904492397910784340e-02
-5.096316698559390929e-02 3.667553896564459404e-01 -6.938957853282359256e-01
-1.114735328496828555e-02 3.255926513295110958e-01 -6.402184566494936169e-01
4.574429625737352900e-01 -1.247143203328046901e-01 -2.051770547336029260e-02
1.158008219432250518e-01 -2.834925159514044557e-01 -3.007417563786203285e-01
3.943012580167304937e-01 4.139283169211369073e-01 -2.723969519025112307e-01
-1.727212047215323856e-02 1.429904689426576489e-02 -5.365834886631286604e-01
6.215420068442659707e-01 -2.296926194920310693e-01 1.779284986473491370e-01
5.708517292626625883e-01 4.387946690929473981e-01 -1.074404165327845634e-01
1.152170797799362684e-01 -9.425201703149238552e-01 -6.915618319394402358e-02
7.128379624257936698e-01 5.649583526769500486e-01 -1.217793898447133531e-02
-4.169459814794301139e-02 -7.143582384371911509e-01 -3.039250943057373311e-01
4.748862500452128987e-01 -8.588577962638281882e-01 2.552670530512877733e-01
1.223850936267339012e-01 -3.205664464553422688e-01 -2.812029058984267249e-01
-9.227710370170270904e-02 3.724504856950235365e-01 -7.365527718522563161e-01
6.731214987193263610e-01 -2.530453757987887742e-01 2.369066293282612867e-01
8.632818958741660109e-02 -4.424437715194545206e-01 -2.737464851845103353e-01
1.408227381409350443e-01 9.129859501378474740e-02 -4.081516031948091983e-01
3.315743554168455037e-02 -5.951134166339598908e-01 -2.722817814215116039e-01
-1.879616112145497675e-01 -4.407022045325572068e-01 -5.442467180377464908e-01
-8.353665677815429180e-02 -8.660394720338475683e-01 -2.916617449622506131e-01
1.286769626961121737e-01 -9.053228926731451409e-01 -6.901609337866536353e-02
6.961898793938794405e-01 -1.160069981968052943e-01 2.113293033281068434e-01
-1.113153547502006568e-01 7.063190324401288356e-01 -8.728994459825433205e-01
-2.414950927670783676e-01 -6.086624224037994191e-01 -5.377524098356949445e-01
1.458376892817911386e-01 2.864719700823741833e-01 -4.719721456408405014e-01
4.602820821591562667e-02 -6.196441960678038541e-01 -2.509760021699084520e-01
6.414293399022660269e-01 -3.557904584732821812e-02 1.291149399401637088e-01
7.287493327152300138e-02 -3.511056100562726101e-01 -3.191600672914320924e-01
4.509004246530942117e-01 -9.319621831405203172e-02 -3.805830440586949193e-02
4.214463192372559092e-02 -3.270518311388030952e-01 -3.578706462020029289e-01
5.950823424930307137e-01 2.937135510756697654e-01 -3.249010300476731089e-02
4.252663232251784747e-02 -5.439251260303180624e-01 -2.810954161954078989e-01
3.479995934758642329e-01 -7.902655648680549649e-02 -1.442989421215779000e-01
1.004719205409767141e-01 -9.669424594271226470e-01 -7.506124526595711610e-02
6.302504720157345863e-01 -3.716480272368867799e-01 2.365047216652393647e-01
-1.481056969831782977e-02 1.902132775012893851e-01 -5.961318989172564864e-01
-1.406563359305203209e-01 -1.166381946587393692e-01 -6.118609481649640580e-01
5.562238387357434366e-01 -8.987273813447261839e-01 3.493440742854757586e-01
4.234181056135405408e-01 -8.799512827938814619e-01 2.120558485308148000e-01
6.099582701622195957e-01 -4.590216010332902052e-01 2.473179189826597846e-01
-5.468657781401219109e-02 1.948912579935870859e-01 -6.370157335323171077e-01
-1.353743274811633757e-01 -9.051673754858406348e-03 -6.445639312802395882e-01
6.367317633220620499e-01 5.448792970660840673e-01 -7.998905200783940073e-02
5.185927544366357722e-01 7.198765516788716567e-01 -2.578790330055064639e-01
2.823033789235088187e-01 3.786251214762856865e-01 -3.701604815148464844e-01
-2.034900527380724411e-01 -8.067192068746711353e-01 -4.305867042062521688e-01
2.899107611696025155e-01 3.459034558878767429e-01 -3.511481446990807331e-01
3.686812518821584728e-02 1.664116907791656497e-01 -5.368980452966337635e-01
5.618731996001782303e-01 -3.579346080316239131e-01 1.643941712907280583e-01
6.848008822152888975e-01 1.735146330817557703e-01 9.813146763551813812e-02
1.149060708320217977e-01 1.931281777582435910e-02 -4.082933425618348600e-01
4.648103567642513506e-02 -7.739114160769923201e-01 -1.961857299815077671e-01
5.976520932469939762e-01 -1.329712109193051106e-01 1.203494040122601721e-01
4.646231984041770402e-01 -2.502324538281060495e-01 3.076435517616641843e-02
1.187926415709184558e-01 -1.476498824348832168e-03 -3.971455742731935246e-01
3.008620313288715709e-01 3.615348560332402872e-02 -2.312550412066864958e-01
6.210449290126903721e-01 5.812875323085696655e-01 -1.082498359807322619e-01
3.500252618121626469e-01 3.506837905237864539e-01 -2.936826412011271925e-01
1.410663004075682625e-01 -2.757787066534049258e-01 -2.785992496770567373e-01
4.565981832548734465e-01 -4.965638341803216838e-01 1.096449153631509077e-01
7.811728210799659955e-01 6.599817710468812715e-01 2.158544769387827841e-02
2.926069696894446071e-01 3.065435047051653372e-01 -3.346296322983374760e-01
7.649153997532207039e-02 1.349124983162639235e-01 -4.868142669739292105e-01
5.561321783153403420e-01 -8.388222221048133864e-01 3.281507064067935020e-01
4.757709636141315146e-01 4.295655356417532600e-01 -1.977436762533328896e-01
1.250916295162211589e-01 -9.632354697377740749e-01 -5.214263341262800888e-02
6.811237699969845405e-01 4.290414227395336622e-01 4.497303902100621871e-03
-1.131346708617868013e-01 -9.835093633687694847e-01 -2.794027519163417295e-01
3.767642497972239490e-01 -4.800778559338676477e-01 2.528490648653660550e-02
-9.801856905131071940e-02 -6.406273067344859795e-01 -3.853185889871720837e-01
4.267715026104070691e-02 4.556715584045572531e-01 -6.330817195704887546e-01
2.151840057116515548e-01 -3.205980461007690296e-01 -1.898825314293270394e-01
4.629263590859563626e-01 1.055479665010754242e-01 -9.623832079568449271e-02
4.729715054143373565e-01 -2.074878610944972113e-01 2.392073482345473401e-02
2.834956742916205363e-01 -1.610441001875804190e-01 -1.788745498963501268e-01
6.619946468159034758e-01 -1.368867198629430681e-01 1.850384301373975415e-01
-1.443650088334126058e-01 -1.572268634393594600e-01 -6.012116534852792737e-01
6.442985859169859664e-01 -2.262082053339178334e-01 1.990922969153914035e-01
1.107598643015933748e-01 -2.472216822445208462e-01 -3.184791549975230507e-01
3.435610846958636055e-01 -2.991663148852000131e-01 -7.111614101832722246e-02
-3.181454602579731339e-01 -9.681366994708946461e-01 -4.865380007003022866e-01
4.896218590920194402e-01 4.562369526319687840e-01 -1.935108374900986750e-01
1.552014367612671308e-01 6.469090994090405111e-01 -5.897322357306687968e-01
-7.725266236777034168e-02 9.611804510814303537e-02 -6.244240922745866174e-01
1.554341592525665741e-02 6.628102750002594634e-01 -7.327499839999220832e-01
-4.391625266341627198e-01 -8.527812393572879734e-02 1.155918550861680938e-01
-3.558995969288780148e-01 4.859270944279227566e-01 -3.703972539091894209e-03
8.275374404646858306e-02 1.813041938033365524e-02 5.927015830563548970e-01
-1.398633205966222093e-01 9.049704642956465372e-01 6.124522194940854730e-02
-4.742009847523055988e-01 6.408877791324249507e-02 2.849741047670322977e-02
7.023250177915071890e-02 3.152395140030463949e-01 4.757167929140189155e-01
-3.639674189864391951e-01 6.875588804770091378e-02 1.353173210916438218e-01
1.570820502753192405e-01 4.302950930083140335e-01 5.206408002952855885e-01
-5.506180751318721089e-01 -1.171675059872700209e-01 1.715934404226538909e-02
-4.106654422323350873e-01 4.462459178037144203e-01 -4.361193495264316378e-02
-2.641568424692785078e-01 1.815457623024715195e-01 1.937924520143074203e-01
3.211484026793303553e-02 -8.387836551242897065e-02 5.788108644542543368e-01
-4.087504247967875259e-01 6.594743374374049116e-01 -1.168430165329766707e-01
-6.357714426380873807e-01 9.831040814325367472e-02 -1.425348872700089309e-01
-7.575397246897551673e-01 -3.653387710900496410e-01 -9.901576190798416777e-02
-1.294368557888452287e-01 6.376499617097737271e-01 1.656750409267302437e-01
-4.355287530571731458e-01 -7.126363058767688496e-01 3.401708312776245968e-01
9.678516656670652085e-02 8.891391879577393853e-01 2.996718576579162074e-01
-6.371425774997976355e-01 -6.314307098148860264e-01 1.131866232684981127e-01
-5.453334445309666600e-01 4.690109240186473571e-01 -1.841377338746042758e-01
1.013785457858716599e-01 8.454783023542959963e-01 3.195722041752043219e-01
7.538022842494918052e-02 7.293772266169292751e-01 3.348909076890083658e-01
1.097725735257838869e-01 6.366128763763788667e-01 4.014098632655989651e-01
-2.151131420287358265e-01 4.973208769542969976e-01 1.308087235572837626e-01
-1.577782319527407662e-01 2.164417260197935011e-01 2.861703754215373929e-01
-2.446470444171903735e-01 3.637000953568877426e-01 1.488203779652170766e-01
2.127458761275862267e-02 7.932841704578733610e-01 2.591408928987320448e-01
1.833512651662285164e-01 -2.361043949898784799e-01 7.812451927630871262e-01
