4.822379001591035053e-01 7.748751659480433984e-01 3.003229267392561533e-02
4.516738432337472076e-01 7.456923857676320821e-01 -1.020681465220195649e-01
-4.314931211919882936e-01 -8.933660775302083856e-02 2.609484527135580434e-01
-2.564927020473264374e-01 7.627626433449385956e-02 2.657771809052686951e-01
-2.584160680103553612e-02 2.923346095677114009e-01 -8.560618641479400548e-01
3.396891571501282625e-01 6.391819483731804308e-01 -3.760089381323309943e-01
-4.001264267304638911e-01 -6.037116206976907845e-02 -1.034122395892015794e-01
1.310176191233987097e-01 4.429638468899470549e-01 2.584161039553792283e-01
6.975399467960774480e-02 3.850151990628163379e-01 2.712668013884274587e-01
1.968126066972530550e-02 3.353223584081833630e-01 -9.021386407944432806e-01
-1.484783810889144240e-01 1.778914775403820092e-01 -3.865943263959311510e-02
5.980901912519085567e-02 3.756167660616345216e-01 2.776318405827410962e-01
-9.991169003467173515e-02 2.230602916864335150e-01 -4.401375495050087183e-01
-6.519717315630036980e-01 -2.993323599050697337e-01 -4.283158076079041088e-01
-1.041268856357056294e-01 2.210970473669640612e-01 5.893058207448244046e-01
1.778450843877367182e-01 4.855104617327946626e-01 -6.392653038225459827e-01
-4.466779055227416695e-01 -1.027479087658960538e-01 7.478698656658193666e-01
6.795414772205998766e-02 3.831797701723266281e-01 2.040661442328404740e-01
8.815114932151654759e-02 4.000883136263045925e-01 -9.160057433650611314e-01
-2.818507298958861096e-01 5.114228755261267245e-02 -3.123712309228661166e-01
-8.454213694220124031e-01 -4.818729710000413391e-01 -1.633807260294222186e-01
3.116027105725693164e-02 3.474875065369711913e-01 -2.401738274358896641e-01
-1.368082945388410243e-01 1.894221326977816588e-01 2.089533234050521548e-01
-2.656659447299478810e-02 2.946937345475486580e-01 6.915451940690990895e-01
1.922867445124032681e-01 5.011719792779169014e-01 3.747937669034357433e-01
-3.739300003670236183e-01 -3.424467373009124765e-02 5.759384007069470179e-01
2.905868377964924143e-01 5.943913260991577907e-01 4.752689773344931368e-01
-2.070899386618788585e-01 1.228717938494988116e-01 1.872888301230114239e-01
2.582264992808581683e-01 5.631344752139397780e-01 1.529718965547284537e-01
-1.868879801946067565e-01 1.421303429331598478e-01 2.591407801424703838e-01
5.495065791325531857e-01 8.390173810568745116e-01 2.768630674325698870e-01
5.092949753360094256e-01 8.009881106423407671e-01 2.885922574526645912e-01
-2.148571641200662519e-01 1.142084601988365561e-01 -4.800923622132837187e-01
-4.387756757276363717e-01 -9.683460456122415516e-02 -4.728166948584979629e-02
1.402780519087188094e-01 4.520327656733711952e-01 4.138008331434853138e-01
-1.571330199647197889e-01 1.702408102795976430e-01 2.353908189314280197e-01
-3.170562244278309766e-02 2.871324441968250984e-01 -6.797273169397288761e-01
-3.542504820382335606e-01 -1.723577523783512838e-02 -2.442608877508445075e-01
7.863408352317606195e-03 3.253246982213890415e-01 -2.995963506678093191e-01
3.813376161362068417e-02 3.548973329876807803e-01 1.718834282287903525e-01
-3.024637458703586801e-01 3.143582407469416862e-02 -4.141720582676181039e-01
-4.051169168913001245e-02 2.784734896509370450e-01 -8.452769579005960932e-01
-5.994943298304262758e-01 -2.481217182726037085e-01 3.599936039614838879e-01
-4.537439563849407498e-01 -1.102400968556875721e-01 3.384697752190198305e-01
-2.134433138168640443e-01 1.173059709491997005e-01 4.141524865612499773e-01
2.695801948506622581e-01 5.730009080002135269e-01 -2.930374870236519547e-01
5.044307193625316987e-01 7.964409716356721791e-01 3.170114271065930245e-01
-5.841899458828654357e-01 -2.347626881371543683e-01 -2.110110987810936978e-01
-6.220273670938243349e-01 -2.707375531997796569e-01 -2.970065699773848378e-01
-5.029544670825527586e-01 -1.577639772390044270e-01 -1.473026939619681008e-01
3.917645536554902330e-01 6.891559587533766518e-01 -2.283947892119455800e-02
-4.732111475248796939e-01 -1.304262927137228023e-01 -5.581940567581252788e-01
-5.340689312777937570e-01 -1.868715206487329139e-01 2.353796655044882932e-02
-7.607433930414109202e-01 -4.017487952745200652e-01 -1.668481370675708175e-01
-1.618753483252599878e-01 1.661381800917618723e-01 4.310779176675566537e-01
5.965046106553293509e-02 3.736383806456531897e-01 -6.515584275253354374e-01
-1.250118058334278581e-01 1.994180862991612735e-01 -3.841819820711024902e-01
-6.406738352161547301e-01 -2.871733579419566973e-01 3.176277165474473141e-01
-1.613569318836084732e-01 1.644347210675780324e-01 -6.839646919569400962e-01
5.126010400779371090e-02 3.672172428037231984e-01 1.202571600115405481e-01
-2.767791185304571133e-01 5.545930858803958807e-02 -5.574621741533782870e-01
4.300801102825884681e-01 7.256345144088209853e-01 8.919171276218050559e-02
-2.585616159459111496e-01 7.341472509963783977e-02 -1.935069355424431370e-01
-6.069422351076141087e-02 2.624717053546229417e-01 7.286645049990569944e-01
4.564663024384223444e-01 7.507209203707201350e-01 1.486939329969447221e-01
-8.095109354613395924e-02 2.429825227845343327e-01 5.660095460276881596e-01
-6.462227269513739492e-01 -2.924319329113789223e-01 3.137430810638072165e-01
-7.259090389402379495e-01 -3.690059487859222442e-01 -2.791621760293460097e-01
-4.928524748041990811e-01 -1.471308785496441007e-01 3.982944043669736645e-01
-6.710499303607568578e-02 2.550054864543723210e-01 1.732111666055329360e-02
-3.998366195019595892e-01 -5.905669367527584951e-02 4.252445338363174399e-01
2.802433636131274053e-01 5.827000120767296121e-01 -4.919941472549191896e-01
-6.579187877485730418e-01 -3.048300650515273769e-01 -3.622426785554516138e-01
-6.546878192137943753e-01 -3.018183140174851009e-01 -3.854799091482140061e-01
-6.727070753437443262e-02 2.534629632655415188e-01 -6.869157914993538894e-01
-1.900268781027668885e-01 1.401402311493343822e-01 7.573111592133202619e-01
-2.021816630509471469e-01 1.273002840629318677e-01 7.740043639256663499e-02
-2.399510452581248843e-01 9.119450484859695227e-02 -1.078492115150827546e-01
3.007470014660554303e-01 6.036354670820989199e-01 2.870010856575384017e-01
3.452323205179756022e-02 3.520036771739691317e-01 4.376788164510825863e-01
2.467763813792852867e-01 5.509769843459558780e-01 -5.189965042186314159e-01
9.198813507507658249e-02 4.058622644567265181e-01 1.730990598460656060e-01
-6.951327295441268872e-02 2.531167936421010456e-01 2.156616108716564173e-01
-1.009630167728854389e-01 2.242580385403106225e-01 6.741845573700130378e-01
-1.811979400801707052e-01 1.456474046348576190e-01 -6.899192543135218569e-01
-3.757675154349984226e-01 -3.704494338104934170e-02 3.650689597130956504e-02
-1.821621179325692563e-01 1.474351532880656679e-01 6.823384343962551890e-01
-3.435602060898997334e-01 -4.888424116097479441e-03 8.896243576115178131e-01
-6.694477968297167791e-01 -3.157107978288862804e-01 -3.474029326294814646e-01
-1.692844084513754066e-01 1.569485175115757358e-01 -6.760421326329738578e-01
-1.749574165340592735e-01 1.544996419972262114e-01 8.076948359674076539e-01
2.024252370253336319e-01 5.095288834174708237e-01 -2.539588467435103802e-01
1.039847551680089383e-01 4.153316549260334112e-01 -7.838916423742825490e-01
-5.548735606897217121e-01 -2.071604999505899936e-01 -2.821543366965148514e-01
-4.279316756767911900e-02 2.790418498722057050e-01 5.407910922879095583e-01
-2.956233310158254413e-01 3.935897963978427644e-02 3.227661094631346650e-01
-1.134943902388268686e-02 3.077756181784280787e-01 2.164089871660352174e-02
6.378851575253957629e-02 3.787023265905761771e-01 -6.808023793218342945e-02
4.742995084177646647e-02 3.629603057163471869e-01 -2.011647191417811897e-01
1.053356818847527299e-01 4.183727836817784373e-01 1.119605708515228892e-01
-4.600005423160749007e-01 -1.163857569496370425e-01 2.241032042598656016e-01
-8.641059453242980193e-02 2.359599874110875350e-01 -3.773361848684387843e-01
-2.621612058650085730e-01 6.953821912843598241e-02 -4.324717248745986731e-01
4.477882136334625923e-02 3.600457691974369712e-01 -4.073807708369199254e-01
-3.840057705498837737e-01 -4.531887236285348647e-02 -2.064430950891658623e-01
-3.385769691821912675e-01 -1.701851054526791820e-03 1.125244782436945340e-01
-4.497252318568661922e-01 -1.074210146048940606e-01 -1.615361980835603450e-01
-6.616318123612684454e-01 -3.085159903278734128e-01 -4.497979434200405358e-01
-2.508205913743519200e-01 8.160310429938562315e-02 2.450960229703546267e-01
-3.850319892047128212e-01 -4.649837653629664003e-02 -3.123503299246919718e-01
-1.944201527700797072e-01 1.338302558526901775e-01 -3.366759419715824042e-01
-3.928760119435427689e-01 -5.371160081301711714e-02 -2.058306904832172268e-01
1.773271286340341590e-02 3.355323027203634956e-01 1.416636701908017826e-01
2.374943278703620445e-02 3.409628459712101822e-01 7.954831186362705531e-03
2.202244638941779353e-01 5.277229771510919543e-01 4.324549758963205925e-01
1.402381966477376507e-01 4.515337765064486031e-01 1.793745311193684078e-01
1.138842774861428403e-01 4.265769896872049771e-01 1.702257897454418079e-01
1.485330570685978735e-01 4.581916554974988509e-01 -4.261989656244889457e-01
-6.951960224750793893e-01 -3.390648048111939428e-01 1.667116149146152249e-01
7.706134644105300247e-02 3.910801985543199688e-01 -1.606991766607344940e-01
-4.320543634782542664e-01 -8.953113366413714691e-02 4.320029870786795678e-01
-9.575591303564075230e-02 2.268265024352821013e-01 -5.247107406305778765e-01
-8.982217829676202026e-02 2.341245835954644250e-01 3.306005439654369216e-01
1.798619028255081520e-02 3.344757595809990103e-01 -5.171908718694808726e-01
-3.487958542662130124e-01 -1.241932773734364531e-02 -4.197380867948174443e-01
-2.273038159225244936e-01 1.026164722063756946e-01 -3.854056735844459403e-01
-3.454770679870155514e-01 -7.212228901998505616e-03 6.304992445552681790e-01
1.393087668466272411e-01 4.486445164960445875e-01 -8.420041682011942807e-01
-3.090910891575221475e-01 2.568386650752409184e-02 -1.501466563915180019e-01
1.990090239441004993e-01 5.058561999501562934e-01 -4.775285354771051094e-01
-2.065701508371279027e-01 1.240792058421953531e-01 5.509345169453735425e-01
7.856676642427282142e-02 3.938720808627486081e-01 5.341826092960209049e-01
-4.094963283165552193e-02 2.783534478323266281e-01 -6.956671145091228858e-01
-2.064892757052922689e-01 1.234999394667739003e-01 2.176478737142982234e-01
3.589208012961889183e-01 6.589192626313506995e-01 4.058070617301945404e-01
1.295691620652233977e-02 3.289709957567332754e-01 -8.960894962449488244e-01
-4.630534504712639499e-01 -1.184860575266344779e-01 6.249193758793675224e-01
-3.698875585627698914e-01 -3.175775683302651392e-02 -1.042851653045594462e-01
-7.233970730524495740e-02 2.511103965717101927e-01 5.552840064103794493e-01
-6.299550644390593535e-01 -2.768219485325309481e-01 4.234418994396552671e-01
5.309493986157989148e-02 3.692085921949377902e-01 2.498718909687885903e-01
-4.615152529601311282e-01 -1.168892675382734309e-01 6.966739824387830904e-01
4.504361982422687150e-01 7.446964318783441117e-01 -1.301217773748773905e-02
-3.346505348895827125e-02 2.854139621953041828e-01 -7.069308555535698257e-01
-4.560641745111266854e-01 -1.129804405003611151e-01 6.163755962530101384e-02
2.482653409933266719e-01 5.541647077201826699e-01 3.849737873155178458e-01
-5.084902671264494023e-01 -1.624873574380977237e-01 1.145104689929419273e-01
-1.131952469869431377e-01 2.099903722096900516e-01 -6.940688931294651809e-01
-3.061947180803742397e-01 2.986320955690875689e-02 5.809200015683190221e-01
-6.725002743019041496e-02 2.537568933492814760e-01 -5.474817435814541833e-01
-2.793560887468262699e-01 5.446613106220741379e-02 1.771198661965130705e-01
-4.285115447142441858e-01 -8.816586232837882176e-02 -5.779762435879360893e-01
-4.898980400873455959e-02 2.710320287721155186e-01 -5.498009668178422960e-01
2.749081820454257752e-01 5.780425743019096396e-01 -2.931505215799151132e-01
-4.880764295171221567e-01 -1.427899589930472501e-01 3.074941821034536393e-01
2.066431908728997013e-01 5.133653376609317309e-01 -3.327356574190574179e-01
3.382045797914386420e-01 6.385222552025927589e-01 2.695682690901180043e-03
2.785498264147994174e-01 5.826490219837291429e-01 2.965564330256352243e-01
1.429336996777395008e-01 4.534262189195198967e-01 -1.551931564883326509e-01
8.947314813397604094e-02 4.039336731544524994e-01 4.024806323921972240e-01
-4.032261429466118541e-01 -6.233266543659257697e-02 3.904539032446171509e-01
-3.059800389959793088e-01 2.913897540142379797e-02 1.096089063958492621e-01
-8.988418988160370993e-02 2.335587272647517976e-01 7.284688911949481482e-02
-7.807573830792517988e-01 -4.205445954984151080e-01 -9.392298317901670579e-02
-7.071405314111773865e-01 -3.514518671707904107e-01 -3.841633785174174420e-01
1.139184374482194034e-01 4.253726134992737995e-01 -4.582844362637473745e-01
-3.128766593019612907e-01 2.125374554294124502e-02 -5.810242437891263156e-01
-1.263931739927003084e-01 1.989400154038838964e-01 3.718988131012317816e-02
-2.400539643798564049e-01 9.035862239843785171e-02 -4.831606854826474007e-01
-1.262721008925968280e-01 1.996827206522646392e-01 3.564166158106622517e-01
-2.735165332541071859e-01 5.875140411933087864e-02 -4.534294565451545966e-01
-3.559986046605542742e-01 -1.846939803309097586e-02 -3.049029019368325669e-02
-7.841495977533359252e-01 -4.238268960755235959e-01 -1.306357321212462952e-01
-2.895905467220770690e-01 4.595512030241588608e-02 7.737054065477640963e-01
1.651388885159581210e-01 4.743231714130036747e-01 -2.140840042268878918e-01
3.088226295633642038e-01 6.109600059736450817e-01 1.256683605542404658e-01
-5.827154492618855097e-02 2.631330146334545095e-01 -1.003751868280000487e-01
-3.046024240336341893e-01 3.193252502022582429e-02 8.668026832982125285e-01
-6.521710543649059111e-02 2.556058618744125321e-01 -5.854916721985653494e-01
-1.967985324676327363e-02 3.004384712776486110e-01 2.990990827231414517e-01
8.540926295175245431e-02 3.978533939253067198e-01 -7.331831824995878044e-01
-4.138414516929004860e-01 -7.163621889350714478e-02 7.674181739213032927e-01
-9.645996700126603651e-02 2.257276070453137495e-01 -7.445884728952133491e-01
3.250486405837703652e-01 6.265482970397069362e-01 2.443735624014247709e-01
1.704258465821555102e-01 4.785732995954831703e-01 -5.967365155111387098e-01
-7.345414637227716259e-01 -3.764878884822211447e-01 6.995461217714671331e-02
-2.093766321075055115e-01 1.219767700834489405e-01 8.321526897911267762e-01
-1.331834644022841518e-01 1.937613430512261092e-01 6.709326898420018281e-01
-1.026912223217843617e-01 2.212469300436587516e-01 -2.496806472584333844e-02
1.279566998161360547e-01 4.391136839931190639e-01 -2.262209479127248735e-01
-6.651750616249758608e-01 -3.115464896486969115e-01 -2.859052376989964506e-01
-4.435887618218453676e-01 -1.024483177721908084e-01 -5.855202093625065940e-01
-2.401810272961705517e-01 9.004779402588228288e-02 -5.800205326731437960e-01
-7.709521336923682577e-01 -4.117020543739743910e-01 -3.156027024962647087e-01
4.726920110840476114e-02 3.627641219776392423e-01 -2.235596278626483246e-01
-2.228323050122286708e-01 1.063805645971002550e-01 -6.228998002723786787e-01
9.618516312078348451e-02 4.085113534189744322e-01 -4.990506566344304340e-01
-8.089187639988543177e-01 -4.470116219800800428e-01 -1.344243861879910931e-03
-5.342635284552594843e-01 -1.864999238503410595e-01 3.059756334588191184e-01
-4.277296207468280209e-01 -8.485317609459230859e-02 7.295331972556883260e-01
5.472813007660972673e-01 8.368435303753342103e-01 2.422720677897161057e-01
1.377361816238530934e-01 4.495206203464979233e-01 3.595404683648070754e-01
1.056016961007691518e-01 4.167572726502816183e-01 -8.369990053566181976e-01
-3.799953743481799262e-01 -3.956577300286874543e-02 7.886672489949755338e-01
-4.651936722957277226e-01 -1.202019739925517527e-01 7.821515136235932530e-01
3.458730473048488019e-01 6.465988253883109271e-01 4.193701503002928432e-01
5.762786251986952157e-01 8.642612022038265174e-01 2.307991994692820403e-01
-7.591352622557343555e-01 -3.996887646214929979e-01 1.066995815073304710e-01
-2.285436426664146786e-02 -3.362699557520642535e-01 -3.095630579479051112e-02
-1.898218509770701473e-02 -3.326019702603192907e-01 -2.905972226017078386e-02
3.700804595673993225e-01 3.398421585174342396e-02 -8.345032667221742306e-01
-5.774887886210013921e-01 -8.614911575788044562e-01 -2.185605002208474701e-01
2.477675463598036365e-02 -2.919830126191000907e-01 -4.306742467188230949e-01
-5.547248717894182057e-01 -8.401019340001166791e-01 -2.959781817734896125e-01
-4.806266695680394552e-02 -3.599239847337092901e-01 7.102012431628584865e-02
3.058905516122712998e-01 -2.556966181917047845e-02 -2.301310736310495098e-01
-2.805511115360137531e-01 -5.794531701024241421e-01 3.125540913901564410e-01
-1.647577864150341674e-03 -3.160909705710183148e-01 2.542797334526592651e-02
3.921181549735939242e-01 5.501763463928991543e-02 -7.434881284169231330e-01
3.562236807077001632e-01 2.267761694323497043e-02 8.338784658338191380e-02
-3.436916361782800244e-01 -6.397804028125101405e-01 1.922103500401241283e-02
9.922873956447288146e-02 -2.190277187604097453e-01 8.404619310989861480e-01
5.362455454173564728e-01 1.936209421280071508e-01 3.822928293058581173e-01
-1.708235155829843366e-01 -4.768171323088953306e-01 -2.970412274270650688e-01
3.257033159934979438e-01 -6.545160154625077019e-03 -9.005229922016580457e-02
-3.793022037845147909e-01 -6.735743114427333866e-01 -2.932976013909651195e-02
5.369096648371450564e-02 -2.628524349451695774e-01 4.683479698726752960e-01
-5.662890071491209071e-02 -3.689916687750016688e-01 -4.175948089217646486e-01
2.701466095401803824e-01 -5.876746556881350114e-02 8.841059863367758953e-02
4.550968925335798776e-01 1.170120691883645148e-01 4.749490973239261504e-01
2.174611814722513803e-01 -1.082108721790977224e-01 2.982813201431893657e-01
1.485504285127533242e-01 -1.734189131046693366e-01 2.994966082132283769e-01
1.052813029074585044e-01 -2.136354168717923552e-01 6.700802654656590196e-01
-6.752951627244015154e-02 -3.792971748816693633e-01 -4.126265380196050825e-01
-1.114164617342831010e-01 -4.207659560864774329e-01 -3.813437901249108752e-01
-1.382606236704943814e-01 -4.436720633340198172e-01 8.874632879489907644e-01
1.523193562748620111e-01 -1.696552354447406763e-01 3.996815614975527398e-01
6.288536640008862699e-01 2.807999087859587850e-01 1.503705935312621145e-01
-1.319797676218271987e-01 -4.390739363290037112e-01 2.036784798334365376e-01
-3.145866294464851054e-02 -3.441382061401000447e-01 1.083051096684639614e-01
-1.572560761569612442e-01 -4.628949731054260441e-01 2.534847873453287548e-01
2.812228665604251110e-01 -4.852292374659697427e-02 -3.201100933559235945e-02
7.309382602625065506e-02 -2.456590645425450192e-01 -1.250478102198002428e-01
1.028830811484890591e-02 -3.044771958778458298e-01 1.874537004743578317e-01
5.683945432527403030e-01 2.233976112686285043e-01 5.397862353987533529e-02
2.450360737586823323e-01 -8.411139484283156054e-02 -7.154639246020235710e-01
-2.342882404747717862e-01 -5.370051584849211412e-01 -3.637114294030592831e-01
8.049905150606656568e-01 4.476108287583028811e-01 2.175264254259606511e-01
4.199955592203187260e-01 8.205523979892939690e-02 -4.095188176217679499e-01
-1.987211508258683867e-01 -5.011807638689315114e-01 7.376721026012845739e-01
5.687598907405736481e-01 2.230182273595865683e-01 -3.145346741063243523e-01
-4.269543617131347779e-01 -7.186805925926189609e-01 -3.589335787498568187e-02
-3.256532513919983135e-02 -3.466199740524956718e-01 -6.207445590651992084e-01
7.396662529550444010e-01 3.854713357318246825e-01 5.338989470385589742e-02
6.603924672338750135e-01 3.100996570517269846e-01 -1.268639910834281903e-01
2.576473110353402415e-02 -2.908374827640383131e-01 -3.236416377067785621e-01
8.052724972427334205e-01 4.476165515054101318e-01 8.482250870388570452e-02
2.501258486290122707e-01 -7.872709789978819817e-02 -4.268847051578333329e-01
3.950408639253228521e-02 -2.779163617308919587e-01 -3.645367189866219881e-01
-9.627360555119765517e-02 -4.062202217533525395e-01 -2.715650646880287677e-01
-4.783358742740028702e-01 -7.672202385640223277e-01 6.196264861707601913e-03
7.523593439653131210e-01 3.976459927695423779e-01 1.363054636758216365e-01
4.879822598657619359e-01 1.475420276534361863e-01 1.753291455941103916e-01
-3.115815117798508282e-01 -6.091281859087396278e-01 1.545684003743747759e-01
3.192793340535016733e-01 -1.318143413689129573e-02 -3.732511878088902169e-01
7.771326517399792522e-01 4.211452486236531012e-01 1.648709961258211232e-01
-2.247789366827843416e-01 -5.271920999793092699e-01 5.016783752084037762e-02
2.956898011147798266e-01 -3.462985049910679430e-02 7.114333028795266634e-02
1.534993836341287388e-01 -1.691458508810917971e-01 9.105360795102705740e-02
2.170436339898547048e-02 -2.952806983399537955e-01 -6.290170639763551508e-01
-4.838418197595277248e-01 -7.724615701229634590e-01 -9.578941935583387343e-03
2.002555603802789186e-01 -1.243346858508833641e-01 3.785346322874740266e-01
-5.251739579672773384e-03 -3.189963146567113550e-01 2.822207514180628540e-01
-2.440663294155989704e-01 -5.465150365512911890e-01 -4.942443823877678000e-01
6.081997209477811861e-01 2.611680135570892403e-01 1.061493147629520711e-01
2.158210698587637033e-02 -2.927397789462480859e-01 7.211120369251614592e-01
3.416447860759362354e-01 9.125131073948728952e-03 2.071694731186160265e-01
-9.722458905021680309e-02 -4.077971098582250375e-01 -6.156111808925012197e-01
-1.938800812415751862e-01 -4.983803379145413937e-01 -1.673016340300834959e-01
-1.907666991762360653e-01 -4.948897043019074848e-01 1.093866467661639419e-01
-4.559017559002891407e-01 -7.467245459712530398e-01 -3.667187702061830978e-01
4.852019483433649971e-01 1.451108865177321572e-01 2.769086820674391825e-01
-9.657696715261487874e-02 -4.043345276711314829e-01 8.326668397141570033e-01
2.489663143974073234e-01 -7.981512116200960294e-02 -4.221851803503808287e-01
-4.771658350412038563e-01 -7.665141347212373057e-01 -1.976524925497511187e-01
-8.791388723586623932e-02 -3.965252887859456177e-01 6.351455315865858209e-01
-4.410272511491642455e-01 -7.322952002124396564e-01 -1.870335124853091668e-01
4.364909820296685727e-01 9.906487297905161582e-02 3.019666455118483750e-01
3.015083503850407021e-01 -2.944268772500611975e-02 -9.094984108893175434e-02
9.117819587242013968e-02 -2.295060501502540207e-01 -6.130731924230168328e-01
-1.411648423167879696e-01 -4.468620090508870213e-01 6.629971232950879756e-01
-1.979920202632330373e-01 -5.024342347495761585e-01 -2.500175617728119248e-01
-3.062958844371483913e-01 -6.043517114326764084e-01 4.005286130242115966e-02
3.498436770204627067e-01 1.558562176958481690e-02 -4.525655558214175533e-01
3.081717024451712250e-01 -2.361611802717774114e-02 -3.343737732037061483e-01
-3.662599352149107923e-01 -6.610601061352820995e-01 5.822103272127506640e-02
2.967922384278446901e-01 -3.497444261024762469e-02 -6.341732380983241546e-01
6.943292668076807006e-01 3.431343610371764830e-01 3.408047563151765380e-01
3.518378695038414383e-01 1.700533916132376464e-02 -6.901012850876532267e-01
4.178594511014582791e-02 -2.762478178412717256e-01 -6.139610359777077919e-01
-1.927827147040867550e-01 -4.959784500269955876e-01 5.256223357385434447e-01
5.420035208893358991e-01 1.972187621149855408e-01 -5.583964634812321748e-01
-1.306339672064434354e-01 -4.371035502050888422e-01 5.578287716421569398e-01
-1.393569336755379751e-01 -4.464106797603346055e-01 2.290076699656902817e-02
3.165172127569281235e-01 -1.371822647993875717e-02 6.823163690784473934e-01
7.357249209526006695e-02 -2.459341212829971590e-01 -4.950382402618706545e-01
3.106165821018367912e-01 -1.946380795825290722e-02 6.000878677602713429e-01
2.070670626271191861e-01 -1.183386833349966416e-01 1.499698321184904648e-01
3.861677739034342915e-02 -2.765327516045248957e-01 7.653636181725913534e-01
5.443124872448115159e-01 2.004810063581249080e-01 -1.091536351586949553e-02
1.697501570677678040e-01 -1.530229625967041429e-01 4.695401806503003983e-01
5.695025766857194499e-02 -2.611535931943378963e-01 -2.357503059651008259e-01
-4.705092364343534395e-01 -7.601076253624859946e-01 -1.430945814757254297e-01
1.534192833275576373e-01 -1.681391354291119911e-01 6.412035795253673287e-01
-2.030359936322657377e-01 -5.052980474612513984e-01 7.203236021911988418e-01
9.863901764384853943e-02 -2.206844086656128967e-01 2.821196050219131335e-01
7.190065688714623038e-01 3.654643246534296508e-01 -1.787098175408735334e-01
5.226657032349025789e-01 1.794154076761371730e-01 -3.062838935787629002e-01
2.277803860198522254e-02 -2.943299125048615128e-01 -6.621709252930561007e-01
4.453948238022409911e-01 1.066266687086187964e-01 -1.370973579841862633e-01
6.170534777680060090e-01 2.692304929467910224e-01 -5.437271640078029239e-02
1.242549976874246925e-01 -1.954765608713846248e-01 7.737546826883753281e-01
3.955845784508724705e-01 6.016919701284181160e-02 2.075223188875096603e-01
1.833901128365980904e-01 -1.407920106160536200e-01 1.256946708827378911e-01
4.706562110963726786e-01 1.293609739004017711e-01 -7.320207778324473447e-01
3.708325786110400202e-01 3.578335095996966475e-02 -2.818690238721222596e-01
-1.560387106406700697e-01 -4.622522892551116369e-01 -5.355347351213083675e-03
-3.953067479110946442e-02 -3.515467902224134744e-01 2.251856764402850875e-01
3.309610832357689492e-01 -2.691308090515704635e-03 -6.600596128442770549e-01
7.065937903630407080e-01 3.536553088020727986e-01 -2.106104225001104724e-01
-7.343254326350515115e-02 -3.826929024598139106e-01 7.005280271643380408e-01
-3.771642212870131988e-02 -3.514447574218018677e-01 -5.954793361522812134e-01
6.886875721259347327e-02 -2.494476414257325858e-01 -1.851724927647123431e-02
-1.833262587707295277e-01 -4.884676096012571245e-01 -2.051039150020310675e-01
-1.498830358554329167e-01 -4.570403249874138707e-01 -3.169761449234309025e-01
6.196343215003835558e-01 2.713703598073498591e-01 -2.080530984842709208e-01
8.218202911830245396e-04 -3.140389192869171286e-01 -1.192846149475104839e-01
2.873427267564824805e-01 -4.218400827851997992e-02 2.463256436112469805e-01
1.107865131266616288e-01 -2.104059795892751772e-01 -3.362654342882405722e-01
3.430745383851657726e-01 8.392403374844505798e-03 -8.528173471007851614e-01
8.934996038539685381e-01 5.314038349752358004e-01 2.361350720547332749e-01
3.995044695432400927e-01 6.315545089422706926e-02 -1.599930746702113993e-01
5.836545286709288183e-01 2.380761748747429463e-01 1.749327697999799314e-01
5.871284102638671953e-01 2.406663177121357577e-01 -1.793949806190223983e-01
3.960349124441663871e-01 6.106069146347170573e-02 4.440161137039517758e-01
-1.464954416537928017e-01 -4.528692053936216322e-01 1.736697135781872237e-01
3.819358968372987828e-01 4.734497956694374426e-02 2.540579965837845289e-01
3.457439531786175024e-01 1.311401980987695476e-02 2.629896566775672406e-01
4.209091037434390392e-01 8.292636119663189531e-02 -4.061484686955186274e-01
1.741428658103948701e-01 -1.508792796542698378e-01 -5.535721255875351021e-01
-1.455826557228573348e-01 -4.509501732462373735e-01 7.099686756004387478e-01
-3.756490671068244414e-01 -6.703347092926853490e-01 -1.398009190044437189e-01
4.325689267488380119e-01 9.567740983781024278e-02 4.666223543993207601e-01
-3.757812200126390278e-01 -6.703283946476407129e-01 -7.303607675775444785e-02
2.770718008950007749e-01 -5.411091068917744940e-02 -8.755573015066819842e-01
5.277455326212092679e-01 1.852887035324561060e-01 2.355948597574143155e-01
-4.984396709596184555e-02 -3.625317504884483788e-01 -3.976132136524887506e-01
4.718290508662981858e-02 -2.707170632357903117e-01 -3.986828798271158658e-01
-3.638065532844665384e-01 -6.595679891188065413e-01 -3.633558519866419978e-01
-1.757700672254609506e-02 -3.312929049872100351e-01 -3.955884616534360160e-02
3.910993101345437706e-02 -2.779861218928305622e-01 -2.104306633379290359e-01
-3.470098154170594973e-02 -3.479678465650869468e-01 -2.786626507798141139e-01
-2.023255657330875201e-01 -5.055336463735488062e-01 2.589261504599226216e-01
5.716654024075648044e-01 2.258449145413216619e-01 -2.753037314490218712e-01
-1.002462403636043137e-01 -4.081925953010096531e-01 6.365851312345078838e-01
5.588638297183130543e-01 2.135016959446675300e-01 -3.917132255588845480e-01
7.804817898611504656e-02 -2.418466006129872115e-01 -5.701696516260645886e-01
-3.305107917674317553e-01 -6.266095714495210078e-01 3.738343326401316058e-01
-1.900325580669371198e-02 -3.307466102842107070e-01 9.239951712130405337e-01
6.297811498146781428e-01 2.815534009369175528e-01 8.725529817425213552e-02
4.365029452213030070e-01 9.839131462063643863e-02 -4.609910223036670779e-02
-1.608105778030262112e-01 -4.653687508603895906e-01 7.057232037383582846e-01
-3.268524235610294482e-01 -6.240532160788649918e-01 -8.638894773323921306e-02
1.244934681681242050e-01 -1.968603706478573023e-01 -4.420440585643361370e-02
5.062048803258164531e-01 1.629627767742597155e-01 -7.513324962409604346e-01
1.310089424765290278e-01 -1.900907351739549722e-01 2.627697969705424241e-01
-3.759085054488884442e-02 -3.495885317887463817e-01 2.874915415516138273e-01
5.974894188169999759e-02 -2.568568217644079388e-01 6.019752591301394951e-01
-1.874928669628014577e-01 -4.904975237066763194e-01 7.670899778515349876e-01
1.138796484985038354e-01 -2.063268888189333794e-01 2.492226454521482282e-01
3.613766466847707082e-01 2.735749302064597807e-02 -1.642025452647562223e-02
4.835713185700777350e-01 1.439305553263187931e-01 4.612576061150341356e-01
5.613577101310657236e-02 -2.626791707584202884e-01 -6.193643987733867817e-01
5.892816819259649730e-01 2.437998681370622533e-01 3.775594938462208394e-01
6.667106980745221012e-01 3.170229119956738395e-01 3.530412343890655391e-01
-2.209492386704284272e-01 -5.244393704139214130e-01 -3.926519637412550501e-01
1.076778859554633205e-01 -2.117765166452196812e-01 4.622240555028933606e-01
6.486641176151249910e-01 2.997857479499151934e-01 2.719118174294549717e-01
7.481143959786810127e-01 3.937454415942697183e-01 1.954894211471602528e-01
-1.385110252789555074e-01 -4.461859250645233699e-01 -2.696941206709091432e-01
5.809487468154606038e-01 2.341693522054768550e-01 -5.092941240536922320e-01
7.533831938083979107e-01 3.986617125061974742e-01 1.601142392141804982e-01
-2.241392225776623892e-01 -5.269753609166523134e-01 -1.473367090000222424e-01
5.051123131024515267e-01 1.622429101942526042e-01 -5.917363978802351321e-01
4.422543877060533535e-01 1.038974891058371264e-01 -1.379245422331295580e-02
2.126054789152340418e-01 -1.142312254523434739e-01 -4.261224057320596725e-01
-2.125700495996591943e-01 -5.145099070962025900e-01 6.238864609564168662e-01
-1.407250404487550011e-01 -4.474388137750128225e-01 1.583446607124959216e-01
4.437344039399032103e-01 1.044564547069588428e-01 -4.414947606843919181e-01
-1.306456902220284599e-01 -4.378228238063555655e-01 1.979211503216076473e-01
4.842224515391261863e-01 1.429943782496733429e-01 -3.276676420695314174e-01
3.014721609483426157e-01 -2.883487581479269452e-02 2.353535951246019664e-01
-1.014786649696903659e-01 -4.112734821498705284e-01 -3.364633709618807811e-01
6.717736249217729494e-01 3.210003421204933871e-01 -6.045824436350042547e-02
4.719386490849331039e-01 1.312779356921919827e-01 -3.745489442861613671e-01
5.817479140023981143e-01 2.358321391554813184e-01 -4.858066950406608048e-02
1.541747482440047196e-02 -2.984315351153774554e-01 7.932033000604086226e-01
-4.213623875917547612e-01 -7.134945877953711157e-01 -8.960936009354592002e-02
9.764736149434098678e-02 -2.219996608772165370e-01 9.060122816629059828e-02
5.278028768794763570e-01 1.845632721324917402e-01 -1.606584299694050477e-01
1.556890898961565961e-01 -1.684849516608084852e-01 -6.261522503253451610e-01
-1.722314318239580588e-01 -4.784972450992037718e-01 -4.737972473501786963e-01
-5.410203897555485725e-02 -3.657245794044945986e-01 2.755730309193123173e-02
1.136712154737067465e-01 -2.077529168587672614e-01 -3.752652894613637824e-01
4.288966144025931904e-01 9.172355821810607157e-02 2.233233978320844082e-01
-1.679235481496896554e-01 -4.732214665710653967e-01 1.356623850222495042e-01
1.187799534020822639e-01 -2.009628152545071267e-01 6.186449016229649267e-01
2.624964375333527777e-01 -6.626990926582235208e-02 -4.528303900286725914e-02
-5.183306358563420924e-01 -8.052659245879624228e-01 -9.470205916343295283e-02
2.781198733755553265e-01 -5.002543678925305132e-02 6.966968010626354291e-01
-1.631473544928602193e-01 -4.687967796954274902e-01 8.736260211747501336e-02
1.624463966819385263e-01 -1.615763583873810194e-01 -3.648609345626313005e-01
2.538280502802878202e-01 -7.367120144924298175e-02 3.621152653175437885e-01
-2.438115045716957377e-02 -3.369874709573637550e-01 3.386615848514152871e-01
9.376937567266450946e-02 -2.264659359908891556e-01 -3.142054177031753937e-01
-8.777080259284836261e-02 -3.958711503144526911e-01 8.987754134259696714e-01
-2.529780658776699664e-01 -5.530355175613841379e-01 4.778279619375747633e-01
2.016831329357935687e-01 -1.238288932066546055e-01 -5.096947973574241647e-02
-8.830389954761784510e-02 -3.971709680817817611e-01 4.945684355761332807e-01
3.023462504827434949e-01 -3.018817462569477542e-02 -8.727845083746157417e-01
3.120166270817427145e-01 -1.819032854108552227e-02 5.739722624966027142e-01
2.961755475046686237e-01 -3.344396822461019603e-02 4.402186745312264282e-01
-2.330869477247037858e-01 -5.355746852224610999e-01 -2.144555029519597533e-01
4.712891844865734203e-01 1.322761798457078863e-01 4.451173517348109288e-01
-2.147309767593696961e-01 -5.188352220862726405e-01 -5.350587227113877686e-01
3.470037402332321608e-01 1.298906348932473385e-02 -4.063781810303879749e-01
-5.637983321460099395e-01 -8.486087981677418179e-01 -2.556381470816979640e-01
3.809876859346265077e-01 4.597910092143090571e-02 1.591660651644003291e-02
6.565537988587785145e-01 3.072550788654001552e-01 2.735910509498694632e-01
1.212953457302684418e-01 -1.991325638972827605e-01 3.390905494703886358e-01
5.870819464312142522e-01 2.399842706896939959e-01 -5.036757723746705384e-01
7.938576860382708933e-01 4.365694486208370195e-01 -3.981012395290180889e-02
4.129779602583334985e-01 7.432084882158287997e-02 -9.653117419030241564e-01
2.143484148043403592e-01 -1.115795425848357808e-01 8.328059016998513864e-02
3.079424303222723092e-01 -2.382417630121196755e-02 -3.298493616846466803e-01
-3.881557638710619873e-01 -6.823290248430281535e-01 -2.207059355183242644e-01
1.537029136374665483e-01 -1.694723040460540953e-01 -1.727374147544654681e-01
5.421004381011403916e-01 1.977982576546694626e-01 -3.104981515391752600e-01
4.624203649399419858e-01 1.213582656306890217e-01 -8.382909083984103615e-01
-3.211353323513801428e-01 -6.187465330669681407e-01 -1.389464360916540520e-01
-4.384458718056779003e-01 -7.296643631701421606e-01 -9.145315425200561954e-02
7.852952697828279316e-01 4.291052643899070373e-01 2.846613990785196724e-01
3.635145376464685718e-01 2.897125562357358297e-02 -2.244475303862169535e-01
7.726112433444470851e-01 4.167229840125639684e-01 9.186918924049196356e-02
-2.147634685903518706e-02 -3.338427172841248458e-01 5.398791645734433153e-01
4.678926938228185617e-01 1.275656030142466313e-01 -3.154101452504328718e-01
-1.740771177011103676e-01 -4.802442630107681132e-01 -4.740210477895985819e-01
3.900633131971557033e-01 5.310753110938477850e-02 -7.260061429388280363e-01
7.331811130430176959e-01 3.792846073957518160e-01 2.806917401755155972e-02
1.395691760491259426e-01 -1.821934930978913181e-01 1.594344014756041150e-01
-3.230192356775764967e-02 -3.460441402563332880e-01 -4.547737024238255876e-01
8.644162522035199470e-02 -2.319737655450068159e-01 4.107328291723708613e-01
3.409899911195554134e-01 8.551143245560405975e-03 2.303676571750687962e-01
2.350320360128372588e-01 -9.151809321963309818e-02 3.315346837130418445e-01
-9.293830542145931073e-02 -4.015905254255641710e-01 4.772858226767426881e-01
1.340293066951200596e-01 -1.879438951697512961e-01 -9.874315229717779696e-02
3.781456679170474566e-01 4.353628253240821727e-02 1.412377903821411818e-01
2.215095479567130987e-01 -1.056951798166659573e-01 -3.701674547957105599e-01
1.062776371232072720e-01 -2.152768839143281154e-01 -6.432997402569136103e-01
2.437248929879252124e-01 -8.444853628596987738e-02 -2.562244981710414260e-01
-4.382664440598922906e-01 -7.292748034386989930e-01 2.023557790866625447e-02
3.147650910207105412e-01 -1.768409561252371268e-02 -4.905578764201594111e-01
-7.967576085966879967e-03 -3.231920495913135349e-01 -5.440001075484235393e-01
1.140372328290164827e-01 -2.070270972500377338e-01 -1.824199214882436526e-01
2.683401783331514356e-01 -6.162043717988115871e-02 -4.927538320961158957e-01
2.291888907364348360e-01 -9.797455360282612824e-02 -1.396191818153544040e-01
1.065930567489702108e-01 -2.137201346116417433e-01 -3.829859471006096232e-03
1.498701590444694032e-01 -1.722643434827421938e-01 2.515745130829549758e-01
5.693404654184522906e-01 2.234492919156333690e-01 -3.746741923004495711e-01
5.420418990281741234e-01 1.976450233263843115e-01 -3.602212021835656808e-01
-2.788200759513083105e-01 -5.773433722499310417e-01 5.522862394220532378e-01
6.185980352331458265e-01 2.713941385187905175e-01 3.024076448239432779e-01
-2.780649221764178169e-01 -5.766310144087948286e-01 5.511446761581682008e-01
-3.937620862116118781e-02 -3.509235465323665148e-01 4.676407103957766487e-01
9.920627457573186203e-02 -2.201577766239518619e-01 2.769537385841929766e-01
-1.932526851013877112e-01 -4.959332540159840375e-01 7.746121668998756649e-01
-2.554705701475646351e-01 -5.564448271193956908e-01 -5.612592751150529552e-02
5.351147889868330676e-01 1.923727736014937406e-01 2.917641891915780938e-01
1.755434473881234692e-01 -1.499942180808128411e-01 -7.773455039391058419e-01
4.420098166968540188e-01 1.046355486879748387e-01 4.789207039917914299e-01
-2.755644889307267698e-01 -5.745257665023731919e-01 4.185418472995059425e-01
1.337224244807701523e-01 -1.893599692293758685e-01 -6.708256430764112377e-01
6.427017422988184903e-01 2.943357028213847149e-01 3.695738286324635746e-01
4.362093268604168572e-01 9.921091533661885453e-02 5.116425709631059471e-01
4.195567360932695444e-01 8.276961723986442365e-02 1.645794392381145499e-01
3.448014368777335137e-01 1.109608026434462033e-02 -3.092774318606765771e-01
2.209151287703182975e-01 -1.046338538247957167e-01 4.550852483911935198e-01
-7.312610555506460219e-02 -3.826922262590218282e-01 5.534981049243554718e-01
7.272836118944668859e-01 3.736384725375389015e-01 -5.124137994795717119e-03
3.573340385084686766e-01 2.270610170502522160e-02 -4.361346821041037769e-01
1.668652757380966745e-01 -1.581413992115139333e-01 -7.443134648843630075e-01
-1.550448520910200148e-02 -3.286609403000533280e-01 3.013170873226392321e-01
4.808655448855119752e-01 1.397503854396125178e-01 -3.618923279090121015e-01
4.645815119670566040e-01 1.241779963132548514e-01 -4.446117425233917508e-01
4.924711652039345799e-02 -2.693432799198595684e-01 -6.932368566522641995e-01
-5.937631881558404212e-02 -3.714752990685175615e-01 -3.585103123093499877e-01
-3.414171951165204666e-01 -6.384420356328655011e-01 -3.944366469598459268e-01
4.296334098910899457e-01 9.213959972033410051e-02 8.041843598562221918e-02
2.977912549841188472e-01 -3.199159418872524197e-02 4.013024646343534285e-01
-2.967825066190094008e-01 -5.949640455481646217e-01 2.357819868266531893e-01
2.869065007014666435e-02 -2.881440840025671357e-01 -3.619642294256063542e-01
1.874721238463954165e-01 -1.360941835446266013e-01 5.500586277600938434e-01
1.086848281199540717e-02 -3.033115758229161796e-01 5.008185435493139881e-01
1.241704072995549052e-01 -1.983069086900479949e-01 -6.239884239882780292e-01
9.862206914873224151e-02 -2.209387825572959319e-01 1.609939762953081777e-01
-3.249690918805885759e-02 -3.447169237601743763e-01 3.135108819019375437e-01
6.741112811596433607e-01 3.239046744536122624e-01 2.913290300651510956e-01
-1.205445641234150073e-01 -4.278841044176757702e-01 3.910409555769120415e-01
-1.216012211525934889e-01 -4.279661459184456729e-01 8.575191075510624206e-01
-2.880910433333666587e-01 -5.881040459800302989e-01 -4.578070964735259651e-01
-8.644881656683560400e-02 -3.959042026771894540e-01 2.462014854272477904e-01
3.956744414840237395e-02 -2.762605491550162995e-01 4.465014600341751794e-01
4.160487152042421921e-01 7.807298690272136688e-02 -5.352225606525857771e-01
2.442790326417555169e-01 -8.369634931301166147e-02 -1.404515748571578126e-01
-2.602444455882258478e-01 -5.609442290615443971e-01 -4.691233796928163946e-02
3.521526482830106275e-01 1.721467532168287698e-02 -7.350985507886410586e-01
9.965125448073429426e-02 -2.201006512366656120e-01 9.198371416475063789e-02
1.503713994673867016e-01 -1.728747959147936275e-01 -2.997255553132646688e-01
-1.245825193901439060e-01 -4.331790897350022429e-01 -3.579951912501099232e-01
-1.754923400987465354e-01 -4.789845143562442287e-01 8.468178406960589211e-01
-7.619193645496083467e-02 -3.848854704010357120e-01 9.132938500817767702e-01
-2.649688360659813169e-01 -5.659742083524775813e-01 -3.311445867905464246e-01
-4.935673184492603838e-01 -7.817331301862583404e-01 -4.428712106823720629e-02
2.535890533332667007e-01 -7.547356375231890901e-02 -4.389323679537786016e-01
2.702355113385164209e-01 -6.019302370861938367e-02 -6.788342978410324413e-01
-2.232493961017966710e-01 -5.250918981013884546e-01 3.819271684448969917e-01
-2.307609936478411880e-02 -3.373776346712289986e-01 -4.872571947725563013e-01
-7.534773769144299804e-02 -3.864467916250315382e-01 -2.861891082470333636e-01
-9.550192798665542437e-02 -4.036795922408073500e-01 6.485014502326280628e-01
-5.480305906725378984e-01 -8.337407764768566265e-01 -2.825912101321506054e-01
-2.525054028829192276e-01 -5.535389743929055584e-01 -5.351753411286891589e-03
1.325996924657601717e-01 -1.892284109738184839e-01 -6.401580909084286786e-02
-2.979226889374007037e-01 -5.969607501402313110e-01 -2.306306393377354491e-01
-2.700115304209378952e-01 -5.705863372617778762e-01 -2.499387579153373451e-01
3.215200264774820127e-01 -1.135967710071664021e-02 -5.250124082462388486e-01
4.733991186934873863e-01 1.332837968405441165e-01 -5.751700901775111396e-02
-3.800493617420466763e-01 -6.749432632377894148e-01 -3.657243728467866051e-01
3.601179003395444389e-01 2.620883909131370426e-02 5.179458948997469649e-03
1.107665254477461711e-02 -3.047230656068057875e-01 -3.166355459276631312e-01
-2.292296574055371350e-01 -5.322299006428317103e-01 -3.696539959591861324e-01
6.217583461253084476e-01 2.738068081103293694e-01 8.689370703193956269e-03
8.715320309772987828e-02 -2.324734609449501388e-01 -1.854354283864727004e-01
-7.092413980138360940e-02 -3.803399391275484875e-01 6.899847752635194231e-01
-1.589301451029350165e-01 -4.641093689904572384e-01 4.414125161255316177e-01
1.397715890546954443e-01 -1.830102579622408798e-01 -3.530031076262037382e-01
5.150689552013391070e-01 1.737674885513066092e-01 4.768264370376695260e-01
3.566498741367292724e-01 2.148258447281125444e-02 -7.289124875718683283e-01
6.369388724639121202e-01 2.884876648126889487e-01 1.690227661941090809e-01
-6.661422225128184327e-02 -3.760677903990249371e-01 7.884067143195480076e-01
4.072657136141171752e-01 7.121225191325539217e-02 2.020158364464757772e-01
-8.060641713234195649e-02 -3.906721167495171287e-01 9.546878506852000956e-02
-3.232411081419064303e-01 -6.213470773249740731e-01 -4.478612257564143495e-01
4.565972692001847855e-01 1.159671963690214608e-01 -7.776395274569813942e-01
8.094865474700201069e-02 -2.388148332666642226e-01 -4.242920337697439481e-01
6.324122525645446968e-01 2.835129539513177588e-01 -1.822340768884362638e-01
7.159782519051597349e-01 3.627654955744641918e-01 -9.390122817631026131e-02
-1.516027856501473703e-01 -4.577374429580677861e-01 1.558089584930993643e-01
2.251979855778913076e-01 -1.016821381152975962e-01 -1.045422697707400761e-01
7.787748098334686120e-02 -2.407318600561236532e-01 7.845098435210942633e-02
1.872242875076421953e-01 -1.360870999203750153e-01 6.728493401569167753e-01
1.304458454223443031e-01 -1.902602024788332402e-01 4.474514911287875152e-01
4.556533692941307501e-01 1.166322011622270977e-01 1.427090462285870824e-02
7.997651324385924854e-01 4.423719429458208841e-01 6.806446747814909326e-02
3.060531563775389929e-01 -2.619605648695691805e-02 -6.266748440968868961e-01
7.641009524947638409e-01 4.084791613815114131e-01 -4.951501984044297949e-03
1.664975637857541990e-01 -1.584209660168407474e-01 -7.095515645079990552e-01
-1.980369346273819914e-02 -3.335546874876005874e-01 -1.181607782350672653e-01
3.891765091979407752e-03 -3.094489248341595333e-01 7.370052217370833825e-01
3.280566492049518668e-01 -5.017953543310658959e-03 -4.456801937792340684e-01
2.705608828586263392e-01 -5.969158282621624817e-02 -5.804739256033406569e-01
-4.793796471461336806e-01 -7.686845925356451392e-01 -2.360335994573657947e-01
1.745738466531049082e-01 -1.481273665432266962e-01 6.377214442019045748e-01
2.486349108426148535e-01 -7.890114165518646860e-02 2.016930414728644871e-01
-3.506290962140213296e-01 -6.458285383608872721e-01 2.818673136589456840e-01
1.491235388227484526e-01 -1.724321403722053891e-01 5.253660300041506082e-01
-1.112680942030512404e-01 -4.198834926830498082e-01 -4.216464439203215959e-03
1.297977303802058946e-01 -1.922662105324009219e-01 -2.603367832645321900e-01
3.393135714714327622e-01 5.124255652047732951e-03 -7.049952075202958746e-01
-4.328680255032100188e-01 -7.247631057317751591e-01 -2.830875656809648255e-01
6.016037855467594175e-01 2.551221936697392612e-01 2.057246865818520287e-01
-1.530057537466963415e-02 -3.276122726339254498e-01 7.362001984315604819e-01
5.271887677048771037e-01 1.842215177575117213e-01 -3.900257267471837763e-02
3.367359338937097601e-01 4.139897482950174665e-03 3.438991155164165120e-02
-9.412372019649850596e-02 -4.044792478626396681e-01 -4.207100814542792389e-01
-3.955136253327418139e-01 -6.891784718486544392e-01 -1.631164388823125588e-01
2.212120628890164864e-01 -1.054563938299759862e-01 -1.057448462424893931e-01
3.970490790591429953e-01 6.115111703069639471e-02 2.233574247700300264e-03
-3.013197585063667749e-02 -3.426166255024746810e-01 2.435578715116211435e-01
4.886665237731416811e-01 1.463964768407640671e-01 -7.359364399271304258e-01
-2.326774384620313163e-01 -5.346752571609846294e-01 4.570390716182435448e-02
-2.722763516786562144e-01 -5.726489593530085243e-01 -2.089845701675694389e-01
7.688656699540393769e-01 4.131332095197451926e-01 6.883270212973313651e-02
3.024750989019738823e-01 -2.723778165544403843e-02 5.646825280259967217e-01
-2.051425430694809315e-01 -5.088885930146654912e-01 -9.135246481887010495e-02
2.107263213479381447e-01 -1.138027236352320420e-01 6.953825653987286692e-01
-4.236995474087926761e-01 -7.158744242824781612e-01 -1.750788067348172383e-01
-8.803853327081162528e-02 -3.980532122976175868e-01 -8.142245784250141949e-02
6.222671165819313455e-01 2.733697874932300986e-01 -4.580914587613704181e-01
-4.286357930640367214e-02 -3.548141147544228158e-01 1.675602332769859648e-01
7.709242322120286595e-01 4.151695938987711165e-01 1.137392444881707571e-01
4.928486800936481838e-01 1.522764883218439558e-01 2.410687788469548787e-01
-1.020745087908803833e-01 -4.108098192221924516e-01 1.857332402063105459e-01
-1.653643223532994533e-01 -4.697574413537560778e-01 6.653355291005134120e-01
-1.246188140683346796e-01 -4.333364939869303045e-01 -4.205353461407015381e-01
-2.217571740977878902e-01 -5.238691211349730814e-01 2.857135835089659737e-01
5.868726800223114659e-02 -2.597438581787086531e-01 -3.546738825377383497e-01
-2.599252960281394492e-02 -3.399384628482249870e-01 -3.861236330405215522e-01
3.353394325236436768e-01 2.319692702283660413e-03 -2.190526335478683306e-01
7.067277957599064908e-02 -2.470423234625998554e-01 3.363014306371760465e-01
-1.051312774674199313e-01 -4.139324286868031333e-01 6.885349231375093026e-02
1.933270197025827031e-01 -1.313965475717105424e-01 1.217006901471927166e-01
4.298058467000626659e-01 9.142715413416278858e-02 -3.645861639765896056e-01
3.307321271872938895e-01 -3.841775418412550556e-04 6.225690591240959915e-01
-4.217233789945695754e-01 -7.141762685496432228e-01 -2.624398140750977548e-01
-2.388873372571075071e-01 -5.400299348194625981e-01 3.108733285387594858e-01
-2.890072491501418164e-02 -3.430841438638396190e-01 -5.861813415765434465e-01
4.317992171325652495e-01 9.454057229955487029e-02 2.590373081889546514e-01
