-8.802344471978769125e-01 -5.849633373114251356e-01 2.712383869204388898e-01
-6.258862264918112484e-01 -3.304307803807574606e-01 1.278941800884738911e-01
2.025749629880360392e-01 4.415508500289140326e-01 -3.765482699536102928e-01
1.305806366405517782e-01 5.889146148768029665e-01 -1.916632227719712867e-01
-4.275057289264832527e-01 -1.054104245972033171e-01 3.351900917957603004e-02
5.577775677211496141e-01 7.012668488915099196e-01 -6.397043690701842422e-01
2.526834436097816217e-01 3.701111557613356862e-01 -4.847568833241125419e-01
-1.316547369793656386e-01 3.825586784953382002e-01 -6.995902705637179787e-03
-2.406383370948284861e-01 2.429389740042350310e-01 3.432641312425465524e-02
-8.425160906826401064e-01 -4.428778832401492616e-01 3.186077916674370791e-01
-1.968996789258301572e-01 -3.240048725693268905e-02 -2.002090027936836714e-01
-8.173595013598012882e-01 -6.949391842635473937e-01 1.220859925963964920e-01
-2.007751331132985942e-02 -1.462872683039401038e-02 -4.045566635649784915e-01
-8.272750438859974853e-01 -3.713898332118794055e-01 3.470059275808963783e-01
-4.940996396249783817e-01 3.578001210453510272e-02 2.077456436280031848e-01
-2.782118639863664922e-01 -1.501537405982446838e-01 -1.783128351481033658e-01
-8.483293692120770502e-02 3.821514890896015593e-01 -6.446932673710772943e-02
5.173260023422217024e-01 7.994653584894915177e-01 -5.256944625304393881e-01
-6.569869265096026645e-01 -9.988729760064625485e-02 3.175255989244772925e-01
-2.339648897856604626e-01 1.742437965022718971e-01 -1.900932539826895307e-02
1.114683035240455200e-01 3.852894924155174095e-01 -3.022409313847011503e-01
-3.368062018777839839e-01 -4.591696708384220005e-02 -3.816508414802159688e-02
-7.952514057042456841e-01 -2.426977066192441690e-01 3.925239042498500641e-01
-1.524593276476865766e-01 1.360230763282437305e-01 -1.437292058496441316e-01
-8.309029650079314822e-01 -1.674735267879494671e-01 4.855585806994148212e-01
-5.111847111894954887e-01 4.868521268862753548e-02 2.371077502330892761e-01
-7.225009612185752106e-01 -3.434881817702402640e-01 2.373473105851408305e-01
-6.821720039305864125e-01 -2.688929198988237457e-01 2.371373974824843855e-01
3.975877473997047051e-01 4.070972224602354972e-01 -6.374705011877007665e-01
-9.406820784854658113e-01 -4.169988648611580584e-01 4.555655250814893975e-01
-7.289078974005492872e-01 -2.646072819044764102e-01 2.970568025462055894e-01
-7.965109011060459432e-01 -2.098759051473493564e-01 4.156503290742981083e-01
2.761762366637834365e-01 4.965213114022171692e-01 -4.303170527680663104e-01
5.478657664698398655e-01 6.405383256721882690e-01 -6.675368597202293586e-01
1.619161961395775007e-01 5.777020593652332225e-01 -2.373229002377405805e-01
1.718044600976879610e-01 3.765177249755226052e-01 -3.817273936305607407e-01
-1.061318605270127197e-01 1.251886316375769859e-01 -2.074568982212550705e-01
3.436954619916083864e-01 3.329066481095950825e-01 -6.204231095393737405e-01
-1.814225218745011137e-01 3.121048662928321837e-01 7.470035104319667357e-03
-8.732334423177137150e-01 -4.743389386654189299e-01 3.354448042578492273e-01
6.088795370035212651e-01 7.525371009987666948e-01 -6.684178188740447224e-01
4.378673011875619525e-01 4.377448536860430450e-01 -6.665253599578099264e-01
-5.660371267665808004e-01 -1.309823122739777468e-01 1.859537351951159323e-01
-5.770678227267526106e-01 -7.215123643678736376e-02 2.381252094330184588e-01
-6.893142847680895358e-01 -4.915925797428864485e-01 9.938926823512990449e-02
-6.927865444889110824e-01 -2.579495233901026308e-01 2.573036637136824623e-01
-1.751211707204722579e-01 2.958462484999752062e-01 -1.092242896663984421e-02
2.036420993724917528e-01 3.350677287154646966e-01 -4.478883161842316940e-01
-4.916433360375403461e-01 3.974429307336141415e-02 2.073519916373796346e-01
-3.173771460858689775e-01 9.223267304428860169e-02 2.896102290419796943e-02
-5.640398924669917657e-02 2.498266900360746057e-01 -1.862359220717955122e-01
5.706345301204726050e-01 5.091876400754830057e-01 -7.817473001138113275e-01
-2.780257052021505304e-01 -7.902561830199032744e-02 -1.317577771835345968e-01
1.375328192564313212e-01 3.336956026825438348e-01 -3.680202657540161959e-01
-7.228054762236325592e-01 -4.659152379176309533e-01 1.571964406828120220e-01
-1.380359179906177902e-01 3.902798343976976447e-01 5.878822308889794512e-03
-3.016801798533694581e-02 4.697537767251817598e-01 -7.363952770406821668e-02
3.622111772507740080e-01 2.761490347966374381e-01 -6.803758164959308186e-01
-3.581041633057011064e-01 -4.169259763127877022e-02 -9.365352906061644514e-03
-5.199654812723817354e-01 -4.422260695731378699e-01 -7.504709212377685956e-02
3.682809049115355338e-01 2.584878312315652127e-01 -6.994078002030582608e-01
1.661486280546384253e-01 1.479960706701049789e-01 -5.251208771994216873e-01
-5.136612950133294664e-01 -3.767358600853860651e-01 -3.967505135154383855e-02
-9.125839583865481552e-01 -3.287591315497458422e-01 4.792731809429129908e-01
-5.868950693929476242e-02 1.482359674072759870e-01 -2.502619501404809155e-01
-7.810812976051152434e-01 -5.632142410380653885e-01 1.644006052966414944e-01
2.409398744609527743e-01 4.795507394086187536e-01 -3.984281316902394399e-01
4.492331394995878191e-01 7.269603298690781035e-01 -4.901885702903878705e-01
3.699377595524980800e-01 6.463841048213072593e-01 -4.463043463130985100e-01
3.186980492498980300e-01 4.879983622681702271e-01 -4.878747790021067399e-01
1.090849274115416739e-01 1.495092514108841419e-01 -4.544067421371864590e-01
-3.457781708158695899e-01 -2.204721372975613491e-01 -1.420120797540050384e-01
-4.453324796092356652e-01 -2.610656449941441970e-01 -4.707854894018666941e-02
-1.543992982441085848e-01 1.504569335545057340e-01 -1.318655428031537402e-01
-8.088501222061450502e-01 -2.987673436386704129e-01 3.722602368045645482e-01
3.043523283064337726e-01 3.762698250123222010e-01 -5.438338370463464688e-01
-1.221943547332709212e-01 5.325151739904938897e-02 -2.351467711717145637e-01
3.017442642521780405e-01 6.603927105461956382e-01 -3.537736188841311691e-01
1.091440660943383649e-02 3.280302899223273561e-01 -2.170475181740269821e-01
-1.587907542915170112e-01 -9.229577259843227410e-02 -2.861638767628963964e-01
-3.168339728742416983e-02 1.939560371951830342e-02 -3.679983721574154876e-01
-9.284873943436201538e-01 -3.441216910619313563e-01 4.885992810474555359e-01
-4.458227554563151118e-01 -2.247824694176171201e-01 -2.261531524593410683e-02
-7.791953327135433538e-01 -4.066420706654932937e-01 2.650772814086680973e-01
-4.583652401650828989e-01 -3.532679019875406556e-01 -9.179889030388137250e-02
-1.974969728334380614e-01 8.601057257438393666e-02 -1.215977346788840452e-01
-4.193580316962257637e-01 5.467596870931951819e-02 1.288566506666954103e-01
-2.628308959161473335e-01 8.798801626074941040e-02 -4.047391014212252391e-02
-3.464042004757160731e-01 -2.807346823396110747e-01 -1.808831906471889128e-01
-7.628883590296485495e-02 1.549479744678800841e-01 -2.243449348722166004e-01
-5.979565993362394583e-01 -3.822582561040167581e-01 5.968246856473740508e-02
4.514935165026018882e-01 4.384641019362620074e-01 -6.827004355515656764e-01
2.271281545800365176e-01 4.000231491223775193e-01 -4.338603597096603592e-01
-2.864637463263950412e-01 1.441610725898423984e-01 2.534629815432569086e-02
-4.792041754689840838e-01 -3.609741700074581838e-01 -7.140702259751666170e-02
3.797436482022249760e-02 3.931989419908550887e-01 -2.072458124934408730e-01
-8.043128695683299245e-01 -4.390106144839466817e-01 2.744757173070276335e-01
-9.176238201289963481e-01 -4.383733425825814822e-01 4.133351142567015524e-01
-5.543116634871100151e-02 7.803844209010106503e-02 -3.004133303941869393e-01
-2.999470807923319549e-01 -1.150428890961528589e-01 -1.286641710343023604e-01
5.876510216116256208e-02 2.684395684975443008e-01 -3.147043056526124261e-01
-1.917109173759621588e-01 2.732104579520868159e-01 -5.541574129613995384e-03
-7.196129763489912401e-01 -1.969280135423090439e-01 3.302146358614438393e-01
-7.501723395034599617e-01 -5.092970295319727558e-01 1.620993918097768660e-01
-9.385740549794477916e-01 -3.351935257155458925e-01 5.067951368459517880e-01
1.465032071589175422e-01 4.636929527766812664e-01 -2.934779787983033961e-01
-7.666323908949518318e-01 -2.105954095280086757e-01 3.786723412313426906e-01
5.092139002024883565e-01 6.955286263785016576e-01 -5.841447486691533353e-01
1.326799435295517304e-01 4.501884875503244232e-01 -2.854712681567278532e-01
9.277135058592421435e-02 3.788973249570328772e-01 -2.836017673888150958e-01
-9.218643424350455584e-01 -5.366553497817032614e-01 3.538738714325939672e-01
-6.809612025153387593e-01 -5.032282835696952894e-01 8.153064502164264482e-02
-6.247179552444368511e-01 -2.061017396333568452e-01 2.082407123518492942e-01
1.536690445065908572e-01 5.061439804489679117e-01 -2.743120472881260818e-01
6.032928047435091035e-01 5.648738042035947871e-01 -7.850223028002499825e-01
-4.358786767347888613e-01 -3.716940992814748435e-01 -1.313916720648932168e-01
2.869061597061595137e-01 5.039005706832623277e-01 -4.385730838846220170e-01
-8.980119477218101443e-01 -3.704633986850934813e-01 4.340396962027954775e-01
-6.947806393146094273e-02 2.948301660611026276e-01 -1.406626140102309741e-01
5.129944277438740485e-01 5.542738339138877368e-01 -6.816700215540888452e-01
6.031804012723805952e-01 5.810237024551139218e-01 -7.742628345207261953e-01
-2.514237504241987331e-01 -9.405866993042732993e-02 -1.741468874310142245e-01
2.849290424542845757e-01 6.966751489991173107e-01 -3.093654933410865393e-01
4.519686136907912766e-01 7.128356054004671982e-01 -5.028208347873739381e-01
-5.421104523675241982e-01 7.622092760334387915e-03 2.478838823845037342e-01
3.134214922291841399e-01 3.232518333373627928e-01 -5.897853736240273870e-01
2.308016328434769615e-01 2.698944447543883962e-01 -5.239369743285161585e-01
-1.637809679863656276e-01 5.085114868211530748e-02 -1.859161481355084133e-01
-7.677012371112987843e-01 -3.961390037556953847e-01 2.579422006840859649e-01
-1.035006219812004274e-01 3.159809176829174171e-01 -8.518346836206885930e-02
-4.377114389377457782e-01 1.448913759290885173e-01 2.106169675065626967e-01
4.351600740648876031e-01 6.753080117296984541e-01 -5.069673250617362514e-01
2.090004601124579586e-01 3.710242957292838040e-01 -4.307856057182296028e-01
-3.476617060360466804e-01 -2.564282983221630174e-01 -1.633599708687550334e-01
4.774575496686292997e-01 5.589298595020897320e-01 -6.351896581673626141e-01
4.787463765231445567e-01 6.766220238383351404e-01 -5.593556343874473979e-01
-5.412640260533431169e-01 -3.929320934848705704e-01 -1.660339479877867563e-02
-8.146304032716041865e-01 -2.181311478462416298e-01 4.323585945508638395e-01
-8.765006935159486146e-01 -3.187504449716591082e-01 4.417705547826126233e-01
8.696627256013156337e-02 4.894120252628489376e-01 -2.038213758789261254e-01
-7.681556012406777212e-01 -2.093639345520948714e-01 3.813433260431854377e-01
-2.926093662444549381e-01 -1.082026428822797093e-01 -1.331302142492145901e-01
-3.063077931573051638e-01 1.355422872864174011e-01 4.392245575987002021e-02
1.792569610137492719e-01 3.872314482494826349e-01 -3.837860102276208218e-01
-4.341929309169241247e-01 1.001636713486849656e-01 1.768997727391714569e-01
5.385893933779032361e-01 7.635898414766106868e-01 -5.752695997172146969e-01
-7.301665876215737150e-01 -3.929715881714270220e-01 2.141666604796448325e-01
-5.250509337605515636e-01 6.857679952816540803e-02 2.671322514257873371e-01
-7.710917951989908481e-01 -4.351904843676033807e-01 2.363996907571289940e-01
-2.964460582874312577e-01 6.210632670311431319e-02 -1.642676151235233570e-02
-5.799546633393057871e-01 -1.426594416156106715e-01 1.952775042291660101e-01
-2.117108589835017540e-01 -1.688083801404921189e-02 -1.719054958950622658e-01
3.412412516172804167e-01 5.770973721677372659e-01 -4.568151103914825928e-01
2.867671415144705249e-01 5.472456859234351434e-01 -4.098942170897559301e-01
-2.081802019320649344e-01 2.821948737951891495e-01 2.048939581639335969e-02
-1.583243308960337048e-01 6.385041688957214523e-02 -1.840330201354960504e-01
-1.760352684742289842e-01 1.980186074794668127e-01 -7.414896074025821571e-02
4.817474760700031777e-01 6.565258350757291472e-01 -5.762399937402393757e-01
5.910735078173723345e-01 8.059661326281430949e-01 -6.115214671728925744e-01
3.028628947885825817e-01 5.744084821569663823e-01 -4.116940148175705638e-01
3.257532437765619515e-01 2.251762932270981732e-01 -6.693583737875322681e-01
-4.149084626859055880e-01 5.992716137690770606e-02 1.268741105952381210e-01
-2.900641353512912746e-01 -1.178908173363012873e-02 -7.282662761539362983e-02
2.137926846507971768e-01 2.021056291982682718e-01 -5.477420698335269122e-01
-5.482843379411359575e-01 -5.858233677545647555e-02 2.118828858190975328e-01
2.123090003193875697e-01 5.558363551358954657e-01 -3.132730088546302749e-01
9.331486205650660337e-02 2.082329649223206292e-01 -3.965154492960378252e-01
1.115405873647155460e-01 4.135571232054961466e-01 -2.837370147409665755e-01
-2.033218224361482418e-01 -1.529183356437291974e-01 -2.716297927683821722e-01
-7.219464688312140499e-01 -2.031139280707118244e-01 3.289970242128005817e-01
-3.346085469591303929e-01 1.563764677712404239e-01 9.220264032706988744e-02
-8.735398210468880986e-01 -5.337964602060258912e-01 2.967126338556046461e-01
-6.198295557258669541e-01 -3.965452778385966659e-01 7.700937141923656915e-02
-7.064063642306321888e-01 -2.723590531102516588e-01 2.644665316669085331e-01
-4.305116687662884356e-01 6.266423598911319282e-02 1.477379181137105091e-01
-6.239217110249533071e-01 -3.570115444984840736e-02 3.193440266402951533e-01
-6.691303723650776636e-01 -5.511071023746388908e-01 3.558512442276379889e-02
-6.218767075316015136e-01 -4.761413224853166537e-01 2.715848895218319139e-02
-3.310728611568532487e-01 -2.526418032518760737e-01 -1.811373125406176010e-01
-8.258950916404989018e-01 -2.984076708140003253e-01 3.933218832423468481e-01
-5.303368562272747777e-01 -1.368517867156653078e-01 1.384756318127288444e-01
4.704518389972984216e-01 6.587295270876860620e-01 -5.609898745825321331e-01
1.847982281490107292e-01 6.010068250342606166e-01 -2.499514994626538256e-01
-8.204039950854283836e-01 -2.573471108733212942e-01 4.136194270312457122e-01
1.394662510811294463e-02 -2.764714630617438537e-02 -4.546889296327429886e-01
-3.717292309062397715e-01 1.771707987947933050e-01 1.512325667363421666e-01
5.863336512659143018e-01 5.395994887221198244e-01 -7.809255315321177449e-01
1.076491351238445110e-01 1.980211430909056824e-01 -4.207452114677239785e-01
-1.605026312049120940e-01 1.953099017650601343e-01 -9.490789036071115015e-02
-2.701987619356477355e-01 2.541573183941896463e-01 7.782108662865359905e-02
-1.405899653493356827e-01 2.453597417354784205e-01 -8.631778566125575258e-02
-3.375767239287336685e-01 1.174594375331232815e-01 7.023250750729305436e-02
7.817979784495074358e-02 4.771000201365286353e-01 -2.011841707174039928e-01
-2.232665912075403047e-02 2.726197692001942618e-01 -2.128791804830502121e-01
6.131384429049799994e-02 5.266639413580143092e-01 -1.479785445183896264e-01
-5.785621365770501207e-02 1.204968288926687864e-01 -2.695246755974829989e-01
-3.695550295254984574e-02 4.583421526450867645e-02 -3.441678106578642260e-01
7.288935538130802971e-02 2.510319632957359048e-01 -3.434102933480879805e-01
-3.838793361436612095e-01 -2.753294554705329467e-01 -1.315419507888827277e-01
-6.728437558008530939e-01 -2.294101412301329523e-01 2.517090726297989134e-01
6.387855594862452968e-02 1.509748848337488444e-02 -4.875803407500970410e-01
2.671878759301739570e-01 2.123040523802509072e-01 -6.062711447871207415e-01
4.201997820000820671e-01 5.282273430447564921e-01 -5.854273768703907033e-01
-3.168296528595005435e-01 -8.905972617028511118e-02 -9.094781463727560911e-02
-1.228780761902250294e-02 1.576035079266881883e-02 -3.940863624663002995e-01
-3.522199317066574409e-01 -1.553926948712508124e-02 6.470609306698035671e-04
-4.381451889878588274e-02 -1.135055766903098409e-02 -3.733993106103509207e-01
-8.392336225859952092e-01 -2.075240614988640986e-01 4.693946510367059122e-01
1.805317079420098655e-02 2.535416483851899994e-01 -2.747622546278463140e-01
-7.768542580642493478e-01 -5.871293718921657412e-01 1.435066250072531968e-01
-3.370151590556744736e-01 1.654265732331232086e-01 1.010954235425506748e-01
6.041736745544195042e-01 6.954925129983239307e-01 -7.001877807767812323e-01
-2.011683789158039692e-01 7.976129515370640466e-02 -1.212223948812524571e-01
-4.878822132285332569e-01 -1.516168365772491422e-01 7.689440714235316887e-02
-7.420495003741720552e-01 -3.083791826614242226e-01 2.843231328303332806e-01
5.325580538011955717e-02 1.095509779746925011e-01 -4.124776525744517364e-01
-1.848450375194511316e-02 4.757184371926772015e-01 -8.399104288367699456e-02
3.944223430382087225e-01 3.756921003055910258e-01 -6.542589227914521466e-01
5.444737199862789145e-01 9.315917677114815554e-01 -4.719604164187704565e-01
-3.231336691361103713e-02 2.265957772947991555e-01 -2.309486646272291832e-01
-7.562458726865532999e-01 -6.482379331738200579e-01 7.813543797858825413e-02
3.277893933554164585e-01 7.414128972941215201e-01 -3.323061258940534501e-01
-7.686738506916657165e-01 -1.380951890421855122e-01 4.288515018287337166e-01
5.377610114369124616e-01 8.011698602722432394e-01 -5.495403153730762380e-01
-3.200917410557556630e-01 -2.475590252336945518e-01 -1.912106947265218293e-01
-4.094882609134096740e-01 -2.558516957127101032e-01 -8.744271720124641156e-02
-4.162210301680512869e-01 2.992734781783248227e-02 1.087462448957836197e-01
3.685190678322954327e-01 6.860620685355176551e-01 -4.184739738054269464e-01
4.414337701841118955e-01 8.001389826108583625e-01 -4.325283322996194002e-01
2.003337019275346353e-01 3.463897151873409630e-01 -4.363994908708913045e-01
-4.536176137776847250e-01 -3.922613176467801277e-01 -1.232462229616315130e-01
1.599373277428416951e-01 -9.466350080775416675e-02 -3.564770401311234127e-01
5.639208759667079240e-01 1.536914930219831776e-01 -5.518600782496112522e-01
6.615209710209262184e-01 3.054707226924358587e-01 -7.027028643422237320e-01
-2.369740071053623165e-01 -3.161227667030174771e-01 -1.899764625161232956e-01
2.514401691800718375e-01 -1.178520120798444426e-01 -3.110234259824772307e-01
6.352862060719144388e-01 1.255443754322531080e-01 -5.050474796796955435e-01
-1.481382733561815122e-02 -7.716829810180451943e-02 -4.130316009002300004e-01
8.090055275705163584e-01 3.054600930290840566e-01 -6.716342349721198257e-01
4.416594819779853243e-01 1.767863773473674072e-01 -6.036849610862388138e-01
2.297792654089471087e-01 -2.448832819002670358e-01 -1.721360632700141280e-01
-7.427350723251460174e-01 -8.070127005211124027e-01 2.578545532264640006e-01
-5.243377109181874413e-02 -4.889402310793635742e-01 4.403533633758661969e-02
7.375226129993971425e-01 4.377333776776075602e-01 -8.360548842102412115e-01
-7.816294761267168489e-01 -7.645091467622975312e-01 2.016676920568680476e-01
5.818415528032867129e-02 -3.547864949579364047e-01 -8.416282595488382146e-02
6.518145014539676874e-01 2.552700542771862979e-01 -6.480582744376361948e-01
2.746556086622360948e-01 -2.720332186739707336e-01 -1.320274499601172824e-01
6.465075214504770740e-01 3.616103442777290899e-01 -7.692593575320699761e-01
-5.617651419801450441e-01 -5.012398448545275498e-01 -4.932814409704486258e-02
2.009238723033773821e-01 -2.250867361571791958e-01 -2.005673246776296659e-01
-6.116721958854601793e-01 -6.601146233141549358e-01 1.195701930957686204e-01
3.935060955335332733e-01 -4.002173791137250691e-02 -3.689967826943170159e-01
-9.816234154422794067e-02 -1.912048194169089776e-01 -3.018083061334652095e-01
3.909958278287932187e-01 -7.352148180868971900e-03 -4.064171461897096993e-01
2.443595874330030115e-01 -8.628175186303099764e-02 -3.481647800311897245e-01
3.716413055258442899e-01 5.618428508110466513e-02 -4.822405281829183488e-01
6.043927618219400166e-01 3.110997367688599358e-01 -7.210891624912462161e-01
-6.939721226509359964e-01 -6.647924527316184662e-01 1.075222351795861037e-01
-1.660572906425609174e-01 -2.505819862919576035e-01 -2.490543245764634539e-01
5.674330672930859472e-03 -2.745023587217083616e-01 -1.858800536111468726e-01
9.053815763270087746e-01 2.711540756078338887e-01 -6.126001256135213957e-01
-5.801586124820477808e-02 -3.239082848900540212e-01 -1.435005636435986165e-01
-3.771453801608672940e-01 -6.648130132976959317e-01 1.742613848608948190e-01
5.904693676898533639e-01 3.962735730392947797e-01 -8.202026735961110981e-01
-4.832442779856570558e-01 -8.568536321128766842e-01 3.687792477201200514e-01
-4.601685929957240462e-01 -8.227586945310777500e-01 3.351370997122196105e-01
-1.457547926876051891e-01 -4.869871229994489070e-01 2.217869570966026285e-02
6.245781788729888317e-01 3.859442875671694750e-01 -8.013559673665471283e-01
4.767968535106326122e-01 1.187688853851315562e-01 -5.307703003266244224e-01
-4.607693129891887174e-01 -8.037469825232224085e-01 3.135418432057457960e-01
5.649379836230559171e-01 -2.449819408189744807e-03 -3.753250985727446531e-01
-4.805163408939637226e-01 -7.449132591957265959e-01 2.429462908963275491e-01
8.373975297276569085e-01 3.274235786036602813e-01 -6.904575928852511035e-01
-3.001681737180172393e-01 -4.658309312667257007e-01 -3.422735949823793589e-02
-6.747886164263924291e-01 -8.313630260794472315e-01 2.996597366101463322e-01
-3.331221702855858280e-01 -6.111206275096254803e-01 1.229000756317781412e-01
6.540508168632648278e-01 4.045858751663683472e-01 -8.162005543898818161e-01
2.702547751844106561e-01 -1.714749271498058891e-01 -2.465084648079744201e-01
-3.952073121981264370e-01 -4.052578279109452786e-01 -1.226417565246093189e-01
-4.256979754668176186e-02 -4.912729669526444409e-01 4.874666240649913607e-02
7.064773105941613007e-01 3.023606048690400949e-01 -6.897240979956885676e-01
-5.435592268752970080e-02 -2.350015240263931271e-01 -2.431268193184935034e-01
4.664112150156317638e-01 3.251425052251628589e-01 -7.660023245582058271e-01
-1.991848285651421080e-01 -5.755225199488022136e-01 1.109052325779961989e-01
-4.251003471184164884e-01 -5.289880878776368478e-01 1.078449367219271211e-02
6.785722546766194130e-01 2.624323359651856702e-01 -6.505116738418033062e-01
1.878895672858013344e-01 -7.871375640806108076e-02 -3.686020524046252911e-01
-5.598066332351631091e-01 -7.802246652126940685e-01 2.661247061647962209e-01
2.858805160761014319e-01 1.145829449038859721e-01 -5.662456671079791892e-01
-2.372136049409681591e-01 -4.506969321700691755e-01 -3.806056965186386393e-02
4.476417143685313218e-04 -5.873146644376717879e-02 -4.306374928110157096e-01
-6.921073617828586988e-01 -6.717517599762558023e-01 1.157736266076146575e-01
-5.551109838003024377e-01 -6.878253486428785868e-01 1.627726169450035287e-01
4.552966703667668535e-01 -4.755458635009230522e-02 -3.474788215252941348e-01
7.932712423926926992e-02 -2.935440193216697913e-01 -1.488680051871283938e-01
-4.719161550806329486e-01 -4.428446959795407367e-01 -9.635021174036094427e-02
3.416238680476470502e-01 -1.677217246996186573e-01 -2.357181476013965327e-01
4.502177234373617720e-01 2.002478048112843190e-01 -6.283763558071683297e-01
-5.249832538325592823e-01 -7.018271833449746255e-01 1.849281896931147806e-01
-5.384340164039037591e-01 -5.323146067179781449e-01 -9.324360451978123618e-03
5.623122516929177639e-01 -3.102316643955817591e-02 -3.436118859745514453e-01
8.212617892717624102e-01 2.420796114887446837e-01 -5.974816790635902874e-01
-2.309996802081630274e-01 -6.349738199698091723e-01 1.713405106798641386e-01
2.918736179531810082e-01 -2.699367460583815825e-01 -1.307691778778353187e-01
3.657419267223935844e-01 1.550310574883546622e-01 -5.951043863744130968e-01
3.558149915941460351e-01 -1.586712063180325261e-01 -2.429500404437594241e-01
-2.314498594312575097e-01 -4.276122360173995607e-01 -6.291499704758674039e-02
-3.096467950681738857e-01 -4.037420639880252571e-01 -1.063364718375428841e-01
-5.635983023594123287e-01 -9.141818061330075906e-01 4.165958520871561044e-01
-7.659697797001520370e-02 -3.024286489570124914e-01 -1.716689252031229074e-01
3.423903936351746502e-01 -2.990168945348541281e-03 -4.215779725216093898e-01
-3.898741727245765287e-01 -5.793726108156512788e-01 7.509841064773060959e-02
6.401361773854565840e-01 3.054502137948053031e-01 -7.071828173123240191e-01
5.967496210247635879e-01 -2.513199138072219705e-03 -3.685547780706914245e-01
-3.595261996525505044e-01 -3.990489783694674553e-01 -1.221394631682797827e-01
2.483989129475886182e-01 -2.493441870517680015e-01 -1.631777963037066848e-01
6.244035979332602793e-01 2.590984078183894423e-01 -6.581534623195990363e-01
5.655661686671633603e-01 2.463007729471216878e-01 -6.560915964241632592e-01
6.221087351589598136e-01 3.952859878404758054e-01 -8.124249803937112491e-01
4.343358459370125768e-01 1.911318987763253596e-01 -6.214266559647985133e-01
4.241656074861854808e-01 4.941679687104073848e-02 -4.635380908724217597e-01
8.770528188888626620e-01 3.138687835953323790e-01 -6.668005646234752559e-01
-4.902294095897744008e-01 -7.687168697300997833e-01 2.677809137012666652e-01
-4.294879753539240785e-01 -5.029423135642070442e-01 -1.955132760118059518e-02
-2.853225504361867615e-01 -3.321967288352253855e-01 -1.820061395017529282e-01
-3.850891759785297630e-01 -5.222414579972823878e-01 1.159130870526762190e-02
-1.806897796373535536e-01 -1.945529217556492552e-01 -3.154057515334697248e-01
7.800764163923993300e-01 3.585148172260899102e-01 -7.376374394789129152e-01
4.726507725884865341e-01 3.300339991272270845e-01 -7.702120908274698863e-01
-4.074193020809794286e-01 -4.282182305425390467e-01 -9.928552809474706919e-02
-4.584314264456227916e-01 -7.893222428895498854e-01 2.977451714758653778e-01
-7.298922762582140678e-01 -7.084553629552332588e-01 1.492641778292126686e-01
3.553994328311451678e-01 1.124603614118678402e-01 -5.492097870871536225e-01
6.474239640724847034e-01 3.097822854255905534e-01 -7.105401310313311791e-01
-7.658740790680931831e-02 -5.255707133921704299e-01 8.031372922066003228e-02
-3.164193750907370872e-01 -4.206623820544014847e-01 -8.865553408382056966e-02
1.817968005973289169e-01 3.525308635149509290e-02 -4.985808008703966343e-01
6.816198860811243376e-01 3.435492173318008269e-01 -7.414702335144376377e-01
3.627410356945358627e-01 -7.891270053790651329e-02 -3.315579714551515900e-01
4.545630807798604900e-02 -3.484173694258385079e-01 -9.403526061969431915e-02
-5.129964162815964235e-01 -8.129962534022580067e-01 3.129887317321404239e-01
1.976718976794757388e-01 7.537111480017702481e-02 -5.405407227529819281e-01
-5.424366824908900542e-01 -6.375222004600811232e-01 1.086372554142586433e-01
2.937625550565369781e-01 1.639186709124604638e-02 -4.537047450357924450e-01
3.420799697120564808e-02 -4.531761104689554509e-01 2.189373852414385965e-02
-2.126249656072728700e-01 -3.622572032880960746e-01 -1.327523643187927815e-01
5.533443966513253987e-01 1.387452465037726512e-01 -5.372093461286547855e-01
-3.684581004836256363e-02 -2.287186538827765958e-01 -2.465344792544460761e-01
-5.007966868689451845e-01 -6.569186812431343503e-01 1.393088713625958153e-01
1.134946720446965707e-01 2.409040614419967474e-02 -5.003582221926415885e-01
1.065185292955117156e-03 -1.543437428646078913e-01 -3.225383772332603427e-01
-5.006901963142275092e-01 -8.205268303340592650e-01 3.240839378425965367e-01
-2.588119441950774147e-01 -3.761124808269913911e-01 -1.268322932006427373e-01
-6.125237668274295944e-01 -7.840037912930551967e-01 2.592913075233818088e-01
-3.740491297716049268e-01 -3.614484055887804970e-01 -1.676576549279282791e-01
-8.558168844158025035e-01 -7.301262585059496990e-01 1.472191599946564011e-01
-3.480803070595026583e-01 -7.343110001992013691e-01 2.588615870639853211e-01
-4.066585986542529674e-01 -5.444703879144054959e-01 3.215108432610316175e-02
1.387282233622449679e-01 -3.664026969666737688e-01 -5.408475903050499745e-02
5.660653504412087589e-01 2.119329589752376730e-01 -6.171770178248056071e-01
-7.317490970421250407e-02 -5.424717489186519082e-01 1.001176197524671213e-01
4.540899820035952383e-01 1.089903253537540112e-01 -5.245094821346191205e-01
-2.436576032515724022e-01 -5.683669293637686470e-01 9.345998900184925018e-02
-5.951273582824901931e-01 -9.094068502718751779e-01 4.045645425283911356e-01
-4.408395267891629388e-02 -4.860321698020736436e-01 4.250970792164952827e-02
4.766256362962774662e-01 -1.180190056853572117e-01 -2.634163206851458106e-01
-5.484627431188946467e-01 -8.196661602447282702e-01 3.130523106867046934e-01
7.737657147348101505e-01 2.295712371871370394e-01 -5.933582465726719990e-01
-1.344069599635957027e-02 -4.191296921207189330e-01 -2.658643696416832305e-02
-6.690238205533929339e-01 -7.500400280535677311e-01 2.090405901572542358e-01
5.816851600480180684e-01 2.663716055516409525e-02 -4.046446958784541970e-01
-3.779544278253895162e-01 -6.003478201341334586e-01 1.012944328603272992e-01
-5.390900181608738739e-01 -5.641331611139612789e-01 2.646824247095721366e-02
1.517971923784215416e-01 -2.577704880234378826e-01 -1.740044419131449860e-01
4.995655541852487835e-01 3.176718868117917594e-01 -7.505847239703387075e-01
1.606346008166714134e-01 -8.531812446260669813e-02 -3.668833715277431962e-01
1.868177369989073855e-01 -2.584807049140600554e-01 -1.658279708400870467e-01
1.000489596768664169e-01 -1.376938622868159601e-01 -3.204965133552363232e-01
-1.846938131715288312e-01 -5.647308716223539138e-01 1.017703384003221800e-01
3.018753158064341191e-01 1.542003324011126941e-01 -6.076150394500133833e-01
1.445238390142891960e-01 -2.821604068491809919e-02 -4.347577812156245280e-01
-5.125747432962118877e-02 -4.778913763193023967e-01 3.180624193472732925e-02
-6.301879538018993754e-02 -2.465905180509981864e-01 -2.318642678411957647e-01
-3.204768394278587618e-01 -7.037962714726221369e-01 2.302157890389561479e-01
-1.962274565468436482e-01 -2.723654207899655622e-01 -2.308087249145567288e-01
6.700069207191886589e-01 4.790319020465760858e-01 -8.969079201646424915e-01
6.950904264869938176e-01 9.143157447826237572e-02 -4.539326868021524852e-01
-2.055869084324684071e-01 -3.108711822205610931e-01 -1.892974023524817140e-01
5.212052076832837111e-01 2.277762505808628157e-01 -6.445143192053938153e-01
2.212735279911946240e-01 -7.425799365650312400e-02 -3.666038294909996220e-01
8.615265003456400450e-01 3.013877996650231039e-01 -6.559760168425506910e-01
4.864639316354480436e-01 1.974335300602444998e-02 -4.169111945127965679e-01
1.006124730660213490e-01 -3.444689866115821508e-01 -8.687939310211585664e-02
8.015423070039582321e-01 3.137451608468661002e-01 -6.825616245892596190e-01
4.368057525285967690e-01 -1.485761704459111487e-01 -2.372950795002756186e-01
2.740027643335807284e-01 -1.841857782799129484e-01 -2.313656462096506106e-01
-5.137878893073652975e-01 -8.813581343972501925e-01 3.900189438075405968e-01
-3.591886898356580482e-01 -4.376318470725076293e-01 -7.849912608182327278e-02
-3.723634020336810124e-01 -4.134166572691772013e-01 -1.086181247151661450e-01
4.895301869783327264e-01 -1.059947003329174547e-01 -2.742772493051219285e-01
2.594509000622472472e-01 -1.779908166216681575e-01 -2.414255015038387631e-01
4.988358264480413085e-01 3.136667551018385569e-01 -7.462156372661372661e-01
7.742004364080409262e-01 1.738646172185279448e-01 -5.303606376318217297e-01
1.049757831841195005e-01 -2.401235690216179663e-01 -2.037914635743484082e-01
-5.598092188652792345e-02 -3.972750502925336269e-01 -6.022346971236975516e-02
-1.370805397318216046e-01 -3.667935249560734801e-01 -1.117219736493336585e-01
2.094465202129891235e-01 -2.943607256836681119e-01 -1.205457992642137433e-01
4.315025730681954497e-01 -6.980902509594343053e-02 -3.273587021955798315e-01
-9.808630741625601335e-02 -3.898559499328280165e-01 -7.746776468330374144e-02
1.390168310597801604e-01 -1.762354013492601346e-01 -2.687682417660267609e-01
3.156071561279916726e-01 -1.933693063268189516e-01 -2.122343883121085018e-01
-2.309411081856327375e-01 -3.746490446103615812e-01 -1.226159482486959551e-01
-1.397203282648259715e-01 -4.888137655470278231e-01 2.551212106182176864e-02
1.360257988440806550e-03 -1.160224978122907646e-01 -3.657500724434612493e-01
6.537790637744301803e-01 3.912249506428758933e-02 -4.035624121484882032e-01
-5.365355076490038178e-01 -5.918019472673310410e-01 5.825082183328841173e-02
6.290412692146287732e-01 3.952871498828884889e-01 -8.109664711817191618e-01
4.106018458853105124e-01 -1.001317404690227342e-01 -2.975183005224292798e-01
-4.438156420454427570e-02 -1.291495164877855262e-01 -3.605586403613332269e-01
-5.494667045579805509e-02 -2.037235919785881366e-01 -2.785714654360048059e-01
-6.027272368544627223e-01 -6.931214183507078408e-01 1.587263298305966186e-01
4.991700596760503261e-01 6.933386183815176684e-02 -4.702351142312541366e-01
1.629117899832377772e-02 -3.368883570458052756e-01 -1.131957267667075134e-01
9.511852380682442876e-01 2.758686379259648880e-01 -6.082788651109466427e-01
-1.796395043474564857e-01 -3.268477967054977951e-01 -1.657921059650954987e-01
-1.705839707624956236e-01 -3.745839363161866387e-01 -1.099797400524890056e-01
8.653548717797122647e-01 2.022396687932178638e-01 -5.432079563271576816e-01
5.085952900769213914e-01 1.321874932762898691e-01 -5.392271408311568592e-01
3.556694728573234765e-01 1.452530520879243559e-01 -5.861836963914545118e-01
3.131549768695582880e-01 1.086097565126277892e-01 -5.537571803455747510e-01
-5.121422236027439734e-01 -7.102919028823621028e-01 1.971908836283449429e-01
-6.960683558784560576e-01 -7.552268862625549639e-01 2.092028757892547830e-01
9.301959208736509943e-01 3.204217298812394588e-01 -6.630097724283662286e-01
-2.558081128761489076e-01 -5.856605984757776717e-01 1.104300692664902800e-01
8.316906624956958982e-01 2.930025033151448799e-01 -6.527897110731076813e-01
2.753838118000758173e-01 -9.318530593935195339e-02 -3.338360802683931206e-01
3.491610176951206457e-01 -1.097755807899791353e-01 -2.995660331489452544e-01
2.310145130240166544e-01 9.365545928319080060e-02 -5.541669748503871284e-01
-3.317826049827408141e-01 -6.025839978730475055e-01 1.135422632317476255e-01
8.836700108032446987e-01 2.596108759120945297e-01 -6.041370211448640060e-01
1.574824165367847417e-01 2.530437842429772086e-02 -4.924663477708778880e-01
3.793559706845311963e-01 1.715155269597857524e-01 -6.108525027527000884e-01
-3.928849131110542792e-01 -4.905978363335375958e-01 -2.578348208594595514e-02
-2.791822723284873020e-01 -5.299517885632835101e-01 4.259950506639726547e-02
-2.177096273920301195e-01 -4.551177179799066885e-01 -2.896138881163359130e-02
-4.558275506694464685e-01 -7.037912823770402504e-01 2.017086190761592790e-01
-6.643054881770111830e-01 -7.289236147399459353e-01 1.861886854442601213e-01
6.947595100704752058e-01 1.734720581638347914e-01 -5.466456530990680962e-01
5.691782637585454663e-02 -4.474855714526285166e-01 2.024989444438489439e-02
1.939425954727988788e-01 -1.357287554707374000e-01 -3.029438938603535858e-01
7.016409290154905776e-01 2.779927726639925822e-01 -6.632254237303903954e-01
-2.362731850284548740e-01 -5.231606932008044941e-01 4.396633794075325424e-02
-1.473591175535017284e-01 -4.365090800315000741e-01 -3.516089181190599350e-02
8.915240296886156601e-01 3.033840698092888921e-01 -6.519135391527650647e-01
4.564422969643254224e-01 1.932461268043918490e-01 -6.191590481922376599e-01
9.198063051191953665e-01 3.011376645627045212e-01 -6.434212588696076596e-01
3.176469106723088798e-01 1.380753691238956193e-01 -5.860849974175943444e-01
2.715549297750164959e-01 2.879471590972985939e-02 -4.723869015958852002e-01
-1.845201986697818930e-01 -4.998879724803513835e-01 2.858379073973891030e-02
-3.523642950577521860e-01 -5.051686353724550438e-01 -7.969258088411630778e-04
-3.343079422152771263e-02 -1.398900521837297128e-01 -3.461240492947134095e-01
5.168353395320712806e-01 2.151090511081830969e-01 -6.311302151483458855e-01
-6.608664856515976682e-01 -6.716898882721704656e-01 1.222823200441248565e-01
3.462875751439377092e-01 -8.075062311235020607e-02 -3.329472130414818376e-01
5.111646647033113444e-01 4.704980237110162333e-02 -4.425453241649405234e-01
-4.304597741415280288e-01 -7.649923749102897075e-01 2.761610877804788755e-01
-1.938135054394843348e-01 -6.486317970004272793e-01 1.945941212082536453e-01
-4.849505204639715794e-01 -7.271239986336162087e-01 2.219242413345682008e-01
-5.217092498810809165e-01 -6.359795977065292316e-01 1.112599771136300875e-01
7.919291944796352789e-01 3.653627212912317623e-01 -7.428744532802666889e-01
-3.240194742979037867e-01 -4.293776528451306862e-01 -8.041430789665821033e-02
1.017973205275701370e-01 -2.848342006342878263e-01 -1.539717973569159071e-01
-1.686284831946344709e-01 -6.034620481930591529e-01 1.488900431697396110e-01
-1.591355134716031239e-01 -5.046677765489926415e-01 3.932672148967020914e-02
-1.448532927603717324e-01 -1.876022730486011647e-01 -3.157084084320359030e-01
-2.816242935296006666e-01 -3.382687294258819866e-01 -1.743706397823684695e-01
-3.902558820913171883e-02 -4.009583250924816378e-01 -5.249379660901675598e-02
9.193685086891703051e-01 2.667742673265523501e-01 -6.047089724199763427e-01
-5.040901718277031041e-01 -8.423123034407677956e-01 3.479689843013645256e-01
3.765329650840535947e-01 -1.597649812316382506e-02 -3.997237208142633280e-01
5.571026808420557197e-01 -4.449596617055291692e-02 -3.294948877538481091e-01
8.066788327648567458e-01 3.312620877009742615e-01 -7.012607888854315297e-01
-6.697986738348357116e-01 -5.978260687118582828e-01 3.699154212517959117e-02
3.141215511430236335e-02 -4.127025935866627804e-01 -2.439925588285948160e-02
6.522285735094045522e-01 3.783341426394224438e-01 -7.869398036112225103e-01
1.825406858786496611e-01 -4.618284318324539228e-02 -4.064635593727384255e-01
2.738308353301645015e-01 1.820576810604124587e-02 -4.599502028595673919e-01
-6.536864841381501146e-01 -6.181993475737715960e-01 6.339066713715411916e-02
-5.589633042191838319e-01 -8.456328220258216843e-01 3.401637079562103150e-01
-5.609926963355878204e-02 -3.155024448911111223e-01 -1.525891757606992472e-01
5.799851240688269627e-01 4.798582830396198873e-03 -3.803417161117245149e-01
-1.551855203117769033e-01 -2.581436322920021009e-01 -2.382260939427195134e-01
6.706475660799986471e-01 4.139096282757511736e-01 -8.232344287489730128e-01
4.565954064164073900e-01 -9.250908569770471823e-02 -2.964409823365113383e-01
4.373206460890452507e-01 5.623530753028927603e-02 -4.684676884183921475e-01
-2.321478456867411000e-01 -6.914167189968998262e-01 2.348362372118087127e-01
-5.385352097009994399e-01 -5.501987120350202431e-01 1.084975331680989447e-02
4.870797307640746809e-01 1.245106830053203384e-01 -5.350888385658609803e-01
1.034489309284237178e-02 -4.753288337786718554e-01 4.188446576291550427e-02
-5.045337608507184379e-01 -8.796731520037552876e-01 3.900648888038410478e-01
-5.200375261965760609e-01 -5.568635589521618856e-01 2.227111383316601051e-02
1.741946191407607591e-01 -2.173717807337615937e-01 -2.149078747189118455e-01
4.374425230582709712e-02 -1.577343340470445388e-01 -3.097224272148960122e-01
4.546863057942180375e-01 1.587914043111884888e-01 -5.806212131767817253e-01
-2.899098766030162588e-01 -6.313074155840080470e-01 1.547952244651304154e-01
5.101534054593350742e-01 1.668010905392762755e-01 -5.779860511558342351e-01
3.482445948921958911e-01 6.696286756209167412e-02 -4.993388926245216908e-01
3.194815657530766240e-01 -1.980895495904057002e-01 -2.060882517483648424e-01
-6.925660167145450963e-01 -6.488619761053358026e-01 8.982901695574352363e-02
6.693207323356885619e-01 3.354744166659632265e-01 -7.349417564285140037e-01
-1.899884456274235911e-01 -2.257483078089952133e-01 -2.821367872323955472e-01
-1.420647206444292932e-01 -2.040156293519882758e-01 -2.965866076307108190e-01
5.181477024831482314e-01 1.808187028833125876e-01 -5.921318778758272172e-01
4.963584925373138584e-02 -1.798852555028525868e-01 -2.834681253686371361e-01
6.913290499644049458e-02 -4.117363303580585110e-01 -1.754733400212631078e-02
4.236166467684443493e-01 8.453764906418989589e-02 -5.033135115444780094e-01
7.550657835677857532e-01 4.344210789874886069e-01 -8.286203476468420037e-01
7.054952952469635274e-01 1.325223625772717351e-01 -4.981429822163050969e-01
-4.062077883190711169e-01 -5.074456826759549122e-01 -9.563713517977434977e-03
2.267903431490102539e-01 -1.366767230817299283e-01 -2.949564831702209955e-01
-5.364350738182452893e-01 -7.540085052117090347e-01 2.414418820493964835e-01
-2.329525681535969117e-01 -3.293099038101742204e-01 -1.742382215799198331e-01
-4.696606119174195904e-01 -7.869932232842258291e-01 2.927505618530032994e-01
-4.148730932547866623e-01 -4.909770704527454677e-01 -2.998540705991852365e-02
-4.857333306994307542e-01 -6.862795116395663531e-01 1.756362281736789099e-01
-4.305162474068068845e-01 -5.211123676305405850e-01 7.504705211879513470e-04
1.431179867821935348e-01 -2.928251946211247736e-01 -1.362469406193913823e-01
-6.044626247606585956e-01 -6.646529922451301919e-01 1.262132532500929438e-01
-3.074946146633291133e-01 -3.910869475606062462e-01 -1.201739218344299170e-01
-2.034850581585949114e-01 -6.400901370600734497e-01 1.829119573310770686e-01
7.722052390073087524e-01 1.513319576493273033e-01 -5.053360275810965252e-01
-2.362449469362081778e-01 -4.847544530816406128e-01 6.024742026960606522e-04
2.597461881359712163e-02 -3.107021662969715048e-01 -1.407270903042542876e-01
-6.480263221895287140e-01 -8.119293420150237583e-01 2.833499518207365786e-01
6.436933540501008633e-01 3.639086046349253034e-01 -7.724472364590443396e-01
-2.136918396663481656e-01 -4.443669375860069271e-01 -4.025553790493918010e-02
-1.623619172733140603e-01 -4.830997221595043079e-01 1.429183988049886195e-02
4.235690122288615633e-01 -7.831779130409530221e-02 -3.194208877915678535e-01
5.442247370824666586e-01 1.571453336524825106e-01 -5.599078116984129716e-01
-7.478594658365996795e-01 -7.084520297476452066e-01 1.454769649237989126e-01
-4.611500225092640126e-01 -5.054328437026214260e-01 -2.340617438915540416e-02
-1.800234373996225934e-01 -2.250547174010948115e-01 -2.808216302849261825e-01
3.350213875700081001e-01 -4.634057429558870178e-02 -3.741767518835290018e-01
-6.165791274580132431e-01 -7.111743830068476546e-01 1.761955669008219982e-01
1.788155560774143948e-01 -2.022639829173465131e-01 -2.309951277858250385e-01
-2.788460405934721220e-01 -4.096693286118187061e-01 -9.315729311064152585e-02
9.313360141994625474e-01 3.395407387980123315e-01 -6.843596202120856287e-01
-5.517259960960169130e-01 -9.222952025670533294e-01 4.282578289232655266e-01
-1.792903039651120023e-01 -3.963976281699725934e-01 -8.718021651957902352e-02
-3.258092406373795935e-01 -4.445031055629689587e-01 -6.371094322817447142e-02
6.319576910314512741e-01 3.928142028087533433e-01 -8.075597969966584744e-01
8.535932330529619194e-02 -2.039942634653171827e-01 -2.487208158382197554e-01
-6.589768670092468472e-01 -6.829577349393259889e-01 1.354043150650491578e-01
7.167043747643839779e-01 4.573229971721332054e-01 -8.625600490508993357e-01
8.308748970596597783e-01 2.998210111454795990e-01 -6.606612136847757055e-01
8.830824308815566903e-01 2.206306979946816293e-01 -5.602428283275886489e-01
8.460960656362918053e-01 2.377098192258943476e-01 -5.873176520680311041e-01
3.748932252242561103e-01 2.232833775923415975e-01 -6.702505040999110486e-01
-5.674277175367737486e-02 -4.528918468207154824e-01 2.420738546534718059e-03
2.131724627736103495e-01 5.709138601921360384e-02 -5.166345084889674144e-01
-6.301063779974745982e-01 -6.826234773335386752e-01 1.411062744994337759e-01
-6.481083210234979408e-02 -5.234543458097549173e-01 8.040370286672972322e-02
3.095784486777449773e-01 -1.115894671408865918e-01 -3.058528396466532739e-01
4.909457103644903619e-01 -6.878759748729793358e-03 -3.859047238254004752e-01
4.212013028961405503e-01 -2.138869453812837496e-02 -3.842060044908169880e-01
-7.092303373452929494e-01 -8.167383695064315274e-01 2.758924287866718617e-01
-6.332712678332300671e-01 -6.888553377966589730e-01 1.474770839913587817e-01
4.060529158951460826e-01 9.551955117032122355e-02 -5.194131900595946316e-01
2.550614311313387783e-01 -2.758981340772605484e-01 -1.317890908126483074e-01
8.250325742005385488e-01 1.747272265183432427e-01 -5.206307294029456356e-01
-4.289579875892954863e-01 -8.221903768196417994e-01 3.410675204817573136e-01
5.330998597959872853e-01 9.260465867939850215e-02 -4.893686142650410797e-01
7.176704782342122613e-01 4.526994017715177399e-01 -8.571354688467999194e-01
-1.557007315189936070e-01 -2.060125865960699965e-01 -2.972029754087191500e-01
4.678545383512860978e-01 -7.074273361764162049e-02 -3.186494912423004644e-01
-1.936030592660307748e-01 -5.378553697499185438e-01 6.954541502751686310e-02
-7.274816082978299292e-01 -7.095301157715564466e-01 1.509854577029438594e-01
3.111434945782077244e-01 1.119350678882435196e-01 -5.579358191847949566e-01
-7.347567436135335472e-02 -4.412682477503755973e-01 -1.422861693878364406e-02
-9.912736020541440540e-02 -4.517363445912393471e-01 -7.809252730316228533e-03
-8.007937112071940033e-01 -7.422576997856334957e-01 1.725049812444561237e-01
-4.858142888757222000e-01 -6.564934642980667645e-01 1.419836250680272804e-01
-9.922292466853019008e-03 -4.545119360098156536e-01 1.410944904640594293e-02
-2.081352720299964043e-01 -3.867945948358268438e-01 -1.040983746790791059e-01
8.981309703547455392e-01 2.177018689966880582e-01 -5.537666286039807373e-01
3.288854163494110971e-01 -8.539402365463029387e-02 -3.313681730838080597e-01
7.110501749361415325e-01 2.128426685178821942e-01 -5.876740532257839211e-01
3.595807341198235529e-01 -2.133743643034875792e-01 -1.803841483441290250e-01
2.101245551901756714e-01 -1.208516495123701240e-01 -3.163361732670601500e-01
8.235609769282964399e-02 -3.975197470063150385e-01 -3.081676944368737583e-02
1.181291794619297453e-01 -4.516590996586717505e-02 -4.211754011933742659e-01
4.163370737824001466e-01 1.569229356031710543e-01 -5.865866726810539111e-01
-4.076606490379044434e-01 -5.197828711123542167e-01 4.061979463012664084e-03
8.061708312689994660e-01 1.956473392790995525e-01 -5.482263487704266414e-01
1.968313915486216148e-01 -2.653896541625684891e-01 -1.559174887034431023e-01
-2.523891117617635960e-01 -6.594170222928164016e-01 1.944386299498298554e-01
9.430055848721882183e-01 3.149470107879338565e-01 -6.541301074572567487e-01
-3.477367848819164498e-01 -3.811317551386427249e-01 -1.398897225410750678e-01
2.348860535161976237e-01 8.302316204229188978e-02 -5.413453227200206719e-01
1.844539562188423631e-01 -2.769642866854557517e-02 -4.269362450274191700e-01
-2.746689311094804298e-01 -3.419001369295645021e-01 -1.688052856187255424e-01
8.832091474855775504e-01 3.394911161686779422e-01 -6.944379207373038154e-01
-3.831399407935551782e-01 -6.380239352830481270e-01 1.427478158314331724e-01
-2.050648059466350093e-01 -3.110708873106889372e-01 -1.889619456873990744e-01
9.432722446819016282e-01 2.704752885239473659e-01 -6.038547687133444253e-01
1.233754189247759092e-01 -1.422107712030567378e-02 -4.550147726475614607e-01
3.840855774710484338e-01 2.607856244415925895e-01 -7.106638063112693526e-01
-6.443822565026788851e-01 -8.416738675953506776e-01 3.177059698948854760e-01
-8.274107223641248565e-02 -5.672687638077826833e-01 1.261049679608934881e-01
-5.823235883366535415e-01 -7.077391093416710577e-01 1.795296985242982868e-01
-2.170131588339716255e-01 -2.638438033132275984e-01 -2.448086230449055822e-01
-3.826745689829396113e-01 -4.786816490284535597e-01 -3.708965337090127518e-02
-6.410576319864792483e-01 -8.675245232417154728e-01 3.475976131520027712e-01
3.244918662341595428e-01 -2.026154716147019960e-02 -4.058434553917394938e-01
5.578374821918460902e-02 -4.264045072334595593e-02 -4.371556641797962883e-01
-2.533432237203990800e-01 -5.058384240792215270e-01 2.081083151172489348e-02
-2.357228020771610227e-02 -4.543337891562267417e-01 1.103392651157639702e-02
5.402179361852035844e-02 -2.759805788390039538e-01 -1.740300018860377329e-01
-4.044744135163080845e-01 -7.134228747545767746e-01 2.233986949047521986e-01
6.577305326717890477e-01 1.581920315076755790e-01 -5.371882500748472733e-01
-7.165046023655193830e-01 -8.380866320027053895e-01 2.984679299024124433e-01
3.898122409544451661e-01 -1.241200231890327299e-01 -2.748075852845821010e-01
-6.722092611037526755e-01 -6.756927449321872281e-01 1.244139904417990161e-01
-1.838423163477643785e-01 6.056031747786289748e-02 3.705252898062483813e-01
