7.990574019907964454e-01 1.990825289777408205e-02 3.884152916559441282e-02
4.196373788793812953e-01 -5.033671994145393347e-01 -5.999772326752431661e-01
3.379461436403221608e-01 -4.906149078296332955e-01 -7.448743309904518606e-01
3.220389238217674088e-01 4.500119336931239777e-01 -8.281128843119308636e-01
4.776047641259485443e-01 -4.224319148373569810e-01 -5.024372402158813200e-01
9.253479225692883281e-01 -4.823299671984007109e-01 2.911459271977689944e-01
6.615050055237243765e-01 6.263345869294036083e-02 -2.063839476216245972e-01
8.628204998694817274e-01 2.073880560097250414e-01 1.403593997360259582e-01
5.909570949174087762e-01 1.464480738679125316e-01 -3.357858925256790306e-01
4.258462017335377658e-01 -2.992656808587096026e-02 -6.167894509057533226e-01
9.070414616929864948e-01 -2.889568177320537279e-01 2.475014128942608083e-01
9.496844439919518432e-01 -3.453960311114316895e-01 3.260578018382142007e-01
3.715545838610639362e-01 -7.184793921672766315e-02 -7.101315577096808385e-01
2.296981076296776281e-01 4.230330095121008771e-01 -9.894715157634728087e-01
4.075478759193981171e-01 3.121598732507219753e-01 -6.691418871291157089e-01
8.305216799652215265e-01 -3.713963224227381787e-01 1.173128128539626391e-01
5.121576191956968005e-01 4.840676017243172868e-01 -4.946342976226980048e-01
2.556759414892733062e-01 2.074311264727681237e-01 -9.309866455919523220e-01
4.574590143934460507e-01 7.103639558796739917e-02 -5.669283614939247817e-01
4.408870749283294033e-01 1.604625284499516247e-01 -6.014155454278552471e-01
2.400511999611046610e-01 6.389331232991826703e-02 -9.501387262783158594e-01
3.854243799306347751e-01 -2.210253497991229027e-02 -6.885751075047987779e-01
8.712440517545138041e-01 1.421929582983221529e-01 1.590470682705896754e-01
2.949718841402736436e-01 -4.785191252551493912e-01 -8.214144642892717840e-01
5.714341208741690048e-01 -4.428904214994712762e-01 -3.356697058066986927e-01
3.506387773649511375e-01 3.245244743931406939e-01 -7.702866585479131167e-01
7.667838887688958049e-01 -2.072736912026972023e-01 -4.782457856472519149e-03
3.331472335612596924e-01 4.849890715592452550e-01 -8.105630619070205434e-01
9.143496338085834729e-01 -4.987953049608849221e-01 2.727044962843281350e-01
5.265230124091289099e-01 -1.699852117771261384e-01 -4.309244245680470820e-01
6.341132517216914177e-01 -3.859539914950953499e-01 -2.284079796153815345e-01
7.677936253788671950e-01 -1.650529312480441060e-02 -1.418959335721368259e-02
6.343487016559624658e-01 2.607526598737653911e-01 -2.659229120750172815e-01
9.083651823470804132e-01 1.566893109877516566e-01 2.236993274023028333e-01
8.132591854216149052e-01 2.033890599873224292e-01 5.313999212018045981e-02
2.711688540259215019e-01 1.175219836694551545e-01 -8.983751410145774940e-01
2.365178318320739215e-01 2.454779124253640143e-01 -9.670238018411660974e-01
4.631593430587224725e-01 1.689059661454426764e-01 -5.626099943715405782e-01
5.055108029633806899e-01 4.931949568448075472e-02 -4.808643249755686910e-01
2.690306307281513098e-01 -7.469138538632652535e-02 -8.908745390442054379e-01
4.233170675652420667e-01 -6.685721520769297155e-02 -6.190862194570344590e-01
7.675868770940346142e-01 -1.169715525909491988e-02 -1.483641840219970635e-02
4.008856289789597405e-01 4.810386704904380251e-01 -6.908028437254383203e-01
6.339214077943908787e-01 -4.245108782895236632e-01 -2.264850757028655237e-01
3.570458144285377222e-01 -5.727755957489958361e-01 -7.063529414964982989e-01
3.317629008828956727e-01 1.796199834075813406e-01 -7.950954068759065185e-01
9.406300671013232417e-01 3.986974075355658176e-01 2.664385109842692945e-01
5.381071978185211213e-01 -2.978811457497776427e-01 -4.029821197007157907e-01
9.464080711038949101e-01 5.292478954032716482e-02 2.969142777490526575e-01
7.157497253529586656e-01 3.396383028233500301e-02 -1.089843181957377144e-01
7.612987269947412150e-01 -5.562156644802508654e-02 -2.335600365592834307e-02
5.892050289595913704e-01 -3.303175395235414813e-01 -3.109144399369911937e-01
8.520640048516692211e-01 -3.985797505551076370e-01 1.569199083332772082e-01
8.235323552395806823e-01 -1.740064438591195917e-01 9.340248625540786831e-02
9.045777794830953678e-01 -4.698725200739889973e-01 2.537650962595714432e-01
3.748847639920394048e-01 -5.316634122792974759e-01 -6.772863259646773049e-01
4.377647931778676504e-01 -3.570402286837218719e-01 -5.765726221689373432e-01
3.384990474031641106e-01 -1.899944343843047445e-01 -7.615305789519082325e-01
5.664120310319341600e-01 5.381998129545244591e-01 -4.020740287896584220e-01
7.716874952617988059e-01 -1.844944203071629263e-01 2.534212862475639615e-03
3.595651971823382032e-01 2.172090198441526451e-03 -7.356289553405124249e-01
4.437059171868714125e-01 9.221183341271844969e-03 -5.875709755595136530e-01
5.694739846632980163e-01 -8.712908931498693221e-02 -3.599944668811980164e-01
7.804572685677135802e-01 4.337386969203688714e-01 -1.825136753438343779e-02
4.774278135522340150e-01 -3.011804073163451001e-01 -5.098610786323597432e-01
5.772177711811961043e-01 2.286535695432041077e-02 -3.527814377341028651e-01
2.716641009367501414e-01 -4.819458226454234606e-02 -8.877817012597462032e-01
8.083434368936431857e-01 1.468081773936473766e-01 4.778441560993679227e-02
4.190425212660546794e-01 -5.760720340978010140e-02 -6.271714447709229034e-01
4.667141205509415802e-01 4.567178483839069436e-01 -5.732180087360045917e-01
4.986629885626729930e-01 -2.137399544273102248e-01 -4.775188450747075430e-01
5.960393149066983698e-01 4.577785849515096372e-01 -3.450780475356199362e-01
7.634234662925374337e-01 1.594641509704537441e-01 -3.222189944145690405e-02
3.533572562487891644e-01 -4.882827254402916650e-01 -7.178172712918369225e-01
7.151102648401856943e-01 -1.443126714933571919e-01 -9.965647804933532028e-02
4.544175758662785114e-01 1.484087202071265044e-01 -5.768331776840616154e-01
2.545089827681823458e-01 1.703481169275064891e-02 -9.218787613648680157e-01
3.166082053495050119e-01 1.407567884165679961e-01 -8.195573996660949767e-01
8.790851614155311688e-01 -2.393693850955977420e-01 1.952624361880640202e-01
2.795469905876446504e-01 -2.680110127058245584e-01 -8.609792711885430050e-01
4.040340913034897175e-01 -6.091708704201546920e-02 -6.534606026668517975e-01
5.448072550456732888e-01 4.530121969599222309e-01 -4.352005783124430760e-01
2.763924681874481148e-01 1.617395916865770333e-01 -8.917511906735091642e-01
9.344350971782576787e-01 -2.725986972388605989e-01 2.948797192589947547e-01
7.983233390768076365e-01 -3.552343113321778101e-01 5.954895275683937811e-02
6.648215040641922702e-01 -4.227611135935457343e-01 -1.720626020532791678e-01
4.893607848213168965e-01 -4.101170571166176115e-01 -4.824153127812155217e-01
3.665253499582557528e-01 1.068666385281186182e-01 -7.294878479722780584e-01
5.734232187198677888e-01 4.512601466722421795e-01 -3.846032084705366394e-01
2.392422713451865801e-01 -2.097947353647226509e-01 -9.355138803766042122e-01
5.099959002478378078e-01 3.353342278021992917e-01 -4.897253276738305905e-01
8.632670948377432207e-01 2.193345031215062080e-01 1.404467651570526221e-01
5.935840581577825903e-01 3.061245508918272740e-01 -3.405157414260022719e-01
5.142112719931020148e-01 5.008422852530936692e-03 -4.629129013548685112e-01
7.072871879815525453e-01 5.033053908581226060e-02 -1.248769144720280333e-01
7.267790558829024805e-01 -5.494806664471271196e-01 -5.530242350878872976e-02
8.579481422289644277e-01 1.220546138706570249e-01 1.367667735249572525e-01
9.145342643804355021e-01 1.968823558450225608e-01 2.322276605196507693e-01
8.467731184723620297e-01 -4.054130850514555684e-01 1.479846035519585268e-01
3.406547706142549203e-01 3.146284252304375473e-01 -7.873236266074534750e-01
3.153828749566222056e-01 -5.774424616685135403e-01 -7.795960141789582964e-01
7.580565537454613256e-01 -3.555536181553794334e-02 -3.025393122414627226e-02
3.063502873061841880e-01 -3.600305668092435019e-01 -8.082861264042717764e-01
3.401471239470940655e-01 1.633355881452523348e-02 -7.707239203859673760e-01
3.396339411303928024e-01 1.793063297982264714e-01 -7.811880810963300892e-01
5.151859183261418007e-01 6.920684346167334244e-02 -4.649584205001883741e-01
4.777644118332526335e-01 -4.144140789720686113e-01 -5.026257912511712389e-01
5.052064018881124996e-01 -9.705703407078956901e-02 -4.728162373674102414e-01
4.418199300116519845e-01 -4.101567635597879735e-01 -5.663017151977082220e-01
5.045909157362507003e-01 2.046970034159549881e-02 -4.807954344890416620e-01
2.623751717997925836e-01 2.798076772650995858e-01 -9.234104486095372488e-01
3.966494886360054095e-01 1.345789454764008131e-01 -6.779573440927324501e-01
3.888250756849399026e-01 1.480672185062264501e-01 -6.925551060528810643e-01
4.431528811668841161e-01 -1.881251782113405047e-01 -5.769721558073260814e-01
7.005148781447924078e-01 -4.413124312941477667e-01 -1.079914064856436068e-01
8.274130938479098418e-01 -1.603625988792272139e-01 9.945005195457701230e-02
6.016459575639732105e-01 4.230057084333795347e-01 -3.331452995601330569e-01
9.255967682441480493e-01 5.250983825916512027e-01 2.324977173279818010e-01
3.727507170726668817e-01 -1.311100055136819598e-01 -7.045450911804725935e-01
6.133186269926513834e-01 -1.681269561242126065e-01 -2.778772706754696897e-01
5.524660869944140185e-01 -3.389587372980810698e-01 -3.752357183490229176e-01
7.711331495237651046e-01 5.353387025259226384e-01 -4.066334875163569312e-02
5.742451481276341640e-01 3.688657871093828922e-01 -3.783203006556777881e-01
8.885849553468285755e-01 2.106471194382560086e-01 1.856311998653156770e-01
8.869924175093940599e-01 -1.677127936050138704e-03 1.952742327982810999e-01
-7.886475965584340830e-01 -2.386415837299305509e-01 -3.699443855919265500e-01
6.131351530857055004e-02 1.267779075194592209e-01 -8.825388599906036635e-01
-6.939876848539809906e-01 -5.793415678487350284e-01 -3.970853815127643460e-01
-7.461649012221445165e-01 -4.235907085379146397e-01 -3.796089318236409715e-01
-5.573784541561016548e-01 -2.359800935808385181e-01 -5.018202193959168111e-01
-8.911523738619092638e-01 2.085546847184645627e-02 -3.319612361564605041e-01
-9.083990684153386841e-01 -3.690175883500593779e-01 -2.915302485127880261e-01
-6.202167562538106749e-01 3.504486126320613959e-01 -5.120901239650441639e-01
-1.694479904726527153e-01 4.515398665568354925e-02 -7.447520645454003274e-01
-6.915979720076294024e-01 2.924390416609141119e-01 -4.668963562470075934e-01
1.154712056721621943e-01 -5.757309122831804071e-01 -8.582125063510801510e-01
7.838325321889366704e-02 -4.214232295711197174e-01 -8.492134074538351118e-01
-1.709183138333159602e-01 -7.389712030981721025e-02 -7.345673226019791002e-01
-4.408549220712104089e-01 1.493592945795328975e-01 -5.984158267882131454e-01
4.512201606033991452e-02 -9.137190429505562261e-02 -8.561919824093461306e-01
-1.600106809999758961e-01 3.153507170218200484e-01 -7.713402451699201690e-01
-2.560096509904018491e-01 4.208622069467427562e-01 -7.249703660128784533e-01
-8.485612319058841724e-01 -1.421540317757220839e-01 -3.434101786443251036e-01
1.652762407144775514e-02 3.332597274093737627e-01 -8.732537550006613802e-01
-4.747413994623491673e-01 1.427059935877088570e-01 -5.786010695473871035e-01
-7.381326032555662886e-01 -5.334869064221470225e-01 -3.755530764667884824e-01
-3.064207985976555304e-01 2.708940216495621667e-01 -6.844949369226932534e-01
-1.430545713621872161e-01 2.075193845042581364e-01 -7.725270507673419607e-01
-8.244076487113356777e-02 -1.794514683577827785e-01 -7.766517180885629257e-01
-5.835977167214647654e-01 -3.347004321005817573e-01 -4.791416662725273001e-01
-4.014839793683771391e-02 -7.062308225159082131e-02 -8.092747239123571079e-01
-9.100606527121009037e-01 5.231417212040045950e-01 -3.606348207526711702e-01
-1.378521183884762746e-01 3.887228528212079981e-01 -7.897166583357417835e-01
-7.758215628379132589e-01 3.800693524122384370e-01 -4.258264780025021179e-01
-5.492535905607105473e-01 2.477461964654349147e-01 -5.444271048803082103e-01
-4.081321168434610680e-01 2.513043722025442017e-01 -6.250501968226849225e-01
1.170806988913796962e-02 -1.341066553962245167e-01 -8.338132053675261224e-01
-8.052398406649845519e-01 -5.153995423195172343e-01 -3.387675611772269502e-01
1.308145028800854481e-01 1.389093614486602568e-01 -9.230599131546644021e-01
-4.071970256530435539e-01 1.601618438474233796e-01 -6.184262382172951433e-01
-5.136963697677734419e-01 4.638046628659632242e-01 -5.816351263462691268e-01
-6.534204023833127817e-01 8.823079100267108843e-02 -4.725977073384182714e-01
-1.523840887622683327e-01 -3.774158007992032826e-01 -7.212876096436265927e-01
-5.716286748386879557e-01 -3.790681877745000206e-01 -4.824722512479439618e-01
-5.121894850508635910e-01 4.100682965827355531e-02 -5.492957970221762354e-01
-9.237749920578549601e-01 3.072092496296703334e-01 -3.358723485465036629e-01
-7.433289189743704783e-01 -2.123329799791021655e-01 -3.978110529339907719e-01
-5.655116159638166051e-01 4.515418820559903290e-01 -5.511726622976180767e-01
-2.755709444340810887e-01 1.855844372801559727e-01 -6.953601341201475217e-01
-6.212111715958218428e-01 3.442531860373177488e-01 -5.110375279590639863e-01
-1.522770819602324577e-01 3.444888739373333508e-01 -7.780310308871771774e-01
-1.626369166278650649e-02 -3.857397226487945807e-01 -7.981305149251983755e-01
-7.489875776755090531e-01 -3.707167416632629608e-01 -3.821534742821854902e-01
-8.389172285588142319e-01 3.554971959763508216e-01 -3.879753034791931787e-01
-3.986236870735702237e-02 -2.949903131119526734e-01 -7.918207042779938920e-01
-5.128352937439988740e-02 4.742713877688369828e-01 -8.457192520137526426e-01
9.537698322336538026e-02 9.450811489122577791e-02 -8.993982191727710740e-01
2.137798740073946491e-01 8.341439549370066597e-02 -9.659366603837895582e-01
-6.173720596363301005e-02 8.439535976550359420e-02 -8.091554529447523292e-01
-9.419804196999818080e-01 3.079520234446276317e-01 -3.255658996291773688e-01
-5.105181867905420751e-02 -4.574171336527528831e-01 -7.726968657098546300e-01
1.187493966595625783e-01 4.031958465401866420e-01 -9.369422118439018066e-01
-4.635177124723052072e-02 1.981731819710285947e-01 -8.268483411644328429e-01
-5.249922576367042071e-01 -2.980748036958659197e-01 -5.153828768739020516e-01
-4.279378747746605954e-02 3.460291455176950914e-01 -8.404833356206458106e-01
-4.612764832713017737e-01 -3.195356888294856867e-01 -5.499726719287074683e-01
-2.178200600938607831e-02 -2.340581228778532419e-01 -8.068985446860115207e-01
1.087634967003067582e-01 9.415220886963850122e-02 -9.069915251458124938e-01
1.758197958857940224e-01 -2.499957706996636664e-01 -9.181464178950164978e-01
1.286828302859156226e-01 -4.240203894926501960e-01 -8.776461935048240903e-01
3.372853534447260715e-02 4.777025984840780337e-01 -8.943879937342473774e-01
8.881483679554309438e-03 -1.353790130633582278e-01 -8.321040616599890694e-01
-6.742667015927482355e-02 -3.329453411644321403e-01 -7.731475591652871016e-01
-6.678792556136315950e-01 -2.205591191277564422e-01 -4.401203873113104792e-01
-2.536809477560671988e-01 -2.735422257597862061e-01 -6.717729142610164850e-01
-5.791135560722400211e-01 -4.696032779167984561e-01 -4.711023028871526575e-01
3.563620107782276836e-02 4.360925474827611059e-01 -8.922069345281867792e-01
-3.424535098209207651e-01 -6.824244986205336982e-02 -6.373523709301160967e-01
-3.602596116717544095e-01 1.993482454798375936e-01 -6.482256282700799010e-01
5.925139822022568170e-02 -2.740731769424357700e-01 -8.498908300593115417e-01
-4.640939258499481856e-01 2.240764728208776979e-01 -5.910519679475738641e-01
-7.614772671759710912e-03 -1.298386224793975086e-01 -8.231473825925017529e-01
-3.214550239089817851e-01 2.143252890680801270e-01 -6.714939427127694094e-01
-1.452065793373561176e-01 -2.621547087314233249e-01 -7.344239999686600351e-01
1.968510783979452450e-01 -1.592550814450748031e-02 -9.484987374580247099e-01
-4.131232722287502268e-01 3.774810951973691098e-01 -6.321157588333645716e-01
-3.590148170364402813e-01 3.270543190555155050e-02 -6.358498607843544592e-01
1.190135861113848226e-01 4.741704939377598405e-01 -9.426654072333656709e-01
1.245565300252278740e-01 -3.531549226839415523e-01 -8.808612091571618175e-01
-5.032436991289120920e-01 -2.967396032830499461e-04 -5.511457663620705771e-01
-1.799557593161957847e-01 -2.627816581695775477e-01 -7.145912632147889409e-01
-4.891876006465123439e-01 -5.633585676226375849e-01 -5.149377478690506660e-01
-6.715965398394058150e-01 -1.797626700527636401e-01 -4.412073065722188492e-01
-3.353732699144638119e-01 -5.405515785608742130e-01 -6.042985541981884534e-01
-5.469302208715690616e-01 -4.669069400670484149e-01 -4.896367292122260628e-01
-6.464636630959577634e-02 1.366162061418187135e-01 -8.115994764228224856e-01
1.809857636134588610e-01 -6.214240407620419404e-01 -8.919237235012321685e-01
4.048711433776942814e-02 1.445453677128961945e-01 -8.720769745372518589e-01
-1.099161808182445577e-01 4.567014625720650645e-01 -8.109587755772009743e-01
-7.872572840095766189e-01 -5.861478559278132661e-01 -3.434504306361350068e-01
-8.581788734222717263e-01 -3.736891878820218227e-01 -3.197549597010177491e-01
-7.890702498885248106e-01 1.712661216904711736e-01 -4.018888860123941975e-01
1.497206090480202555e-02 2.935957567078472108e-01 -8.692538019750699618e-01
1.127814974565811423e-01 -5.981451786995162917e-02 -8.971899086774286491e-01
-8.720937782086304324e-01 -6.215151235737741142e-02 -3.362941936064229864e-01
1.657769581921470642e-02 -9.692393277811410524e-02 -8.395051081937670023e-01
-1.829647207264317454e-01 -3.635949627433509024e-01 -7.049625346069078313e-01
1.074755839156709691e-01 1.350701972144282836e-01 -9.094710846407683125e-01
-3.724682550983573481e-01 4.086275876653892025e-01 -6.577071579416657876e-01
-7.089205302094360173e-01 2.528905120733824785e-01 -4.539289533513922725e-01
-6.775507521062406058e-01 4.182075255894323607e-01 -4.847688504821789923e-01
-2.027451719499513139e-01 6.028351094643924490e-02 -7.269831505955334228e-01
-6.800773153412298377e-01 2.957570420876903805e-01 -4.737158546141717053e-01
7.964028103619846810e-03 -5.795163741447501016e-01 -7.967089627579581057e-01
-8.013170056875329461e-02 3.016522507311585402e-02 -7.944250018846006345e-01
-6.150005643557652363e-02 7.810867158030482260e-02 -8.087968495597254170e-01
-8.142218174972661870e-01 1.535163928741880013e-01 -3.861758453118563361e-01
-3.531993837755547094e-01 5.040478355460055182e-01 -6.761695764962127875e-01
-5.515307680969567805e-01 -4.907125620694789969e-01 -4.851483620751489978e-01
-6.985910530997513357e-01 4.082545607513288211e-02 -4.431588423036383895e-01
-6.915737870288690692e-01 -2.898887867887112724e-01 -4.211869181144980989e-01
-1.375713561355341313e-02 -6.088733948674801555e-01 -7.820375489825525106e-01
-9.335263028708353783e-01 -1.741010863617723503e-01 -2.925291849754393936e-01
1.883196702560245017e-01 -3.265821283732179281e-01 -9.192494783728684116e-01
4.932546404127054196e-02 -7.117882316328409675e-02 -8.601706223572862520e-01
-7.891049847063256184e-01 1.381864229958041645e-01 -3.992717594216756427e-01
-7.873577894780814379e-01 -2.773973276183407943e-01 -3.676356796391650472e-01
1.915406156919471359e-01 2.386660188844469122e-01 -9.654653819900760325e-01
4.063681650898939152e-02 2.974622259049379269e-01 -8.841689268838661686e-01
-8.963363267198297679e-01 3.184697096357613222e-01 -3.523779624501924279e-01
-5.187914441982002245e-01 2.566773070745526682e-03 -5.425189135956548503e-01
2.289564077007461840e-01 -4.799936507568097199e-01 -9.303393471511650636e-01
-4.187086985880192173e-03 3.308456653748657605e-01 -8.612708447498985675e-01
-2.898858964487588952e-01 -2.816278584500215287e-01 -6.505257340153438594e-01
1.363504490254254797e-01 -5.236521554596628159e-01 -8.741886603520589993e-01
-8.303273428176793924e-01 1.573522845361836897e-01 -3.773077846164778482e-01
8.741585114052696781e-02 -4.928751277559361710e-01 -8.487456148559384683e-01
3.478113987935945589e-02 7.642254274398986580e-02 -8.634795647306325872e-01
1.360114676023256586e-01 -9.651054359335979604e-02 -9.075339687127851329e-01
-5.140721279735644966e-01 -1.614366638952367816e-01 -5.323285099508434648e-01
-6.088680325679444172e-01 -5.390714334437941568e-01 -4.487078933437010919e-01
-4.184306433937235448e-01 -1.744729952969412135e-01 -5.857558274455358927e-01
-6.322824878333636878e-02 1.812049938675482363e-01 -8.159078651789901659e-01
-7.716920617537067484e-01 1.293585132611947131e-01 -4.084921885594772761e-01
-3.082110923331206620e-01 4.427477800408903263e-01 -6.969692920666218372e-01
-3.784870151337577093e-01 -3.415886187913297345e-01 -5.953750747788016939e-01
-3.741568976285166714e-01 -2.180864592940110480e-01 -6.075374511863494975e-01
-1.685881208003947029e-01 3.317992439921831904e-01 -7.677484159596171809e-01
-2.717730799363088368e-01 -1.004666188831820767e-01 -6.750621937175389498e-01
1.326696150041346278e-01 2.511527962641982303e-01 -9.329291995256054904e-01
-5.478477254026042909e-01 -2.891408637796739067e-01 -5.030722066713523288e-01
2.030158711962733176e-01 3.006974407624698337e-02 -9.556199507259995896e-01
-6.363796605667991768e-01 2.073367103246472054e-01 -4.916513515288424840e-01
-6.402945744916322957e-01 -5.346215985220524880e-01 -4.311654299734379303e-01
-2.188092190770342393e-01 -5.807480048972250841e-02 -7.085442618917077162e-01
-2.337057543277277494e-01 4.197860305368742440e-01 -7.375839898100466918e-01
-8.809443989102921924e-02 -1.669609458985393813e-01 -7.744136810939216131e-01
-3.154308430687116083e-01 -5.874013397123108993e-01 -6.119736891403577683e-01
1.042057901241185136e-01 -4.404501582868692311e-01 -8.624208174436325258e-01
-3.651331050159105085e-01 -5.693381330484001412e-02 -6.253282854333839236e-01
-1.450821812085308256e-02 4.455449055707703665e-01 -8.644007397726030106e-01
-8.182254838305705880e-01 -2.524213743601065874e-01 -3.520230505197822213e-01
1.568852440341777232e-01 -3.155435963290506018e-01 -9.022198575059118264e-01
-7.889831543025080940e-01 -3.916926221476106917e-01 -3.577360858185157366e-01
-4.549613664376636613e-01 -1.860396503596591644e-01 -5.640498534855005186e-01
-3.126750148579636179e-01 -3.537285939588773465e-01 -6.318901586725957920e-01
-8.109137419185489248e-01 -2.976920488216687755e-01 -3.526312317984984235e-01
-4.957039799366422250e-01 -2.402099691381975044e-01 -5.366007993142972721e-01
-6.504772147288039319e-01 -7.009796037616729605e-03 -4.667952330770381852e-01
-3.873579103326613149e-01 6.881462485653079032e-03 -6.176858377745411133e-01
-1.893065570840289924e-01 -4.626982494998844730e-01 -6.935705905421940543e-01
-5.442758584460019033e-01 1.064030330894252946e-01 -5.361630623666429063e-01
-9.308918501737761808e-01 -5.043532450822857394e-01 -2.680983059210904074e-01
-8.898777849592730549e-01 -2.492245364206654157e-01 -3.114807514870873706e-01
-1.283805976867826992e-01 -3.722111162730862843e-01 -7.353620122949952043e-01
1.334041828725979761e-01 3.618110193200089753e-01 -9.420360665651320575e-01
-1.386852868678948025e-01 3.867325020299544613e-01 -7.890860379644175637e-01
-7.832414808845366005e-01 3.492672515158239815e-02 -3.945022441213731912e-01
1.615632005926186110e-01 2.087695769755869568e-01 -9.460511395378957689e-01
2.248814417556291856e-01 -4.283171476281865120e-01 -9.320769098679092535e-01
-4.162723595965348022e-01 2.029001705008412829e-02 -6.022769873251552220e-01
1.494369970545647852e-01 6.197561545106293479e-02 -9.276214461265432920e-01
-5.208290710740760554e-01 -5.057962835230763732e-01 -5.014432031845966753e-01
-3.897088038922766340e-01 -5.246049972985600274e-01 -5.746161744072809663e-01
-2.375326256829790594e-02 -5.085135979575629017e-01 -7.842265722035340891e-01
-4.324465432195966907e-01 -4.796621619536922676e-01 -5.538134141310342429e-01
-7.788647063104686685e-02 -4.961151918562419216e-01 -7.543807856634238140e-01
-3.076989121022709051e-01 4.067920772673823127e-01 -6.944377187897037285e-01
-2.367236173967840474e-01 2.516489274515381833e-02 -7.048809944933589478e-01
-8.447724671750682646e-01 -2.768079476632693825e-01 -3.349944557935606304e-01
-8.031046646018036306e-01 3.608996764488723308e-01 -4.087884143378680002e-01
-4.582213309187365691e-01 -7.031627976445549433e-02 -5.712802462646855428e-01
-6.487877412154683388e-01 -2.863303133266692849e-02 -4.660592764843104474e-01
-1.416993545007597666e-01 4.687627275434761431e-01 -7.938109076618162785e-01
-5.298739312145686053e-01 4.020161924887103583e-02 -5.391644102806132377e-01
-2.781824928209459813e-01 -4.238786675763802081e-01 -6.460195049643689957e-01
1.003276581392509442e-01 4.249586092123638914e-01 -9.281630593043024291e-01
-2.196410280765924983e-01 5.063314846860137441e-01 -7.523867375838908522e-01
-8.401618129297666604e-01 -2.379475759488674513e-01 -3.406706456894073587e-01
1.972995446259287189e-01 3.917505528789113622e-01 -9.807639621233277261e-01
-8.162328414451489600e-01 -2.385533411554955074e-01 -3.542463978182990303e-01
-2.058372809171871709e-01 2.119312476868220538e-02 -7.221534432926873803e-01
-6.848642781473677221e-01 -3.386671054105305778e-01 -4.211768210847570693e-01
2.024224075951784885e-01 -7.923047492769534628e-02 -9.467000453422657058e-01
-1.149048419593994841e-01 2.856071767340633283e-01 -7.946846372615636866e-01
-8.124004710079109348e-02 1.829057790481030399e-01 -8.057868750251204748e-01
-5.048302101130642816e-01 -9.766917651918129162e-02 -5.425970415948879744e-01
7.432159766116608769e-04 -5.578932106810040592e-01 -7.942957950104244658e-01
-4.909900927223546097e-01 1.187082213212048432e-01 -5.674660568576925801e-01
-9.366774252035706128e-02 2.153034307914251100e-01 -8.012552995778722265e-01
4.562090113832372590e-02 2.567685940579162440e-01 -8.838112993237233761e-01
-7.337017342423226562e-01 -2.286933940346113081e-01 -4.020074446036311366e-01
-6.592364931762346725e-01 3.960277332419240293e-01 -4.934540680816509317e-01
-6.744094494450597610e-01 3.753165539294276987e-01 -4.831895539355135494e-01
-7.027688900451470877e-01 -1.079865503310081120e-06 -4.375746860317126785e-01
-4.333436835840651091e-01 -4.397702785137752590e-01 -5.564348816926386609e-01
-4.694689650421712823e-01 -5.876688057106247420e-01 -5.242552312082702226e-01
-7.605230298578745662e-01 -5.921262172777910227e-01 -3.582014494963631779e-01
-2.395519855473459137e-01 2.051573548497425681e-01 -7.174033845298273260e-01
-3.497271647920824345e-02 3.710151126582326708e-01 -8.468978995712699298e-01
-1.668396886477268790e-02 -1.029120001111087646e-01 -8.200983040496242493e-01
-3.700532096910851276e-01 -2.058848370828096908e-01 -6.108318221949231575e-01
-6.694005406847737261e-01 2.980696647532400378e-01 -4.799759712466358241e-01
-7.034202118023034078e-01 -5.128109438981130058e-02 -4.331774701599191979e-01
-6.124944600869856176e-02 1.270636719027653516e-01 -8.127833757971431039e-01
-6.647666225875178414e-01 -5.323562593465492876e-01 -4.174107982016314611e-01
-3.613482842705489917e-01 -1.695524524836944658e-01 -6.186404826878497687e-01
1.797167973428491494e-01 1.603345307594776781e-01 -9.525833788445122741e-01
-7.941233237096363418e-01 -4.108545398048481512e-01 -3.533051136265213943e-01
2.024406735711915262e-01 -1.614750321040227810e-01 -9.402527677478328405e-01
-8.829399720253612305e-01 -2.288000890134093412e-01 -3.170342949077316064e-01
-7.614540355806415084e-01 -4.391495543337534113e-01 -3.696828256517648015e-01
-6.430710526643831360e-01 -2.821427127136133528e-01 -4.494088500383602858e-01
-1.096308901294766602e-01 -5.972888142347219237e-02 -7.705721285893107897e-01
-2.968351965600835030e-01 1.380385938947797375e-01 -6.795207009667884046e-01
-9.929743872525183257e-02 2.073344187485723078e-01 -7.974244728703230312e-01
-7.099105849117890443e-01 -4.160707442634123954e-01 -4.008398030494386699e-01
-6.734239559384460616e-01 -3.995177570506063258e-01 -4.229121899863592104e-01
-5.932291830675271438e-01 -2.547966474642367474e-01 -4.799321343447550681e-01
-3.956288576073461183e-01 2.415479191765685686e-03 -6.126263366457588289e-01
-7.055668116418861713e-02 -5.303752384139951565e-02 -7.933433692412742433e-01
-8.346507477796381025e-01 4.097370542629945045e-01 -3.946631137622543251e-01
-2.705674975374253166e-02 -5.936280170595533701e-01 -7.756628081165821698e-01
-8.839799545096349576e-01 1.774367970883563850e-01 -3.483391102637221626e-01
-3.469066752296538492e-01 -9.426009474374287544e-02 -6.327742280845251033e-01
-1.368941137509071815e-01 -2.216853838655861442e-01 -7.423340482328650847e-01
2.026965696847739251e-01 2.577479345343523104e-02 -9.551009341432059596e-01
-5.378306800556975631e-01 3.732406687208047469e-01 -5.607840043798626439e-01
-3.613885409689848172e-01 -1.284031995403346442e-02 -6.309222843572004358e-01
-8.186064468102398628e-01 3.854384388294688768e-01 -4.018896262013684217e-01
1.088366475915501785e-01 4.420377461007966580e-01 -9.343484427311733453e-01
-8.340162641930993770e-01 5.538375092904164465e-02 -3.672012328564271400e-01
-2.808819924831680859e-01 1.988030805517794763e-01 -6.933743331439966573e-01
-2.348764536303311057e-01 -5.032733633275098262e-01 -6.644407208364676576e-01
2.319489831520288592e-01 -5.554174210971231096e-01 -9.261209670014081130e-01
-7.067993100430960407e-01 2.658059682195876294e-01 -4.561507085169629883e-01
1.453866273551995825e-01 1.510790941960334366e-01 -9.323117027313984062e-01
-2.466300126409657831e-02 1.676590856061822010e-01 -8.368003530176384430e-01
-3.413164606925699340e-01 3.460002759000186390e-01 -6.705252230064366881e-01
-6.994904663392129684e-01 1.725285772224287306e-01 -4.529878491713204558e-01
-3.233419013806889675e-01 1.789493291518249873e-01 -6.676420507715529196e-01
-6.801534500176660281e-01 -2.165063253480652428e-01 -4.334506224259516705e-01
1.834744526419902488e-01 -4.856997408934156379e-02 -9.383199381099855962e-01
-7.894115007938843354e-01 2.347666056597529083e-01 -4.066805339913464601e-01
-3.206427851518695027e-01 -3.674006687078514716e-02 -6.522432233424896308e-01
-1.210145694380858755e-01 2.522000589488688771e-01 -7.885831688905849957e-01
4.018234140244891783e-02 4.066777045349726505e-01 -8.924855629383746658e-01
-1.341980292444426848e-01 2.400815798125497946e-01 -7.801260024813755356e-01
-7.152832353752736072e-01 4.349114095904441646e-01 -4.645984324350180272e-01
-7.771589338994876472e-01 -1.164403038832739351e-01 -3.860801444805290195e-01
1.722823847687314225e-01 2.564422902887356082e-01 -9.558969837665304281e-01
-5.302086074504206437e-01 4.192737895279741167e-01 -5.687378540315748410e-01
-8.057962035701107806e-02 2.914536651683937718e-01 -8.146858324096332149e-01
-6.967214896474288599e-01 4.176814435964382177e-01 -4.738132003660149305e-01
1.018829703631214320e-02 3.000326783028084421e-01 -8.670357089341792500e-01
-1.055257597895960242e-01 -3.958493714841648803e-01 -7.465177707036277921e-01
-9.380261807852079414e-01 4.991397383064123394e-01 -3.428288130449984039e-01
-9.306714016469307404e-01 -1.931975252674953403e-01 -2.926551322276817468e-01
-1.047841691690397925e-01 4.146282292393039248e-01 -8.105770427550894608e-01
-2.037609472403793254e-01 -2.338027581015409417e-01 -7.033137852760475983e-01
1.877702024601924854e-02 3.872649089761914798e-01 -8.787747661341152039e-01
-3.324911331736423170e-01 -3.253250312120706950e-02 -6.458280548543682276e-01
-9.405717221948327600e-01 -5.769888139348301470e-01 -2.568841329875672930e-01
-3.838098077193659030e-01 -4.936003373940832661e-01 -5.804090324337916051e-01
-3.433491921046917805e-01 3.950903064142986532e-01 -6.732223923486395645e-01
-1.061819019356988608e-01 4.914386124655345522e-01 -8.158122776924219277e-01
-8.156020191835162692e-01 2.284100791679094522e-01 -3.912705659184197993e-01
-3.241629445076712468e-01 3.582612831701451617e-01 -6.812538251368726039e-01
-1.060504925005411464e-02 3.410823947396234290e-01 -8.584207181018436161e-01
-1.201672742832926716e-01 -1.624690736848591333e-02 -7.679876389283397664e-01
-7.734942053632204439e-01 -5.243466098105408792e-03 -3.968975105401328363e-01
-8.965288255546114415e-01 -4.935425304335242652e-02 -3.233875723536832614e-01
-2.562291578494761968e-01 -4.988087520296207722e-01 -6.526346859215573781e-01
1.177214101026025778e-01 -3.835639305471292837e-01 -8.745821636778007280e-01
-4.086212506324643501e-01 -1.250747485821033789e-01 -5.952191918338728405e-01
-8.855537417993177840e-01 2.245805464939729656e-01 -3.511447490150620965e-01
-5.866284343143209901e-01 5.115535669743135339e-01 -5.438623668960389512e-01
2.150090891959546002e-01 1.184576876993626154e-01 -9.693880096146025860e-01
-7.035665622319796642e-01 -1.873550832149609435e-01 -4.224098941869374180e-01
-5.869481502128168771e-01 3.033910042515837180e-01 -5.273358404594840065e-01
-5.542172541897877336e-01 -1.343603750262601926e-01 -5.115989389266081266e-01
1.112624040649335261e-01 -4.791605334744390987e-01 -8.633988499559950291e-01
-5.728721027379456154e-02 -4.200403287916872341e-01 -7.720816647738550920e-01
1.789373377136758980e-01 2.928614919497914415e-01 -9.625453643297157136e-01
-8.216707807392805707e-01 4.681612642990894413e-01 -4.066402596889026611e-01
7.749783706578279585e-02 -4.619415663027457430e-01 -8.455279014872972843e-01
-9.174586832478609510e-01 -2.734234539301979017e-01 -2.938782594817669347e-01
-7.256776294075995004e-01 3.608614960488602530e-01 -4.528664141400781662e-01
-3.312633248354299870e-02 1.421499384478202288e-01 -8.299790564635457502e-01
-4.216592955136916898e-01 4.435844251884177303e-01 -6.324463040370400524e-01
4.405409793275597563e-01 3.959960166581702468e-01 5.656697292517698372e-01
-1.321983956783255587e-01 -2.031098524031738906e-01 9.387840556812691029e-01
4.184340532027083781e-01 7.186918418589834101e-02 6.037054978708982222e-01
8.814992576242082212e-01 1.805473635974602642e-01 3.315386008823108521e-01
1.881234252757187433e-02 -2.125022120023206951e-01 8.535476272135168463e-01
3.363894422194160794e-01 1.946796575746835914e-02 6.545298259991247924e-01
4.500336151994469014e-01 -3.139206936475598120e-01 6.160065816224568058e-01
2.398764626308249326e-01 3.864157256020940290e-01 6.806648937850288128e-01
2.061222482550721657e-02 4.825591947306298590e-01 7.979480921809478655e-01
2.433209074957063123e-01 9.089028465423189262e-02 7.019079537335319863e-01
3.910042646086220874e-01 -4.802874086976212376e-02 6.287360527973029356e-01
3.302958011009428652e-01 -3.910658662874659797e-01 6.902333654033808719e-01
6.824665828251229582e-01 -8.412868378891154297e-02 4.656343247208282743e-01
-7.066168172300969341e-04 2.342565307350777740e-02 8.461356407712029570e-01
3.295677052690480779e-02 -2.923614784779382525e-01 8.517652666103917580e-01
7.924616643991521103e-01 -1.648690892556150811e-01 4.093511606830496641e-01
-1.422351908161203493e-01 -1.013149892923766726e-01 9.365055072900543287e-01
5.860478350012067184e-01 -4.435309820139284875e-01 5.487472865290209389e-01
8.782078078553560152e-01 9.790684931193927021e-02 3.399012657711059648e-01
7.268047228840751606e-01 -2.791866725821942619e-01 4.557071586189415657e-01
5.601319814778350781e-02 3.223529071156203130e-02 8.131520263975233753e-01
-8.645457144691272300e-02 -2.737325074240131717e-01 9.182861895822206355e-01
2.013277986801510488e-01 7.534932493759409489e-02 7.270358443395987802e-01
9.040314930068231725e-01 -4.960925884294864474e-01 3.718388844032989304e-01
2.637401315854134842e-01 -3.153508990830400371e-01 7.221800571379203282e-01
1.457714558848283160e-01 -4.000666226329551711e-01 7.959940540049493807e-01
1.557062569332094970e-01 -2.531080212422603393e-01 7.787990494039342959e-01
-1.282750665572016391e-01 -1.692630964426539986e-01 9.338928348398776169e-01
5.057087144923163580e-01 -3.746588081504306778e-01 5.890784972858251756e-01
8.230431810097328382e-01 -3.788100736237823979e-02 3.819695494532687752e-01
1.293277044092170092e-01 2.843586220021453170e-02 7.717107098268107812e-01
6.328391857022340750e-01 -4.123508648487905770e-01 5.196596909887113425e-01
9.355425566602028065e-01 5.790739926003358740e-01 2.694789962362832969e-01
-2.113492400068774368e-01 -3.016801206507978561e-01 9.915859964050701691e-01
1.629663899262782656e-01 -4.655923374945876159e-01 7.913495283478289011e-01
8.386096142804148057e-01 -3.415929878774610073e-01 3.969540722893228901e-01
4.538655234982034714e-01 -4.910144938992023200e-01 6.277300360119558720e-01
1.458231027807640745e-01 -4.003845879723250678e-01 7.959896162328914393e-01
8.874010105980432994e-02 -4.557323000700033155e-01 8.328340769990915105e-01
2.631485621474315972e-01 4.613401138664097734e-01 6.615326386314906992e-01
7.509732499902465053e-01 -4.319180243459096458e-01 4.539396163400065132e-01
-1.330384099912732543e-01 4.012474994354616187e-01 8.918093742446788763e-01
3.413015958485645512e-02 6.820444106137650564e-02 8.227863199933863614e-01
-8.973773228485336373e-02 -2.942769065554102781e-01 9.217684736065164808e-01
-8.342118130848609481e-02 5.436943440387576737e-02 8.907973075204227431e-01
2.926223955493560958e-01 2.723221152098442843e-01 6.595938174315514324e-01
6.607409351822932653e-01 -1.437336272359606704e-01 4.826832972153301538e-01
6.999847256638684900e-01 1.817538161730617441e-01 4.347842838821945888e-01
7.940499269146040762e-01 -2.253314538261891320e-02 3.972709948025122673e-01
6.267397528442296695e-01 5.801621349403047745e-01 4.452021188731837831e-01
8.354080555637602989e-01 -2.870121132680038545e-01 3.944912132909653146e-01
4.598258988386259016e-01 4.757162509779189752e-01 5.484309075091386987e-01
-1.163167116058653472e-01 3.494435700927816385e-02 9.110507098531771542e-01
9.378079608895395491e-01 5.855634281144380671e-01 2.676797119428946381e-01
5.568710316135937477e-01 -7.681789601506777698e-02 5.365647416384456969e-01
2.547134718467953252e-01 3.019515709275782944e-01 6.788497972535572078e-01
2.367041848603576026e-01 -7.369131202217865662e-02 7.185976217986183023e-01
3.213746440132712046e-01 2.460622359030585279e-02 6.626746514150895218e-01
8.107465811152030077e-02 1.267867169832782859e-02 8.004195052856162285e-01
6.672256927750435107e-01 -1.878106948355611483e-01 4.824522175863559248e-01
-1.315603635656304726e-01 1.022794583537696006e-01 9.144422562190840376e-01
8.487682745790969818e-01 -4.088348619159037911e-01 3.964502089845862165e-01
3.327336720825112004e-01 6.036925685023164512e-02 6.533996533641880378e-01
5.875441424570480020e-01 7.635891857504666091e-02 5.070746971999278152e-01
2.853818745354437802e-01 5.133515954518904634e-01 6.447908642019645198e-01
-1.779873712076548431e-01 -2.684751298185611423e-01 9.699851257783876912e-01
1.731484319885873979e-01 -3.020234777986314234e-01 7.727095597346773648e-01
8.513488086116167697e-01 -2.987141244458514922e-01 3.863345930996249233e-01
9.017941439515084756e-01 3.915045820273744814e-01 3.034203182906612950e-01
-1.580542118287779074e-01 -3.626760199143697627e-01 9.660331822104464283e-01
3.386673184420049276e-01 -4.581400026733381536e-01 6.907337933977505395e-01
-1.950139353219722815e-01 -1.682295793304281473e-01 9.718076630480122491e-01
3.797302805966302208e-01 9.357084738502320642e-02 6.240364778008856694e-01
3.333651750755063925e-01 6.840193646580734754e-02 6.524094143286155445e-01
4.119601114990271706e-01 -4.440410771162788262e-01 6.478994959744197590e-01
-1.860120280881234212e-01 -3.469802825919936495e-01 9.807178144379490314e-01
8.386868690865988407e-01 3.995103673240250619e-01 3.387201478552231415e-01
9.140133990151664278e-01 -1.838174743977301073e-01 3.416367425439380545e-01
3.914732719017802731e-01 -4.441518464986517478e-01 6.595718238492300767e-01
9.404001703028660453e-01 8.946738220617730941e-02 3.051563687774289657e-01
8.967194768636569391e-01 2.368062795302382506e-01 3.184560422162820981e-01
7.890016890560906937e-01 4.342279647838150347e-01 3.642811114917984261e-01
5.544728412653675276e-02 -5.992540361904179214e-02 8.207104862433021175e-01
3.087783591930978178e-01 6.876875414710499623e-02 6.663784541299593300e-01
8.988329655124494000e-01 1.496236133207500263e-01 3.240981915656920287e-01
1.480053842604957814e-01 3.773960419067872718e-01 7.336774258717019270e-01
-6.490556199389475867e-02 -3.918312455050739634e-02 8.876014965644368759e-01
6.322431903487869542e-01 -5.047133428308219205e-01 5.272511204765365500e-01
5.360578281780604692e-01 -2.492969315958895871e-01 5.619568847685005863e-01
4.242579838095146896e-03 -3.665194641248485929e-01 8.739356534479019167e-01
9.131189192722070080e-01 -2.132809630838196913e-01 3.444594042377873144e-01
-4.521110948416748321e-02 3.683987948127217527e-01 8.443864796496824976e-01
5.526738906877508573e-01 4.826468581242616129e-01 4.950262261174956380e-01
1.005812315384284478e-01 2.669730560785319451e-01 7.693472805085208588e-01
9.475499169021549539e-01 2.843052123875361992e-01 2.857875794084310805e-01
4.295806333865581639e-01 1.522260228034403029e-01 5.910500356012229339e-01
1.698694449659178818e-01 -1.152690527814443228e-01 7.599127817227310233e-01
3.615902997745397696e-01 -2.314545542919941579e-01 6.598843267703308202e-01
7.590309953686547040e-01 4.568956756021659293e-01 3.795642959788922410e-01
-1.025160449104061886e-02 -1.699270103798136977e-01 8.667514838529688515e-01
-1.837340844765192327e-01 9.240532304183562973e-02 9.449212565648369422e-01
1.325518937308300393e-01 2.585970222704977450e-01 7.518033141363967831e-01
5.406041275443307370e-01 5.689958632788556514e-01 4.951178709496560915e-01
7.511268885898566561e-01 -3.982681949586648340e-01 4.512100295700971486e-01
-1.481260571203415338e-02 -4.573748672436075968e-01 8.919179933529667315e-01
-2.133846190553756739e-01 5.706521206395380741e-01 9.242510155736005650e-01
-2.152706294885660121e-01 2.210637353998316235e-01 9.527737401181708421e-01
1.785724847666997628e-01 -1.604053895593225143e-01 7.585019545296878274e-01
8.338378619177995166e-01 1.709278461805966431e-01 3.594286382900833687e-01
1.645942398292273567e-01 -2.948605894827087681e-01 7.770172431551271020e-01
6.698618842852211985e-01 -3.924627213314637597e-01 4.970202375041825604e-01
7.506383874727934336e-01 2.622043304134195618e-01 3.996291732548861164e-01
4.185803124241465299e-03 4.211148906426812055e-01 8.121245159647566547e-01
4.797984171060350467e-01 5.051288385333743136e-01 5.347506749399976167e-01
3.559292620036491051e-01 -3.324871738194237203e-01 6.710401638111208600e-01
2.231937775390090695e-01 2.811419157736644303e-01 6.984286186666058827e-01
-3.882039857365699592e-02 -2.075216243152599449e-01 8.859682108075871421e-01
1.472787070491292094e-01 -6.047802284674945461e-02 7.684721288471164646e-01
2.474067410720106608e-01 5.794748563424141630e-02 7.021683965749867529e-01
-2.022194377849063085e-01 4.646006655724020940e-01 9.262213667233660797e-01
9.071988110972248887e-01 -3.038239777597444014e-01 3.549391134099189049e-01
5.684949309966835784e-01 -4.565684960815503124e-01 5.597642391088625269e-01
8.879458746165010963e-01 -5.307353850850168309e-01 3.837168806631274798e-01
6.217597559314844841e-02 4.836639954755507231e-01 7.741981431195550378e-01
8.868663204089630714e-01 -3.370945377266398868e-01 3.691272068006989926e-01
1.662776616492749604e-01 -1.238217000108995519e-01 7.626292034595018032e-01
1.022406894490145018e-01 -5.019022627224337674e-01 8.287730529183516825e-01
6.903632759416667986e-01 4.779796308832851559e-01 4.170029433882390113e-01
2.472675818913383505e-01 -2.242840529420216111e-01 7.244078745773984140e-01
4.474032327235585860e-01 -5.160852812666858469e-01 6.333776749426694996e-01
2.180464802444303518e-01 4.861601095579742848e-01 6.852614784945425530e-01
3.498651918528678517e-01 -4.162602902089213575e-01 6.810702750914957582e-01
7.465617741804568552e-02 1.434453982344831569e-01 7.938061546810402103e-01
8.101133146885012293e-01 5.559628436061103685e-01 3.427033986150149203e-01
5.088916764821801442e-01 2.424124641082856524e-01 5.388151712139117588e-01
2.075777213687494127e-01 -2.348936745481999735e-03 7.295783300238668501e-01
7.464988630351230281e-01 -2.046548346185223521e-01 4.386427405466110652e-01
7.176726036557595778e-01 3.252708841664218586e-01 4.134454959511805749e-01
7.054940337623778479e-01 5.502919549629546880e-01 4.027108359258040338e-01
2.566474732770218647e-01 -8.312409908783853496e-02 7.079840909663857040e-01
1.784904264968949772e-01 -4.269617799412962489e-01 7.794781426286997439e-01
3.981005488115599844e-01 -2.106525141642900945e-01 6.374648653167754864e-01
5.512216424623856553e-02 -1.545219985325141376e-01 8.283231184320049012e-01
8.317614362760283875e-01 -4.396563263430427471e-01 4.085526336932214231e-01
6.653267677380197975e-01 2.802075376395855022e-01 4.467854712697312825e-01
7.999386217101962515e-01 -3.173232233103815414e-01 4.170647476460638270e-01
6.100155295086238105e-01 5.783076703483964742e-01 4.548692139262515144e-01
1.732082815316764446e-01 4.496052477750724780e-02 7.454310015974748849e-01
4.281656595008582200e-01 -3.484420392746081507e-01 6.311670598408251065e-01
5.669143026153733445e-01 4.095246469739690642e-01 4.926602396461188249e-01
3.553031563798544901e-01 4.628494074521565249e-01 6.089483951143325191e-01
9.262899067782318641e-01 4.935522614320429491e-01 2.814617372368504178e-01
7.160077081221059014e-01 4.186844188857995475e-01 4.070587169558573248e-01
1.825380001880359260e-01 5.113733072655169964e-01 7.034975860385088708e-01
1.204938460250871285e-01 -4.604887786932447824e-01 8.151294064328137301e-01
-1.118409136766832512e-01 -2.817133783076531950e-01 9.333658618593582146e-01
9.106465202127043135e-01 -7.462405934939976559e-02 3.349799375008790103e-01
-6.963736393695005300e-02 -4.784494072758244121e-02 8.909755289351637408e-01
-1.623994514422245072e-01 1.326920160242759661e-01 9.296117277926650990e-01
1.131890983373588094e-01 -1.335769309758917667e-02 7.841803363500190471e-01
4.031556024761612234e-01 5.037110993298911099e-01 5.784965157525436830e-01
8.755811887336983901e-01 1.380473498486484429e-01 3.382449094578678372e-01
-2.931601060112655477e-02 5.945061157632262061e-01 8.175835420591871516e-01
-1.832612852559087346e-01 6.291732748906490036e-01 9.025061435288500578e-01
1.570738023195266120e-01 -1.756366909554604380e-02 7.595260065551098227e-01
9.558089684035277200e-02 2.141790666689707134e-01 7.763393640506437432e-01
7.330913447491615997e-01 1.347483255678160741e-01 4.196266981165950316e-01
9.017102030774863941e-01 4.828939636334716456e-01 2.962923977514690388e-01
3.718474682223154582e-01 -4.093176084994533670e-01 6.680101325735320339e-01
5.425783508425689738e-02 -3.602954273020501641e-01 8.449721157837597474e-01
1.063147935254983162e-01 -1.192358146302729127e-01 7.964073733611762851e-01
6.033915129598926841e-01 1.988414838871480905e-01 4.884353393973496216e-01
2.301738566512505912e-01 3.661089407565295550e-01 6.877832590529214807e-01
1.474266887436210816e-01 3.114459953213426502e-01 7.391851552938814018e-01
3.585877774206213675e-01 2.065185712241912053e-01 6.272049651018005711e-01
3.811953084411238701e-01 -1.926302348756215865e-01 6.456743356836864844e-01
-8.976641149644477846e-03 -1.243732610112178866e-01 8.624488292343436280e-01
7.265809326065654217e-01 -5.040359779488617908e-01 4.734892817804056131e-01
8.282705262310889882e-01 -1.190138613475869300e-01 3.853638893480077487e-01
8.460754693064898024e-01 -3.386552015731552068e-01 3.924729197009778070e-01
5.904266314661393844e-01 -4.080507535660288232e-01 5.434685006527060214e-01
8.444635993894633597e-01 -3.459267415485076658e-01 3.939615410967164388e-01
6.524031265545057190e-01 1.539934958734825721e-01 4.640532705191267593e-01
-1.228226284785030320e-01 2.214691696511133789e-01 9.001091261622924389e-01
8.831625452975260249e-01 4.236739241156395885e-01 3.115018454090187627e-01
-5.217847711786764014e-02 6.202116863878682773e-01 8.285813221780949922e-01
-8.814365355555962844e-02 -3.377288342769288465e-01 9.242726855766483229e-01
9.132156469565497758e-01 3.537373884974089333e-01 2.998831969982492240e-01
6.382806299234248248e-01 4.614674824748380422e-01 4.479512961032282026e-01
5.562594973161024692e-01 5.254496531446952723e-01 4.896240683508152336e-01
9.303380956245272948e-01 -1.345028368424571741e-01 3.284706301665524242e-01
2.547007686276066551e-01 -3.853260955307234448e-01 7.328206864046437063e-01
2.359999668827141295e-01 -1.681263809118887509e-01 7.264134005834949059e-01
-9.834951409316272652e-02 1.684421061845049195e-01 8.903395955901446390e-01
6.707985284567543616e-01 2.491825049868929762e-02 4.637150718388224901e-01
-2.189964174412235565e-01 -2.475630404219174296e-02 9.741962111250571654e-01
