6.415534976930232780e-01 -4.136534101590034207e-01 -8.286396254364677971e-02
6.278400000188133490e-01 -6.708933330359961866e-02 -1.513163257247990834e-01
1.353333224356445263e-01 2.001614001544533682e-03 -1.124249313762792635e-01
8.804364716609883734e-01 -4.173711292134701933e-01 -1.077389040384990060e-01
9.437947053207229597e-01 -3.799178809361693498e-01 -1.220919944682478803e-01
2.101012927332410740e-01 -4.004784824336445337e-01 -3.924017627417018123e-02
-8.100697824079704512e-01 8.434446077301190059e-02 -2.762495371581227821e-02
-2.375847813427444111e-01 7.753745927102337343e-02 -8.766216738782929563e-02
6.627147232000337729e-01 2.873538236699652582e-01 -2.265704571916743182e-01
-7.674351465194865218e-01 1.647798117432729137e-01 -4.842716778436541303e-02
-3.621809423401160521e-01 -5.362724657898252367e-01 4.954672686937023479e-02
6.055683643449093490e-01 -1.643643495015086609e-01 -1.293008534892531591e-01
2.545905968872100855e-01 1.567327287793933155e-01 -1.564365263878316481e-01
1.725284324660932289e-01 6.846312956634084124e-01 -2.541434956191367944e-01
-1.619252703830305895e-01 4.727027315918271855e-01 -1.755074628954722826e-01
-6.460008039159726989e-01 3.166489579729974135e-01 -9.209486132913588530e-02
4.147187942620891299e-01 1.710770451148054261e-01 -1.765076535056075424e-01
3.527247092744106305e-01 3.615363441218152341e-01 -2.082849555550864151e-01
-3.730660769992020787e-01 5.837975399830803991e-02 -6.926376116915367032e-02
-6.106258322278169670e-01 4.455867797582909184e-01 -1.219042782558058396e-01
-4.521259708084572615e-02 -1.000959996397119377e-02 -9.063432125737651279e-02
-4.167876015938122569e-02 4.194199973711413842e-01 -1.776559119740614701e-01
-2.616868311003530678e-01 -5.119724338296847144e-01 3.386387912693823027e-02
-4.146882429198721354e-02 1.771267307456375062e-01 -1.287928912194935827e-01
6.360229120520668467e-01 2.223481344516020086e-01 -2.105915511422774278e-01
-7.783196360267647940e-01 4.540178676995467594e-02 -2.317365331428722711e-02
-3.569136105545095972e-01 -5.156432672729318462e-02 -4.881391777615156496e-02
-4.409541822685821844e-01 2.592197791096920167e-01 -1.025032448401512197e-01
2.321677598319826785e-01 7.011879991729935702e-01 -2.638815322735121316e-01
-4.362839226256399749e-01 4.404598927935592934e-01 -1.395715675492157359e-01
8.769455963199350446e-02 8.375344358400434175e-02 -1.238091109242662746e-01
-4.126170232307749958e-02 4.038745554694139761e-01 -1.745641725669584421e-01
-3.445814433361874540e-01 -3.907900054461776462e-01 1.830601219079867545e-02
1.774239275018547612e-01 4.663990355295719037e-01 -2.106376894213968232e-01
-6.725424739910135230e-01 1.930534927815694690e-01 -6.431087865453878616e-02
-2.530859432986817814e-01 3.227070866776595576e-02 -7.686625004068688150e-02
2.586017051764586405e-01 2.139118104010120092e-01 -1.684033569372447581e-01
-4.772556152339862967e-01 -5.185152525831283610e-01 5.830808695329318947e-02
-2.391120589638995320e-01 -1.989702777663509281e-01 -3.170962005679597850e-02
-4.511486782494339431e-01 1.950500990792271294e-01 -8.846268461961546981e-02
5.823083840033048686e-01 8.098823496543267053e-02 -1.763085439639421326e-01
1.045399374043851082e-01 1.445216933101077239e-01 -1.378768339598555881e-01
3.942663006657467356e-02 -1.923993753598024492e-01 -6.291429129033376810e-02
2.684379966394219719e-01 2.376034596304552049e-01 -1.742385696060883837e-01
1.463838402155222262e-01 2.455953966484774112e-02 -1.181616522232867839e-01
-7.089813984872034291e-02 6.252066156962494958e-02 -1.025128673817517350e-01
6.695160566568153504e-01 -2.253585348515644848e-01 -1.238542377749879825e-01
1.284138412895068360e-01 -2.620856703467592252e-01 -5.839993470748847115e-02
-5.667244322007941593e-02 -2.976803131468626074e-01 -3.136404200402240910e-02
4.417701947889309810e-01 5.136646369580627480e-01 -2.485305743299302539e-01
-6.720754340781277536e-01 -3.945311993632758529e-01 5.419120343449761873e-02
-6.143012924968731525e-01 -5.895041902582229820e-01 8.733187073168409420e-02
-3.557724011270215203e-01 -1.241498004325867766e-01 -3.429135526269935785e-02
-3.760076747528686147e-01 2.886454069661324451e-01 -1.154070421537335550e-01
7.573206047620213432e-01 -1.542040361984225727e-01 -1.476293174001429287e-01
2.964783167304209030e-02 3.345903576810371205e-01 -1.681917469780361551e-01
-2.592435665934493261e-01 -6.644861360947165174e-01 6.437323809288381105e-02
3.251163549687392101e-02 3.763998604935597792e-01 -1.769345110562329515e-01
2.229008370576621434e-01 2.090278057692430969e-01 -1.635883101585328681e-01
-5.012919999201870258e-01 -1.822385235824257321e-01 -6.961343139010740463e-03
-1.669446202955441605e-01 5.389832507271120621e-01 -1.883419169506402036e-01
-6.008753084018132462e-01 -6.071573538571367612e-01 8.945339727135101504e-02
-1.541696731035164802e-01 3.487925467274601843e-01 -1.513390581043471406e-01
3.028016503031921713e-01 -3.461874647113317160e-01 -6.013802327304551554e-02
-5.921611070976143809e-01 -1.974634844190535088e-01 5.858024800907412309e-03
5.242195623998634479e-01 6.600423392989512861e-01 -2.869083760677585415e-01
-4.863492845261114805e-01 -5.811261797102597326e-02 -3.360812573695344530e-02
7.401972496385933464e-01 -2.667926447820788693e-01 -1.230764035725872702e-01
1.482591618750629670e-01 -5.700351813697631664e-01 1.603719617705939978e-03
-7.479585032147912926e-01 2.409584484556711870e-01 -6.588637569387958970e-02
-6.606741719246282951e-01 2.336049302515583737e-01 -7.376572786944837756e-02
-4.611789896411114809e-01 -2.655109769936994102e-01 5.536929629715383466e-03
-2.165005968727972130e-01 5.080528413659222142e-01 -1.767854581605757536e-01
-7.968250719330335352e-01 3.536434914226114223e-01 -8.337999092960012015e-02
7.859834460649448018e-02 3.593759290090076108e-01 -1.784434635706783068e-01
-7.915545773020027376e-01 -1.157666330644681885e-01 1.076370257674589062e-02
2.755543772147085457e-01 4.027163979255861670e-01 -2.083154393742424060e-01
5.742375268826717116e-01 3.049186900612783635e-01 -2.206234067149157596e-01
5.801643846154600492e-01 2.315148967615279496e-01 -2.064490961879662245e-01
8.360115887800169121e-01 -3.792296754275762405e-01 -1.106689266531720173e-01
-6.621059297151125067e-01 2.891518371481061611e-01 -8.481939022318302213e-02
-3.956137678031425575e-01 -5.279074056633380474e-01 5.144532417865461948e-02
8.580983471127474616e-01 -2.432330557030899509e-01 -1.404771098783437755e-01
-5.525003864301104572e-01 -4.053917879018058001e-01 4.355561120839175626e-02
5.073915668217432451e-01 6.934952408590101536e-01 -2.918527525486052654e-01
-3.667062568427085223e-01 -3.744794867411054273e-01 1.738850575693751468e-02
-2.215395485828588196e-01 1.306370125622970668e-01 -1.000968081991105985e-01
1.582275727074593796e-01 -4.745610210219438074e-01 -1.872863863137906940e-02
-2.067418561983172254e-01 1.223420477860548590e-02 -7.779498933775537417e-02
1.220314527213055694e-01 -5.228607510579030837e-01 -5.100828464915481072e-03
-5.209292449599343122e-01 -4.243324275370113363e-01 4.399046581274483614e-02
-3.319996983362940440e-02 3.142823656320375969e-01 -1.573526695522314833e-01
-5.499057932950542904e-01 -5.135965308684372621e-01 6.510887898339898228e-02
8.644321609158278630e-01 -1.749208724751979693e-01 -1.549393329299351973e-01
2.394896988091975987e-01 4.282999339978204589e-01 -2.096085543198212275e-01
7.613978204943986361e-01 1.991625942127831228e-01 -2.193625906590788710e-01
-3.821235161682309811e-01 2.579254341145845175e-01 -1.085528754164074433e-01
-8.881212779404268343e-02 -1.649309342647163959e-02 -8.464926715331694274e-02
5.225257514144584503e-01 -2.138941892613563378e-02 -1.492397401745316210e-01
4.471002581262863984e-01 2.760653730158121322e-01 -2.011638616309309180e-01
-5.281710885472434835e-01 -4.959837075072496271e-01 5.922379581894927913e-02
-4.716636760943315743e-01 1.444023240360519378e-01 -7.604324635209436245e-02
-1.638020109081928521e-01 -6.035489984196429347e-01 4.184040856068200337e-02
3.319712816519307386e-01 -5.165514848502688050e-01 -2.889409488467177892e-02
2.801243036827272825e-01 3.922434305063695059e-01 -2.066926111039945335e-01
-4.553792935572102962e-01 4.885384357785039211e-01 -1.472236187647985028e-01
9.948767506929205584e-02 -4.873677830034421898e-01 -9.843679210406455424e-03
8.716061977298621422e-01 -2.701665059164018445e-01 -1.364919572733443165e-01
-5.793835510681052403e-01 7.954999657370723232e-02 -5.140338250615519855e-02
-9.825849214544529753e-02 1.170706800389969271e-01 -1.105840289557250833e-01
2.534278106365330796e-01 2.688303509003380776e-01 -1.789288189864886303e-01
-1.088061575286794480e-01 3.803842715461904778e-01 -1.625792188088828749e-01
8.025084794335495264e-01 -3.371828351240410693e-01 -1.155584886587291277e-01
-1.455675345990457004e-01 4.021050104032263262e-01 -1.630182335585008135e-01
4.473829910234563556e-01 -4.942992482017398714e-01 -4.576399005527498343e-02
4.807639116847148841e-01 -1.833142488191825681e-01 -1.120896821630993773e-01
8.740665996363997658e-01 -1.513090412508830418e-01 -1.607367885760840331e-01
-1.764394017904704071e-01 4.693390595379477032e-02 -8.804661740069617826e-02
1.960124908497031249e-01 4.644195027703423850e-01 -2.122322949715048090e-01
-5.242137966285509432e-01 -3.095660455806369393e-01 2.118732155904692882e-02
-6.513093560998666209e-01 3.456042853949183868e-01 -9.736749240552039497e-02
3.693380895794804442e-01 3.143535883895463012e-01 -2.005473962981718927e-01
-4.135155396626672419e-01 -6.086779344546997678e-02 -4.086513014110734754e-02
6.521544302117592284e-01 -1.023551703409672359e-01 -1.468092396901127805e-01
-6.252888471476686361e-01 2.754370712547735134e-01 -8.600165102830215069e-02
-7.850606442947186681e-01 3.913680732084989788e-01 -9.225334584258751414e-02
5.778835326958501328e-01 3.034007245151186249e-01 -2.207082471008257607e-01
-3.157924119128328599e-01 2.622176300936028270e-01 -1.165342307487674534e-01
-2.589425868527293062e-01 6.816277450743069011e-02 -8.347965648033062180e-02
-1.134430784002770226e-01 -6.232859386272920910e-01 4.042055528240111328e-02
-1.581606990659092937e-01 -1.171163829512099630e-01 -5.690828658821318192e-02
2.227200907474422842e-01 2.328817583044367201e-01 -1.683817393371363491e-01
-2.146632084776820548e-01 -5.272522217367378028e-01 3.190252201353761807e-02
6.578050290056782767e-01 2.842790104262352124e-01 -2.254234130416382653e-01
-4.431764182175875200e-01 -5.119432827738769065e-01 5.332643023566056850e-02
-5.861599812306760304e-01 3.820166600373677834e-01 -1.117027103909761926e-01
-3.662326342378797728e-01 -8.379150015932432805e-01 1.108413125414603323e-01
2.241097172356977807e-01 6.381930032959324262e-01 -2.503071563954471501e-01
3.910715594541314122e-01 -3.934297802477502715e-01 -6.007506060523263441e-02
-1.636830274452857059e-01 4.834762240016590162e-01 -1.774925877517214701e-01
-5.228235278614112164e-02 6.014340465736187635e-01 -2.132419554621182989e-01
-1.135220264245673377e-01 1.570663276352008975e-01 -1.170163022080837473e-01
-4.075597536323076475e-02 9.662860628126271334e-02 -1.126279072193268477e-01
-4.338310700007951826e-01 -4.852059857301509460e-01 4.692938559563440692e-02
2.342328380535526333e-01 -4.784779344130316581e-01 -2.609145841308258343e-02
-8.437599261966466369e-01 1.773873083605508605e-01 -4.278350187539137900e-02
3.033180295973835205e-01 -2.467449238157130853e-01 -8.025712762108912213e-02
2.487268966987462027e-01 5.691912015651162671e-01 -2.390259152962421196e-01
3.041582148398979113e-01 -4.100829148289253934e-01 -4.739187729512547853e-02
-3.459935455635432811e-01 -6.155653244926976436e-02 -4.796926980343520219e-02
-8.860406549788001074e-03 1.144763571053940832e-01 -1.196503481753467962e-01
5.918423884762359366e-01 -2.258361725805404507e-01 -1.154257951939056392e-01
7.160292896806448315e-01 -1.528386499027927226e-01 -1.434754707497181980e-01
2.852083929152380848e-01 -3.391489762124202945e-02 -1.212554848134129171e-01
-1.640092311152428484e-01 -3.073400642021008045e-01 -1.790102898829622896e-02
-4.121215699723824732e-01 -1.482352927342109050e-01 -2.338723227726816067e-02
1.620342232883225098e-01 -3.679625110020696976e-02 -1.074612140777033431e-01
4.066592125998084173e-01 3.177077228421568700e-01 -2.052275787629838644e-01
1.993341575653466979e-01 -9.539030553076749408e-02 -9.964034168361891874e-02
5.184870449706202589e-01 6.668973635399870759e-01 -2.876765299671734666e-01
-8.772557906064690769e-01 2.467507221708282183e-01 -5.318528378152619085e-02
4.700424892373625263e-01 1.174426565638138180e-02 -1.502949616197165050e-01
4.045573967276398092e-02 -5.731170992317003998e-01 1.378963273734252690e-02
7.380830253998459101e-02 -4.590319877146856187e-01 -1.280612941771502172e-02
-4.055420521375875942e-01 -1.632695517115046735e-01 -2.105967868962820011e-02
-6.771584582921295892e-02 -2.901336646632006189e-01 -3.170203933802770435e-02
-8.034282566057905361e-01 2.300115127581677243e-01 -5.772744746525301091e-02
-2.219199410363167368e-01 5.358349944425975231e-01 -1.818095027136780450e-01
-2.234526597482326404e-01 5.760521753078021723e-01 -1.897593808963413953e-01
-3.450798263258419291e-02 -2.169129908135006835e-01 -5.003739449007590240e-02
-6.427302533858944011e-01 1.529641834854883475e-01 -5.942034920626575178e-02
-4.602963658137202985e-01 2.406745983454576868e-02 -5.298363425776629609e-02
7.339484352169607373e-01 1.146661425286849834e-01 -1.993699269192799883e-01
-2.119406124780194023e-01 3.990257371512945794e-01 -1.552770972530995719e-01
-3.470274356705992935e-01 4.772058984168904838e-01 -1.565600753895208530e-01
-7.001017231175946653e-01 3.490498158704154474e-01 -9.282869983063077313e-02
-4.170150318406795065e-01 1.027338008212577702e-01 -7.349830104082705207e-02
1.539901553404916523e-01 7.162623908423066954e-01 -2.585368387297505843e-01
-3.141104454372604660e-01 -7.334625758415262986e-01 8.417563660892622701e-02
5.807138561064191240e-01 -8.180132278989556138e-02 -1.432927742755587541e-01
2.657300593268873135e-01 2.772131415774120033e-01 -1.819398116872928406e-01
-3.829653489479906692e-01 -3.074295869321551078e-01 5.604509935908006182e-03
4.158038302665250652e-01 5.815976918544008001e-02 -1.538416457403095072e-01
4.976517586233912722e-03 1.330309409922605379e-01 -1.248782458269205170e-01
-7.402714019860262562e-01 -1.068475639364310642e-01 3.463015743630119565e-03
-4.640976341507876413e-01 3.920443871497547028e-01 -1.268195812993087868e-01
-2.463333601442473375e-01 -4.390204809136839526e-01 1.749798666096908512e-02
-1.191090471963178188e-01 -3.302959136375457905e-01 -1.808586784243679246e-02
1.874009539530928359e-01 -2.705138185969659381e-01 -6.302701791713052892e-02
-1.931123401632428849e-01 3.376332111883020848e-01 -1.449101403067382388e-01
-5.614517567637260509e-01 -1.011965243463723574e-01 -1.685917588215012780e-02
2.399353654230482191e-01 9.180656817120860791e-02 -1.417648330441474980e-01
-3.999376179447117208e-01 -8.081548669059405166e-01 1.084523942513209438e-01
7.635020174847596819e-02 -3.135378928153890188e-01 -4.243395906972070170e-02
2.157594561278719236e-01 6.508855181673612877e-01 -2.519722872652076506e-01
-7.177736549970282764e-01 -2.057835147890307026e-01 2.101117855046375632e-02
5.850342315431790174e-01 -2.598796481278970449e-01 -1.078268075082970123e-01
-5.554113092206987012e-01 2.899531953727111366e-01 -9.642623195185395790e-02
3.012394029874753132e-01 2.127505045160012209e-01 -1.727428060381088204e-01
2.108178862202738924e-01 -1.030736030798322551e-02 -1.180386975363225954e-01
4.569034516240957911e-01 6.845602073888431560e-01 -2.846341310146766057e-01
-1.432801745188279630e-01 -1.628417619944372841e-01 -4.927888650206250359e-02
8.303245952951436859e-01 -3.440070532124520075e-01 -1.171654633052942734e-01
6.835024153802592151e-02 1.621864132264202174e-01 -1.375588231591087507e-01
7.682456594060700361e-01 -1.313211636744986144e-01 -1.534181416693428945e-01
-1.363568302207152361e-01 -6.612555176246378563e-01 5.053933203815429848e-02
-3.189561031209219855e-01 3.910998025847027271e-01 -1.421983679158362879e-01
3.407323824954503477e-01 -5.557425196164175740e-02 -1.228415251801351638e-01
3.772274018651863153e-02 1.842557622790294558e-01 -1.387261565089913107e-01
1.194217742770796453e-01 4.019172764966323919e-01 -1.914058244007934839e-01
4.357348372209995380e-01 -7.992015456767974368e-02 -1.281203872393621435e-01
-1.965737281372273715e-01 -5.840298058601077758e-01 4.141761009819503597e-02
-1.438210018407974355e-01 3.254963539248352800e-01 -1.477488793802223810e-01
6.189277536426186499e-01 -4.528624225860213848e-01 -7.252601005566479409e-02
2.321123744478447160e-01 -3.624788662671621364e-01 -4.926818374067119810e-02
-1.968574947408255893e-01 -7.051428884470194447e-01 6.588405086805639022e-02
2.111241912802583887e-01 -6.297583378049393943e-01 6.910027687915259488e-03
4.092469890711568359e-02 -5.603773169118986958e-02 -9.058756863683781191e-02
-3.074302706060657031e-01 -1.936710445664200919e-01 -2.545029183644883369e-02
-4.966952786261877306e-01 -5.481571539016383277e-01 6.637398963357631076e-02
-6.889102778640525671e-01 1.915729004465126784e-01 -6.225637323807909490e-02
9.248499389806993931e-02 -3.750443252377526626e-01 -3.175508986375748244e-02
-4.255242886343925390e-02 -2.188588523760000293e-01 -4.878186411085325830e-02
5.376403084293138734e-01 4.756721394958347005e-01 -2.511491479862332787e-01
-1.318799797441378985e-01 -7.947986542369375740e-02 -6.732103967422822799e-02
-5.410957767805787966e-02 1.505183981488632250e-02 -9.473638271332561478e-02
6.766471936942806131e-01 3.128211123479686662e-01 -2.332033243147936530e-01
-1.578082907239333199e-01 1.020775090019949011e-01 -1.011710572993907709e-01
7.871523070957036072e-01 -2.658599732161037732e-01 -1.283014616948345288e-01
-4.565467795952318775e-01 3.337466784185304236e-02 -5.526369291197200800e-02
-6.299901282049157336e-01 -2.265974382513914198e-01 1.579407397884107639e-02
-9.451499825013501832e-01 3.006462540717425025e-01 -5.677631997651614443e-02
-5.139955743878726890e-01 -3.724931613948566644e-01 3.278750240184931386e-02
5.749514916030249445e-01 7.140124335031819980e-01 -3.032395092994857877e-01
-9.535719149929548777e-02 7.803753988441332334e-02 -1.030198531524655070e-01
-4.204175958762194631e-01 -2.259478582124379575e-01 -6.817883624241101795e-03
-1.354945876254135539e-01 -3.316491003038586349e-01 -1.605516542619975229e-02
2.879646304363173703e-01 -5.922713801700947300e-01 -8.896103506539082204e-03
3.335640488111257795e-01 7.691766680055412975e-01 -2.884758575681354853e-01
6.200027278952228160e-01 2.098970459101613117e-01 -2.063609072365649166e-01
-2.245881275699619650e-01 3.650023426418124717e-01 -1.470557717681411636e-01
8.227988957937879544e-01 -3.620853252100504349e-01 -1.127106738473362679e-01
8.395639727748119285e-02 -2.554271219837440099e-01 -5.497441486202894051e-02
-5.547985231897741010e-02 -5.725409635347383785e-01 2.396442509189438200e-02
-4.376816811395501383e-01 1.425672702178584772e-01 -7.931825943962150793e-02
4.086305933825209458e-01 -5.851339893195207642e-01 -2.328002431914283007e-02
1.105874802789695716e-01 -6.845093468467422504e-01 2.874129095325711480e-02
3.826913857573742139e-01 -1.275414772419088683e-01 -1.128222364111871462e-01
5.809863528380611042e-01 5.488412814875845980e-01 -2.705616311685989372e-01
7.238804431138223805e-01 -2.413648511684412246e-01 -1.264564547069080558e-01
8.324528589277503665e-02 4.824704771615226373e-01 -2.037777273446812754e-01
7.724974012826570059e-05 -6.591526709341964940e-01 3.547974043650770071e-02
1.821903861264382030e-01 6.494180101897106816e-01 -2.480752377217280980e-01
-1.531117635038353464e-01 4.406140034415933493e-01 -1.699786084065593172e-01
1.252132412604134611e-02 -2.600612043550687980e-01 -4.637657589484534687e-02
-1.322801030029970015e-01 -6.763102076513609617e-01 5.313948279787455986e-02
5.784527175599405435e-01 -8.997717782251701824e-02 -1.414006456522431676e-01
-4.448541262065306423e-01 -3.641594503184575338e-01 2.368925717345734747e-02
2.587589240209670072e-01 -4.948158981242969934e-01 -2.542599971157326333e-02
-6.974253477678069579e-01 -1.550056864706867155e-01 8.583381435355219927e-03
-1.600589509024324120e-01 2.945811715173433654e-01 -1.397695258208411506e-01
-1.136679130176267011e-01 1.528485266382903773e-01 -1.161496615346168937e-01
-6.581121600513803460e-02 -2.075766728609359513e-01 -4.856320183597287454e-02
3.514820351886890903e-02 -4.893032560994304836e-01 -2.551463605629458384e-03
-6.044446275040065153e-01 -3.031627223841487639e-01 2.850175612306551226e-02
-6.005202333154925354e-01 -4.041776165965829115e-01 4.846173853955113714e-02
-1.845141545807460759e-01 2.045504941352868124e-03 -7.812366931054677555e-02
-5.142774353163444001e-01 2.095944432709559435e-01 -8.462534127702428521e-02
5.251200260213639837e-01 2.365110205047749742e-02 -1.586054880282631308e-01
2.536833962222632688e-01 5.339524261455034226e-01 -2.324477592764739309e-01
-5.136093564046877447e-01 -7.127458854778639941e-02 -2.802834742574658936e-02
-1.977891708982281171e-01 8.281752294552600924e-02 -9.299636779358602667e-02
-5.808913924501568626e-01 -4.817550451592867988e-01 6.200831438541109381e-02
-1.938032582693428596e-01 -4.945577523539164411e-02 -6.673623068721300233e-02
5.396712836980074313e-01 1.386943573718137646e-01 -1.833777464260029078e-01
-1.012863915211585641e-01 -3.507599820316563144e-01 -1.586883995990765600e-02
3.591593313486109440e-01 -6.916804293576821194e-02 -1.220754799403227092e-01
6.480928678118050290e-02 5.141882369893419069e-01 -2.081995274639678595e-01
-9.635489282916925857e-01 3.322020337905873810e-01 -6.116941340629818841e-02
8.202199006482581434e-02 2.782027822236687320e-01 -1.624330736210705672e-01
3.421259885272286833e-02 -1.321064412158465262e-01 -7.451979553759946473e-02
-7.181986857014009962e-01 3.611481114927629910e-01 -9.332840885197474234e-02
-2.479831300719232412e-01 -3.204455519866755697e-01 -6.248940560793553659e-03
2.860118475231743784e-01 -2.784407593902533118e-01 -7.200567840695801247e-02
3.304212891654828010e-01 7.784274434282878463e-01 -2.900051866417466262e-01
-5.520553078480280318e-01 -7.347389523036720327e-01 1.099575646566261083e-01
1.381420407847865628e-01 -4.945445422861175500e-01 -1.254214621862356945e-02
-2.528245638945913476e-01 -5.110317785731061102e-01 3.272343318643369803e-02
1.542726896439755302e-01 7.082228812259483419e-01 -2.569450798241852962e-01
-6.158566147615388564e-01 -4.426673597765564683e-01 5.787263820426594846e-02
-5.480215372432873933e-01 -4.556390873818103732e-02 -2.952437894925132728e-02
-4.894269470250829923e-01 -8.026063312441084063e-01 1.169324537211858112e-01
4.915489148991036283e-01 -8.472862264680909583e-02 -1.331374116163293320e-01
-4.781744271617323627e-01 2.981549211169102209e-01 -1.063662467584417792e-01
4.987449566994566763e-01 6.484234346643314995e-01 -2.818314570106297823e-01
9.844396121396195229e-03 -5.915828319320725059e-01 2.079899970745234528e-02
6.575888295744727330e-01 -7.232543927938203665e-02 -1.534510435019484920e-01
3.052416806884058476e-01 3.573340241775364579e-01 -2.023435714949702868e-01
-1.456049189010995004e-01 -3.933781267927745073e-01 -2.516064377365679651e-03
-5.624319367363511679e-01 -4.363924589844246360e-01 5.087572417536483094e-02
-5.181147931703321552e-01 3.140098128419231416e-01 -1.052807463425919493e-01
-3.319200101571844752e-01 -6.009043631480088798e-01 5.934088118219295327e-02
-4.706921921949109855e-01 3.566538641513032348e-01 -1.189717236171409925e-01
-5.020140859169542891e-01 -3.626479039821215444e-01 2.951584771701856735e-02
4.573877819570525971e-01 -1.596292869005555837e-01 -1.143608409919831814e-01
8.223485616123059616e-01 -3.020272286351598501e-01 -1.247797997825466215e-01
5.336627150666127806e-01 4.813794330444665787e-02 -1.644623750708881782e-01
-3.396595459151928176e-01 5.210087648925568748e-01 -1.661881786385244753e-01
-3.658571973336148253e-01 -1.922698275865629414e-02 -5.437897975263072253e-02
-8.553519819255371581e-02 -3.224798225184299372e-01 -2.326433198641694733e-02
5.934460515995297891e-01 3.392037020376795220e-01 -2.296013177444571618e-01
-3.895427480702544076e-01 -1.835675381361250025e-01 -1.868056843875735146e-02
-4.441532393434386994e-01 -1.715729844679385885e-01 -1.524253108069215101e-02
-2.793986452914904994e-01 4.344817087614517570e-01 -1.551945203212037605e-01
-1.367771177156321960e-01 5.953113299344841014e-01 -2.029428505218021650e-01
5.646557259715270227e-01 2.223983484560897173e-01 -2.029461067968867660e-01
5.561255180871492731e-01 2.251268143618823381e-01 -2.025815696591753146e-01
-8.397242288793799192e-01 1.922274281227340509e-01 -4.621058231558162338e-02
-3.832434308573281524e-03 -6.644995947653834500e-01 3.697793851490425998e-02
-4.545194624613872469e-01 -9.910278992281006116e-02 -2.875226516701412730e-02
-2.625553853971104301e-01 -1.739685687030166975e-02 -6.582944015163745555e-02
-4.543694839596251200e-01 -3.610458559854919369e-01 2.408176735148132019e-02
2.176769851228541608e-01 3.827840199175761016e-01 -1.980853235780369315e-01
2.865702061020167779e-01 4.597353500350816885e-02 -1.375200057685341537e-01
-4.391421038155063350e-01 3.227465838741977455e-01 -1.155149133586217403e-01
1.119314558245421663e-02 5.123130665133716066e-01 -2.020697729142450771e-01
-7.845231877657932174e-01 2.212795680928063627e-02 -1.781242552340517316e-02
7.673362153517625517e-01 -1.569438928377644427e-01 -1.481508958360496786e-01
3.550266284895902680e-01 -2.374507769912910515e-02 -1.307967859315938841e-01
2.096929750363829281e-01 7.428950783448071138e-02 -1.349864496733514385e-01
-3.263672536755019560e-01 -1.781743322836913945e-01 -2.654556252682810716e-02
1.052097249818415708e-01 -1.577079516057013353e-01 -7.697026632544930191e-02
-6.101610310576542906e-01 2.538596076132781931e-01 -8.327090634192983731e-02
6.096731354060702657e-01 -2.417817352286384669e-01 -1.141212973950732623e-01
-3.544749024212295874e-01 -4.757937069892490545e-01 3.651779108295703097e-02
3.238617890883180306e-01 -1.938446566987961917e-01 -9.313411815241953717e-02
4.564193844117395704e-01 -2.273729584955726246e-01 -1.005888714285729929e-01
2.651952565315330301e-01 -5.776779590456243563e-01 -9.398022982718875692e-03
-2.346520460119502771e-01 -3.494988364643830114e-01 -1.817124455365979555e-03
4.031189149052986642e-01 6.433822814283787217e-01 -2.705565155074116657e-01
7.782957479279947188e-01 -4.908471277702193547e-02 -1.710883965968445219e-01
6.655570442385556895e-02 1.867742405884347812e-01 -1.423272085525120745e-01
4.633132606789110430e-01 -5.607139658142493155e-02 -1.358905013294796627e-01
-2.931418154401091436e-01 -3.533219702969744858e-01 5.228450108030344157e-03
-6.792990156050623396e-01 -3.355020272044796359e-01 4.305624311518880393e-02
-5.697907814505625002e-01 -1.717517119800568981e-01 -1.729300620108140422e-03
9.266462363431123839e-01 -4.055095709080583921e-01 -1.150890469595749754e-01
-4.022536783279566097e-01 4.413678548450832850e-01 -1.434051923450274935e-01
5.427344900086686907e-01 6.062184430622239439e-01 -2.780348673840962737e-01
-6.158605244012331781e-01 -4.208371249797019376e-01 5.346854877155950841e-02
-4.640172457125840699e-02 -4.303695086012769844e-01 -5.694165377979212329e-03
-7.796688573399310207e-03 1.180239777725803491e-01 -1.204802280160015004e-01
-3.774669265813248575e-01 -3.902839913011442174e-01 2.173155171648965059e-02
-7.506998287733370745e-01 -2.363019496358524374e-01 3.070063355586521298e-02
-8.978060048135055871e-01 2.104809190482037906e-01 -4.366299423278178354e-02
-3.235574728843430004e-01 -4.487127100201476759e-01 2.773735843328074477e-02
-3.732574251663028919e-01 -4.765347448760848259e-01 3.868211010462307975e-02
-4.128760382808970286e-01 1.117875181306034055e-01 -7.576898676115520481e-02
2.542473700850585994e-01 7.080098930404546964e-01 -2.676264155089352337e-01
-6.643949128838420037e-01 -2.027661964671970407e-01 1.467644798300619252e-02
-3.100747742996901590e-01 -2.651837553777511292e-01 -1.073807758369951272e-02
-3.280777142211603881e-01 9.916038762519729932e-02 -8.231765049181091753e-02
3.898457393716655006e-01 7.941181903239802331e-01 -2.995454563514741153e-01
-7.695498531890728744e-01 -8.242442385880177635e-02 1.676064192291623926e-03
3.971058916379963111e-01 -3.536645228858333878e-01 -6.874547727245224060e-02
5.022066497322180689e-01 1.687512611223092596e-01 -1.854232427862793908e-01
3.743677314518063515e-01 4.221890709559916743e-01 -2.228440149730627762e-01
-3.540338154173168772e-01 -6.464193138296683294e-01 7.089621571411282297e-02
5.139132880858929830e-01 6.704614610455271739e-01 -2.879050008895132073e-01
-1.879729574644838086e-01 4.388922062521030121e-01 -1.658916465430751441e-01
-1.649231382418490099e-01 3.394236711811990381e-01 -1.482952494770631013e-01
-6.741339035515947486e-01 -4.370424580698156758e-02 -1.637148343108430631e-02
4.576808058584940775e-01 1.506708273160053402e-01 -1.769990025641177134e-01
-4.943394979815262658e-01 3.751537187304223031e-01 -1.201676364118980378e-01
2.281662292365551903e-01 6.227038327693015241e-01 -2.476171755497704463e-01
1.574328111913112782e-01 -4.607706718145349600e-01 -2.142575090177610553e-02
2.197804625632592823e-01 6.819843619703066517e-01 -2.586781822472462022e-01
-5.807304456280886623e-02 -3.345206576155344003e-01 -2.378082265618648022e-02
5.862925652084551714e-02 -6.529098155232547773e-01 2.793928212579139050e-02
-1.020395352626970037e-01 5.447470538744081381e-01 -1.964672170524299766e-01
-3.491192644206922990e-01 3.570741429874477180e-01 -1.320976777427188553e-01
5.472395413824788779e-01 5.567761625510567747e-01 -2.685425587758604182e-01
4.312681320977712063e-01 7.341124263736752420e-01 -2.918819719485614139e-01
-3.963866048218858684e-01 -4.895910680712516339e-01 4.379745097790790909e-02
-4.855522617363488003e-01 -7.802910310812936068e-01 1.120144387644373962e-01
6.022547852654843714e-01 -1.266468689608093653e-02 -1.595526114393228945e-01
-7.941377608650993514e-01 2.327721228548006727e-01 -5.928102706340175609e-02
5.516329168102798164e-01 2.031934046196260113e-01 -1.976743216246277801e-01
-4.680960842846266234e-01 4.578759287239324016e-01 -1.396729609762793201e-01
2.045863394119498690e-01 1.026382100671624636e-01 -1.401583465610441726e-01
-1.935115738342146896e-01 -1.412183003619559840e-01 -4.825334181612891959e-02
6.331230112640801044e-01 2.298081169691914005e-01 -2.117856180343061501e-01
-3.964054423269706140e-01 -2.343416870823571974e-01 -7.700118703385996737e-03
-4.790959493025314098e-01 7.040159943069033976e-02 -6.031546058931583354e-02
1.897621069320112874e-02 -3.065147626480868026e-01 -3.769643674747526207e-02
-2.991864809574838469e-01 -9.026335269957659613e-02 -4.719833363825540890e-02
3.907465819350185443e-01 4.894925784312901818e-01 -2.381802592837055366e-01
7.105451029483960124e-01 1.306337769464968879e-01 -2.000811053586039889e-01
1.869868912436279534e-02 3.336821434594242075e-01 -1.668339867694753065e-01
-6.305766515499577896e-02 -2.476268812071545922e-01 -4.077797130359500644e-02
1.196107456064312707e-01 -5.442124988281356046e-01 -5.331902296152038132e-04
5.649821589380825682e-01 -2.723115970809817932e-01 -1.031675235753582442e-01
-1.999064928682507403e-01 3.033223676795498425e-01 -1.372587102003864357e-01
1.331473576885385257e-01 -3.386904205308514659e-01 -4.345178314075320153e-02
2.454935589292609743e-01 -9.805163782716537491e-02 -1.040549166695727556e-01
-1.058603632843148623e-01 9.752548265514757175e-02 -1.058250989501038353e-01
3.105315019352828387e-01 -3.915430680096229077e-01 -5.181617538613594171e-02
4.356285443897849885e-01 -1.528843023909280396e-01 -1.133876028564382854e-01
5.458079888145954683e-01 -4.557713305678891547e-01 -6.409552819478964159e-02
-4.269118656289324631e-01 4.418422892071149910e-02 -6.062359459794217087e-02
-7.365685270138944141e-01 2.942292482675793464e-01 -7.785619700514768982e-02
6.708442695682212964e-01 -4.881484638678179611e-01 -7.097573010523383630e-02
2.665655394572780668e-01 -4.164015870375739614e-01 -4.208443468391757925e-02
-5.932473957335036019e-01 -3.450804751253193081e-01 3.575803015938760349e-02
-3.311710116040263996e-01 2.349987066787205814e-01 -1.093928239046832174e-01
-4.139239434635116344e-01 -6.507653305231398955e-01 7.819750491075955212e-02
3.558714199717997739e-01 7.945816982970679287e-01 -2.959945409790719628e-01
-4.046190112621307899e-01 -3.442366989526687848e-01 1.535357507840504759e-02
8.525126576608882401e-02 3.976423983202481693e-01 -1.868778381617153261e-01
-4.793214959488352467e-02 -3.079020298973677572e-01 -3.023926284792601005e-02
7.221359784354478561e-01 -1.737020951669574764e-01 -1.399210891910507293e-01
3.464905678963606794e-01 2.272652321390445929e-01 -1.805254281073216394e-01
-3.042291339274565964e-01 5.379063557084098335e-01 -1.733980970394030929e-01
-1.947120316154123953e-01 -3.331715565943920154e-01 -9.395722018221785640e-03
-3.508806034466198098e-01 3.146062446965385700e-02 -6.621234868026330822e-02
-6.366392909427847080e-01 2.030787715290542084e-01 -7.018494084421483814e-02
3.887340893333430802e-01 -7.547446363374601952e-02 -1.239755763259282328e-01
5.950053001658056617e-01 1.784133123959270872e-01 -1.973272103145800038e-01
-4.625743725865891220e-01 -8.889786847258389357e-02 -2.994717692879075854e-02
2.166330288552785477e-01 4.092643873062713766e-02 -1.289995160099105809e-01
-4.690122939130267898e-01 -4.254535190558371704e-01 3.864751520796708140e-02
3.228345243882185800e-02 1.747235766681334290e-01 -1.362194512556513804e-01
-4.890872901629601532e-01 1.352105919290089997e-01 -7.231966999747593827e-02
-8.681800853942124307e-01 1.058939067156332708e-01 -2.573930355047074001e-02
-1.327248827460242586e-01 2.393815889656409068e-01 -1.315644874819212051e-01
9.060361316886733629e-02 -6.029399877964257692e-01 1.442737953186235336e-02
-2.602125976268647167e-01 -7.533667458758743773e-01 8.240990361633490635e-02
-7.428601744149869734e-01 -2.437303834379715428e-01 3.135844653900427687e-02
4.502301874500505008e-01 -5.596156038788896447e-01 -3.289105997563613465e-02
-2.015845516478072252e-01 4.628732247163831054e-02 -8.521883509922997813e-02
3.735146645984420144e-01 -4.605239717758001228e-01 -4.465467916006788524e-02
3.169034720169554564e-01 -1.745989173041773423e-01 -9.627075398353536484e-02
4.602399344994562713e-01 -4.775000596108577855e-01 -5.053259311676532028e-02
-4.699877773717305862e-01 -9.483818866204231368e-02 -2.795340911047245261e-02
4.776118782046362976e-01 -2.843737335152873857e-01 -9.136161294987231452e-02
-3.284459752195544868e-01 -3.359308524342608515e-01 5.506671694561066088e-03
6.742176786185417880e-02 1.047721024892196533e-03 -1.049475829789791315e-01
8.148717342834198296e-03 -1.088267537091461984e-01 -7.642086965129346599e-02
6.520230058148260843e-01 4.572690780100159280e-01 -2.597059721356877460e-01
7.867367990647574638e-01 -1.645654830337444363e-01 -1.486942549965856175e-01
-3.133438040621926435e-01 -5.798554043489426713e-01 5.310132986156776425e-02
-4.430945875356434582e-01 -2.185485664855278398e-01 -5.878212023829385360e-03
-4.118378284543536966e-02 -6.138777655434263236e-01 3.077107234357436341e-02
-5.962209930313521200e-01 1.941162155567784375e-01 -7.271231962798188619e-02
-4.839087143588842732e-01 3.441063821158445446e-01 -1.150223806926291975e-01
-1.082201221980136352e-02 -2.452904789826547693e-01 -4.685269951391096699e-02
5.124588794908181422e-01 5.189248014342052739e-01 -2.571746675156609263e-01
-2.920778833338859015e-01 1.549999460702782272e-01 -9.744565449738197549e-02
4.875898325423184132e-01 8.250585982653453332e-01 -3.162730836011871660e-01
2.360103658626047304e-02 5.559053844140455780e-01 -2.121960376651239877e-01
1.798925427249297437e-01 -2.485196552208690235e-01 -6.665917215274662355e-02
-7.035951633593523491e-01 -2.515993613481165014e-01 2.873413877404839764e-02
-7.492845681557182003e-01 -1.130591578660353480e-01 5.683123054343894830e-03
8.685998166578748902e-01 -2.191624380059317700e-01 -1.464601377474701871e-01
4.420534670258848275e-01 -1.200410525013673319e-01 -1.207033211411385060e-01
-4.494137526798357984e-01 -7.806160024070839532e-01 1.082034188229803601e-01
2.095565841157740958e-02 -4.656972295748081359e-01 -5.791821665019433567e-03
4.131310302590628092e-02 2.895013504104438917e-01 -1.603458414441498170e-01
6.792316194477137081e-01 -4.454119288011449407e-01 -8.049804608206964640e-02
5.579618225942593046e-01 -4.096076607273997638e-02 -1.490922248095202796e-01
6.924338426842666649e-01 -4.717264192564940006e-01 -7.660499122600898658e-02
4.370456690231985242e-01 -5.282208779321333481e-01 -3.781101180318439947e-02
6.256078300075715859e-01 3.840212505622725425e-01 -2.420937916712774807e-01
-5.144825168094645518e-01 -4.081284240289618226e-01 4.002957377752031781e-02
-6.675762078774980512e-01 4.291947621415417163e-02 -3.455229250926834805e-02
-7.703707423917631747e-01 -1.198052534117777235e-01 9.306146953178873887e-03
6.945734194552434515e-02 -1.878776410780808315e-01 -6.704800667322771690e-02
6.079131580907262689e-02 -6.890066290475733712e-01 3.499031780307405165e-02
4.412279113281081799e-01 -2.244450612772753151e-01 -9.955001636635715800e-02
1.858789736566710260e-01 -3.154568558500686626e-01 -5.379596383557901790e-02
8.671311199741117415e-01 -2.967572583412068088e-01 -1.306469148595727214e-01
-5.514912223849990358e-01 2.278577202579528671e-01 -8.431824195004831990e-02
9.003031748060094097e-01 -3.609517360260890428e-01 -1.212532919975828766e-01
-5.584261370366031541e-01 -4.827866358798149071e-01 5.980659657244081356e-02
2.440769054099978241e-01 -4.271637234534931826e-01 -3.750068469207125388e-02
1.811073474315170184e-01 6.183326621874386531e-01 -2.416872222002031667e-01
5.392712675175254100e-01 4.733649316858605793e-01 -2.508585948252696762e-01
-4.426405094544674235e-01 2.903855951575504690e-01 -1.086104251847289093e-01
-2.979675435649662418e-01 1.202328038515860786e-01 -8.979918584398070835e-02
-6.846642834823532531e-02 3.653206099296191778e-01 -1.638671990704287373e-01
-6.156994223944010081e-01 1.848810949097795808e-01 -6.875956857836876268e-02
-4.310860565161095392e-01 -6.841441994128357740e-01 8.677307174097262377e-02
1.938032113325439398e-01 2.339978056692955943e-01 -1.655049943594255613e-01
-2.568753787923395704e-01 -7.338382958816421775e-01 7.811182289757070962e-02
-4.647201893814620344e-01 2.057508291306327231e-01 -8.916586450016548981e-02
-5.027489127196458490e-02 -5.913754718387085330e-01 2.720617310472955505e-02
3.202569029262741229e-01 -3.981999306378222747e-02 -1.238237240569408787e-01
-9.121697890393333230e-01 3.150934749992163053e-01 -6.322901164177810451e-02
-4.738793277603431386e-01 -8.217647511621841705e-01 1.191300952517597017e-01
-4.948438189219280803e-01 3.549400564035069539e-01 -1.160351916313823589e-01
-7.139338952340393840e-01 -1.560117853318177851e-02 -1.777225570869432961e-02
-2.265605812397918084e-01 4.971079381443461731e-01 -1.734980571079691170e-01
-6.189059359224064610e-02 1.581917680354913425e-01 -1.227818896667736553e-01
-8.575037516178688479e-01 6.879916508285002785e-02 -1.940025235982768131e-02
4.787519752499788117e-01 -1.344820568895138402e-01 -1.217263352162851892e-01
3.484263826891708660e-01 -3.776271080401546465e-01 -5.868887856674667725e-02
-3.433881901061922592e-01 -2.767221834018243620e-01 -4.836524547918953296e-03
7.537339932703484013e-01 1.652945287723260881e-01 -2.117072060805329781e-01
-2.346821205055903969e-01 -6.371981177200313207e-01 5.623284432791383208e-02
-6.060068367847615267e-01 3.976347763691189807e-01 -1.127248735429668414e-01
-2.413932627436857214e-01 4.491797649854834540e-01 -1.622368742530371499e-01
-3.905090733328414054e-01 -6.905387144842747293e-01 8.371053803516917413e-02
-3.816413137434949143e-01 -1.952227872142963394e-01 -1.717657248756877114e-02
-4.205431937553206767e-01 3.357570392438304352e-01 -1.201350367194888441e-01
-2.325042156869311094e-01 -6.572987738999843677e-01 6.005476576045028908e-02
5.593207038159145328e-03 5.831542891815485463e-01 -2.157621231208515789e-01
3.129823623389674236e-01 6.918679938655816208e-01 -2.706701129505384440e-01
6.337787780348859146e-01 -2.796392517031708880e-01 -1.090689125980196655e-01
5.442806447340072795e-01 -9.645113963569737492e-02 -1.364288003994414411e-01
-7.549911381031848730e-03 4.615380504662915384e-01 -1.898147387993282531e-01
1.097762027376081445e-01 4.235128553322503597e-01 -1.947283057647419269e-01
5.972633448268895862e-01 -6.035609464841152488e-02 -1.493948711649674688e-01
-2.380858997741333305e-01 3.786784074365432962e-01 -1.483671707195466372e-01
-1.490793715050262869e-01 3.461574369595450951e-01 -1.513534313563169309e-01
-7.576290510101761910e-01 -2.074303367082467875e-01 2.561874254720517344e-02
2.352291911370616162e-01 -1.235401163528121633e-02 -1.202443680404107207e-01
-5.472626458896796553e-01 -4.120232915712921939e-01 4.433174201973549139e-02
7.210037149561848713e-02 -5.771944449366213092e-01 1.121775815450637079e-02
-4.934378469245553900e-01 2.055627131453645062e-01 -8.604735967579137113e-02
-8.337913341025901537e-02 -5.839004297936385424e-01 2.924909490522472136e-02
-5.011363830797628260e-01 2.091437588005707060e-01 -8.594405424692036499e-02
3.755497314924181040e-01 -2.211138745734036459e-01 -9.317680828211441502e-02
-6.005833463355768620e-01 -4.972537286348314711e-01 6.724771836219481380e-02
2.652770514734458795e-01 4.852498499870633863e-01 -2.238650910784217019e-01
3.713607180804604502e-01 3.769720285004415916e-01 -2.133983772282075642e-01
-7.728211609248075709e-01 -6.699186471316001534e-02 -1.086723690527472384e-03
-6.330052602208647849e-01 -1.341661251372515129e-01 -2.531605909590212318e-03
-3.161752882159122868e-01 4.938556259584060970e-01 -1.632288728713388593e-01
-1.983905359117660652e-02 1.187609135908945929e-01 -1.193371260994468691e-01
2.573619708630818237e-01 1.103007539926459252e-01 -1.473656106665865162e-01
3.751552885054042497e-01 -7.284380878899336664e-02 -1.230497408387524055e-01
1.564885590845004615e-01 6.039648723020950571e-01 -2.361474866745779944e-01
-6.212833286298619084e-01 3.553768784589576013e-01 -1.025601283357833876e-01
3.010120190353861580e-01 5.626974664005074400e-01 -2.433243651400004148e-01
-6.668813888564692482e-02 2.027888484533419411e-01 -1.312652457876267165e-01
-6.208495095241357564e-01 -2.173717555880783359e-01 1.295216665071803434e-02
-1.029605563796569812e-01 3.094639624788955712e-02 -9.270304150607257265e-02
6.811580254247796562e-01 -4.650974937979185930e-01 -7.673289587691620173e-02
3.224120413214122127e-01 2.734151588843877212e-01 -1.872538137869333985e-01
-6.990492913600940827e-01 4.117022901260533607e-01 -1.055824743096144686e-01
5.382809014788715318e-01 3.625318483424695704e-02 -1.625598780655223841e-01
2.491753001788060418e-01 -2.239807170154690594e-02 -1.197138623287632292e-01
5.596485948872459426e-01 2.269904470940320163e-01 -2.033355009847955530e-01
-7.559821960210102443e-01 2.872886074919094312e-01 -7.437333134603767160e-02
9.097321464842619831e-02 -1.598508762072884115e-01 -7.501075190019526606e-02
2.787787999186914223e-01 -1.633048850556933773e-01 -9.445981599999493661e-02
5.049816977450798383e-01 5.514751945012005135e-02 -1.628000204186092481e-01
5.262876302600972833e-01 7.259901316674308713e-01 -3.004359675998212187e-01
-4.926482241085650138e-01 -6.442188469079436486e-02 -3.165946753629301363e-02
2.319421066024261457e-01 4.057333375246020557e-01 -2.042458437224607681e-01
8.677271422714162297e-01 -3.600774854500976563e-01 -1.179352433937467665e-01
-2.186142592697255249e-01 -1.526577079741482657e-01 -4.325253439082625551e-02
4.711037265122957618e-01 3.600480133808003358e-01 -2.206832134891790476e-01
6.120022697092940556e-01 -2.068318470327767389e-01 -1.214226987244711176e-01
-2.044366087303056967e-01 2.307711374655308512e-01 -1.221346922578053218e-01
-4.659096321515387995e-01 -7.956783599512893268e-01 1.130119451784060980e-01
8.774404676733731090e-03 2.161157819286220194e-01 -1.420489983219772046e-01
6.313112443305748944e-02 2.040162748726548521e-03 -1.046875614924546033e-01
5.814647694455626903e-01 7.440009472075746755e-02 -1.748888137797489917e-01
5.461737737861194208e-01 3.591980216396883363e-01 -2.285645000208218203e-01
5.745493946288499076e-01 -3.712875982988841916e-01 -8.422422100270443579e-02
2.186139742596800439e-01 -4.151157021321785767e-01 -3.720010101571513683e-02
-5.038035090554120465e-01 -3.820061220172779604e-01 3.361354969347062072e-02
9.181884679087405632e-02 -1.525459136008260608e-01 -7.657532592564060547e-02
2.258780079207524036e-02 -1.056725567310228403e-01 -7.860615034223013275e-02
3.288061516531890494e-01 6.918091497094662756e-01 -2.723556622184714060e-01
2.088880456691828980e-01 -2.973742810093973343e-01 -5.991252662335504880e-02
7.511277034867070990e-01 -3.970218711567322784e-02 -1.700671096305542140e-01
2.667508207961753475e-01 2.247918712921076756e-01 -1.714726959196747891e-01
2.075667475342812818e-01 3.010118080682614439e-01 -1.805022821801262056e-01
6.568387922838420101e-01 -2.036063791294911440e-01 -1.268830999466562248e-01
-2.349960873423468100e-01 2.170648409663768208e-01 -1.160911615625759008e-01
-2.670097352147325354e-01 -6.773883553521994338e-01 6.780949269381775224e-02
-5.253264037733845759e-01 -4.475370806940041635e-01 4.914396414917480277e-02
-2.303509627023548056e-01 -3.217740262621238134e-02 -6.630186606733523558e-02
3.050086806863714362e-01 3.853194522997568372e-01 -2.079649696144770521e-01
-2.188720564789689571e-01 -6.243610586113301775e-01 5.194686591995571756e-02
-6.845210784302215856e-01 -3.634403243831303421e-01 4.925329793988811322e-02
-3.730973859484908450e-01 -4.004716266102982813e-01 2.331830628678135606e-02
-7.527031238217264386e-01 -1.297359404888356327e-01 9.414571076348741616e-03
-3.239448869212595561e-01 -6.565622884152119143e-01 6.971503438726005253e-02
7.388454513146259783e-01 4.401135114841553397e-02 -1.856397887725985685e-01
-3.003599057495391356e-01 -6.161467166052508881e-01 5.903074662945022311e-02
4.667294525660224402e-01 8.100801016252845432e-01 -3.110132961345710711e-01
1.990559676305839465e-01 -5.298855981255249370e-01 -1.194592091254967348e-02
6.722707300188301982e-01 4.947380631250576921e-01 -1.923535245340266819e-01
8.708397753521571749e-01 -6.752829140137873998e-02 -1.338350541034605268e-01
5.740095037105160669e-01 7.666925790732688206e-01 -2.333437429156737797e-01
9.974497827171213693e-01 -3.500857341398144751e-01 4.897312205495908677e-02
6.133697352227969191e-01 6.697469932204377363e-01 -1.939545248386904397e-01
8.219837461087075026e-01 6.969493986808270036e-02 -1.503729096708982527e-01
8.349005717505877389e-01 7.131477970834390612e-02 -7.339711697141573787e-02
7.404459618544972921e-01 3.459592604840225349e-01 -8.746379279750060576e-02
6.494153884697787538e-01 5.380381585978772918e-01 -2.401167924337280768e-01
6.480582584557774695e-01 5.523036471408153680e-01 -2.205503360718984729e-01
8.093673748318993555e-01 1.633533758229912536e-01 -4.310823890247602458e-02
7.243298227234732378e-01 3.566389745452027138e-01 -1.591748636885347012e-01
5.599194297924540153e-01 8.118407232651695393e-01 -2.274372485460780524e-01
7.829923134313389044e-01 2.410191530628959522e-01 -4.516771185219885937e-02
7.990130178830904262e-01 1.436535106777409310e-01 -1.400644367255704237e-01
6.581960976800974583e-01 5.281670088634199400e-01 -2.088088840040016325e-01
6.773624704160960963e-01 5.128355724198333521e-01 -1.285643853524601754e-01
9.564629989754875883e-01 -2.503780419750178399e-01 5.572773556457957453e-03
6.402142443115215187e-01 6.175585437500207275e-01 -1.404039713776876475e-01
9.378885769083603607e-01 -2.571973599592538018e-01 -1.137199242252363157e-01
7.434532938195261842e-01 2.760770831973221595e-01 -2.041360222893111864e-01
5.764028996276865380e-01 8.059027681912187546e-01 -1.445417088126482730e-01
6.182195138199981788e-01 6.192176884563385109e-01 -2.630158067924375787e-01
8.537320758597393144e-01 -2.327264129524462058e-02 -1.468964110140287271e-01
7.323360833024848970e-01 3.358237628133337593e-01 -1.532613667996479689e-01
8.250675313494942875e-01 6.873059608194609371e-02 -1.345837805493681205e-01
8.209795857957918885e-01 6.748735750484438634e-02 -1.603448184313090719e-01
5.461515025040998284e-01 8.151350876021870029e-01 -2.998665685340385911e-01
7.939630323089599262e-01 2.092257318934265808e-01 -4.333083325318786566e-02
