6.427665803333033612e-01 -4.866455443905231583e-03 7.552045439837172802e-01
-4.845085840607964434e-01 7.063553516133367349e-01 4.852436852667267875e-01
-5.143753703580682402e-01 8.619084407995092345e-01 4.089453826870692033e-01
2.111491397449338780e-01 3.188395376883982890e-01 6.258483681083928385e-01
-1.232977581066137251e-01 6.126469806355189229e-01 5.038767420884174841e-01
-3.708499566328229413e-01 5.961870100696052832e-01 5.319146355795949521e-01
8.170942373065387399e-01 -1.461430673666292146e-01 8.127785321074149083e-01
-4.016714490858062092e-01 5.606947642806248133e-01 5.523204496969587041e-01
7.313829734212345945e-02 2.284038745991097963e-01 6.825793294101556441e-01
-5.702454765897471134e-01 7.756279855514596200e-01 -4.785403950290648828e-02
-1.087083732163015432e-01 -1.084314840132622393e-03 -5.783436372171982809e-01
4.719151029977556866e-01 9.863044166990428407e-02 5.914329635813224684e-01
6.027406356824136502e-01 -3.893516402655949338e-01 -1.585102536275190266e-02
-1.991933850880582557e-01 4.157269446019355719e-02 -6.613560249437240302e-01
-1.675318164501248541e-01 1.779318989233724113e-01 -3.742076676171590122e-01
4.341196390371641206e-02 3.989290000733599628e-01 3.660074310542185683e-01
-6.109098486665188732e-01 4.373567676644118385e-01 -6.949761470399915542e-01
5.285532244472268548e-01 -2.645273637428179336e-01 6.937825276126106944e-02
5.980300306018664358e-01 -1.026115929397297399e-01 4.652339635949679364e-01
2.347470615758475987e-01 1.531407102628159766e-01 2.760992650373667034e-01
-3.652937447605908439e-01 2.466287248126959875e-01 -5.974929053299555815e-01
4.185652019485660014e-01 -4.731727272859417854e-01 -4.759488851636990425e-01
7.160017211378357782e-01 -5.306848744608011481e-01 -6.197253787284863480e-02
-3.140061350678847486e-03 8.450163098285967678e-02 -2.505724336868490609e-01
1.729620362618317364e-01 -6.951769801167395624e-02 -2.101440108477817537e-01
7.507690777409107286e-01 -3.325174168241844530e-01 3.359715235962963398e-01
-3.202402507435556656e-01 1.038293397425702341e-01 -7.635485294520906185e-01
-5.708448350649972802e-01 8.767900891252436990e-01 1.237024877751462387e-01
-2.184488878749513488e-02 1.009629222162492235e-01 -2.546925483957764857e-01
3.604013409238301935e-01 1.512208858442483927e-01 4.891624682568011528e-01
-1.255028225657689178e-01 2.893022122152479891e-01 -1.118422540867638759e-01
3.018202720048835386e-01 -2.610743517579676154e-01 -3.150960428993583307e-01
-2.896063491776018073e-01 4.960504200102807126e-01 -4.165424066668031028e-02
-5.418308869700585451e-01 6.915081689465184533e-01 -1.424460459503421039e-01
-4.113643137692065133e-01 4.927223321362980690e-01 -2.569624163538379302e-01
4.887333746067348272e-01 4.868350521347570431e-02 5.351765406321628005e-01
-8.495627443864313399e-02 3.999092543955520135e-02 -4.673729791442146064e-01
-5.952670978724925455e-01 4.867801556265775043e-01 -5.837248990037090524e-01
-6.457287979036205883e-01 4.248575654385853273e-01 -7.762481777643930325e-01
2.292518009517988953e-01 -8.497673678202029290e-02 -1.396041393843972800e-01
7.886150382307762774e-01 -3.207069420019450501e-01 4.212801399969425820e-01
7.699387300825688563e-01 -7.869150648068430343e-01 -4.062530056061623429e-01
-2.429991873663499835e-01 1.603834371144267357e-01 -5.340782754283124323e-01
-6.099969520976383786e-01 7.949741321916050651e-01 -8.328836360986194287e-02
3.297789745007257411e-01 -7.277874206997703155e-02 5.428363492034972426e-02
4.339882267021893947e-02 -1.195193180695910268e-01 -5.185182208884326904e-01
2.188945791254388595e-01 -3.476350072021139881e-01 -6.055464394980872855e-01
4.796563919816001498e-01 -1.897484029763055191e-01 1.127700088765994507e-01
5.160529584796218483e-01 -2.141261520615686254e-01 1.338439909889956592e-01
-3.218694933620054877e-01 2.823468143369792793e-01 -4.617923817510505291e-01
4.122656425709570471e-01 -3.636098098792984734e-01 -2.998740962560358936e-01
5.283190057852782395e-01 -5.638288412398058391e-02 4.240816044904406890e-01
5.227779800805840704e-01 -8.252539741281957400e-03 4.966548105882238606e-01
1.589723289395746086e-02 2.191630574175700563e-01 1.194424614729725116e-02
2.337054366493745705e-01 3.561300608676298135e-02 7.379679453815157775e-02
-7.779049868698750814e-02 1.567161244699609712e-01 -2.558956999992506032e-01
1.049744673620281871e-01 -2.122647591832705315e-03 -2.122180903303882149e-01
1.669815883503830978e-01 -7.666611923738674006e-02 -2.326361501622036809e-01
2.822667988328028676e-01 6.747509734114172375e-02 2.117633062455958615e-01
7.296825796910357820e-01 -7.076362176291812744e-01 -3.403075489280299459e-01
-8.049019940290873254e-02 3.956927096117812126e-01 1.471642076330430260e-01
3.488209123407273182e-01 -1.126596933795898786e-01 1.902884731652354153e-02
3.685416294878406940e-01 -3.430553663522056262e-01 -3.400864996184287947e-01
-3.514196450857002274e-01 7.041235852006521023e-01 2.069069614859976591e-01
-1.753614233410800971e-01 2.003848144055836167e-01 -3.493818930180113691e-01
-3.964019153284054076e-01 4.806295277920100140e-01 -2.518327355577117954e-01
-1.701885132000463541e-01 3.217295459302309535e-01 -1.334545321694440845e-01
4.063145993421798385e-01 -1.996019903826231831e-02 2.761662645978565922e-01
1.210490187645654192e-01 -2.092565202315746151e-02 -2.166216118207114349e-01
4.788196877870981027e-01 -1.321410538290438141e-01 2.096109510454278735e-01
-5.338941740665584801e-01 5.578616289574758191e-01 -3.567902161570590813e-01
5.453156605820326241e-01 -1.954335548406714029e-01 2.161161429399446610e-01
-5.461088061704313379e-01 3.562985655053446110e-01 -7.216984316277760270e-01
1.131294302508737415e-01 -1.560955318810327286e-01 -4.608644275397393852e-01
4.238538121761793454e-01 -5.014285492307464231e-01 -5.150495812795503614e-01
4.915003922394780567e-01 -3.187669600305665374e-01 -8.695138985465465653e-02
7.748569379013561242e-01 -1.850401203163408448e-01 6.290483659716399334e-01
-3.314187159185184028e-01 7.168130742960395763e-01 2.629914991030358196e-01
-5.702942167112786676e-01 5.219138839656424222e-01 -4.807889895711742190e-01
3.532789381738202783e-01 1.977343474535251666e-01 5.562545268151112277e-01
3.421367037414957957e-01 -2.438886665079166571e-01 -2.163636026919709687e-01
3.381721600461812804e-01 1.661669259627282513e-01 4.763893798382820011e-01
7.815044936418009958e-02 4.506121041634249536e-01 5.139909463419712887e-01
6.171240905738301086e-01 -5.944727330495968021e-01 -3.410356122817662650e-01
-3.635346470915243322e-01 7.530688790929742638e-01 2.695521267911644703e-01
4.468616844228067708e-01 -4.618924860389664322e-01 -4.079861811934670790e-01
4.793026256834114207e-01 -3.598689464360418921e-01 -1.780746247975789343e-01
-1.973623018763269454e-01 3.249847825912784982e-01 -1.746859262339183760e-01
6.544624242355958632e-01 -2.110025202919136866e-01 3.774721842637971947e-01
-4.067352770392790862e-01 4.088929026274584766e-01 -3.920105091421624555e-01
-5.233376199476711399e-01 6.486631662792771147e-01 -1.837023224428526169e-01
1.374589541420154770e-01 1.098446529121517440e-01 3.473307348615962270e-02
-1.740953290257367947e-01 2.025808189780023971e-01 -3.434555511387230031e-01
3.111396540921648746e-01 -1.946062786709348846e-01 -1.856524912047547715e-01
1.186027014250568001e-01 -2.316311779464671761e-01 -5.803093272141002235e-01
8.081389338127172861e-01 -4.535939971442173313e-01 2.281813072691456779e-01
3.249828329040114760e-01 -1.661600654185095838e-01 -1.132878418159029843e-01
2.144045491143831972e-01 -2.534982808201680093e-01 -4.526741705324047738e-01
2.128428376613616391e-01 -3.103765510551821372e-01 -5.524006054873954463e-01
2.386302538641920379e-01 -2.214095877042632221e-02 -1.625579261014339569e-02
2.023817256696027744e-01 -3.308865644332598666e-01 -6.054027429876656097e-01
-7.275766810019106134e-02 5.869135512553969036e-01 4.867111729843650036e-01
2.284752829262294282e-01 4.422515286780973054e-02 7.948488107878312614e-02
1.918262199442898608e-01 -3.021650148570139693e-01 -5.745754840575278966e-01
3.562935579267340058e-01 1.709927500494405894e-01 5.158220644715613146e-01
4.247072687583881567e-01 -2.370261817705968388e-01 -6.249434958317538064e-02
-1.783178522602569538e-01 5.343315131462680334e-01 2.152605517021629056e-01
-3.020474232510991230e-01 3.551111863010349978e-01 -3.035245360346741084e-01
-1.208329085751025794e-01 1.518278411901076153e-01 -3.383413633055626368e-01
4.564904203910484792e-01 -4.022204019897172023e-01 -2.896043691156323652e-01
1.791004208664349340e-01 1.770486605796586788e-01 2.210809930814249535e-01
-4.526389754576928270e-01 4.306044043613400096e-01 -4.340016604700326353e-01
-2.467346855158890906e-01 4.481333965084293158e-01 -4.959147945218360387e-02
-2.582839694465611236e-01 3.834320139794128446e-01 -1.798601684015032620e-01
3.932695386488687661e-01 -7.745259425798591002e-02 1.556212542239528429e-01
8.416123525789207527e-01 -1.963918282941992666e-01 7.246142561548156724e-01
-3.357319259349323959e-01 8.039364328409984717e-01 4.042029844288441143e-01
-5.795567094925231366e-01 9.839399395322604436e-01 2.915071694103172351e-01
-1.476301872359464251e-01 4.407346929428138799e-02 -5.683133791150509762e-01
1.433215012877099570e-01 1.565534466171813743e-01 1.245145230261411606e-01
1.068010776303053161e-01 1.773320183278730144e-01 9.708689024560811232e-02
2.093696596209211336e-01 5.322499484649428902e-02 6.194505051222441716e-02
1.242068221323427840e-01 -1.541158950535129191e-01 -4.384151447575188043e-01
2.736642109777404630e-01 -2.345598973445931490e-01 -3.183370316805260170e-01
3.578827931852665567e-02 2.118164888135340707e-01 3.365691763384081464e-02
-5.487425462119205344e-01 7.763725526617003547e-01 -9.562244242766351418e-03
-4.722447495906011428e-01 4.348223136594541183e-01 -4.605608546430747796e-01
8.086332197503596220e-01 -3.529279648502694489e-01 4.007744318310734744e-01
7.183419043180945263e-01 -6.429234363465855528e-01 -2.494289763203262622e-01
4.367088879642225252e-01 1.492416058841359583e-01 6.171641395653580942e-01
-3.288236666903203154e-01 7.714788885520784678e-01 3.607224493495143069e-01
6.890818730368720724e-01 -6.089790984337509760e-01 -2.418948528576461698e-01
2.231430773827020597e-01 -2.698555884839584640e-01 -4.655355963944794451e-01
8.188634184981496977e-01 -1.478939201545488025e-01 7.681877514600311541e-01
-3.802409414356895945e-01 3.593043600350951383e-01 -4.309962455771521039e-01
5.242788907283684186e-01 -2.459503435945668282e-01 9.371262562551747888e-02
6.956474586842201768e-01 -3.552141552846668215e-01 2.023468661427911264e-01
7.871088750938499690e-01 -1.838675476136338027e-01 6.521429609258458937e-01
-3.782693673480568286e-01 2.149297004514528209e-01 -6.739133713913217916e-01
5.327567463707141154e-02 7.674982525840463865e-02 -1.666666894099268770e-01
-1.842992931769111553e-01 1.719649192250156666e-01 -4.132561888492263802e-01
6.507747073384941849e-01 -5.282578308654360955e-01 -1.701329828181913362e-01
-3.295754204945101629e-01 5.088918092423515560e-01 -8.856069371544526836e-02
-9.840062602751332987e-02 2.787092084611360043e-01 -8.325277799138304513e-02
-4.591066386710043190e-01 6.967025493191310037e-01 8.841919928995580283e-03
2.190695715489310302e-01 -2.442260562557515280e-01 -4.288234624916000826e-01
-2.687885978803202236e-01 1.127800739229446181e-01 -6.596939239329896454e-01
1.928796636426560740e-01 2.569317537774656879e-01 3.810898770441970562e-01
-1.308849859115998777e-02 -1.462926647638762845e-01 -6.614491341559718407e-01
-2.384010518430368653e-01 9.788014930520924639e-02 -6.327959308789427029e-01
1.282304742021366517e-01 3.999369689137121098e-01 5.137588186270034551e-01
2.372857029070053192e-01 -2.611214692109554147e-01 -4.262853710628056181e-01
6.093740724581101498e-01 -3.748863481045274226e-01 2.024837057901350545e-02
3.099322855825561301e-02 3.133288115390793771e-01 1.985872303759168012e-01
1.314328023186385197e-01 -3.932977179735713813e-02 -2.301423880553592483e-01
7.597189180988055124e-02 3.139287525301789894e-01 2.770503726498422803e-01
-1.019015221066447707e-01 4.524342270158823731e-01 2.071047413289144878e-01
6.388183854093572034e-01 6.216804168467304596e-03 7.211267160858498837e-01
7.201729690510381109e-03 1.447942814279409851e-01 -1.299042347563286459e-01
1.306895524266726838e-01 -1.974794792683675082e-01 -5.012346508636719156e-01
-1.816948591704232174e-01 3.625111171610030381e-01 -8.368923222622330627e-02
3.125963899915651933e-01 2.711828705949785867e-01 6.115189835195480317e-01
7.585439230044801473e-01 -2.404119910778920732e-01 5.064946684487945383e-01
4.832800086717458643e-01 -2.932193323287504705e-01 -5.751865480815837595e-02
-1.367948919217166770e-01 7.093905021801926759e-03 -6.127475793267354032e-01
5.360528513783285876e-01 -3.353474604673110648e-01 -3.853287543456229702e-02
-5.417603472794037256e-02 5.312865238502831877e-01 4.238001578628957655e-01
-3.500405210735134665e-01 4.249956834553844098e-01 -2.669270631194837207e-01
2.112941206135894034e-01 -2.127203260232212179e-01 -3.884598185451790808e-01
-3.086137548619816151e-01 2.540719346245008392e-01 -4.872086145064364326e-01
-1.595644428865098663e-01 2.151041886778762291e-01 -2.970721769319519812e-01
5.292512532857152063e-01 -1.305869328953498595e-02 4.996002446613751480e-01
-5.166870739814832802e-01 9.149180539462726802e-01 2.819942452420207135e-01
7.730876018181783715e-01 -5.726889043705736260e-01 -3.534929722244607025e-02
2.626561252948925729e-01 -1.526033023918150766e-01 -1.974668901083370398e-01
2.855236542624867147e-02 2.426070859540821467e-01 7.372942192338606537e-02
8.259275767441247584e-01 -4.564908017780106020e-01 2.538658344783339404e-01
1.145146750421225240e-01 1.435899826661489465e-02 -1.676741001915065254e-01
-1.026256321551852063e-01 1.483499707317575134e-01 -3.129274084156928315e-01
8.241761242059574277e-01 -2.854360638850197418e-01 5.426797103212297468e-01
5.075277492030717541e-01 -3.833980825620638133e-01 -1.696216044913164966e-01
2.659503699371905672e-01 -3.254385530337386423e-01 -4.866622046063021068e-01
-1.148702895890740261e-01 3.672401457694032256e-01 3.943039492031820414e-02
5.967281002240406584e-01 -5.915620040708298166e-01 -3.711854447244515853e-01
-2.732410702442176209e-01 3.867916991965836271e-01 -1.998799381376032969e-01
3.945101566567136842e-01 -4.389863879566996419e-01 -4.590404869244812391e-01
1.016604609267032916e-01 3.287463120319382703e-01 3.465579122344036311e-01
6.851384922594171423e-01 -2.786188218844418696e-01 3.149297151401868056e-01
-2.805430913664627712e-01 7.400392397203678918e-01 3.902090758291135719e-01
-3.006048364624109848e-01 6.530875653439425221e-01 2.073242182987593829e-01
-5.494615529743607230e-01 9.049571341032486282e-01 2.085726294048147744e-01
7.558911423014725850e-01 -7.570700178401935654e-01 -3.795213002156375692e-01
-2.247862518306032453e-01 4.607912918057259222e-01 9.792169056966419302e-03
-3.101825782115975594e-01 5.793689910079675709e-01 6.506607225181819387e-02
-2.585520570422019104e-01 2.924325142753220197e-01 -3.355721804591898505e-01
3.843209335567495111e-01 2.639497149958822120e-02 3.173844675508372126e-01
3.663030146551398691e-01 -4.120722737381409817e-01 -4.616875787365495309e-01
6.549747955074699535e-01 -6.132365558538516170e-01 -3.078803598777740680e-01
6.910701433915208414e-01 -2.648350636582751938e-01 3.486581125939881565e-01
2.241934961583235131e-01 -2.165465035891938061e-01 -3.727786903333947244e-01
4.965047845941866766e-01 -3.089636363262734386e-01 -6.161030373784422837e-02
-5.900408129848990768e-01 7.840611770101326705e-01 -6.754808548669670454e-02
-3.734301194846003646e-01 2.913650146192651169e-01 -5.351785573939978891e-01
5.372555909684252340e-01 8.930724883702435835e-02 6.880235443610868140e-01
4.247385442064975369e-01 -3.509611744338069772e-01 -2.568202361498845288e-01
1.324411203677481885e-01 1.851559451109249799e-01 1.545793373835342432e-01
7.270093714954543040e-01 -6.837315482257416699e-01 -3.041272438945262224e-01
5.144992596267607965e-01 -3.037619658554639376e-02 4.446571192676771478e-01
-4.247464080085504995e-02 5.288463971063028790e-01 4.397834087224338773e-01
4.679811788482678425e-01 -3.381890427326196824e-01 -1.605795419963408632e-01
2.510250811118570624e-01 -3.392809623374884453e-01 -5.359749789342851400e-01
7.931940260665037989e-01 -6.271509938880246438e-01 -9.364763331283393333e-02
3.054986316611611463e-01 9.023957767671256236e-02 2.905990013062428323e-01
-5.046361602013827996e-01 6.633554173810939369e-01 -1.264382481759968591e-01
-6.452511683576434010e-01 6.939232255878881039e-01 -3.163841572367155353e-01
-5.401443717447714787e-01 6.855396515162062165e-01 -1.497250169161578881e-01
6.409919581126898303e-01 -4.560633960580295354e-01 -6.380799751721071000e-02
-4.590481868049554603e-01 3.869637295476471839e-01 -5.194899103385316463e-01
2.603503672624535303e-01 -1.555741609138447390e-01 -2.065051633593011915e-01
4.277591230428919866e-01 -4.335495167175111852e-01 -3.925202382055936190e-01
-5.401364003049283768e-01 3.609424572039299783e-01 -7.034930115204148793e-01
7.624912658923831410e-01 -4.929431104021629317e-01 8.245799723066077336e-02
5.426293554533275776e-01 -4.460077473413658899e-01 -2.160030258459299801e-01
-2.604181978345737614e-01 5.480804281279317847e-01 9.736512216126896879e-02
-1.987246984450614928e-01 6.059904639751150235e-01 3.023804993836250454e-01
2.865708656698968682e-01 1.153436682141807113e-01 3.008401730590590795e-01
4.525476038971690262e-01 -4.952757216171489452e-01 -4.551504976561621119e-01
-4.486232284589616870e-01 4.449618399358369336e-01 -4.025931415266464364e-01
-4.984945889767612992e-01 8.565562050692775431e-01 2.137474700151791585e-01
3.179038999213233407e-01 1.820573804586415045e-01 4.686036277895171409e-01
1.310551861576129962e-01 -2.809245578443472224e-01 -6.429673046820940652e-01
-5.860259574229615964e-01 4.040722161841174831e-01 -7.089190214953128288e-01
5.321990763723651874e-01 -2.992320915950383853e-01 1.644701631106576870e-02
1.932620655463916093e-01 1.202916736264819791e-01 1.486323220081797458e-01
-2.029964603068220019e-01 3.291964271925281738e-01 -1.772009262091426007e-01
-1.802775502714734079e-01 4.878085602504990403e-02 -6.164911545100627555e-01
-5.971051677321022044e-01 8.299261532539674580e-01 -1.462439687117046043e-03
-2.464445710169896886e-01 2.997684259061753065e-01 -3.022112713943819196e-01
-1.520300199538619258e-02 4.440676305521197298e-01 3.420993808428524630e-01
4.799028062806553474e-01 -2.562691010268985381e-01 -2.939257201732978437e-04
-5.986457891060199543e-01 7.360027159461826063e-01 -1.643537765733605327e-01
-5.754859939952507997e-01 7.080636604958842062e-01 -1.721452937760964697e-01
6.397505330405298674e-01 -5.007703321227545690e-01 -1.422179915355439028e-01
-1.627818389122175635e-01 6.441863196347338283e-01 4.294275499608627422e-01
6.828762449543859248e-01 -5.112138308492022443e-01 -8.578582049280876476e-02
-2.576930299422962589e-01 3.322993171201166218e-01 -2.660781088759759383e-01
5.186192217822039874e-01 -3.193549033758693034e-01 -4.126406099140062650e-02
5.399324678982040382e-01 -9.459264439368811339e-02 3.788883853266062918e-01
-7.642650456220696775e-02 3.227545387477843142e-01 2.972388926880684817e-02
6.652687593960504575e-01 -6.185018100186804313e-01 -2.991401083416726503e-01
-4.117789797792612005e-01 3.069952126481136356e-01 -5.745376285280341389e-01
-2.236893926347078253e-03 3.106224387419141975e-01 1.367578145112547938e-01
7.615025907185042353e-01 -2.410755317413939280e-01 5.104565573377536358e-01
-1.898857839208737130e-01 3.242156347097074898e-01 -1.631258423706935801e-01
5.702513235606692099e-01 -1.200903700831234822e-01 3.875876485255305703e-01
-1.292584398925759603e-01 -6.772057696035628516e-02 -7.274099597738871159e-01
-1.516587829814920740e-01 5.616525052822646247e-01 3.077705823495129889e-01
1.578498661837295369e-01 1.584866895104952988e-01 1.528261832847255253e-01
4.822274026282572651e-02 -3.498476815905533777e-02 -3.659920330643755548e-01
-3.606238248293606730e-01 3.917457173165145301e-01 -3.418746791774940341e-01
-5.305265062845012647e-01 4.202403758190290106e-01 -5.857819875817349420e-01
-9.681782715943654249e-02 3.237291367619986593e-01 -3.721058912102442363e-03
-3.031037054620132065e-01 6.135127034525407197e-01 1.355049048932612243e-01
-4.372833053592921626e-01 7.247936963710706060e-01 9.434020993228328655e-02
-3.873293560899553900e-01 2.420091998778321762e-01 -6.433127192685985651e-01
-1.251001864597955926e-01 4.058178161019025953e-01 8.763336954233993947e-02
-3.450872446909266089e-01 5.106959512912097043e-01 -1.121893760414393038e-01
2.709803028913780887e-01 3.178325575726590468e-01 6.194557941781051458e-01
6.189480246680797992e-02 4.742615780535110459e-01 5.263510355184932710e-01
3.799943583995881724e-01 1.526634097470787321e-01 5.253567280589254151e-01
7.562493687400624331e-01 -3.637122046964073596e-01 2.921867965514720611e-01
-4.079993621793286951e-01 8.570772801428491183e-01 3.704417715058494487e-01
3.510175905647569539e-01 -3.656551604405571809e-01 -4.088141414451284539e-01
-2.557060174692794008e-01 5.992590019675435586e-01 1.927916944614640471e-01
3.296784545426165169e-01 -1.546549345437832068e-01 -8.557498301544891328e-02
3.588181369578350433e-01 5.368980017244648177e-03 2.376048253074419248e-01
5.954284897156379985e-01 -5.262184471292383758e-01 -2.619430656684966219e-01
3.859119898375670821e-01 2.241578155473201994e-01 6.575187138555772526e-01
2.870178906810201269e-01 -1.365579846543046316e-01 -1.281490768313296447e-01
-3.920113402954037429e-01 1.803557635878672571e-01 -7.565580283729671507e-01
-3.238004935523259298e-01 6.275239837389775532e-01 1.237753770875194698e-01
6.734259412173965176e-01 -4.837155504532179573e-01 -5.514270761369378243e-02
5.732791234582644835e-01 -3.990003499339518922e-01 -8.303606910087450721e-02
2.101997375442575811e-01 2.218271611219021708e-02 1.041425726874730881e-02
5.813003327784433960e-01 -5.090425992489991946e-01 -2.569644674469757639e-01
-3.267268142533018005e-01 1.757413553146280338e-01 -6.520303363384879480e-01
-4.908889116595813173e-01 5.493933014461251929e-01 -2.971956654783569629e-01
1.757341214648188987e-01 6.746039951125687439e-02 2.832129098637940073e-02
6.708298061860468176e-01 -4.213421246687273358e-01 4.680023293952848690e-02
4.655174738375365551e-01 -4.152116368071859243e-01 -2.962263258565439594e-01
2.622524868167936396e-01 -3.473393649776835290e-01 -5.303928978514771408e-01
6.112567050411636949e-01 -1.640970594335040000e-01 3.831084960149508944e-01
-2.630742252948019555e-01 3.627531066364627632e-01 -2.233869555542381813e-01
-4.122788836918976352e-01 4.040162701459020234e-01 -4.098747364681281091e-01
4.648956767532659573e-02 4.745058843297031981e-01 5.002446971224079331e-01
2.053324461518332422e-01 3.429278300898752074e-01 5.492441042129615481e-01
-5.328609134725313945e-01 7.017107797039890960e-01 -1.095962256112294753e-01
-3.928052957909169418e-01 5.624892758406482285e-01 -1.059829502891506126e-01
-4.923943141764574039e-01 6.705461047708298761e-01 -9.309377298087555264e-02
5.038191248312441362e-01 -3.160206897382301650e-01 -6.105697374921646020e-02
3.849986288087958730e-01 -2.353737385678047189e-01 -1.280414124566018330e-01
-5.458252643742247390e-01 9.254029472251570354e-01 2.497149628449357728e-01
2.887571001897801595e-02 -1.685824164919361989e-01 -6.272271168911981443e-01
4.892746422093581793e-01 -1.501286265964369912e-02 4.274387257222693748e-01
6.926348495880552125e-01 -7.176897910510566803e-01 -4.212444787331152685e-01
-5.554059268877554745e-01 7.144228152842626578e-01 -1.267244236678987945e-01
-4.050290636837439728e-01 5.560362093534756411e-01 -1.380378762061353071e-01
7.809983786195756617e-01 -6.305098103264790144e-01 -1.203751735545139784e-01
5.900127359651993197e-01 -1.346212518151069792e-01 3.968202729388002892e-01
-2.547004132488492889e-01 8.942979891423399885e-02 -6.752752746323819055e-01
7.778913226777590673e-01 -7.575386344666670269e-01 -3.424431534777802044e-01
-1.420065783927683123e-01 4.813248463257534526e-01 1.873450846995675656e-01
-2.621372155889845415e-02 1.353312425664718877e-01 -2.035799963445049376e-01
-6.296489483144236399e-01 5.583212520142231128e-01 -5.208667340615317221e-01
-5.140635236138245689e-01 3.876870055450159502e-01 -6.129756732992928114e-01
-3.158909148325324268e-02 -5.911716184173695238e-02 -5.445750552125649957e-01
5.617598862082537892e-01 -1.288601383584243865e-01 3.580062349298138713e-01
-4.759393963850025444e-01 4.081734522406423871e-01 -5.123864248617163719e-01
-5.642732434967577815e-01 8.606353801405006720e-01 1.074558996835921487e-01
3.946800552614728175e-01 -9.948515281117825682e-02 1.204609076338658824e-01
5.730506432524214988e-01 -2.672025578651274769e-01 1.414252668893287157e-01
-3.343692121578294985e-01 3.355910076693640054e-01 -3.924754091790059185e-01
3.041676800184077711e-01 2.824105676599550710e-02 1.825344188421739178e-01
6.784086942301408296e-01 -4.390263733343467423e-01 2.967841990467634181e-02
-1.550547909647403688e-01 2.529071301274951056e-01 -2.248139050422143514e-01
-4.570547853154321438e-01 6.276812713949022626e-01 -1.053797314324968065e-01
4.139265243391498372e-01 -2.604512337838553737e-01 -1.210200228137142259e-01
-2.191412970199637933e-01 2.902699265377306492e-01 -2.714083127088132152e-01
8.222924152074374549e-01 -1.622491160787782882e-01 7.496006428258565890e-01
-9.740451224072080999e-03 2.063912699529230066e-01 -5.398547866474236873e-02
4.990119155666934425e-01 8.405954496587979274e-02 6.132266530585759323e-01
3.346150635982063082e-01 -2.641799024577589639e-01 -2.639316147048703654e-01
7.354535534948600795e-01 -5.186642955640391461e-01 -7.974578081255276341e-03
2.095982273543922358e-01 1.291610025754639790e-01 1.918898267085253073e-01
-6.346760907108456307e-02 5.030861194043270146e-01 3.596913541893247968e-01
1.251104485926868015e-01 2.480046666340430528e-01 2.491817247133831514e-01
-4.200998653817928502e-02 -1.381080670471317162e-01 -6.972797589114294592e-01
-4.768790728038200810e-01 8.530901039980939293e-01 2.450494586876147685e-01
-1.866477233290254611e-01 4.660240714261005834e-01 8.438256766633295269e-02
6.804373010144417755e-01 -3.592372794496815902e-01 1.692959064677372893e-01
-7.513053179614440080e-02 9.716032919656236722e-02 -3.529216997029896441e-01
7.905247689429935054e-01 -1.139663882988335708e-01 7.772795425219173326e-01
-5.036732709515694822e-02 7.376048729968602558e-03 -4.634641881218679038e-01
-6.157437822968702124e-01 6.348700163454112921e-01 -3.663296077400530204e-01
-6.059000628978042924e-01 7.816237621077924969e-01 -9.901127265943501787e-02
2.438279971147850334e-01 -3.058082384954775024e-01 -4.912597569815401743e-01
-3.616741915197050905e-01 4.291592534260310621e-01 -2.798534201744743988e-01
3.565142713814431485e-01 -4.382017053019798269e-01 -5.231191560712499244e-01
5.964883031273637837e-01 -4.864140249104847435e-01 -1.922097259721900764e-01
-5.303204129425971303e-01 5.612892085603633507e-01 -3.447896336311568333e-01
6.581216823491686796e-01 -4.874702387375403623e-01 -8.789771374769188295e-02
6.150098817550589958e-01 -5.960687172477554530e-01 -3.473984802448222275e-01
-3.939696632535664711e-01 7.903508511386736490e-01 2.807574810977473967e-01
2.541719542941710958e-02 -4.322774123921866579e-02 -4.193192524139657817e-01
1.898963073289764159e-01 3.452723224791819923e-01 5.266675982836693803e-01
1.397249798545857624e-01 -3.002993261883653980e-02 -1.999997075584574180e-01
-5.351635741049095563e-01 3.699558454174236566e-01 -6.795539486977884014e-01
5.469648724147581076e-01 -5.260141019328042900e-01 -3.450340821219066156e-01
3.612734077435490465e-01 1.843879537514719613e-01 5.472488522642199316e-01
-6.735405458683578483e-02 1.912698392480926268e-01 -1.789766605866140725e-01
-2.805935705233145727e-01 2.601039486518118005e-01 -4.286753933838801101e-01
2.298930526630424132e-01 3.464517764081756490e-01 5.975420726399304217e-01
3.413543211288911361e-01 -2.602300087139325924e-01 -2.455899096854316788e-01
7.945374296596269259e-01 -4.235890899357253048e-01 2.559537641730189605e-01
-6.626568119159820247e-01 5.576036002223586641e-01 -5.789206137166071908e-01
-6.545835867739967506e-01 6.179054310507846592e-01 -4.621425345317696221e-01
-2.012654555685667590e-01 3.982567604250026871e-01 -5.639971060076915538e-02
8.690632490203414884e-02 1.092239874794104643e-01 -5.336210373777745819e-02
-4.208647425648581741e-01 7.134478478444801208e-01 1.032513139587321327e-01
-1.743697427026844396e-02 4.152664231784604643e-01 2.891166213035090693e-01
-1.964179715489451916e-01 2.670923001270931740e-01 -2.718280229099777068e-01
6.277470839130865343e-01 -5.006821211320944265e-01 -1.627337950401732403e-01
2.772686779724655715e-01 -2.427198254467252680e-01 -3.260525459995204933e-01
-2.018537352441701072e-01 1.103052928755311468e-01 -5.486745244619587458e-01
-1.269269586380812331e-01 1.958584998283308953e-01 -2.737145999789768469e-01
8.269603177411658512e-01 -1.395567989258575392e-01 7.963517691055644887e-01
-2.838662015332486105e-02 1.965723814330710695e-01 -1.028401185203232787e-01
-9.312177321890199866e-03 8.292998345248663028e-02 -2.638802665006200199e-01
1.268976890114721090e-01 1.915920837885166650e-01 1.560156583516775219e-01
3.668964326797717335e-01 -3.025400007596322771e-01 -2.737974558012824522e-01
-5.125175079793393706e-01 4.362909264100201523e-01 -5.273927837284552167e-01
-2.436718458179293056e-01 2.172476661142987153e-01 -4.382227025277288801e-01
8.214536580813782685e-01 -4.227709380403315564e-01 3.036911557671197470e-01
-3.346958739793710058e-01 7.233497980137771899e-01 2.685012588544518630e-01
-3.640600194513426979e-01 2.740427354380814973e-01 -5.485989059576494853e-01
1.204395238931824513e-01 2.069919547782195501e-01 1.711697347838492533e-01
5.347059467768590368e-02 -1.852754808462232505e-01 -6.133615296033375630e-01
6.964819812475310234e-01 -6.886748590825169103e-01 -3.651197216880665009e-01
7.816266586567301999e-01 -1.194494194113315533e-01 7.526053265802675751e-01
-1.289062934578131814e-01 4.784722791868787350e-01 2.050331540039594946e-01
3.038350210805202886e-02 3.597747865189483418e-01 2.767770049359931650e-01
-7.079138195944276180e-02 4.713435255402372848e-01 2.929273259777786520e-01
-1.375565505047559312e-01 5.718723717464836431e-01 3.494860343543109149e-01
-3.268036523457198278e-02 1.840331117390528737e-01 -1.316253689074874111e-01
4.551159827371680233e-01 -2.888803616222057058e-01 -9.860602351283567768e-02
-1.393310573730928981e-01 5.943381213846705285e-02 -5.278191565856920064e-01
7.217975006734372867e-01 -6.552886746645651961e-01 -2.645753048591286127e-01
-1.036702131895561180e-01 3.560281007904291251e-01 3.958512572560600462e-02
-4.059393646785348642e-01 6.262643804263583469e-01 -1.979178811287445744e-02
-5.882063179962149224e-01 9.136422039708066434e-01 1.566831373315442366e-01
4.006770321949374991e-01 -3.006779691090877282e-02 2.492159341910569481e-01
7.554397202857410232e-01 -1.727829082943319050e-01 6.165293275781799087e-01
3.041307565983816796e-01 -3.839607423483863413e-01 -5.207694292316904505e-01
1.165081213913594926e-01 2.864246213212537362e-01 2.999178082947906998e-01
-5.896462597551911378e-01 8.149989639659276364e-01 -1.408711810862043473e-02
-4.621707406211193053e-02 2.209429052176345998e-01 -9.196121597916988299e-02
9.042920751352763464e-02 -6.857805233190121530e-02 -3.506374046433835545e-01
-2.393874759860316059e-01 2.375305970917390430e-01 -3.962424563113212117e-01
-1.140828973287608544e-01 5.982586101398122969e-01 4.349170008544978039e-01
5.082848464954777823e-01 -4.319669109390513184e-01 -2.511793627219944813e-01
4.722910800213527271e-01 -2.461503241861554836e-01 3.864214304966456532e-03
-2.175231819406119385e-02 2.624633757486392605e-01 2.099601006667628847e-02
-5.353112342357176923e-01 6.901932496529500360e-01 -1.334645114247677011e-01
-1.167248353572838265e-01 3.285678307512501228e-01 -2.973979188706650165e-02
-3.028241843398057354e-01 2.498312612456715098e-01 -4.844755668590510767e-01
2.168746272749765558e-01 3.290000613257050288e-01 5.453546525810482049e-01
3.977058737580882464e-01 1.025961502584085971e-01 4.704329216639747124e-01
2.694777489847339780e-01 -3.339562432995949459e-01 -4.951208040641516539e-01
2.455839158015802326e-01 3.282056159662991579e-01 5.934279646789136775e-01
-5.614860285449544408e-01 3.378384823930950520e-01 -7.796673188391136655e-01
7.122594782082356524e-01 -1.246485170078014265e-01 6.243061300798331548e-01
2.914516561248930993e-02 -1.389034567726651903e-01 -5.761291622613976537e-01
4.445365421083306012e-01 -2.401774283940790455e-01 -3.373056893737778894e-02
4.760146811105545606e-01 -4.887805959164975844e-01 -4.036662497392939919e-01
2.475219278175186388e-01 2.772487141798614663e-01 5.098291908932879313e-01
8.584938750787217687e-01 -3.096876535115640761e-01 5.603898381900896952e-01
-2.937695895488016129e-01 2.413748752188621671e-01 -4.833133896029795373e-01
7.308262588413779737e-01 -3.491551523344529340e-01 2.732510958834314385e-01
-9.808018985898244932e-03 5.629517493777067005e-02 -3.101744899847950765e-01
7.861144363302896565e-01 -4.433033928090723830e-01 2.078181769470882900e-01
-7.278786418859121976e-02 3.028257748291255380e-01 1.988891782271317611e-03
8.126941090058048545e-01 -5.162148220332313242e-01 1.291891620636194948e-01
4.760368200447868681e-01 -5.392434113370767612e-01 -4.897206354255016492e-01
3.899846030505794703e-01 -1.610978049571981374e-01 7.261990836349673829e-03
-2.948942963695803665e-01 3.754303795101190389e-01 -2.565432953096093427e-01
-2.138668687080253206e-01 4.343201107207430023e-01 -1.656934371028266628e-02
-3.607446662047313346e-01 2.206221396868542350e-01 -6.340295215361918535e-01
3.624125022359921955e-01 -8.248645689354121291e-02 9.390673916673163146e-02
-6.373264618016676319e-01 3.869402526749155524e-01 -8.264710489287279138e-01
5.727950469634485176e-01 -2.936144904255018062e-01 9.592491239039707684e-02
6.285885574702972933e-01 -8.779803111944629868e-02 5.431192722162550002e-01
-4.108565382411101252e-01 7.464384391320086909e-01 1.767662747226114994e-01
-5.692214951122096522e-01 8.480682900405789315e-01 7.749632444126586250e-02
-1.754080445219845241e-01 5.189887990183438271e-01 1.940947936517915529e-01
-5.411477032729619108e-01 3.688153276990345786e-01 -6.918025927171992384e-01
5.204784784983700341e-01 -2.840852707189418513e-01 2.210906234807683696e-02
-2.812035372819370327e-01 5.721345878124596274e-01 1.026168729726025519e-01
7.453924333186885409e-01 -7.033344411070987512e-01 -3.059208673104761300e-01
-6.213673553087430967e-01 7.345900127309895611e-01 -2.058835720018264426e-01
-4.717808836639072467e-01 6.053024286687544997e-01 -1.689132128155562684e-01
-2.261102992041493787e-01 6.010466024923668549e-01 2.467962902200373232e-01
5.668757585431045687e-01 -1.455760608785391930e-01 3.382958771217444149e-01
-5.197988598559163398e-01 9.341020683542052838e-01 3.093657402446883253e-01
6.926410949191201816e-01 -3.762747757054257791e-01 1.612401750390515809e-01
-1.306354023773486639e-01 4.821884102215033829e-01 2.083960891778699476e-01
4.164774064674405252e-01 -1.698641890648302372e-02 2.987369763668772937e-01
-2.595143038919682787e-01 5.998613793868300403e-01 1.872626719413922614e-01
-5.050148637159550535e-01 8.866082041109208944e-01 2.537919963693781589e-01
-5.497776190172511956e-01 4.779546928067008871e-01 -5.204625751477326423e-01
9.755504648910172383e-02 2.742760387423915855e-02 -1.745776313329305551e-01
7.198787644177639944e-01 -2.339161300662228604e-01 4.510073166836889857e-01
-2.734651062894119522e-01 4.730456899099318990e-01 -5.311132837060993789e-02
-2.919719872217593770e-01 7.112045631144491287e-01 3.213383478988580677e-01
-6.598246438391864865e-01 5.199368536989737999e-01 -6.383061431867858015e-01
-1.108044199764130627e-01 4.919225672192658605e-01 2.591460613529584789e-01
1.121051023024499833e-02 -1.604368278244660273e-01 -6.437443812049348235e-01
6.602019721757778070e-01 -1.537027464233217955e-01 4.851106955089464767e-01
2.329351743814535303e-01 -2.502669520281924909e-01 -4.152572223727908352e-01
4.799413073282166597e-01 -3.360190476530853232e-01 -1.362856924193508734e-01
8.084617124669010169e-01 -2.455915113894542590e-01 5.836013895369793758e-01
-6.322929135407309165e-01 5.642425798599537412e-01 -5.153167096104365186e-01
-2.430640139192122851e-01 7.304835509035839669e-01 4.384341113747861063e-01
-6.584862060523546390e-01 4.296611054556686571e-01 -7.900174439384151093e-01
4.514798120933425363e-01 -4.207596016892395374e-01 -3.298600704511786552e-01
-2.772159836399323285e-01 1.333537607520302593e-01 -6.391034166659286253e-01
2.635816756282401974e-01 2.249110371554658983e-01 4.481880775074210677e-01
-7.607770412035474994e-02 3.158657553987352373e-01 1.857175215902061999e-02
-2.747625051095360926e-01 6.962580381658139972e-02 -7.436028774558820498e-01
4.180159295994934077e-01 1.604574283159516390e-01 6.041153845093232277e-01
5.450352237235419617e-01 -4.262125772397838963e-01 -1.780891376942062287e-01
1.325170523254373123e-01 -5.176071824769641616e-02 -2.494835572513335042e-01
5.654872428013104635e-01 -2.742889907402278893e-01 1.163135194323581395e-01
-5.391684449257665435e-01 6.531159233775677420e-01 -2.033615357670204848e-01
1.601524971559135646e-01 3.985214282151600118e-02 -4.560683126418043493e-02
-5.486942665909054773e-01 5.707116015388593588e-01 -3.603486823094093627e-01
8.015298525451187706e-01 -3.895164852281667867e-01 3.261224424434142621e-01
4.531733442067657491e-01 -1.912718016653027209e-01 6.457523078932421445e-02
5.993486934280998213e-01 7.402356762085113458e-03 6.551945065256481460e-01
4.084374591769093787e-02 -1.014215211095745028e-01 -4.920413919585377993e-01
1.005548734690012713e-01 -2.191750560838732764e-01 -5.901313404228448745e-01
1.427951840749932810e-01 9.384800435562222487e-02 1.662922786250685056e-02
-4.866893585457351956e-02 4.517445876150551487e-01 2.975785348525594731e-01
2.684507451597010208e-01 -2.245319045846509987e-01 -3.102046979286617323e-01
7.795738608210041054e-01 -4.030642662575085189e-01 2.652075843966483770e-01
-2.449703746743674693e-01 1.152602647597637531e-01 -6.144548219021253033e-01
-4.864004768295647207e-01 2.980453424944796703e-01 -7.182822000761954762e-01
-3.759811794680228414e-01 3.396645137216868782e-01 -4.571689499146480151e-01
5.928926664475769881e-01 -8.760524036837939732e-02 4.819906931092585167e-01
4.827408483192863753e-01 -3.418955282185584532e-01 -1.414913505454785669e-01
-6.212652054847236927e-02 2.065504480033732160e-01 -1.439068248991714760e-01
3.852576328199312505e-01 1.635458243071455930e-01 5.529845223766813866e-01
5.707175555436875269e-01 -1.656519470855439546e-01 3.106596545001427678e-01
7.242314268772002128e-01 -7.587749344853770284e-01 -4.369384091862584252e-01
-6.742115001877613256e-01 4.312160102312131427e-01 -8.144388700201171671e-01
-2.581366152062791186e-01 4.051875084852116227e-01 -1.424903283870679049e-01
-2.680177962492783644e-02 5.529201751705370427e-01 5.078385867757729821e-01
-6.102662605287126896e-01 6.619342564982261257e-01 -3.107258075701510025e-01
-4.616767109627285537e-01 8.614196966625413676e-01 2.854340823931352245e-01
3.298234282766765446e-01 -3.083482121589296576e-01 -3.475350654078721013e-01
-5.023636772166082398e-01 8.949394439608340246e-01 2.725701153597233084e-01
-5.424413316285149333e-01 6.087496944333689042e-01 -2.846878240141151872e-01
-5.320188085834967051e-01 5.559023813103335376e-01 -3.569039965293309691e-01
-3.724110698675715536e-01 5.126832913979766371e-01 -1.558421927941605056e-01
4.420955825977080367e-01 -4.879447103838686073e-01 -4.606385742119336046e-01
-1.098095083445911890e-01 4.716876786739014893e-01 2.263370988487189983e-01
8.826891465522776481e-02 -1.481129093809002428e-01 -4.900478718126417554e-01
-1.311143543041346296e-02 3.504761262094954199e-01 1.860278662628108148e-01
3.081820469445924471e-01 -1.903467941360754700e-01 -1.834776644371231280e-01
-5.471477355800176134e-01 8.032491956217481244e-01 3.903665393806719786e-02
-4.989698514630691029e-01 2.333483183289754570e-01 -8.502997400168101905e-01
2.504759673956875599e-01 -1.920445776834163454e-01 -2.857265384029855082e-01
3.860884558270006317e-01 -4.713285853264774228e-01 -5.287177723554182807e-01
1.660755008494775309e-01 -8.375374464135715291e-02 -2.462880596030478098e-01
3.581667937586860972e-01 9.777708834165789453e-02 3.941370249130648484e-01
-2.508037259554283804e-01 5.019368422342637137e-01 3.519467986402589205e-02
6.212926400940632643e-01 -2.349292973668954121e-01 2.795434070769021173e-01
3.588564890699029730e-01 -1.482607590222086436e-01 -2.443042664972793973e-02
-4.908211917446175798e-01 3.385561196501020165e-01 -6.567795842661046102e-01
7.202009362255059610e-01 -3.227506447703553660e-01 3.000051426918909359e-01
1.429700110547569569e-01 -1.739808327510775354e-01 -4.400013683883214344e-01
2.378379105142077177e-01 -2.232705957759692772e-01 -3.607588425193576365e-01
-2.031792676281918564e-01 5.590254562648958592e-01 2.145860445866998867e-01
2.745207354178046955e-01 -2.940700445790372375e-01 -4.183901337629051809e-01
-4.934398065392480714e-01 3.695637439463938523e-01 -6.083872312196983989e-01
-5.812178465239802305e-01 9.075406063465744078e-01 1.583054834242050568e-01
6.362759338120690389e-01 -4.541890705789960458e-01 -6.872985171094161960e-02
-1.613108120722533956e-01 5.204174337297030606e-01 2.208032837295841044e-01
7.011199131083939440e-01 -3.403174480217623366e-01 2.371834221006335897e-01
-3.163714623143667470e-01 1.186985954907049529e-01 -7.315198335403317875e-01
4.525773075862649097e-01 -2.076735339984684958e-01 3.556672596779161810e-02
5.417101048816083120e-01 -4.866328466049779644e-01 -2.868944818269413277e-01
-4.927811509714427607e-01 5.718058774856311643e-01 -2.622163672182509786e-01
5.061377957465261757e-01 -2.043044063465651317e-01 1.335295600523586090e-01
4.645362545374264185e-01 -5.039984355593689624e-01 -4.493911375899641847e-01
3.448287236633104103e-01 1.053967356459452887e-01 3.841724781365832286e-01
6.064605164805393356e-01 -5.335928301622714365e-01 -2.555303905376968276e-01
-4.256063988783267971e-02 2.367916030770473856e-01 -5.862714436165795961e-02
-5.858427467674700573e-01 8.002605445770226700e-01 -3.268322492029390736e-02
6.323101101033439253e-01 -3.874867653410163926e-01 3.824022108726118918e-02
1.749192960261336804e-01 2.403290611489839468e-01 3.218424140039634618e-01
-4.820038700824986339e-02 2.636188657479560660e-01 -2.256820473705420382e-02
-5.945761066190285993e-01 3.658027639697996047e-01 -7.889296980173869933e-01
-3.463290524474555987e-01 3.745866645226004765e-01 -3.465377627721890064e-01
-4.782805553341143434e-01 4.513246302564529189e-01 -4.427987671293391880e-01
4.670235025292890918e-01 -3.494015841614762086e-01 -1.813576187115951144e-01
-9.803238511717167480e-02 3.161850875159716995e-02 -5.041699039005202998e-01
4.198691747475873370e-01 -3.292991875032223736e-02 2.773760326813937693e-01
3.876659187810211904e-01 -2.465632081216733162e-01 -1.425390353601700133e-01
1.028193221277839547e-01 2.553365808825666106e-01 2.233118425893281522e-01
-4.273986919616709068e-01 5.736865129984040079e-01 -1.464391413444888213e-01
7.943009578651920588e-01 -4.805161830278804058e-01 1.584256950886940296e-01
-5.987146450071318959e-01 6.447053009401831902e-01 -3.202310329724062932e-01
4.079690038055357459e-01 4.607790291862993298e-02 3.916794951995967722e-01
-3.218806348706329534e-01 2.026574200947841853e-01 -5.977663119726279728e-01
-5.872752806962918681e-01 5.243557838629723244e-01 -5.058592048940326880e-01
-5.265166031937142943e-01 5.411662115639546133e-01 -3.725716325224163183e-01
1.239284785096647079e-01 -5.690795275950143867e-02 -2.730519567703069139e-01
5.929598338238576405e-01 -3.678060573359547697e-03 6.252909918465883177e-01
3.340544586275958072e-01 -2.966093229010274279e-01 -3.202232863942301999e-01
-2.239345518878333718e-01 2.164704824499671387e-01 -4.055669928481939190e-01
1.811081802941574004e-01 4.872637065796665140e-02 5.612445022493013289e-03
1.008114915685440066e-01 1.420262998389086248e-02 -1.915335968904540997e-01
5.753297097350281719e-01 -3.515317695430380529e-01 1.478581014527549165e-03
3.521929928906819551e-01 -2.816480528358054625e-01 -2.634694369528649549e-01
-2.977703601740177564e-01 5.664433899895344737e-01 6.438431669134421498e-02
-4.844929806828020269e-02 3.184748989997908675e-01 7.059083366352117417e-02
2.707498135862214661e-01 2.036884718234900082e-01 4.243225031637531952e-01
5.909790385045848859e-01 -5.363484745795683573e-01 -2.868860871683327485e-01
1.510074699431073753e-01 2.334583338006857300e-01 2.689516452188550066e-01
1.289962785592994599e-01 -1.892682192713106837e-01 -4.901410667855410908e-01
-5.326062231925036139e-01 8.625846296660689694e-01 1.653024315652699139e-01
7.383705938282638659e-01 -1.337571493757721552e-01 6.537216896460962268e-01
5.972182891620041456e-01 -2.591115595600043675e-01 1.968383331041610729e-01
6.369675792738690445e-01 -4.341885186472650426e-01 -3.341694163892121316e-02
3.260785945973453948e-01 1.926850061484016163e-01 5.008093195777272300e-01
-5.434811608039251674e-01 9.224563213463506939e-01 2.487236824352481168e-01
7.934498839054270336e-01 -6.111818230752692482e-01 -6.596278826325988054e-02
5.278251694731896926e-01 -4.360084752309572598e-01 -2.244320007236433878e-01
3.960253388526683294e-01 1.215991654633673813e-01 4.999598012972293337e-01
5.219792917362749973e-01 -5.848963857682539791e-01 -4.885082751325963146e-01
-1.723188929237800746e-02 2.969793936354458430e-01 8.766515360684937197e-02
4.197307803740955856e-02 1.896420224006198918e-01 6.474332858466796091e-03
-3.570312996698649655e-01 3.717700461354250807e-01 -3.697690995894305499e-01
8.263415256237139905e-01 -3.678571040460489883e-01 4.057927794452088621e-01
-3.254363174459041219e-01 5.401989586208987282e-01 -2.802259413870715130e-02
-2.172090208912080544e-01 1.886520006370922542e-01 -4.414476197392593892e-01
4.639880956605740292e-01 -4.169884127386164763e-01 -3.018907341655394649e-01
7.027704377090739918e-01 -4.114003959626846840e-01 1.187534752921282910e-01
6.709821231190167268e-01 -9.327016992518855076e-02 6.067723391536106181e-01
-5.201995856611947300e-01 4.247664173903462626e-01 -5.602804737500381993e-01
-4.454968496478634576e-01 6.758739040387981012e-01 -3.261035640666730406e-03
8.000103813316589152e-01 -3.831089113433838733e-01 3.344380683863859005e-01
3.561395292587388878e-02 9.744151283943063013e-02 -1.617735900609653110e-01
5.998313002163027097e-01 -5.268225035397429146e-01 -2.553933175690432100e-01
-2.245483491960368616e-01 1.448516283152177508e-01 -5.288097019871373927e-01
2.565991037049819568e-01 -1.448964288122028821e-01 -1.947468679039850437e-01
3.542455416507533372e-01 -2.125494999416613628e-01 -1.420494151522241899e-01
8.241207953074533021e-01 -4.861749213956743643e-01 2.001122682068614267e-01
7.612379368747700381e-01 -3.595581832014840273e-01 3.078625995623952005e-01
1.025377921614469556e-01 -5.971522541787511323e-02 -3.146695976784954496e-01
-5.021023090303660535e-02 1.598983678164178912e-01 -2.029817564387726703e-01
7.427940984194102425e-01 -1.887847913438774339e-01 5.674572599360716563e-01
3.060032213045273397e-01 -2.008536843429468421e-01 -2.051543076051235981e-01
-6.507481822156343521e-01 3.823845595228625438e-01 -8.573514561142582258e-01
-3.490042538696689345e-01 5.154006704079935330e-01 -1.109067522837342834e-01
-3.735915187994280628e-02 4.280713579300335359e-01 2.766626419231085210e-01
2.458279576294505886e-01 2.983734929922463031e-01 5.429527913392633298e-01
2.221227069334784365e-01 -1.404996377492652992e-01 -2.466035786167784516e-01
-5.412414694945050231e-01 5.162126559544467641e-01 -4.404956028312271288e-01
-1.889193398963308068e-01 1.005909926542757765e-01 -5.429785829687522325e-01
4.117614173862357840e-01 2.237946850980978772e-02 3.577779710955322767e-01
-5.684885823966777663e-01 6.643210985891238041e-01 -2.347252328869358362e-01
8.558171622330642547e-01 -1.888082646167763001e-01 7.620086288285979892e-01
1.044693415893570565e-01 1.622459585588791886e-01 6.733465179505419840e-02
1.176972370053951666e-01 -1.419916548287089852e-01 -4.289380148427322514e-01
-1.329823162646323886e-01 3.095129233320505213e-02 -5.654813888065972627e-01
-4.092826306262667413e-01 8.628296782679274468e-01 3.780462989245440553e-01
