1.130418835688452167e-01 6.388532321475320908e-01 5.333152143105474030e-01
-3.215710207155809530e-03 -2.053308709924158149e-01 3.977250875404947372e-01
-3.408535123993715055e-01 -5.988542700628488591e-01 4.015717230304544638e-01
2.309279234045603368e-01 -2.075635485374465738e-01 3.419032951525349251e-01
2.663871574414533039e-01 2.536373997634570054e-01 4.226168792875742430e-01
1.797441000246645659e-01 6.397124699252064450e-02 4.064710063971446186e-01
5.636001291623508880e-02 3.258656066783602312e-01 4.862563625167248826e-01
-1.751158282294568713e-01 -4.584325528340557621e-02 4.692031504322450308e-01
1.113919376331148486e-01 5.644406906784210642e-01 5.193293530226641419e-01
5.097971864853924340e-03 3.176973633994276819e-02 4.415651684551689105e-01
5.038325495490649786e-01 3.768068025734240267e-01 3.902411446591327326e-01
9.103421098682903945e-02 7.233041966281525958e-01 5.548370464936190904e-01
-1.787156865082318025e-01 -3.063286547356114387e-01 4.197300974180688260e-01
3.342841899683690055e-01 -3.302697449466458490e-01 2.937463964211042278e-01
-2.992523654899492680e-01 -8.162753537183496944e-01 3.497254843990902362e-01
-2.651737978430940834e-01 -6.929558015747715460e-01 3.654884566415722569e-01
3.512160374406066987e-01 -3.340593352997298093e-02 3.470937051473460544e-01
-7.328821676049918077e-02 1.769027231994940996e-01 4.881477523118943895e-01
-9.331872827513970278e-03 2.840113941851076795e-01 4.937107827948840066e-01
-3.749956136528750372e-01 -5.061922995129750635e-01 4.275504808221823327e-01
-3.698579717841213865e-01 -4.179997536818514381e-01 4.433735089526082973e-01
-9.086015052877899345e-02 -8.948795032129405191e-01 2.852409654471942391e-01
-3.061155025615016623e-01 -1.670665007494654686e-01 4.767734248461603652e-01
-4.139620697060286680e-02 -4.117538794440664951e-01 3.668772628116999668e-01
5.635164023057989344e-03 -4.907530809787905013e-01 3.404889287502557704e-01
2.871247192837327322e-01 6.674361019843685350e-01 4.976552023320905960e-01
5.249344941903373307e-01 7.933893498011843071e-02 3.277796286130831849e-01
1.641086709306529834e-01 8.302025084645625608e-01 5.582023992551012892e-01
-1.082854891916793377e-01 1.057289616669535859e-01 4.826764566854994665e-01
3.564839038865743048e-01 2.394054546593751553e-01 3.985534919036226587e-01
2.232210698761819823e-01 2.184261939728796564e-01 4.260258593940614569e-01
-2.313525430278979278e-01 -3.961086981547473629e-01 4.148370760511330690e-01
-1.940540464259978559e-01 -2.548702033183237736e-01 4.333001847912932858e-01
-1.578571673213355064e-01 -8.628036317487359774e-01 3.072871093679615528e-01
-1.892127308011078146e-01 -1.676926684970600490e-01 4.489972179123500329e-01
-4.163789472606439501e-01 -5.598683854905138757e-01 4.269703864193586940e-01
1.959450004861893468e-01 -2.348485771263229827e-01 3.449077191310488955e-01
4.189109087949879906e-01 3.803910053845475647e-01 4.110231794581110654e-01
-4.676853054185034497e-01 -5.850970291368535747e-01 4.342336666981826410e-01
4.059401356093640389e-01 3.745107433440542644e-01 4.129555835157910360e-01
5.615463162240685868e-01 4.729614224973022196e-01 3.951646818681389117e-01
1.920333623100200504e-01 5.073265206667074700e-01 4.892181131379376158e-01
5.150776470949554042e-01 1.944808129200563118e-01 3.523563395922163499e-01
-1.050737896994414361e-02 -3.984019293323442512e-01 3.621495521799732997e-01
1.578582852420781779e-01 -3.980652049528021763e-01 3.223849955567075209e-01
1.717987983465940893e-01 1.442491747205288943e-01 4.238599454602518524e-01
5.061394978391365457e-02 -2.697929056431609685e-02 4.194475715776123104e-01
6.272790643655209997e-02 -7.852466138708895649e-01 2.700878383179969866e-01
5.339972971847010974e-02 -8.527506817307066722e-01 2.592530735741778725e-01
5.073281946683495802e-02 -6.721991093453424382e-01 2.947657604625265049e-01
-1.745046510073939572e-01 -2.825591209677824622e-01 4.233260806972998780e-01
6.892391985032839119e-02 -5.371603341274450161e-01 3.165512724743567707e-01
-1.299378385385179802e-01 -1.274946474936035704e-02 4.649091469555348688e-01
1.957922627527209636e-01 -6.837955684237296827e-01 2.582092262160556317e-01
2.027031486130254634e-01 -1.336401407905905003e-01 3.628620043961099384e-01
-5.445607800407244875e-02 -7.799333574980210626e-01 2.988360959808973316e-01
3.789493215018666095e-01 3.671326656091253304e-01 4.179152825809788196e-01
-2.694221901005105502e-01 -6.214239060330151165e-01 3.803131364655101265e-01
2.465675677503873994e-02 -6.738938272325287748e-01 3.006070609924287318e-01
2.317918670434547246e-01 4.224606603875361022e-01 4.634168795530924645e-01
-1.157906186035844026e-01 -4.422520751967926045e-01 3.785843393245320598e-01
1.778971739925393480e-01 2.358612024397057638e-01 4.401163257137643559e-01
-1.483920943745646037e-01 5.505649970578514046e-02 4.823746188309573357e-01
4.079487179249546847e-01 3.345263625650585215e-01 4.047556108219387827e-01
2.394753515361914553e-01 2.147050977197768606e-01 4.214617474303672950e-01
1.347718572501547807e-01 8.249287071285703599e-01 5.641236194534440251e-01
-3.611932913887928032e-01 -5.799357617225959771e-01 4.100383997797355518e-01
1.920666586455659908e-01 4.397898466755224556e-01 4.761624417611521887e-01
-7.963781762254935892e-02 3.141355937747208893e-01 5.161626523411197986e-01
2.531243059612587887e-01 1.827242068141547160e-01 4.120542969611959983e-01
2.142000310932059282e-01 2.216668943443301232e-01 4.287860208083965063e-01
-2.614091718404531854e-03 -5.296035409510952974e-01 3.349346815246618814e-01
5.210037702685876848e-01 1.929948590855762314e-01 3.506673398006361353e-01
-6.055377452011435901e-02 -6.811863153024251272e-01 3.193561076614943040e-01
2.510025404431537321e-01 5.898456776704794624e-01 4.912103498213793995e-01
3.425511447922000574e-01 -1.264193753262643147e-02 3.531550397128793151e-01
-1.493207684475601933e-03 -2.703608931277800553e-01 3.847540815707272688e-01
-3.200918929667723178e-02 -9.419734710227781749e-01 2.622204706624006731e-01
-1.567051310413067056e-01 -1.299973744525963759e-01 4.485895899635520823e-01
1.675282408642250753e-01 -6.595629004690080066e-01 2.695771830405402358e-01
-1.047708065301881375e-01 1.523420819953954786e-01 4.908504560031149433e-01
2.194385833507846439e-01 2.427056478318494470e-01 4.316113534540056973e-01
5.489678466679042135e-01 1.191770777547459803e-01 3.297907095304535297e-01
3.359962873359241264e-01 3.933065855276460243e-01 4.331332034270282128e-01
3.532355253785187110e-01 5.941813878195617571e-01 4.678631307416030172e-01
-2.233666431775880104e-02 -4.994021367645714582e-01 3.454351550505542212e-01
5.966346419853150174e-01 5.982136431711643221e-01 4.110621627986539850e-01
1.696956263164114687e-01 1.821157635957685039e-01 4.316731465986972660e-01
1.512146279231492418e-01 2.682148440173617865e-02 4.060429384864842617e-01
5.853512518083094085e-02 1.036282799024864781e-01 4.428065101220953759e-01
-4.692290489944160592e-02 -9.522404200103094796e-02 4.293368938143085622e-01
2.926279183492189739e-01 4.761048017413982980e-01 4.593889486278237566e-01
3.535779369561251051e-01 -1.549811310638681827e-01 3.230471551228119576e-01
2.146118344557902125e-01 -2.559279475149044969e-01 3.364193352354317712e-01
2.854689393027726729e-01 -4.866377989756842104e-01 2.750847957094167406e-01
2.047239465017449134e-01 5.409520213677587730e-01 4.927122529348668678e-01
1.278023080576495829e-01 -4.166110560118706507e-01 3.259122426128949201e-01
-2.924381210725159885e-01 -1.349350949779487829e-01 4.797454691380381164e-01
6.883981155424490073e-02 7.217179193098903489e-02 4.342915125270699894e-01
3.151096315213015586e-01 2.594087066009570508e-01 4.122057847297550537e-01
5.305653634615276754e-02 5.558488237968317591e-01 5.314696203255645512e-01
-2.862105452042384979e-01 -8.593012948747792423e-01 3.383278051449784551e-01
3.926595068743590766e-02 4.630803807001990791e-01 5.168095418046489975e-01
1.786721633722097302e-01 5.964852206341516583e-01 5.096039969053580698e-01
4.879521181349701364e-01 5.458564104201012457e-01 4.266575728351029717e-01
5.769648515881417583e-02 -7.379196735404637275e-01 2.804214631549637460e-01
-2.825870608509594914e-02 -7.478271097801073020e-02 4.288707540255619066e-01
3.331458210325300429e-01 1.889923165449335640e-01 3.943348901935125328e-01
3.367334962575831425e-01 5.015725917892209784e-01 4.538753309801130120e-01
3.989601948444478352e-01 -2.193565376054569249e-01 2.998741995549126238e-01
3.834705561935157214e-01 5.827614348719091231e-01 4.585042613675468504e-01
2.480759536992375169e-01 -2.472325842723705619e-02 3.731706090350520588e-01
-9.145643899236090280e-02 -7.613350003169671032e-01 3.111822499868808767e-01
1.360867929378626884e-01 -5.574509973970799906e-03 4.033629049577072134e-01
1.162763322431148855e-01 -6.004733082818743961e-01 2.931175024804720253e-01
3.108385363537715107e-01 -1.236414109049254473e-01 3.392125478694019702e-01
1.423869420342694092e-01 6.773850069032140153e-01 5.338173409264352909e-01
1.821336628354222054e-01 -1.593714063659895375e-01 3.627568779348505634e-01
-4.043330147162642330e-02 -2.483747336771922609e-01 3.982136194304320975e-01
-2.571117556243724400e-01 -3.955630370668071771e-01 4.210362521569666061e-01
-2.664434830946433852e-01 -2.021637890879434685e-01 4.606077245325557179e-01
3.734521846640782017e-01 7.491055216550620566e-01 4.930112298180206465e-01
2.523082914245107222e-01 -8.120270501371978922e-02 3.612577954894268806e-01
1.021425908277439204e-01 1.911345044055447751e-01 4.493962873447442941e-01
4.337427794607315312e-01 5.947591833819815266e-01 4.489294703913929707e-01
3.287792570389477254e-01 -1.457808492729727734e-01 3.306911372004359695e-01
2.247195151064653451e-01 2.099585123438687528e-01 4.240354584065091359e-01
-2.885765844758185761e-01 -7.064770676842695440e-01 3.684125124622176228e-01
-2.031054796614937541e-01 -3.472710326953274418e-01 4.175900048022105349e-01
4.835982760946062609e-01 2.771566216867625276e-01 3.757759021900416441e-01
-2.665541705052723032e-01 -6.222824162599839282e-01 3.794687997460651219e-01
3.242728801779959369e-02 -2.034865668792703308e-01 3.896494736968793005e-01
2.685037271816785309e-01 5.717425183345629103e-01 4.835727097167962230e-01
-1.677959929749511803e-01 -6.794003057319425443e-02 4.632025236426233761e-01
-5.198417383327714747e-01 -7.498789816411467468e-01 4.147369475215875179e-01
2.647085002020982403e-01 -4.531449841392048428e-01 2.864666796410090810e-01
-6.815009310560297962e-02 -5.988322866606284878e-01 3.370635829083075685e-01
1.558810111261951792e-01 -7.478517792943567555e-01 2.552754916736089119e-01
-5.537460208654304550e-02 5.508066299731573245e-02 4.603745007163300706e-01
2.093564791539010567e-03 2.828401610567172209e-01 4.907816342597487447e-01
-1.444381776646898874e-01 -6.445010868048828279e-01 3.462877428182392081e-01
8.818422061389924460e-02 -6.395409820393747058e-01 2.922154377253953772e-01
2.342792758569370581e-01 -2.419262046729590276e-01 3.344717615432787339e-01
4.174059549375053191e-01 3.571014483859892841e-01 4.068797584148039492e-01
2.085237935793859132e-01 -2.385617794892688770e-01 3.412146282673575448e-01
-7.177061784070561286e-03 4.698467168506438862e-01 5.291036116320881888e-01
5.414641143071555751e-01 7.612155412357110573e-02 3.232476965471338670e-01
-1.893981970913201085e-01 -3.679740263276247147e-01 4.103475970595319988e-01
5.672899555746298006e-01 2.397366395800922534e-01 3.487479076876942030e-01
2.133209909872021692e-01 1.853907454764472384e-02 3.897505518209526398e-01
-1.167977020688081985e-01 -3.165405206413348105e-01 4.031095121504137402e-01
-4.958366897201116341e-01 -7.691054128972345527e-01 4.053437028122466868e-01
6.194086946572968135e-03 8.856081993903103244e-02 4.522776575741723759e-01
-1.617579833374532816e-01 -6.827785052019733625e-01 3.429899894746660793e-01
-2.264723275219034382e-01 -5.123639336527519017e-02 4.803104266646895382e-01
-1.675118951599176981e-02 -7.343186261075527188e-01 2.987289668455147540e-01
5.097162557803195521e-02 4.303419586201285285e-01 5.077154536556883757e-01
7.480320017618297124e-02 -8.886051881031460375e-01 2.472628015805707069e-01
-4.718350992281247769e-02 2.409181885792386069e-01 4.943397756010182165e-01
2.944622731613042443e-01 6.507068718122486217e-01 4.926873705200173759e-01
-5.233835706546160343e-02 -3.758818774630311443e-01 3.763961210126751111e-01
2.099432444610322135e-01 1.847753963367027019e-01 4.226657537103457041e-01
1.221960667774058262e-01 -1.395727129950689593e-01 3.807611042098276166e-01
2.873539023030570183e-01 4.132884631636606076e-02 3.766397597119893748e-01
2.420633331845991471e-02 -1.139471269634810130e-01 4.088929071963123829e-01
-2.142154676629860754e-02 -9.548330194257863557e-01 2.572313838733421010e-01
2.505001910362210718e-02 -5.760906525243174592e-01 3.194091806516451970e-01
-3.201968486459248059e-02 -8.615378558838857614e-01 2.777627680352604544e-01
3.923372717725226444e-01 -9.055661467990956670e-02 3.263245491838412393e-01
4.185705530180768713e-02 -1.673814142551894035e-01 3.943940703404822390e-01
-1.523162503204995022e-01 -2.436859355689587892e-01 4.255871890740826058e-01
2.475145874413874625e-01 -5.097115016892060924e-01 2.796057691001159751e-01
-4.593915221974904095e-01 -6.385063697394069981e-01 4.219531840444110116e-01
1.102111332873054322e-01 1.314682849195529246e-01 4.359602869645993195e-01
1.426315692911686583e-01 5.923959850803951488e-01 5.173399573668769902e-01
-3.196403886939589434e-01 -6.907099813886700135e-01 3.788072889801606391e-01
4.476737190535553523e-01 6.425373215043451713e-01 4.548644127419018135e-01
-3.620267674772510991e-01 -5.968123047225735167e-01 4.069750965414661859e-01
-4.205593345562934349e-02 -5.005494369834603274e-01 3.498784123904433718e-01
-8.590636529622731540e-03 5.285318852765026609e-02 4.488766614753305073e-01
1.243109173162314368e-01 1.630723940243549996e-01 4.387305336851487492e-01
4.429195805109256145e-01 5.957652802534396663e-01 4.469529238433334051e-01
4.355154363634423098e-01 6.175238656723532893e-01 4.529081584330895138e-01
-1.313819811334668852e-01 -5.140041089004140362e-01 3.684105433788590900e-01
2.380187678163735721e-01 1.833580299059878738e-01 4.157502072590592568e-01
-1.561344321836561078e-01 -2.742193609149101013e-02 4.682717149408937019e-01
3.273282428673818245e-02 3.314832562154977902e-01 4.929310603328629359e-01
3.181829484038569689e-01 2.605075219417403720e-01 4.116910285007107650e-01
2.125340664578152794e-01 -1.676507962802050236e-02 3.831161009342921586e-01
3.268824064466396839e-01 1.936083986910909147e-02 3.630445309849630320e-01
-3.550064983912453176e-01 -4.818273325551864494e-01 4.275289402696126340e-01
3.902213694754756990e-01 2.617075810915207024e-01 3.948810256817608666e-01
-5.057814618823460590e-02 -3.231383686580179826e-01 3.861695335515800687e-01
6.388139666599952360e-01 6.316466397874870298e-01 4.075430749959395027e-01
6.090362629983429171e-02 -5.657387491516652211e-01 3.129273754048205736e-01
7.150317893957041093e-01 5.489407236632518616e-01 3.735340942697203959e-01
-1.823433984765274740e-01 1.258595866847502520e-01 5.040851983043374007e-01
1.196205062887893689e-01 -1.887280812033053645e-01 3.718737890694153170e-01
4.700282200032117608e-01 -7.735896355556649145e-03 3.239461098823064877e-01
-1.478767775609728941e-01 -4.002158314474741352e-01 3.942960584278662473e-01
1.466145167840517405e-01 3.238892787113808458e-01 4.645233875292731351e-01
-4.857204627934556818e-02 -2.482678664251525558e-01 4.001596169268068492e-01
5.540401709468703029e-01 4.746023999951055061e-01 3.972574112474539509e-01
3.141224594293440947e-02 -3.546501017714518422e-01 3.606854542438834854e-01
1.974274844470251811e-01 6.395101172787965860e-01 5.134793483077974008e-01
1.342320097449791472e-01 2.685846206527564561e-01 4.567680472707830175e-01
2.431082806482298131e-01 7.447075262741821300e-01 5.229965064485099235e-01
5.613942745462205224e-03 1.183779628250010013e-01 4.581754436398978170e-01
6.361250398361457670e-01 5.999939970841660086e-01 4.020640296867396546e-01
-1.020590157535465059e-01 -8.906774037167330960e-01 2.887020649631715785e-01
2.868444091560919396e-01 5.178364756447833006e-01 4.688195105980242916e-01
6.727427534637592244e-01 5.477183283201800812e-01 3.833020855002231553e-01
-1.920295443330473639e-01 -7.204292000271560470e-01 3.428772628072155881e-01
-1.170427657088764783e-01 -5.479562871078830222e-01 3.584589563317425731e-01
2.154551914265540602e-01 3.591806722315379896e-01 4.550561621434356385e-01
-3.186870759184692314e-01 -2.703050230685714039e-01 4.598021951063029911e-01
5.606289393451935332e-01 6.501064578669675242e-01 4.296053601689330259e-01
4.702685733573948590e-01 4.402682177411608722e-01 4.104417160956841393e-01
3.072979732005529652e-01 -2.301946291763142804e-01 3.194645021874001900e-01
4.220278762206228773e-01 -1.502015814990211029e-01 3.077776076219276846e-01
-5.320412704465533604e-01 -6.463304791001355243e-01 4.376280681793527916e-01
-4.878082319650789977e-01 -5.934130543691299442e-01 4.373874488982248399e-01
3.103270209036928517e-01 2.792119420365138938e-01 4.171630881320603224e-01
5.026363966446352194e-01 3.234927407872496830e-02 3.239764026791692175e-01
-1.228124524635708925e-01 -3.803232101324884873e-01 3.922098573048981573e-01
2.472678212855220631e-02 -7.136243790055848413e-01 2.929147238499887895e-01
-1.122432519558283909e-01 -5.104452479744829851e-01 3.645705252634120486e-01
5.502213484223686946e-01 2.357132569004820599e-01 3.520084614848379423e-01
6.888677414442231361e-01 4.429465875040825562e-01 3.592460106488585270e-01
1.424558203032682824e-01 -3.036410462127275278e-01 3.442710376434965358e-01
-3.544306320775057750e-02 -3.587580183999344308e-01 3.757075228922210353e-01
5.828963433497464514e-02 4.146159930103472391e-01 5.029460719500196131e-01
8.518685623163807508e-02 4.623062114092671426e-01 5.057966456163655034e-01
5.894504003369157745e-05 1.908799096288919250e-01 4.734966317592826379e-01
6.695169107248187534e-02 4.554661875423798301e-01 5.087890045553578044e-01
4.334862123715737536e-01 4.552932663955617798e-01 4.220459508688419459e-01
3.330519033581366695e-01 6.599804075203473674e-01 4.853499789645323581e-01
1.309533645718437278e-01 -6.537935342304783681e-01 2.793441759803746427e-01
1.857008923413995816e-01 3.298764958837189787e-01 4.564335802662095043e-01
6.672770201126736189e-02 -9.085402219764425746e-01 2.453218280706306320e-01
4.437130879998020805e-01 1.542271028823337387e-01 3.614619323236293313e-01
1.454351213500780504e-01 -3.140811253688773896e-01 3.415492576464180807e-01
-1.284593455744988955e-01 -4.126681518478687027e-01 3.872968173872174402e-01
3.426609597911677296e-01 -2.083492704713311439e-01 3.153192472266581059e-01
-5.944355387710634209e-02 -2.542128853441948944e-01 4.015828951393886626e-01
-1.022528798495249552e-01 -3.366525761657851445e-01 3.957831376083298380e-01
3.777740740775761275e-01 4.156145321792510949e-01 4.275597941442730310e-01
5.952241448304694815e-01 1.979127415726808781e-01 3.340594281904895047e-01
1.467511649585290789e-01 1.858152546338487643e-01 4.378157543175172917e-01
-2.385463070527594209e-01 -4.817003854698150844e-01 4.000029314074990960e-01
9.623361536782698566e-02 -8.046540504578966191e-01 2.584120898994569648e-01
1.004248435370407727e-01 2.623367917469631716e-01 4.635586234469014633e-01
2.027137613838500552e-01 4.630874234784012056e-01 4.781446895938296082e-01
-1.910903536164889061e-01 -4.444953280864819695e-02 4.732514429505939590e-01
-2.312198353827710495e-01 -1.594262514259270069e-01 4.605317114380851340e-01
6.161468050222956849e-02 -1.036812505550031710e-01 4.020266831187678802e-01
-4.448791599831486976e-01 -6.100584198269586311e-01 4.240160723832873124e-01
4.248514537660211254e-01 -1.191959600659820012e-01 3.130997974104063331e-01
6.003433222626868015e-02 -6.376532817261015840e-01 2.992394429039103021e-01
-1.902233881400693383e-01 -5.225448586261127737e-01 3.806803901011426849e-01
1.735208483438114430e-02 -9.754263251168305837e-01 2.440803186741446473e-01
1.040129097807271363e-01 -3.102710133308115292e-01 3.520844463642952005e-01
-3.492315465910854067e-01 -3.622521927463669411e-01 4.492641844867868994e-01
-4.616995991660067383e-02 -1.175215731679463693e-01 4.248509855433202365e-01
-8.230195685355055912e-02 1.860751304291373143e-01 4.920521673257383100e-01
-1.277102800860088205e-01 -7.151880275609833193e-01 3.286740765856467350e-01
6.572526172137319045e-02 6.429769327244931887e-01 5.453054046969325608e-01
4.456263747264015973e-01 6.748264681788963548e-01 4.615868691219017772e-01
-1.241911559726480707e-01 -4.522206959997444597e-01 3.786457271632175381e-01
-3.943645089156416206e-01 -3.376383396195232200e-01 4.646964042722027122e-01
-5.200687327526424403e-02 5.767103396998645159e-01 -3.120079810689974642e-01
7.439499576408789561e-02 -2.785985843236458027e-03 -4.538665742848876361e-01
-3.985158415178441937e-01 9.001548906955709160e-04 -3.412797503818232880e-01
-3.633848196637296524e-01 -5.543971603379357349e-01 -4.568716096893539746e-01
-3.267138947366993174e-01 -3.368358745896727902e-01 -4.235148042120701617e-01
-3.994503026448840283e-02 -1.524938250860464195e-01 -4.557405089311200586e-01
-3.988544114278725905e-01 -2.509342806139188142e-01 -3.898529847182492514e-01
3.361364406959347906e-01 6.117573967029862336e-01 -3.970585946742947736e-01
-6.126032674798624900e-01 -5.622794054288099419e-01 -3.994377866355370288e-01
-2.020802995423370552e-01 1.862460408905892151e-01 -3.519417154614005727e-01
-4.220216786081095774e-03 2.435516335029967380e-02 -4.300253260758312157e-01
-8.810608334067581912e-03 8.385380750208865086e-02 -4.174445131615132643e-01
-2.531412037224459732e-01 -1.677564058338816555e-01 -4.082541842814792488e-01
2.461854124835537450e-01 3.256243406249701988e-01 -4.310589040981597231e-01
-3.753966988174101682e-01 -4.591323202894477262e-01 -4.356252492853623925e-01
2.347183294054512592e-02 -9.714483770922897887e-02 -4.600496035790000993e-01
-2.016695475168905072e-01 1.485552488533861681e-02 -3.851507951297458709e-01
1.494504900233541433e-01 -3.843563997513993469e-02 -4.785095202986222596e-01
1.494830116810808851e-01 3.520952577976109721e-01 -4.030683260547984204e-01
7.345766256621691359e-02 7.856215360698047545e-02 -4.379287227713662967e-01
5.063034480922517372e-02 -3.451462236423845642e-01 -5.143871869302280020e-01
3.664737739637230485e-02 1.025286062193811291e-02 -4.424177180373475848e-01
-2.894433853328469697e-01 -5.737212591617135704e-01 -4.780969798936989257e-01
-4.368401355636108430e-01 -3.680061425350770743e-01 -4.034846292995706296e-01
2.050775017639019093e-01 -1.727420988538908020e-02 -4.875806889354054596e-01
-2.324184396173556155e-01 4.717057940179396613e-01 -2.896151445919314393e-01
-3.070303972741493248e-01 -4.420471212907873815e-01 -4.484976124551764975e-01
-2.940990076765972461e-01 4.655489839095546811e-01 -2.762130817138898631e-01
-1.182977738841584081e-01 -1.492669433702049631e-01 -4.365814854743958473e-01
-3.150812727956319170e-01 -4.199137077233334181e-01 -4.423169679555062905e-01
2.148950504611682744e-01 6.044263933867904948e-02 -4.748886276354604141e-01
-2.538649334497306564e-01 -2.320029418448867342e-01 -4.204951284570880299e-01
-2.143542452338934867e-01 -5.498168661935043389e-01 -4.912422999216543018e-01
2.919142902521429939e-01 7.988268019582273061e-01 -3.504561289993279871e-01
-2.728002715616396623e-01 -6.012655844440246700e-01 -4.873556216196703317e-01
3.059273220734225474e-01 1.578519463089680941e-01 -4.776047194124423134e-01
1.347307814965869287e-02 5.074730528239461691e-01 -3.408746641713712444e-01
2.853227116180801493e-01 5.824732633740662413e-01 -3.906953568839802160e-01
-5.116012815639557898e-01 -2.364999633742074781e-01 -3.603922482453552623e-01
-1.007552432895512801e-01 2.690940183189301504e-01 -3.599059174312134179e-01
1.378534677916344597e-01 9.052131152073644715e-01 -2.934571818457736847e-01
2.083380772509047310e-02 -4.553646004322648988e-01 -5.286320518252141110e-01
-4.205511269251592243e-01 -2.431849040512948923e-01 -3.832231309406197162e-01
-6.195195508000386209e-01 -5.472393294771042971e-01 -3.948959504823286726e-01
-3.905433183599807956e-01 -3.190136530776911949e-01 -4.049717492794312479e-01
-3.026384076670525780e-01 3.297171408763760470e-02 -3.577650148600960978e-01
-2.639066617774832313e-01 1.464400812418342468e-01 -3.450060334152182384e-01
2.289724217281091379e-01 4.596307244285569582e-01 -4.010974375256239344e-01
-3.901473648559212193e-01 -3.906767297393685945e-02 -3.509810605925656746e-01
-6.555704749647478513e-01 -5.574417958676776141e-01 -3.883385961462923475e-01
-1.763297165509384312e-01 -7.058623551580949229e-01 -5.303849312885635658e-01
-4.945709745358564113e-01 -5.288741423948044584e-01 -4.209064741198435544e-01
9.485382551653424865e-02 8.487885334142428739e-01 -2.941859099499498087e-01
-3.655611831009920876e-02 8.358020210241472459e-01 -2.656077089305473593e-01
-3.239415400838533965e-01 -7.549249079638137294e-01 -5.049436502638848800e-01
4.186185996702599943e-01 4.563242071154187673e-01 -4.466001011180327218e-01
1.912951553219818523e-01 3.138789977621083138e-01 -4.203428791213426607e-01
2.549183677744260024e-01 6.740613792476307653e-01 -3.658082899239570862e-01
-1.322284168881803779e-01 -4.690936565910756029e-01 -4.950751112154013756e-01
-3.690953333275590054e-02 -5.487495722852256952e-01 -5.330135086567139302e-01
-1.640318749136488174e-01 -8.089375424383214996e-01 -5.532078661777114492e-01
-4.097747476244146259e-01 -2.783988002306624909e-01 -3.925756301826164862e-01
-5.988527608410481040e-01 -3.767005828185157612e-01 -3.668376611099499196e-01
2.854833203167674860e-01 2.703972500038961391e-01 -4.510250933967946407e-01
-4.904566266919876405e-01 -6.094651053936047669e-01 -4.374496164012517396e-01
4.249871666571707757e-02 7.976458524475906753e-01 -2.916810112194224147e-01
-2.267232025474751056e-01 -2.849833051864743005e-01 -4.371515202250300658e-01
2.330158046816142303e-01 8.597297320628938255e-01 -3.247565595147116069e-01
1.059062689155062936e-01 -1.393843079008425800e-01 -4.877112812199934644e-01
2.819814243760064287e-01 3.138398194687253007e-01 -4.418037461442566594e-01
-1.620041047919382193e-01 -5.720570107479741040e-01 -5.079232691884043582e-01
5.304692948053008061e-01 7.647041963348686355e-01 -4.134824990348385243e-01
-3.382649675296913738e-01 2.408163314865374716e-02 -3.510545035185118623e-01
-6.357103198871331962e-02 9.343185150167637731e-01 -2.401839334634793544e-01
-4.398091295552308821e-02 5.725752223466116231e-01 -3.147055381510409089e-01
2.151725041523914472e-01 4.578350847583876893e-01 -3.981797545515827763e-01
-2.808680898592416653e-03 6.397556003339739394e-01 -3.114665332105967521e-01
-2.743194980078848544e-01 4.367386777637795037e-01 -2.864582704696244653e-01
5.253976270067435908e-03 -2.514278803092335202e-01 -4.855466955496490766e-01
-4.441576938888608383e-02 -3.259245558631709838e-01 -4.881889539331943362e-01
-4.261350067385984430e-01 1.050381785912495730e-01 -3.146269741452358826e-01
-2.371974985325074337e-01 -3.873215813750865433e-01 -4.544449710395752629e-01
9.711053066984828841e-02 4.095037813568060819e-02 -4.507906228398624315e-01
4.395825094293248636e-01 6.868336554574445696e-01 -4.070260188985780903e-01
1.446787354871147124e-01 1.635762386684889158e-01 -4.383528598268243703e-01
2.549488703310643922e-01 7.571006600418734855e-01 -3.497726743251162174e-01
-5.104260160588650619e-01 -5.060521035915750421e-01 -4.127465889933115695e-01
-4.111689885093240959e-01 -3.101110258450299750e-01 -3.983724654705442236e-01
4.639484829958365197e-02 -5.235520419349060095e-02 -4.568192478388309330e-01
4.014690768534879828e-01 7.673384477613731658e-01 -3.824564931889513630e-01
-5.895198199881936940e-01 -1.896730449747012492e-01 -3.329126036837920521e-01
1.113286733882093982e-01 5.663751484511905243e-01 -3.526443504929990813e-01
-1.241249088944930551e-01 -1.640213462065523153e-01 -4.380534699030182999e-01
-1.740171754736846432e-01 -6.349725283398918174e-01 -5.172363908573679447e-01
1.694116833278061784e-01 -1.508586321411478914e-01 -5.049513001359228204e-01
-2.760623966701236109e-01 1.406606582413033324e-01 -3.432469581281203386e-01
-4.321319520347633447e-01 -1.334600179918465357e-01 -3.592851246930269804e-01
-9.387973859335055349e-02 4.714578290611078915e-01 -3.224366120079834030e-01
-1.387788642351014678e-01 -4.178768584097917738e-01 -4.836306325030259590e-01
-7.532389691523616593e-02 -5.876675879246081591e-01 -5.314447651116953608e-01
-2.067420562848212573e-01 -2.130978352597393821e-01 -4.279904190392200825e-01
-2.686266754178392446e-01 -6.433228030201837422e-02 -3.846097507801548576e-01
-3.604945771678175204e-01 5.285518804550501382e-02 -3.402368043257269492e-01
-1.580875994728988265e-01 1.451970664054662297e-01 -3.702793825145363482e-01
3.228588179315789453e-01 5.976985238087090258e-01 -3.966336728039107640e-01
1.054484343577892780e-01 3.758299166912399958e-01 -3.880658034768736941e-01
-7.349769112034908458e-01 -5.426701585531895633e-01 -3.666999076567838411e-01
-2.703089026883687823e-02 -4.128144956820002827e-03 -4.301319462838607555e-01
-4.327561296355423304e-01 1.387897110598114159e-01 -3.065399901205655420e-01
-5.378536013924476583e-02 -9.874962915793761287e-02 -4.420832087018370382e-01
-4.839795185146005263e-01 -5.514743234197925226e-01 -4.277783113295684503e-01
-8.659783420943234500e-02 2.327309404415513761e-01 -3.702802706930912180e-01
-5.492495520472395754e-01 -6.461892779805442633e-01 -4.306361547294636494e-01
-4.012874140974549420e-01 -5.580550554695559162e-01 -4.486118299345206450e-01
-5.648414938181741674e-01 -1.491895035620352805e-01 -3.309294134465293191e-01
-3.657881176296432502e-01 -4.118196632896408693e-01 -4.287577123672548507e-01
-7.295244876348547791e-01 -5.967399920427891580e-01 -3.784358252906748765e-01
1.661939837709045520e-01 2.530408469732219889e-01 -4.261584613529960097e-01
-3.441776447466487476e-01 3.449239481802914842e-01 -2.876704107970299296e-01
-5.416716750116196133e-01 -1.515925595425611228e-01 -3.368748674299741896e-01
-5.623349279537602774e-01 -4.309464305937745210e-01 -3.859566069993100590e-01
-4.606933090572221806e-02 7.722086497272152572e-01 -2.756431707206029591e-01
2.588926927211586404e-02 -1.509237065915204068e-01 -4.710113329776237090e-01
3.424725934614437084e-01 7.403982905676421700e-01 -3.737046469415887251e-01
6.337240217016325283e-02 3.267224692353261628e-01 -3.875993875817707601e-01
9.081994885893462932e-02 -1.444660643343008977e-01 -4.851241426226893805e-01
-1.649189661352564243e-02 1.284585144257008038e-01 -4.070099433664794430e-01
-7.434807523130982920e-01 -5.727485035262186441e-01 -3.704991937682113323e-01
3.371345745426186369e-01 2.715525276375201358e-01 -4.630208350471307077e-01
-6.254841091951890419e-01 -5.691514662915733158e-01 -3.977182685776264881e-01
-2.673674876309957704e-01 -2.023670809902812506e-01 -4.115753610319786149e-01
-5.663421371721626407e-01 -4.087562786930497571e-01 -3.807215953074316594e-01
1.468550213857890696e-01 -1.448553434647549820e-01 -4.984553488333372528e-01
-4.596414262229945868e-01 2.965789959894476330e-02 -3.212636361139105667e-01
-3.538537628678702918e-01 -2.560439105927333481e-01 -4.014857716268894761e-01
2.191207660571087845e-01 -3.215067026901483049e-02 -4.937769174337694467e-01
-2.980155789995783122e-01 -7.838552768161645146e-01 -5.166660767222432948e-01
8.866114508700734254e-02 -2.393707446433878117e-01 -5.029486183731722848e-01
-9.967138896492465372e-02 6.342756607708351924e-01 -2.896107998375789805e-01
-2.132176641054156149e-02 8.018117776077708925e-01 -2.757784089663547489e-01
-6.776745422501901338e-04 -2.428713948107502352e-01 -4.824903918353543597e-01
4.241566593923649098e-01 4.345232638508672585e-01 -4.521220667268013860e-01
1.378716556901146140e-01 2.432988397632807054e-01 -4.213404722012202286e-01
6.845521869690024235e-03 9.397791779538502976e-02 -4.191922884764578972e-01
-2.968070677498158561e-01 -7.454219468165595996e-02 -3.799157364667237746e-01
-3.711834883579808592e-02 3.055543173663622381e-01 -3.679162772635423129e-01
3.422313613425633227e-01 5.138028905354031783e-01 -4.174248351304266635e-01
2.046407054410018522e-01 2.389110791906357556e-01 -4.379834630504695903e-01
3.216807859069088348e-03 1.507074411689711957e-01 -4.073739580868093735e-01
3.867598282925794467e-02 9.516759147295075771e-02 -4.264924569893050466e-01
1.416815897018395554e-01 -2.161868916325238310e-01 -5.110124381637760616e-01
-6.666123836954057635e-02 3.517313803740715339e-01 -3.520062210659578583e-01
-1.714769465920212566e-01 -2.963623975945481881e-01 -4.524193037689633323e-01
7.360155135715276686e-02 9.076925128414454758e-01 -2.777783469368192426e-01
9.113231832993097525e-02 6.502214439805977797e-01 -3.316678340889685495e-01
-6.095135972514538203e-01 -3.067126170651430228e-01 -3.507942949007039624e-01
2.005730235469126155e-01 3.869251876149104041e-01 -4.084254989891261678e-01
2.596034927867337250e-01 6.817511366860398159e-01 -3.654310037014298351e-01
-3.915452592672193366e-01 -7.240111220796159319e-01 -4.829784910482412541e-01
-2.330986004539440867e-02 3.286867470964824900e-01 -3.667138119362946536e-01
2.950977498629193951e-04 -7.146858482863767403e-02 -4.496062319901982796e-01
2.371212380176746792e-01 7.293967251885146164e-01 -3.509075416058457519e-01
8.954642257358901014e-02 -1.899555771856199782e-01 -4.936112474610586665e-01
-2.210968075567734115e-01 4.873669880329198900e-01 -2.892677838086727959e-01
-7.591751985302196415e-01 -5.854882119162746479e-01 -3.692476764721573379e-01
2.484233264107344186e-01 8.304710427440007425e-01 -3.340541097866914777e-01
-3.279391428213023207e-01 -5.499623443710298654e-01 -4.644000682459679674e-01
1.108631883021705400e-01 7.171312399138455307e-01 -3.234088048041400820e-01
-6.577328157124421315e-01 -4.562441180980463251e-01 -3.682761040331197222e-01
-5.560879069476574177e-01 -1.757703688825403010e-01 -3.381355241641452736e-01
2.148362062515279600e-02 2.961016899731885518e-02 -4.350907384548090562e-01
-4.955527689589340201e-01 -1.664289184001342958e-01 -3.506513582988327049e-01
-6.730084949795774873e-01 -5.264900585662238841e-01 -3.782336092127813187e-01
-3.212761824737255245e-01 -5.891296118416432526e-01 -4.735432462750480131e-01
-5.747936982004795414e-01 -3.458513707323749853e-01 -3.665692850471919395e-01
-1.420702387985450788e-01 -1.002636029748361080e-01 -4.214904915639848260e-01
-5.383802469230846155e-01 -2.601981093278263879e-01 -3.586356323178058192e-01
-1.285355991446006929e-01 -2.476248358177260689e-01 -4.531618842498452149e-01
-2.359377644095750348e-01 1.868431120169810611e-01 -3.438168351160221792e-01
-2.422599839621959739e-01 -7.743251912900979139e-01 -5.280147894928473029e-01
-1.982696334413721895e-01 -7.916900907492147033e-01 -5.417762394145109184e-01
2.037493900726420337e-01 3.677442919593539306e-01 -4.128825861085023141e-01
9.653845119142615006e-02 -2.652446203854409990e-01 -5.098108434160963931e-01
4.238350461248073242e-01 4.464424163688345271e-01 -4.497432549861740125e-01
-1.093976921499114213e-01 5.168418350033295861e-01 -3.099975955744819767e-01
-4.268099041767678958e-01 -5.458382135904625843e-01 -4.402138324828179794e-01
-1.577821852438608952e-01 -7.934612163538101726e-01 -5.516963713985101325e-01
-1.732884196990966408e-01 -1.579166982552518972e-01 -4.252436576770599608e-01
-5.130907452267436941e-01 -3.798747996396214521e-01 -3.877392925931582579e-01
6.566166345833228390e-02 3.121870181226764629e-01 -3.909491357837797665e-01
2.988173803840541431e-01 6.595986349663387482e-01 -3.789874485079821054e-01
-6.647855786170645542e-01 -4.847615597051662117e-01 -3.721171062627104398e-01
1.947025374830322619e-01 2.082430922965486098e-01 -4.415573523182657611e-01
4.449828589933212813e-02 2.354674319219874079e-01 -4.007644915578170708e-01
6.521508318228301515e-02 5.235378535298389480e-01 -3.500114187321388126e-01
-2.249211657001058406e-01 -8.152853643460584998e-03 -3.840953699077304107e-01
-1.829398976021237300e-01 -1.370518017478802586e-01 -4.189294369311258315e-01
-5.105383368637218117e-02 -4.646381231172526383e-02 -4.326280006262760991e-01
-3.964038080689995247e-02 -2.598416226610648638e-01 -4.765517109043688193e-01
-5.863900964870457644e-01 -4.788397617858156652e-01 -3.895187546926445199e-01
1.615146693499921460e-01 8.439379768338011178e-01 -3.108927131420187728e-01
2.551569722909383664e-01 8.201993181438970160e-01 -3.376315151631914535e-01
-2.359384106063650011e-01 -3.295089680479382777e-01 -4.435736806278900435e-01
-7.974030049216271343e-02 -2.460819320597585347e-01 -4.644071159003870242e-01
-1.581893983085234934e-01 4.518784050686090042e-02 -3.895766521490345302e-01
-2.097062641385707693e-01 -6.631350145374528271e-01 -5.142344330263722840e-01
4.145549724275541387e-02 9.651461281491590105e-01 -2.590738888735539813e-01
-3.265061227685867595e-01 2.750058530095325082e-01 -3.053587689272261874e-01
2.585776330535916046e-01 1.850700814907741687e-01 -4.611449611361017054e-01
1.819909392629046330e-01 5.099958717448876966e-01 -3.802528813718367706e-01
3.908151796909718062e-02 -4.339730285393918197e-02 -4.533585337630351431e-01
2.571304815614329220e-01 1.973251201749098849e-01 -4.584349934345396949e-01
-1.158896149706791917e-01 -2.092851977383016204e-01 -4.487464425584471450e-01
2.473338924914324499e-01 8.521341220828276830e-01 -3.296111729979235294e-01
1.419778561308084330e-01 1.906610913036034527e-02 -4.656326580473678645e-01
-2.679987066917021155e-01 -7.635820066784388960e-01 -5.198503429624087291e-01
1.520271985921241575e-01 -8.938385331278263235e-02 -4.889620576489051018e-01
2.992147440379596124e-01 7.764317052641812600e-01 -3.565098052009727514e-01
-5.398717177161703740e-01 -2.282202859914677362e-01 -3.521048231060214251e-01
-4.837993021469145782e-01 -5.663988817232424866e-01 -4.307043048115907213e-01
-3.041134063635249629e-01 3.371254193955557921e-01 -2.986548940208302305e-01
-4.642372959066699140e-02 6.630300589317468241e-01 -2.966521656046688937e-01
-4.258522012111863320e-01 -1.112373007248087520e-01 -3.564773676385483703e-01
-2.621458965089614596e-02 -5.473967547172412136e-03 -4.305850624751859645e-01
1.834661025489311981e-01 1.279044524302944685e-01 -4.544202718821812592e-01
-8.041279869261264146e-02 6.122027101785404435e-01 -2.984311286369429883e-01
-2.178349215536406758e-01 -4.296517697505049527e-01 -4.672035106786899816e-01
-2.777429541949123504e-01 3.930741661811804621e-01 -2.940841923669264002e-01
2.742561450219290764e-01 5.848045174504565846e-01 -3.876269940189699947e-01
6.087915134622275820e-02 8.719492032846017926e-01 -2.816741117404880090e-01
-2.099532583033733579e-01 -5.420271826405405058e-01 -4.907784909632398884e-01
9.833613510420236015e-02 3.345480785764723408e-01 -3.943587478638554966e-01
1.838445940671014633e-01 7.504239647334147723e-01 -3.342417210326033561e-01
-5.406425137212337306e-01 -4.600805551198473009e-01 -3.967168844641164038e-01
-3.768044709956364646e-01 -4.824461870529805352e-01 -4.397963567624542103e-01
-2.659955615158172693e-01 5.260863357717575628e-01 -2.711658489666400329e-01
1.858664553786755491e-01 -9.560278766514009041e-02 -4.981687503461380562e-01
-5.671551116294336614e-01 -3.319937338314515318e-01 -3.656990799857527952e-01
6.011162511452913804e-02 -2.583818163728001105e-01 -4.998676266704433213e-01
-4.418250067248181701e-01 -2.413294693019247816e-01 -3.778319899374916191e-01
-6.140073861320518578e-01 -3.668324881353898226e-01 -3.613461169495553738e-01
3.196212736849567970e-01 1.746590507571076090e-01 -4.775971840769750454e-01
9.223410516694735550e-02 -2.957609081421094799e-01 -5.146881964058049874e-01
-2.727357113079437734e-01 3.677001754314346282e-01 -3.001708820896907270e-01
-1.238883626930516318e-01 -6.093791797824134049e-01 -5.241506443880122879e-01
-4.837180598336337511e-01 -4.358823510207497365e-01 -4.055082922814111090e-01
1.818014877127000495e-01 2.600322237505571232e-01 -4.284999639675503569e-01
-2.992945187628990311e-01 -8.867032134728126958e-02 -3.820567830895100769e-01
1.449656675437128728e-01 2.165880929000064681e-01 -4.281790762667842531e-01
-1.234875913367143863e-01 3.383320886539534222e-01 -3.411517172319389890e-01
-3.273232942957924468e-02 8.448303928015783448e-01 -2.647680452434670872e-01
5.980960005768506255e-02 1.935812632769451092e-01 -4.124788570089991113e-01
-1.497204582536751372e-01 -2.591866776231765632e-02 -4.053175875602841316e-01
3.789165067197356601e-02 -4.122955140578286048e-01 -5.243465973588927742e-01
-3.059024700702493993e-01 1.823530205459442067e-03 -3.630105433103124613e-01
-3.126521212986245121e-03 -1.163815766901188375e-01 -4.574737895262174781e-01
-1.277009993332819671e-01 5.800224853168401973e-01 -2.934614238095846761e-01
-6.737112239051500362e-01 -3.847594992927234059e-01 -3.506856336252334727e-01
-2.169760775496455130e-01 -8.641065762444459508e-02 -4.010939792484678468e-01
1.209703249823072535e-01 6.825183137750496787e-01 -3.324868790984300548e-01
-3.404114289750320710e-01 8.057134476045538576e-03 -3.536425876227488607e-01
-5.570319478699902183e-01 -3.014167058289023426e-01 -3.621865273213317193e-01
2.223825796663383286e-02 7.848393143483429757e-01 -2.893622413220799383e-01
-3.446754087803031164e-01 -3.627232010143414120e-01 -4.242670386867783971e-01
-2.355926806725040235e-01 -3.179711833123403664e-01 -4.414264182861146746e-01
4.552534871368415503e-01 5.757445059973966828e-01 -4.321951864518625008e-01
-7.429945806457961821e-02 4.070480898022608707e-01 -3.395123270820070704e-01
-4.231503579679219557e-02 5.713657835086205505e-01 -3.153332866065203799e-01
-8.273044487566781624e-02 9.158171630100684357e-01 -2.392258472155962268e-01
-3.991995312268533658e-01 -3.532843615982877994e-01 -4.095449359813459478e-01
-1.141571334530537690e-01 -7.899007170451224358e-01 -5.613287070863668404e-01
-4.296887114169573585e-01 -1.658655264775946714e-01 -3.661237173195177053e-01
-5.674267298605984999e-01 -3.829760889513793010e-01 -3.754843957888765460e-01
-6.048639487336585074e-02 3.042740777416035394e-02 -4.155415236986416128e-01
4.579675506900943160e-01 6.443010745790505034e-01 -4.195924080750362828e-01
-5.060721293000418619e-01 -4.882458028258320759e-01 -4.103364704180012534e-01
-8.113604774050897639e-02 8.699922023510819891e-01 -2.484562126147029648e-01
-1.165077284555180726e-01 -1.191828790885275657e-01 -4.311928378862666111e-01
-4.836409881150911805e-02 -6.194978227418818095e-01 -5.439720039898017223e-01
-8.395170606649399181e-02 8.314003264128119186e-01 -2.552459075249932097e-01
1.957048971514552260e-01 6.053201435087655069e-01 -3.650809002246415691e-01
1.248461696499652135e-01 -4.897274321573549111e-02 -4.747246948982950521e-01
8.554951619115126749e-02 9.355500774327649705e-01 -2.752228689856692778e-01
1.234502705926171229e-01 3.876869564816197156e-01 -3.900336988273656047e-01
2.594262030065064284e-01 8.447829034672017512e-01 -3.338920276444670154e-01
-5.548258703523315516e-01 -5.213496340959636877e-01 -4.051985051766169854e-01
2.367552238201473813e-01 3.246553966548532122e-01 -4.290152368474418609e-01
-2.135439480911099086e-01 6.273124237436743245e-02 -3.730923319124916926e-01
-6.043351721180450359e-02 4.691684457727640090e-01 -3.307911535038283168e-01
-4.346515726282983993e-01 -6.902345437348196278e-01 -4.662555086693936923e-01
-3.311029011970641478e-01 1.630414463274890147e-01 -3.259023681692763685e-01
-8.695441889503527366e-02 6.423375469087770628e-02 -4.027488455541877732e-01
-1.818968147529456680e-02 2.639579187706283525e-01 -3.804304035663071959e-01
-8.528660528273125652e-02 -6.807689105778580441e-01 -5.470747005717541134e-01
-2.112436197277685612e-01 -5.110991037204845044e-01 -4.844980635134655822e-01
-5.313700545566426431e-02 4.141157583639637485e-01 -3.431532030525206722e-01
1.620203747674603678e-01 4.805691448983569897e-02 -4.647731399689922216e-01
-1.986752927956144388e-01 1.756552649430927204e-01 -3.547933169712881862e-01
-2.373084878508143758e-01 -7.188379416134377253e-01 -5.184662479678154856e-01
1.891604581059700141e-01 6.055682579474009897e-01 -3.634847730931579091e-01
-1.547184662865928872e-01 3.530942792084035831e-01 -3.309115589707716798e-01
-6.938429342879226525e-01 -5.024991487031957860e-01 -3.686699464641474688e-01
4.473904180314376422e-01 6.070657878994524248e-01 -4.242839139876444787e-01
6.013157750050627387e-02 8.761913123439052375e-01 -2.806777039003911511e-01
2.121677582673692566e-02 -1.922493233416265046e-01 -4.778899105788445012e-01
1.688141708162794463e-01 7.779684878262570491e-01 -3.253645490143273755e-01
-4.725683317912024450e-01 -5.361958396393726733e-01 -4.275260741138789955e-01
-2.520054281071847369e-01 1.638688241920232824e-01 -3.444543038874511298e-01
7.368839951668262889e-02 6.773039766805923900e-01 -3.223089653672938093e-01
-6.014686179118102771e-01 -3.247407314859885319e-01 -3.561804184464703038e-01
-3.695421052312680699e-01 -7.054794489148451253e-02 -3.619374196934568855e-01
-5.852595963891333852e-01 -3.566171694668411885e-01 -3.661733141762514854e-01
1.177345809665517468e-01 4.142916872954098551e-02 -4.555770739201993047e-01
3.335409677561603781e-01 3.467157181117043740e-01 -4.476495047312135656e-01
-1.275274134824928851e-02 8.901738261310507827e-01 -2.607343826214184590e-01
-2.198827893750760487e-01 2.294278678088945700e-01 -3.393877066712729373e-01
1.386528616100538569e-01 5.470242733496272214e-01 -3.628468331649441492e-01
-1.374658970498442712e-01 -2.316679948382159293e-01 -4.479664854441229305e-01
-5.598142180282756897e-01 -3.953991321530588854e-01 -3.796853365552435022e-01
-4.058464496957632783e-01 -2.009415832919571321e-01 -3.785405315741322552e-01
-2.226653865920478689e-02 2.725265973973124423e-01 -3.778105255065911661e-01
-3.348674862935062113e-01 2.486985659991309272e-01 -3.084632082470494807e-01
-2.590974298880808213e-01 3.674449641013655676e-01 -3.034465430090044213e-01
1.307752523972293413e-01 7.498850255556699373e-02 -4.521785360550532595e-01
6.777767435852699585e-02 4.140361941693003200e-01 -3.717728900176076046e-01
-5.373290438229674226e-01 -1.935104309303212200e-01 -3.460005390471467268e-01
4.277973130265329965e-02 5.779912347475653078e-01 -3.341838160334535401e-01
6.399479294805381080e-02 6.773149803636224764e-01 -3.200136607005144018e-01
2.278278725930212578e-01 3.165218261151901968e-01 -4.284746988945305479e-01
-2.094107500478560313e-01 -2.918888275535473920e-01 -4.425811769610983326e-01
-3.540831015626886291e-01 -5.799355606005119901e-01 -4.640059899200322246e-01
-6.176441309394085089e-01 -3.070334807523561471e-01 -3.489328756525856834e-01
3.811066222058196451e-01 3.391362258021248799e-01 -4.603662518732759557e-01
-1.249639319126923109e-02 3.488656441684109821e-01 -3.653734357099510111e-01
-1.581528957237677002e-01 4.138361066901135032e-01 -3.183640298508775834e-01
-1.699576505613514255e-01 4.115817342018066594e-01 -3.160069599706925580e-01
7.861190847335028375e-02 8.746105116457703055e-02 -4.374288139899886185e-01
-8.303170412790308874e-02 -3.463401490022475215e-01 -4.829979371307943636e-01
-3.325553989823201717e-01 -7.098849008975145480e-01 -4.942043677516507194e-01
-5.871980760043472580e-01 -3.414066971994562105e-01 -3.627761378498921552e-01
4.245957213167871058e-02 7.456643404367353511e-01 -3.017143552296774889e-01
-1.257459731564191940e-01 7.491813324621706682e-01 -2.612431559026920924e-01
-3.500627785523712648e-02 -5.692765078961384839e-01 -5.374294699703154876e-01
-3.604293291195200810e-01 -5.290443722070564680e-01 -4.526727290979689067e-01
3.240296823382018271e-02 -2.450519008899072759e-01 -4.907374152144484136e-01
-4.822776876137801483e-01 -3.751079726822146854e-01 -3.941076873435810923e-01
4.514560394210904715e-01 6.737611761242959796e-01 -4.123604404217012798e-01
-4.521705560424719716e-01 -1.206260799850606691e-01 -3.520652085251139707e-01
5.007601776920181380e-02 -2.694874172865482920e-01 -4.996390963484887426e-01
-2.766674954799787645e-01 -7.365657991416713068e-01 -5.125801863557517546e-01
-2.621390753596296586e-01 -5.711584862132288443e-01 -4.840611376058226445e-01
1.409169680448760509e-01 3.381369668907142634e-01 -4.037385721262056193e-01
4.108862216007477114e-02 4.087273216207656379e-01 -3.664848160618300876e-01
-2.711180677857875643e-01 -4.378241978704591197e-01 -4.561774019407492387e-01
-2.268937209768222274e-01 3.346969978571083248e-01 -3.173916152304330773e-01
-1.026968652667315240e-01 -1.843681856672672315e-01 -4.470535406068482098e-01
