-2.811610811851859570e-01 -6.854846505005556256e-01 6.171958161520089137e-01
-1.408106506785889167e-01 2.722334334553438429e-01 7.120072455226107537e-03
-2.695853401247881864e-01 -2.160794844678888549e-01 3.525913904546937316e-01
-9.256873047316223346e-02 -1.840259818732007946e-01 2.285320187338087949e-01
7.164985932439895677e-01 4.127567951575533689e-02 -3.817406475835118940e-01
4.502962147262349335e-01 -5.774049670862333450e-01 1.179410791214717674e-01
2.869831519474164705e-01 3.370783846337511158e-01 -2.857668177087135941e-01
6.576430403780612055e-01 1.924723623550649854e-01 -4.293293917571083251e-01
2.072203245125583126e-01 4.939197853178675657e-01 -3.238791501161806252e-01
-5.622924360763974505e-01 4.580832269721623051e-01 1.586118916978017379e-01
-8.012241434122512052e-02 2.911206879783665435e-01 -3.974734898423855356e-02
-1.743286192082112943e-03 7.121046742780130501e-01 -3.179535841175324395e-01
-1.188960235639070079e-01 -1.358191559984813501e-01 2.179072392421134985e-01
-1.070665744886356296e-01 -4.491517198234590280e-01 3.827711673587322894e-01
2.594741735440764807e-01 -8.534645120891246051e-02 -3.736546304547835873e-02
4.483340299804975948e-01 -1.985236063962656228e-01 -8.883523142139994333e-02
8.891554697651264660e-02 7.508185385400952816e-01 -3.937289662962735748e-01
4.779430211792290439e-01 -3.955572985695973709e-01 1.502322088699703344e-03
-2.186061481719714372e-01 5.657625645155817118e-01 -1.071992455148357143e-01
7.645124482569588820e-02 4.111542896333887920e-01 -1.998009633235091342e-01
6.309539596099427161e-01 -4.423261652308630443e-01 -6.485569884103546678e-02
4.377205582250654481e-01 -3.005118774036267815e-01 -2.647352483353857672e-02
-5.646409564727266073e-01 1.176159025502282601e-01 3.468965678365311667e-01
3.322703856364473962e-01 1.102755471939628890e-01 -1.885195233847115903e-01
3.920030900879031832e-01 6.644451341025738866e-01 -5.286124431092557030e-01
4.582818093986680275e-01 6.376792045441866119e-02 -2.387821432361723062e-01
-6.377941632365136115e-01 2.685672853052684106e-02 4.407093250628289494e-01
-6.498267505831800683e-01 2.112953468685269676e-01 3.467135424207469785e-01
3.009632992128404971e-03 6.280948127955781057e-01 -2.747017557826422207e-01
-4.451392665824202011e-01 5.454510912977690307e-01 4.019685836238490184e-02
2.999772049294122112e-02 -1.770159509721167257e-01 1.509671533715978009e-01
2.898665812706565648e-01 -3.457036205819451480e-01 8.725723832967388627e-02
1.186808467657091970e-01 7.899235756111290252e-01 -4.330947943912374365e-01
4.431834773413212414e-01 2.812378807682601716e-03 -1.962446469195423537e-01
1.643940921936132005e-01 5.259338051448142481e-01 -3.156929466073297719e-01
3.750993837607013992e-01 2.444471047884520243e-01 -2.879216020284214306e-01
7.144040493926395730e-01 -1.700692749890693189e-01 -2.644800686924007604e-01
-4.084715993400169776e-01 5.941941147463545292e-01 -8.610378390012647307e-03
3.203879496573137642e-01 -6.216064590300290904e-01 2.203349218416495447e-01
-1.630426674748933213e-01 6.347707197804629553e-01 -1.784942348460524797e-01
4.720306457034939562e-02 -2.413743419375072863e-01 1.759434084176699498e-01
-1.013345765101055646e-01 -5.785438761662464735e-01 4.503430933980486772e-01
6.832384902106864999e-01 1.512676322091784931e-01 -4.221076845372818687e-01
-1.881605064461490950e-01 -6.381396621202426456e-01 5.352746379539146115e-01
-5.896510104351443404e-01 -1.007250060645317330e-01 4.817794871046793270e-01
-1.467137462357634980e-01 -4.455229787843382194e-01 4.046251498278115588e-01
1.321235044250600454e-01 5.122495548326676529e-01 -2.887730166838441970e-01
5.288842722705247024e-01 3.201433640629888777e-01 -4.219624980818265647e-01
3.515553201301316877e-01 -1.245296313668280697e-01 -7.124097219618007182e-02
3.414598075628976770e-01 3.047942889903904606e-01 -3.008119015396802931e-01
7.906313714136811166e-01 -1.217478173309518019e-01 -3.368489720618252914e-01
2.384470270150504390e-01 3.809022918681477798e-01 -2.806285023635723963e-01
1.351069338151267840e-01 5.365572712899083774e-01 -3.039091591593496289e-01
5.748626667471048446e-01 2.518345829591149831e-01 -4.121234701477589635e-01
-1.902353690245117690e-02 8.014257499899748449e-01 -3.565860455927717942e-01
2.106157899003049117e-01 7.394875264645986990e-01 -4.607060121399868535e-01
-2.439685703450212295e-01 1.446546131079394226e-01 1.391882706631194511e-01
8.058797921301952272e-01 -3.504058140345088224e-01 -2.205166714382716386e-01
1.648416812815669541e-01 -3.688593593542378035e-01 1.751626196940714864e-01
-5.945354651853552302e-02 2.510949372377084265e-01 -3.020966781070195603e-02
-4.059369790183463000e-01 3.279390579302053910e-01 1.360044877459703760e-01
8.443898832122588571e-02 8.142239168228602164e-01 -4.258378364688351070e-01
1.344617107153830704e-01 7.776488151882053890e-01 -4.358489110235569397e-01
1.615269383879296694e-01 5.079686932652131004e-01 -3.041080006257854129e-01
-2.073091722312826457e-01 -7.918773060376543826e-01 6.311734724313086131e-01
2.363073958156825805e-01 -1.659432505693961279e-01 2.080526818525882046e-02
-3.626536542297138094e-02 -7.646714418918213463e-01 5.133671487974110770e-01
9.073700860639209720e-02 5.606714374989125727e-01 -2.904585160782691133e-01
-7.749231752128385442e-02 5.146527519056013356e-01 -1.640191687042097668e-01
-3.968514221331560787e-02 2.869127208138033680e-01 -6.175861565551379190e-02
-9.807059926855687948e-02 -3.886339402134342813e-01 3.441441919322620890e-01
2.359221964161158924e-01 7.471819405970173689e-01 -4.801497144025725916e-01
2.327530581443148228e-01 1.077919626567057088e-01 -1.273019220760062131e-01
-3.449149368639961022e-01 -5.547961367741534033e-01 5.838094540468093951e-01
1.891171676673021051e-01 -5.407553937063187821e-02 -1.221307814664667445e-02
-5.355867789460936473e-02 -1.942836736576533385e-01 2.106996594818984214e-01
4.404482664974809780e-02 -4.702212756632669910e-01 3.034500476943202685e-01
-8.004384045848347840e-02 3.945206151682635887e-01 -9.654768386941589564e-02
5.545572705176937678e-01 2.000555530118051928e-01 -3.714909069750285120e-01
1.440391988171055015e-01 1.140072924394034404e-01 -7.735660817456976868e-02
6.588864354940262569e-01 6.223175861053868024e-03 -3.278507117449425134e-01
7.960042994812198680e-01 -2.429110286465994417e-01 -2.735777021378877349e-01
3.213031338149270333e-01 -1.415562630574844494e-01 -4.370047303119563992e-02
5.438961518061236067e-01 3.630448886078838783e-02 -2.752008235914800705e-01
-2.535551361444939311e-01 -7.833476302561500626e-01 6.543063071517493112e-01
2.159614116204520151e-01 -5.305832532266877566e-01 2.331821202893972766e-01
4.014836876800830789e-01 5.325683270025278748e-01 -4.619313532668823941e-01
5.421791423329113124e-01 -3.961686103956074123e-01 -3.679679508575599972e-02
1.776558436063557234e-01 -4.582593599137609053e-02 -9.847651180229842136e-03
-8.253311044938146379e-01 2.117690711248876867e-01 4.520101658290396340e-01
2.053528281939304423e-01 5.633667457557742231e-02 -8.257988172174471342e-02
8.558534672102730695e-03 -2.911434027303560490e-01 2.265027847704682573e-01
-4.379741835115580906e-01 3.398576221597218172e-01 1.487314432929018881e-01
6.569279853208599418e-01 8.257783620129865998e-02 -3.685815589834074424e-01
-7.026064432716078167e-01 4.526944417223416339e-01 2.459611260450320913e-01
3.959268835640724626e-01 2.231242324193998261e-01 -2.887447710442956894e-01
-1.790970421060704976e-01 2.881219658741768219e-01 2.142659033896042106e-02
-1.324448993837560318e-01 1.621483818574344926e-01 6.251085153990421084e-02
3.609826394229134205e-01 -2.268811526298107895e-01 -2.073337013000668347e-02
9.251882031293850658e-03 -3.098622733051538125e-01 2.363599918405726030e-01
-4.509963024101046880e-01 4.906235816472901412e-01 7.381271066722501495e-02
1.685332151812163892e-01 4.324521141435759830e-01 -2.668731528565677080e-01
-3.041938764822653130e-01 -7.037640327883480929e-01 6.410818281256331908e-01
-1.461539293877607004e-01 5.103862227626271286e-01 -1.203810530458059719e-01
4.888285555721849085e-01 2.604336406546839955e-01 -3.650982395779724943e-01
2.271642488100178436e-02 5.157686248207973279e-01 -2.249019243757104380e-01
-5.067978667814547755e-01 -1.529177997227450514e-01 4.605947176443225266e-01
-7.268766319095411044e-01 2.173000875204543769e-01 3.897591731250442670e-01
-3.865829437450049033e-01 -3.820105972907800185e-01 5.140338379932475332e-01
-2.173128711902091170e-01 3.173219172795786469e-01 2.838443545110789015e-02
-7.823449001847474493e-01 2.008441448085540315e-01 4.321525852332367967e-01
-1.634845054866832237e-01 4.431414212012474430e-01 -7.304899578528907533e-02
2.457222324435355265e-01 8.670957696246976987e-01 -5.518609760784770613e-01
7.275322101398513652e-01 -4.503441229500245169e-01 -1.185416226577239440e-01
3.201092621931160842e-01 -6.186295071332350570e-01 2.188685792894907445e-01
4.348648233014592579e-01 4.289934766164456570e-01 -4.251592634337559851e-01
-5.790067191131437196e-01 7.172348802311656613e-02 3.807257696076460363e-01
6.569760556711988497e-02 -5.309040230437275243e-01 3.237339556174177457e-01
-4.396942410936715007e-01 2.866573167674491343e-02 3.205697363511715858e-01
-2.573257370157512325e-01 5.778203433351546403e-01 -9.052959797275283993e-02
-4.635629836268429504e-01 5.342773217601819447e-01 5.741069739497228069e-02
-3.225137701845127158e-01 2.793220285248506629e-01 1.125142257683482000e-01
-5.525039708607958344e-01 1.729435747403685053e-01 3.092291320872366245e-01
7.680158085780049992e-01 -2.632864231886878348e-01 -2.455606625470333482e-01
7.368195017873837571e-01 -4.537957557412917176e-01 -1.222329436996237167e-01
-9.229595320955560900e-02 -5.057705378747524849e-02 1.551218975852497184e-01
5.060866318891087401e-01 2.708233682402091946e-01 -3.811806702391921098e-01
-1.611195489249301616e-01 3.155424593418122425e-01 -4.436201402615457326e-03
-4.077924898873603876e-01 -4.955054629943157485e-01 5.890841459502544897e-01
-7.327690696370441348e-01 9.185700786129631645e-03 5.075308249450244391e-01
-2.358859128615517498e-01 4.712380203703829540e-02 1.878586747880805208e-01
-3.647394615470324064e-01 -3.870622386666879300e-01 5.036688249434947418e-01
-4.356073688544351286e-01 1.095526919850243891e-01 2.737153040261895431e-01
3.655494515274872180e-02 1.188886759686100109e-01 -1.538972697078643155e-02
-1.301419715361280989e-02 -5.297449751809764351e-02 1.087539760180982890e-01
-3.476634494941267806e-02 -1.948609375130825327e-01 1.997139023917159362e-01
-4.927605632856431606e-01 2.619790148175402678e-01 2.244277687957788592e-01
-1.965912029948423401e-01 -5.938345408998476627e-01 5.160275241935816659e-01
-2.382304518115358483e-01 -3.403131150595753440e-01 4.019211379085873004e-01
9.826836180348774707e-02 -1.259266318147232999e-01 8.186457984041896341e-02
-3.002226253476003026e-01 1.009068240555850704e-01 1.970339569746544783e-01
-2.413987395749294940e-01 3.450242938887161936e-01 2.766582580832827737e-02
5.416023718568274692e-01 -2.148749650797417421e-01 -1.359564688387007725e-01
1.994149598245683053e-01 6.439800164367573410e-02 -8.343318364167844059e-02
-2.128549581601861251e-01 4.855654574654106881e-01 -6.664052957317029291e-02
-2.092994453704355787e-02 4.364924298988718809e-01 -1.551386357299636698e-01
-7.375229323229989253e-01 5.493311921128771896e-02 4.852806559487081173e-01
1.086884574707954049e-01 -4.590521772501165998e-01 2.584399258194409188e-01
3.583315791920159699e-01 -2.465655179880578696e-01 -8.334747094183520347e-03
5.804065985413306254e-03 3.648993488098226795e-02 4.833147334201045447e-02
-5.127666889658031302e-01 -1.224861921071703080e-01 4.474816658469948916e-01
-1.428359774365319246e-01 3.319752936039812447e-02 1.395377413716099302e-01
1.929018744725240209e-02 2.412037493588048975e-01 -7.214090902980295483e-02
1.172212613278018484e-01 -9.646782236587186921e-02 5.429636281562085637e-02
2.610814601057481754e-01 2.952439895971848416e-01 -2.472266849254831367e-01
-1.821294451401248571e-01 -5.624168505390590989e-01 4.900853224354923543e-01
7.312185578287638821e-01 -4.109423857626984256e-01 -1.423851826547123944e-01
-3.352179207497810176e-01 4.972858277628380286e-01 5.214003942316816848e-04
-2.064436664817287104e-01 -4.768858065983951899e-01 4.577636574920038171e-01
-1.869021771336729434e-02 -2.078075047455089364e-01 1.971509347611299368e-01
3.667075807162720746e-01 -1.609381851887222714e-01 -6.037071140907562111e-02
6.517501650086335307e-02 4.631326319808237724e-01 -2.215482372351861018e-01
4.365666675113632489e-01 3.352395486435553185e-01 -3.747241521161595035e-01
2.092885929124291000e-01 -4.077290743970813369e-01 1.697645455378685442e-01
-5.410486428416912963e-01 4.001230926079558936e-02 3.753012856115007789e-01
7.372108054590391646e-01 -3.184707716677215306e-01 -1.967440623497682672e-01
-3.090979947330150801e-01 -2.983706073691290706e-01 4.215232694200025110e-01
-1.178164252497506670e-01 -7.572389765780433712e-02 1.842734571544043520e-01
-1.150958984372463384e-01 6.954588326493104100e-01 -2.406415544466467826e-01
-5.342208766348756077e-01 1.506866769147544305e-01 3.104489473546750422e-01
-5.820336262292418184e-01 5.356979526026492966e-01 1.278848155402503017e-01
-2.568661444730442889e-01 4.632225243707011053e-01 -2.790675948602332201e-02
-4.568020577911882651e-02 -3.008144300871211652e-01 2.644326667864327907e-01
6.011615842720897662e-01 3.135275748632377346e-01 -4.618022934312940309e-01
-2.883972016316375120e-01 3.859610113544017507e-01 3.346400852213736454e-02
-8.919380844987435664e-01 2.755727419782587062e-01 4.570508649655828370e-01
2.762527515370079567e-01 7.971770006258057650e-01 -5.318471903418965363e-01
3.387160663621844869e-01 -5.922527211475037134e-01 1.932001494040028744e-01
-4.101040376797648879e-01 -5.338157844179761830e-02 3.478060600332227303e-01
4.736778969281537632e-01 -3.125693664995912724e-01 -4.148198324808657911e-02
-1.996229618043413867e-01 3.812340777090419408e-01 -1.733455646843193657e-02
2.070202100369272213e-01 -2.801250091242777351e-01 1.010908660548322097e-01
2.633337228871371338e-01 7.218312720770901914e-01 -4.827220942300025075e-01
-5.791064096886577861e-01 4.497473116565608997e-01 1.732999428226661420e-01
2.165169136390285576e-01 3.771586620468176942e-01 -2.653839282207631212e-01
-2.496311739431056609e-01 1.299096754636748785e-01 1.506870768874786493e-01
-5.099499018314851417e-01 1.372992352547217076e-01 3.031991925838718460e-01
2.169958152169082222e-01 -3.015175089977953360e-01 1.068327571981192714e-01
4.718288565026044767e-01 9.626842691405058244e-03 -2.172135876352537243e-01
4.650871433595599180e-01 4.483678966917434838e-01 -4.539704292912454253e-01
-4.870208846694306093e-01 1.403926414049598559e-01 2.877107183695569170e-01
-1.240395039065797650e-01 3.933490526192059411e-01 -6.944357168267448199e-02
-1.045192258534926033e-01 2.063906716562590171e-01 2.143178000653230691e-02
4.851683542635582547e-01 3.541423753481766079e-01 -4.143306969052500954e-01
3.299899539196797238e-01 -3.401233244704532366e-01 6.006228551851703484e-02
-6.539081686203093158e-01 3.361066567202129485e-01 2.806631667654332363e-01
-2.306128348703728181e-01 6.008476319346762740e-01 -1.192349820641339514e-01
2.724624809028221017e-01 -5.359603309792525527e-01 2.021510139482783630e-01
3.716313971026072860e-01 4.526291557754172357e-01 -4.001005898486301171e-01
9.850385532328032046e-02 -6.372166323949733924e-01 3.623544817279996666e-01
-4.624262582193611748e-01 2.853249810634627126e-01 1.933693888831103380e-01
6.013541838390668026e-01 -3.411011651915052401e-01 -1.026123162777845543e-01
7.708661132655828530e-01 -4.103199284404176472e-01 -1.665727494433257017e-01
-3.014984078477596086e-01 -1.782446921248892757e-01 3.510190544685825031e-01
4.734100697335857366e-01 4.535285961270730803e-01 -4.618087827096599707e-01
2.839484492971195428e-01 -4.744174435622562636e-02 -7.289019375503637266e-02
-4.892824525779099210e-01 -9.173578208483404439e-02 4.164791677833542538e-01
1.365606548315015933e-01 5.659282138763620240e-02 -4.134559954086823585e-02
-2.068622462831460618e-01 3.169347200266190989e-01 2.231145513957102228e-02
-8.568871367851268461e-01 3.821981392753706075e-01 3.774461244941412219e-01
4.867370368547183079e-01 1.604577037273231810e-02 -2.297032281319318359e-01
-1.635714972480330487e-01 -1.412742659994332094e-02 1.779842954376595066e-01
7.094862659822871453e-01 5.288292433510111828e-02 -3.838939654659048739e-01
-1.562501369402740092e-01 -2.318206887875003397e-01 2.930660964202300711e-01
1.162967007386304513e-01 8.439104763328989511e-01 -4.612926246603868963e-01
-4.615066190060063134e-01 2.720758019292103813e-01 2.000883459461937908e-01
2.149893598203102829e-01 2.842769733701703272e-01 -2.134852495103670700e-01
-6.912122999374787913e-01 2.405176396266675842e-01 3.555655450389385575e-01
5.565473504976092833e-01 -2.281414635452314876e-01 -1.376635095663291120e-01
-8.402018611163152295e-01 4.181754571872403070e-01 3.476639527850098887e-01
4.127179472534819177e-02 5.357113469563419272e-01 -2.470079571593950807e-01
7.205888055595619512e-01 8.064280635130702257e-02 -4.058081143376494615e-01
-7.066445447328174589e-01 3.098128396469214674e-01 3.268131996323485056e-01
2.633029369874442249e-01 3.295896350019204557e-01 -2.674140671116055912e-01
9.018266704148193424e-01 -3.841990016903453209e-01 -2.596756178805442739e-01
5.480042206308444186e-01 4.763753432882118083e-02 -2.838919750288908528e-01
6.539083035064426896e-01 -3.068377027057906936e-01 -1.530270275821105086e-01
8.901678600401605190e-02 -1.357280357292013906e-01 9.280860865346463040e-02
-7.654916150507545813e-01 5.731669506787543528e-02 5.007940749515920054e-01
-6.011983728192775711e-01 1.792384173177705431e-01 3.350612054988494348e-01
-4.726085677190785539e-01 4.582257167834955514e-01 1.045935544865283090e-01
1.189751523110688658e-01 -5.739400707471330465e-01 3.153114923342248410e-01
-1.251119380841507825e-02 4.147902934196451286e-01 -1.482904284140814100e-01
-1.222164689890299916e-01 -1.701653606489350601e-01 2.387559001474725273e-01
-7.338751250271129400e-01 4.613549127585276355e-01 2.600141239068868293e-01
3.438310839500867133e-01 7.200343340169494954e-01 -5.301507375684875178e-01
-6.656663333401738880e-01 -1.007069883674703570e-01 5.274888155850964155e-01
-2.471548096787327120e-01 -2.664420394963861183e-01 3.667430818846161289e-01
-2.200087425294450783e-01 2.521357271327264171e-01 6.578457844888534189e-02
8.234052557215334467e-01 -2.150159198926976101e-01 -3.053687130795654792e-01
-2.194340817154971993e-02 5.720262601320150742e-01 -2.289194900533583765e-01
-3.685098112186402930e-01 -4.416754422739840313e-01 5.359120192256662252e-01
-1.467369339026747543e-01 4.495898871942760056e-01 -8.666114602585621440e-02
-4.103146567508262343e-01 -3.700795800311253436e-01 5.217586422415504410e-01
-6.864536674687590767e-02 3.126216322570271600e-01 -5.845140406519467452e-02
-1.205725772565051923e-01 4.675984900312933346e-01 -1.122820048020407718e-01
-1.655719589929277313e-01 -4.397013199261937122e-01 4.127720411641398468e-01
-2.634385432429270715e-02 3.114578336401937000e-02 7.059999854018619847e-02
4.396202072686229423e-01 -5.016215359522617767e-01 8.276691433843270940e-02
5.541400000173413165e-02 -6.169372822130004819e-01 3.771400440560540579e-01
-3.879229002352713868e-02 1.146335863946457007e-01 3.226316057123575221e-02
1.203845613874041098e-01 -1.704875446798090610e-01 9.302097972607974163e-02
7.260788369066437098e-02 5.920292109994454988e-01 -2.967661297907123186e-01
-3.036661499573348744e-01 3.439476331974621881e-01 6.570734382317738875e-02
2.681911600836418830e-02 2.850953099648319555e-01 -1.007599068681344912e-01
-1.403290607667568302e-01 1.169037435567584077e-01 9.208616644814952845e-02
6.649224248065600529e-01 9.590729463975271318e-02 -3.807059283174613062e-01
1.829509786284736761e-01 6.087262242002992041e-01 -3.722961796410437785e-01
3.016930152609884064e-01 -3.680640316619377544e-02 -8.940003218771934435e-02
5.248223767656109429e-01 4.154404022571061561e-01 -4.718251289910536661e-01
4.813844945766139471e-02 4.859050262207644244e-01 -2.238007133394021575e-01
5.328063357658400223e-01 1.938819584700731402e-01 -3.550203655810816872e-01
-5.826475876313099711e-01 4.179688577641814673e-01 1.928720023901653591e-01
9.644124337795403901e-02 -1.882242779827925649e-01 1.171567796799861949e-01
3.256274167047323309e-01 3.035923340881926946e-01 -2.906298348129894848e-01
6.197769103525447854e-01 5.191116303189282494e-02 -3.294051370878069429e-01
3.573321252515611612e-01 4.124638345890384999e-02 -1.657048317704759299e-01
2.526612176548152094e-02 -5.242313041923661876e-01 3.443889136389008399e-01
-5.448103395590132569e-01 -9.812695525975984046e-02 4.533841913622355113e-01
-6.755109861650476777e-02 6.683906070929955812e-01 -2.543803242119545005e-01
-2.014425053452499337e-01 -6.386654693579393860e-02 2.280620057125160860e-01
1.089661509502204279e-01 5.140997853578289645e-01 -2.758606220811174459e-01
6.260023897080132516e-01 -1.961085749248603904e-01 -1.970189406933522680e-01
8.048626087681537422e-02 -2.363954368544407270e-01 1.531925470946601253e-01
-8.862981346664271232e-02 3.694001555764564459e-01 -7.759581613605144590e-02
-1.224521676784257329e-01 1.416272125210776278e-01 6.776419513448055099e-02
2.524376455557792998e-01 -4.896431528240525188e-01 1.887728078631078499e-01
-9.004687618841954178e-02 3.627996854264733395e-01 -7.312073003455232811e-02
8.942961523643343513e-01 -2.358626993680075223e-01 -3.365636945638510458e-01
1.966281803258980443e-01 3.182449736261400153e-01 -2.210859687202405000e-01
-6.233480531337334263e-01 -3.315542569502538672e-02 4.649595969644336746e-01
6.085702935979108164e-01 2.252116593612736861e-01 -4.177843210018498121e-01
-6.948233031889287092e-01 4.580684753497587525e-01 2.383303330317423641e-01
1.615992751256963567e-01 -6.738023355069724385e-01 3.444866862163867283e-01
5.586978803432664925e-02 -9.580006642171995379e-02 9.082953559202651406e-02
-1.070773364821654278e-01 1.475902999570092577e-01 5.524408555761908118e-02
4.813634404062462901e-01 3.573360848409507518e-01 -4.137951714388027336e-01
-4.564016847840934310e-01 5.619720917409910532e-01 3.790273550808496289e-02
-5.526944052915118144e-01 -8.068321133594504035e-02 4.485517013737199132e-01
1.977895916203492241e-02 1.336907320083386141e-01 -1.342425251839496000e-02
-1.115031195806615583e-01 1.871891560393903753e-01 3.617135291114174228e-02
8.914144165540768272e-01 -2.605280523154589467e-01 -3.212924196290324330e-01
-2.286270417073400230e-01 -6.732681255975747625e-01 5.788940758698911671e-01
4.938425557366588059e-01 -4.766170114443288863e-01 3.643080076761403413e-02
-3.350116763497676953e-01 -4.862123347112323746e-01 5.402095997156556306e-01
4.792759755692605483e-01 6.914991328343189636e-02 -2.543630420226657973e-01
2.917190680049333573e-01 7.071678586222264196e-01 -4.917460841728363841e-01
7.899794032137996691e-01 -1.676105988483422501e-02 -3.940808872057048329e-01
-8.738517894690515098e-01 3.096882591153706787e-01 4.274479396624983329e-01
1.166699403577525634e-01 -1.171049663188080958e-01 6.595505435299435504e-02
4.692818522226391842e-01 2.039079842288805261e-02 -2.215897066417089611e-01
5.720908841969755132e-01 9.621559698946058337e-02 -3.250418579474438907e-01
-3.546839271612586830e-01 -8.605610119689788978e-03 2.898976111121453481e-01
-3.378826559084604497e-01 4.151876854655687787e-01 4.718527305414934453e-02
-2.040452388829486763e-01 -1.760940043282151757e-01 2.912256528277631373e-01
4.244068865971259430e-01 -2.477525599658564892e-01 -4.742403726722579926e-02
1.243277662057568900e-01 -5.492865110860875033e-01 2.985605871916504062e-01
4.505913948473484060e-02 3.054887484803543996e-01 -1.229236599205223018e-01
-2.514888398215387455e-01 2.764039711603820670e-01 7.139809949264266931e-02
-7.497626468864601046e-01 3.108627797918167915e-02 5.057310066164536488e-01
-2.571343873403477698e-01 -3.070085268757986596e-01 3.950109846207192632e-01
-3.462076632786307423e-02 5.968431704485619438e-01 -2.349159737055789843e-01
2.416652854354913449e-01 3.020041651115951131e-01 -2.392593321138035967e-01
4.886189300958460602e-01 2.915998013338499395e-01 -3.820783190727187750e-01
-3.790155393859222493e-03 2.329679065777275626e-01 -5.373889323608553592e-02
-7.296462126993749631e-02 4.166683385618586977e-01 -1.129616739125726688e-01
-1.689617183378464838e-01 -1.621780542502181677e-01 2.624867188588743683e-01
-9.867445099385396476e-03 4.646730444994341402e-01 -1.772596298899892231e-01
-7.543340985736043947e-02 -3.269909463272948624e-01 2.966951478716065571e-01
-6.807455163189218839e-01 2.857679156773761386e-01 3.244338243284524692e-01
3.787121844091486667e-01 3.461972227091212467e-02 -1.749266397438261345e-01
-2.308849897765716530e-01 -6.323130612933720585e-01 5.577731230287592545e-01
1.835023528938938553e-01 -2.582062192307175708e-01 1.032050624667316535e-01
6.413347802455178215e-01 -2.399111166605376044e-01 -1.821986833965610064e-01
3.561029969145475260e-02 -7.183294969460854995e-01 4.447020324865223473e-01
1.686305025932489376e-01 1.014201591422221327e-01 -8.523828890334637920e-02
1.760941862789378309e-01 -6.679966043552389987e-01 3.325821703371069082e-01
-7.393921994051576574e-01 1.151657412318873586e-01 4.533450665198900942e-01
4.762413393210167961e-02 -4.646453837230577477e-01 2.982368450708705598e-01
-6.249314467324215139e-01 4.045124908226119809e-01 2.256893100047838718e-01
-7.180403069253419313e-01 3.403998686775578930e-01 3.168788606688552889e-01
-8.348883755568856646e-01 3.298119255724266674e-01 3.929682271249652081e-01
4.169208209629999273e-01 3.427591519201708126e-01 -3.670354905651568855e-01
2.095327957772319116e-01 5.635185767343915408e-01 -3.634706408386541576e-01
4.945945616027661029e-01 4.606713698961126813e-01 -4.784705915243523955e-01
1.388971890770591133e-01 4.009176636711542230e-01 -2.317403409317849439e-01
5.980835252500279475e-01 1.072473013260272362e-01 -3.467300313282800084e-01
-3.013413670794301003e-01 -4.742999209357940393e-01 5.134203181567034147e-01
-6.134568209853068499e-01 4.798956810453059441e-01 1.774123846802170279e-01
3.584137544939592912e-01 3.208948778472142660e-01 -3.198459325244061846e-01
2.361173881406992692e-01 8.452547502539156099e-01 -5.340962959074989636e-01
-1.171113507475662063e-01 -3.915760964412978717e-01 3.572110624006697988e-01
-2.111220211114923362e-01 -7.951611910876770217e-01 6.352691251317512666e-01
-4.280310963783545697e-01 -4.505500984879854953e-01 5.765819700771976919e-01
-4.987788531276513559e-01 9.267238519254190898e-02 3.209747158636965803e-01
-4.023450996434358440e-01 3.653101235148886738e-01 1.133323193834788745e-01
-2.945984374652463322e-01 1.633652209987417614e-01 1.593697883925212500e-01
2.969957000491010857e-01 2.579762557141824630e-03 -1.081927132796722812e-01
5.894535463928692876e-01 -2.831147536611565152e-01 -1.272816874887775507e-01
-2.279126924355078243e-01 1.447519567352324177e-01 1.294780757820876982e-01
6.564063358846666807e-01 -2.266232147379709794e-01 -1.985567566880896972e-01
2.303077656824712161e-01 -2.631215288343481395e-01 7.775193295466678589e-02
-1.444260119651566421e-01 3.133956254905357897e-01 -1.329815385925172712e-02
4.777165249997780139e-01 -1.430151868599148501e-01 -1.369741405815907420e-01
5.158672123779715069e-01 -4.991945789128457434e-01 3.557626889084741784e-02
-6.250431550287430804e-01 4.487920956970174458e-01 2.014527675880432578e-01
3.584645916357284690e-01 1.386424915897347676e-01 -2.198437137797178698e-01
5.607793215251382080e-01 -1.901232353177380041e-01 -1.610758672868938257e-01
4.136546085763916358e-01 -3.991985058235724693e-01 4.216696827161732497e-02
-7.068920446723661044e-01 1.118690751780674758e-01 4.356073729423626251e-01
3.229782977494208840e-01 5.335514833913541644e-01 -4.152541157527321336e-01
2.720876650929399676e-01 -4.646005600458363166e-02 -6.629537490187843718e-02
7.161648375836939806e-01 -1.742979322061757874e-01 -2.632181087593801760e-01
2.141429628926944939e-01 -2.336770643829853555e-01 7.131303999437299534e-02
-4.926330559170574719e-01 3.677884334914838793e-01 1.662755063624923868e-01
4.467655371898984207e-01 3.214017312685613081e-01 -3.732630783958017506e-01
-5.577449675870832513e-01 -2.593443890498869919e-01 5.496510383124287857e-01
-5.290227261352383747e-01 -3.096037112503433608e-01 5.599619351944790102e-01
2.409799323212223621e-01 5.596864523545407311e-01 -3.802811025729417871e-01
3.750965535528459904e-01 6.481713656360951203e-01 -5.095118739603105018e-01
3.827533600720658957e-01 -8.106061246172480139e-02 -1.138637750919995889e-01
-7.252855611711291062e-02 -6.202150451976821133e-01 4.558898254470968858e-01
3.549249403755786458e-01 2.570042644209512978e-02 -1.557243334683302005e-01
-5.123722503469148315e-02 -4.484538171694714137e-01 3.488096930831036668e-01
-2.734574377642308152e-01 -4.445945056753403124e-01 4.803452021071023537e-01
1.042287774424106861e-01 2.098835340793233639e-01 -1.060362885333231003e-01
-7.296738404560586533e-01 2.070698052845473466e-02 4.993455272005166701e-01
1.337524143596066084e-01 -1.026063017976247965e-01 4.772296866819294991e-02
-6.323418684107663390e-01 -2.375406439851362669e-02 4.652087822946719409e-01
7.284584083401088317e-02 7.753184014680564173e-01 -3.975111134196752105e-01
7.860642876062488016e-01 -2.988884829719109515e-01 -2.368749848552641479e-01
3.388523614251272298e-02 3.987115322359023883e-01 -1.673702970446064031e-01
-3.128891302598364454e-01 -6.991880054297703317e-01 6.437999235355921224e-01
3.389558696778176006e-01 -5.072027010261126456e-02 -1.041747802603449485e-01
-2.390699625528447392e-01 -2.916232570029932969e-01 3.757016764690931931e-01
-1.886060404549613767e-01 -1.709745924902287550e-01 2.791298976363458806e-01
4.721293399910604927e-01 4.651551476573747013e-01 -4.674199518487585081e-01
2.498784479908249534e-01 -4.416536773904278235e-01 1.639720663129042300e-01
-1.263111197017377230e-01 -1.097027075597064999e-01 2.080325048423889156e-01
-5.634582554279685684e-01 -6.536526748256989323e-03 4.143287297654897339e-01
-8.199140312756476590e-01 4.138495090919053765e-01 3.378362718094523043e-01
-2.911871453497446582e-01 -6.804174105530234051e-01 6.204447123428689093e-01
5.968768468737459809e-01 7.888293554498491955e-02 -3.304359396217292910e-01
-5.287058469816776629e-01 -4.811207499698889889e-02 4.162465388767356278e-01
8.349097225058528526e-02 -6.925898906399936550e-01 4.017766393095498767e-01
4.338992482063542266e-01 -2.937683101997686785e-01 -2.787654692568869441e-02
-2.066256962714506373e-01 -5.416209233047731830e-01 4.934042765420104115e-01
-6.733518045254560658e-01 -7.755370054881881303e-02 5.194030863416402299e-01
-7.502720565748212112e-01 4.569327638609622655e-01 2.723031987548473754e-01
3.200943164603255175e-02 5.634941000981019688e-01 -2.566862416698411642e-01
-2.800777714106172378e-01 -2.638647713577403908e-01 3.851299272768052284e-01
2.285821298363204246e-01 6.872923728097872775e-01 -4.428634872849087634e-01
3.334599065941988294e-01 1.732446108836326049e-02 -1.382169320780871347e-01
-1.238240991961786497e-01 4.000025445341180708e-02 1.243692877428996535e-01
4.779112999062262723e-01 4.704730096271294015e-01 -4.738163093505098900e-01
-3.967631520641304310e-01 1.580554379837716128e-01 2.237308682089632628e-01
8.586758095992197415e-02 6.458214890335910452e-01 -3.342660863617518685e-01
-1.818909699131220914e-01 6.965547327958498958e-01 -2.010693390685245052e-01
-2.507312991123353263e-01 6.688703178475442490e-01 -1.444703686870122405e-01
2.235049580693266036e-01 8.052326272072880819e-02 -1.067727159224086536e-01
5.780538120372773481e-01 1.668642780864196956e-02 -2.849771019630534252e-01
-1.224075023853653660e-01 -3.669702635483360065e-01 3.468910253064877991e-01
-1.907041937794629327e-01 5.240122835701517268e-01 -1.010653432013092629e-01
7.127503366147900365e-01 -7.633587128346448758e-02 -3.149328633879587835e-01
9.077852904746079588e-02 -3.315368046707287686e-01 1.992224938637259246e-01
8.290359268984243135e-01 -2.276972078674004973e-01 -3.017948921072612922e-01
5.915421665155443098e-02 6.521612570780497276e-01 -3.216791089800145609e-01
-7.420025167099848773e-02 -6.918759464568605688e-01 4.962277526958496221e-01
2.769513799702175705e-01 2.865338308008629209e-01 -2.519908654798275749e-01
-4.701856925690207634e-01 -4.608920154725840851e-02 3.799394507789763953e-01
4.007746071670608701e-01 -4.323059778847923029e-01 6.808529654655261221e-02
6.654152543998548275e-02 5.168504975658880785e-01 -2.518542239503651636e-01
1.871055261895173683e-01 -6.538322319302054542e-01 3.181850351982220548e-01
3.469981832117076115e-01 -1.908891086066549503e-01 -3.207739424759084579e-02
4.951539411605722640e-01 -4.724872060740301083e-01 3.337534679447175245e-02
-3.900402927244508433e-01 -1.331872902608935427e-01 3.795417021616420694e-01
6.964983397498398787e-01 -1.924798940399080061e-01 -2.414102187474090055e-01
-4.933006727539944736e-01 1.114270232229533780e-01 3.073860278540803126e-01
-9.044190658210896072e-02 7.476178405579395614e-01 -2.840981274771564036e-01
2.596310741230152264e-01 -6.044756090852519970e-01 2.474743835024691696e-01
-6.077253989720547978e-01 5.419644667369849511e-01 1.398975661818583349e-01
2.415704901426529438e-01 4.828751827033510580e-01 -3.384769210740656287e-01
1.513387083063705563e-01 3.796783894670969772e-01 -2.275656682788206320e-01
4.979157293141726615e-01 2.078417406154758895e-02 -2.390273893215099921e-01
4.392551542944504450e-01 -3.130438522152598768e-01 -2.051808361951062282e-02
2.746196486761174893e-01 -6.559959114134538138e-01 2.667374722076283899e-01
-3.239439232011674941e-01 -6.013288716317539695e-01 5.967368961712631314e-01
7.324043119319149919e-02 5.636782264910119578e-01 -2.815855802692607268e-01
-3.094538424995448844e-01 5.305143717317330893e-02 2.288524155979542174e-01
2.329523434205005294e-01 -4.432558103461217147e-01 1.750315898700238182e-01
1.579576676909620614e-01 -2.913667150270315628e-02 -7.160464562837243023e-03
5.530878795144315019e-01 -3.575327606544335679e-01 -6.456387008241550041e-02
-1.072849872005555427e-01 -3.621868411582176983e-01 3.351701528206728620e-01
3.213693443870635491e-01 -5.413262700495690138e-01 1.756813092079911320e-01
-2.015826874838858029e-01 6.874156700862839031e-01 -1.842096531498834400e-01
1.907956223904696269e-01 2.542167398769238917e-01 -1.824348408106428732e-01
3.443577971164494822e-01 -5.408490290761462926e-01 1.615930211645726644e-01
-1.833954256632642499e-01 -2.776985700915788335e-01 3.345735340027896076e-01
4.802612567130564170e-01 -3.332373492097479017e-02 -1.987109663481430033e-01
1.177764898324239196e-01 -6.256026781001572390e-01 3.443884594664723964e-01
-5.284798098546921175e-01 2.337477750529499410e-01 2.614062858700426095e-01
-5.458018296773574363e-02 -2.987498479322033273e-01 2.686523484864385414e-01
-8.441141585978553796e-02 -6.493632200385767161e-01 4.790352875780169994e-01
-5.938076665524153475e-01 -4.971102612973610918e-02 4.562794742572115481e-01
3.621820874034427651e-01 -5.314991728815074978e-01 1.457407963826378161e-01
3.191315055589751815e-01 3.831901376525968100e-02 -1.411224243794805266e-01
4.244743653936837446e-03 -3.339976232048364607e-02 8.762965394374856720e-02
-2.856140108370346792e-02 6.425918215479222706e-01 -2.636704070359322527e-01
6.045588421572989368e-02 -4.635518966558918041e-01 2.899190404947142863e-01
2.942824944805340071e-01 3.316022544613612677e-01 -2.871513068660894175e-01
6.202051278018159142e-01 -9.158740008407703637e-02 -2.509006882084290901e-01
-2.553402416297895217e-01 -7.691649077354759667e-01 6.475954889358517264e-01
-1.247121540028186260e-01 -6.047061613880631153e-02 1.800488126926143018e-01
-6.697477895783134905e-01 6.278644542335098944e-02 4.402070209554040936e-01
-3.242329980330047046e-01 -1.704533092816818141e-01 3.604162612875613236e-01
-2.767290464680198236e-01 -1.359393442015257858e-01 3.129014671672624148e-01
5.241137416131659288e-01 -1.686241079044264735e-01 -1.508236673035281694e-01
2.171998477373702219e-01 5.224925920805224555e-01 -3.455640534111971696e-01
5.904407826448720281e-02 9.812423415755423817e-02 -1.751878656716669355e-02
5.992773986123088592e-02 -6.105844358059812071e-01 3.709383827058883032e-01
-6.744386602025332911e-01 1.677082669343308019e-01 3.854399345091106266e-01
-7.023094190385602287e-02 3.911287621487619104e-01 -1.005879411152317132e-01
-2.867611823525381132e-01 -4.713655745186350332e-01 5.030405305037127794e-01
5.028571129543929485e-01 -2.347199001088516243e-02 -2.177085084966734752e-01
-4.395627523454210261e-01 1.472634133312172022e-01 2.553959905219151949e-01
-5.282984350686944497e-01 3.581758985754516789e-01 1.930023839089307081e-01
4.716716570876708370e-02 6.229168872163357712e-02 9.291946468194197534e-03
-5.553330778147235192e-01 -2.889665126063111211e-01 5.644590966457694314e-01
2.587497081306260136e-03 6.223860730023830223e-01 -2.713145095041121224e-01
-4.805070902072706984e-02 4.636419646461072130e-02 7.530260539051528146e-02
9.901165514309839474e-03 4.622931654172362514e-01 -1.878431659383602015e-01
5.491486766801632058e-01 -1.561987081199846805e-01 -1.727007879801067403e-01
3.129245393383235929e-01 6.775419533337612155e-01 -4.882393008109285337e-01
9.146508448078943809e-01 -3.706322356418093600e-01 -2.748350696205330013e-01
-3.880561316790738791e-01 1.187823467572525632e-01 2.400498594207868541e-01
2.751640940764870646e-01 8.697220535209310155e-01 -5.710101944203492819e-01
-2.894963237836048475e-01 -2.893631767902259955e-01 4.047899906821876836e-01
-3.955751199278895736e-01 2.113279566015124344e-01 1.937766633141910222e-01
-2.468103672062818554e-01 2.871749281892712058e-01 6.267239343960705200e-02
-1.642263433377436077e-01 4.767312727636220382e-01 -9.103926778347541660e-02
-3.211325192551793828e-01 7.526167598380924251e-02 2.236860003707028255e-01
1.475969150987768708e-01 -4.145433076443215126e-01 2.106089698619197648e-01
-5.630083865150118383e-01 -7.187062968393791162e-02 4.499180603206137663e-01
4.990496190631266149e-01 -3.939212427974541075e-01 -1.209016747922082857e-02
-4.810676870003353645e-01 4.322609895900337840e-01 1.239325191985089503e-01
3.008066819010842829e-01 3.774522614753075822e-01 -3.162409374634368997e-01
-3.548514249765990364e-02 -1.891929503457172590e-01 1.970352354460880862e-01
-4.398415084543024212e-01 -2.997941093771410714e-01 5.009399319777734227e-01
-4.247778075155280164e-01 1.602504104023502740e-01 2.393754560805202991e-01
-3.867979766211225856e-01 -4.179812530612497246e-01 5.339063684533171816e-01
-7.166039407172748558e-03 7.563043243356969425e-01 -3.389519276413782145e-01
2.018086388613185012e-01 -6.488152130353214142e-01 3.065881972403159406e-01
2.887687594686583550e-02 -1.874943488072415010e-01 1.573925564463908022e-01
-7.853100276882798991e-02 -1.026463961189023333e-01 1.754222831914899472e-01
6.278296098749368559e-01 3.468261712735833807e-02 -3.247921871038002006e-01
1.034833939756609061e-01 -8.420077466905526165e-02 5.582595774980978615e-02
2.178670123418559590e-01 -6.837811415933793269e-01 3.161216656350135379e-01
-8.594712423074174490e-01 2.302682734721041846e-01 4.623900129197147657e-01
-3.605906685786032795e-01 4.995626026697976702e-02 2.613073748830362919e-01
-4.946637242725959172e-01 5.818897639838772617e-01 4.998313461211425363e-02
3.480996762122864352e-01 2.113045906694104373e-02 -1.491109799537264080e-01
-3.526100857436286762e-01 4.141733558398661419e-01 5.659978204262386403e-02
4.417438373371235238e-01 2.122106860302003795e-01 -3.103111446236539450e-01
7.657811813708238491e-01 -3.466571969592161517e-01 -1.984569684640382914e-01
4.336475618422488409e-01 4.303765496726218442e-01 -4.251862714587361647e-01
-2.863011090703588835e-01 6.670809896927709648e-01 -1.220948913602230568e-01
6.116689572767672889e-01 -5.750880439628786034e-02 -2.644713359271255726e-01
-1.199786732142964357e-01 -3.426596302570286134e-01 3.320868447257225298e-01
6.491548824549723262e-01 -4.416783694792407733e-01 -7.615815184612526045e-02
7.234276579930292161e-01 -3.398285082782111916e-02 -3.446009959614880214e-01
7.354538790963637274e-01 -2.223785848169774759e-01 -2.484294438685465678e-01
-1.673697487301667453e-01 -3.765507267340228448e-01 3.791918761984818254e-01
4.199011255322970815e-02 -2.431027725814904616e-01 1.800274078608550266e-01
1.825141631672167752e-01 -6.643745439724841884e-01 3.267328531309253159e-01
1.527230844156916012e-01 -2.736090788498595217e-01 1.301713346951839378e-01
7.585199459790548104e-01 -1.495833026553192446e-01 -3.022575871878747100e-01
5.279282330453703986e-01 -1.671221249162066491e-01 -1.539422760380765309e-01
7.272323740130990366e-01 -4.411754440607128513e-01 -1.233936961286686146e-01
2.001665847619321925e-01 5.357158629720001342e-01 -3.425772932117516767e-01
5.227519309546764872e-03 3.465816838859028717e-03 6.680417034608748805e-02
1.798905350563192451e-01 7.196631330809580840e-01 -4.313453807958788078e-01
3.912466210583815385e-01 -3.002376952937573784e-01 1.327613327492379192e-03
-3.622012488374649619e-01 2.072920178180060607e-02 2.783178981249030404e-01
-2.847344874485830193e-02 4.828456842027580853e-01 -1.760435070007591030e-01
-2.078644903607334837e-01 3.390103414243200164e-01 1.079761470930261195e-02
5.774443142817005103e-01 -4.604531014005189826e-01 -2.272313788643376062e-02
-4.172487258458434378e-01 -4.155937270116207283e-01 5.509104517410454704e-01
-2.346640238985268634e-01 6.980981161361924370e-01 -1.701762394874681839e-01
4.595739000403766816e-01 3.474955628838260480e-01 -3.952887458098356399e-01
4.062363539855696343e-02 -6.643341941061334799e-01 4.120503944407464814e-01
7.789680623347171318e-02 -9.123078678060594915e-02 7.507350420837345661e-02
-5.194419847172300209e-01 -1.550283658416489185e-01 4.693579150076642170e-01
4.665477008174386264e-01 4.531503111249410853e-01 -4.574737996717024857e-01
3.706032412716538382e-01 -1.851733812286507908e-01 -4.941178390520994251e-02
1.390815544687317995e-01 4.755666342263401569e-01 -2.728237777344709181e-01
6.049351167277070571e-04 -3.738052736863697878e-01 2.766570446619577295e-01
-3.775019543049578652e-01 1.401657314892840178e-01 2.219653870900702153e-01
1.425211874373165932e-01 -6.399555615134757680e-01 3.373836869817067874e-01
-6.281725081659085275e-01 5.252664936745632396e-01 1.613604365363491278e-01
-1.617475571805031612e-02 3.438588281076083719e-01 -1.071548635545575417e-01
1.960036450046135914e-01 1.734773471742580009e-01 -1.412517941433289737e-01
6.675229879150910983e-02 -6.491167277130999169e-02 6.733057754683431650e-02
3.318937608926151306e-01 -3.546663370425570116e-01 6.689946329097871958e-02
2.699473289083398897e-01 -2.422100595188265704e-01 4.243315113365973834e-02
-4.594187332672077795e-01 3.747081972818789297e-01 1.425007905755622806e-01
-6.769562840845831930e-01 2.780731310521499244e-01 3.263782338473833478e-01
1.694975882910522702e-01 1.638505761718633269e-01 -1.200259534507784193e-01
9.250733846322084508e-01 -3.300352863969021611e-01 -3.033861103868973341e-01
5.534605399578059748e-01 3.325487957676925843e-01 -4.435527945863069199e-01
-1.785694038875025313e-01 3.479610446083193365e-01 -1.173460758925874182e-02
6.743443228232995912e-01 -1.545176059143381631e-01 -2.489220889599175479e-01
-1.396380519870881187e-01 1.129943374173738996e-01 9.381631520824358639e-02
-3.045430277303778910e-01 -3.317221941793331297e-01 4.370893685483574487e-01
2.046504673266877627e-01 3.122187227722258984e-01 -2.226033264243011400e-01
2.285697455166021408e-01 8.724850621053672484e-01 -5.445026763359092081e-01
1.040924491145326508e-01 2.855109287148864250e-01 -1.474638721692518584e-01
-2.892745327405450428e-01 1.026092442738242710e-01 1.895148485028500807e-01
-3.258543152005434207e-01 -2.822487485437347732e-01 4.227525164657470746e-01
7.781009770904012690e-02 -4.558691027852505018e-01 2.752645420085935157e-01
7.092152842482459807e-01 -1.431666374564698752e-01 -2.761253393603657624e-01
1.369638799833184373e-01 3.596914749447164272e-01 -2.079497554398496706e-01
-3.535883001935715558e-02 -2.988805460145895765e-01 2.571634520555959869e-01
-4.452887650720689927e-01 -2.918321036016517378e-01 4.998460673367885465e-01
9.490550920935028265e-03 4.026331226320676304e-01 -1.548506189544822109e-01
-3.439456391156773818e-01 -3.348172640808261269e-01 4.624867562564973222e-01
-1.040277194883893336e-01 6.982352359281833731e-01 -2.488223651902232159e-01
2.696171393042376963e-01 -2.084798309867753885e-01 2.411824571879568613e-02
-3.902105198566683808e-01 5.192724067334194560e-01 2.152879096569226824e-02
2.619322095037838194e-01 6.279976251510422935e-01 -4.303767212660050689e-01
2.055591070808598653e-01 2.629224299554587252e-01 -1.960925888442893450e-01
5.575096998091932932e-01 4.110776833591535395e-02 -2.860250306489114935e-01
-4.927111658184815668e-02 -6.495640905212185512e-01 4.580104978633086077e-01
-1.457934411018385334e-01 -3.096391180267346610e-01 3.294891142040595744e-01
-6.673873127365829994e-02 3.981868031760392723e-01 -1.065622662629675810e-01
-7.677970787779553330e-01 2.855125090346584127e-01 3.769309446338787728e-01
-3.768068507640079390e-01 4.782625054494232808e-01 3.597627729701509403e-02
-3.791398420497195387e-02 -1.800199713675649515e-01 1.934612866448112423e-01
1.268702722499064905e-01 9.297578439453825505e-02 -5.548684659838451494e-02
2.667970295323278118e-01 1.655218863508118865e-01 -1.794637801509375574e-01
1.715361796890672863e-01 -3.386135044756948265e-01 1.545352007612466605e-01
1.240852059165576393e-01 -5.011115827837102354e-02 2.472429748890575887e-02
-3.931354091222674652e-01 4.429642072949020459e-01 6.517120900580546106e-02
-3.088368916595985447e-01 -2.215181838552294780e-01 3.791842705913338052e-01
-5.525642354177079385e-01 -1.143988367971507658e-01 4.669788929523963628e-01
3.045796764173277493e-01 5.729597572719128395e-01 -4.258183164831013667e-01
6.416746455101437485e-01 1.156637024369574496e-01 -3.775673037230797835e-01
2.641464626256541659e-01 2.687519839670964861e-01 -2.345294661307469331e-01
3.409162393282338388e-01 5.686217852067153578e-01 -4.452918665452660352e-01
6.230292812999969065e-01 2.893364688767163795e-01 -4.616768001143282674e-01
-5.435046521106007278e-01 1.607085506497082650e-01 3.105319480759177742e-01
-7.117429162885294258e-02 5.862899077170560247e-01 -2.071385860711737192e-01
-2.394490700415597140e-01 -1.881647990536250425e-01 3.191444870973239589e-01
-2.421154848291125483e-01 -4.910515920339241780e-01 4.869935486739466191e-01
-3.904399346101048440e-01 2.284766331428143282e-01 1.812757322294946127e-01
5.828961246672171859e-01 2.510396808601173535e-01 -4.165188748783652528e-01
2.839193189048543897e-01 3.068702377586959851e-01 -2.673437497740713265e-01
3.145007849611641260e-01 -3.060086547427297646e-02 -1.005092628935334714e-01
3.725363828534351551e-01 4.691536781922328592e-01 -4.097146992031605039e-01
-4.623152053577096465e-01 2.216089571315210949e-01 2.282743850913334926e-01
5.350550519229021473e-01 -4.745806969701078515e-01 1.052598123236624279e-02
2.757975936895556979e-01 -6.635761631507270941e-01 2.701895699993484556e-01
-4.205477841665836714e-01 3.086457255814329947e-01 1.553816420602241455e-01
-4.121816405559501351e-01 -2.990249507406615992e-01 4.838818087244532995e-01
2.501744841747022274e-01 2.250811133355684612e-01 -2.021564427466925329e-01
-1.518196874300256627e-01 -3.967677713680671792e-01 3.809358535878717977e-01
1.411825128251019690e-01 -1.304876093998716124e-01 5.855735750273937529e-02
4.474894359355187645e-01 -4.607427310942801557e-01 5.559685393512281415e-02
-8.357843046658375297e-01 3.530815253459654302e-01 3.807351053985905676e-01
-2.867917213225229522e-01 -2.038078569005547513e-01 3.562046002498101549e-01
3.781624492404937060e-02 5.742840510977798713e-02 1.758534194121407976e-02
6.342487584692152458e-02 7.303281080488709387e-01 -3.671510941627769142e-01
-1.407645025540650019e-01 3.659741685731521948e-02 1.364257633068653996e-01
-5.573582757300881152e-01 5.079469646674433791e-01 1.282755639808049741e-01
-2.544811299370586810e-01 -9.498036614392998955e-02 2.770393777903834009e-01
3.891075167795094436e-01 -5.779406957064536776e-01 1.550369071830230705e-01
7.485831844631021456e-03 -3.524328699793569664e-01 2.607878845532595191e-01
2.719050120576165241e-01 -6.066236618963062321e-01 2.412712564109292801e-01
8.697810114729794817e-01 -2.590512406966778425e-01 -3.090916415296138253e-01
