-4.605664257024082164e-02 5.140929095759629863e-01 8.074505310332820429e-02
-1.947584720394055224e-01 -6.143235042192888434e-02 4.666902602094037400e-01
1.711359029312078672e-01 2.701747941932022279e-01 -5.664700531388326965e-01
4.639426516286142971e-02 1.827101349576921718e-01 -2.122722012936567593e-01
-2.790328566697028445e-01 -7.172997528600730810e-01 6.600322422877382689e-01
-8.187311716288055152e-02 2.500454601755068285e-01 1.640465818188605873e-01
5.547587017974976026e-02 -1.830966544777966332e-01 -2.667159361608010815e-01
5.404380721469791843e-02 6.762563239475525290e-01 -1.964032776475486408e-01
-1.811594233399807866e-02 2.081821758514601217e-01 -2.365443438155597281e-02
-7.021003953125075359e-02 -5.401217070282771093e-01 6.945830832500829444e-02
2.602063454306633578e-02 -5.038224059849282233e-01 -2.061844304826310759e-01
-2.596728634600083407e-01 -6.607801922417018137e-01 6.083671853335984592e-01
2.010462415120863044e-01 5.702558507713627600e-01 -6.299079869921501151e-01
-2.849890048753820349e-01 -7.197690921079797910e-01 6.770758673169565700e-01
-4.423855564063228392e-03 4.937029199968837601e-01 -4.128694544236211073e-02
2.281907700566636055e-01 6.930309381046944051e-01 -6.989955444549990071e-01
1.994005396766025118e-01 2.921856749801791664e-01 -6.465572908900142357e-01
9.719901969193325830e-02 5.701642368668582428e-01 -3.294392746578635456e-01
6.881004454907217738e-02 -3.193543065273771742e-01 -3.157892406970828070e-01
-8.370861770800612500e-02 1.550520872162672315e-01 1.620431265686971267e-01
-4.408071146471645441e-02 3.066594643312428592e-01 5.905570648021770536e-02
-2.372090648182675898e-01 3.164920152521846775e-02 5.966856875848751685e-01
-1.323322199006051088e-02 -4.543114693450480690e-01 -8.879345061054345900e-02
-3.073651817959563090e-02 -7.018120391144905268e-01 -5.720592720813429816e-02
1.181066888966463418e-01 7.251876468892206606e-01 -3.779977709744077874e-01
-1.963374738269135222e-01 1.059761382653780920e-01 4.841492454744291130e-01
-1.197434051454309978e-01 -8.421431895876757556e-01 1.895248947466804113e-01
1.165335887683277005e-01 2.889093242914493875e-01 -4.070389665624687403e-01
-5.686892337646915624e-02 -8.625237336331803562e-01 6.032041726460110956e-03
-1.210003634222265867e-01 -9.574208328006790503e-02 2.506337499824046189e-01
-2.664158263900104351e-01 -5.075965428611162178e-01 6.396724911052980023e-01
1.511209773423722869e-01 7.781109783944998304e-01 -4.694476249514996091e-01
-3.824805402240379765e-02 7.124755441893260155e-02 2.405284569767649275e-02
9.541967506461848658e-02 5.350641497345638431e-01 -3.269935080687533246e-01
-6.526460812001105838e-02 -8.945043236161262512e-02 8.985010242495033994e-02
-1.275382897566805229e-01 -3.839201443489979187e-02 2.739667326231817190e-01
-1.570784462568063436e-02 1.957172170231704089e-01 -3.158190775899972352e-02
6.649906088870310983e-02 -6.906001902163074746e-01 -3.376880003241461981e-01
-2.204169834151642471e-01 -1.477551019865707416e-01 5.342848980553583926e-01
1.511239729687058886e-01 4.957469217412569518e-01 -4.911979602819098178e-01
-3.892007856729531173e-02 -1.156483774680754778e-01 1.160656342918086996e-02
-3.890458459087164228e-02 1.161713235397497518e-01 2.941155009043908489e-02
-2.241572263017435063e-01 -8.275258589919667340e-01 4.927655983254989880e-01
-8.248524929370482095e-02 -3.867796468421282885e-01 1.167830390477839347e-01
-1.018770127215499859e-02 1.050559605264099888e-01 -5.453491423851831305e-02
-2.232081524701026720e-01 9.357138679077679766e-02 5.609428078256444294e-01
-2.360393167080483690e-02 -9.260216895203352561e-01 -9.510749599889019301e-02
1.829578427286515097e-01 2.424545914054803963e-01 -6.028105533801771942e-01
-8.774652985449858666e-02 3.115561455058650786e-01 1.857771958102285847e-01
-1.791312392689617672e-01 -4.716747666253236493e-01 3.898856544626543297e-01
8.791814656585122956e-02 6.376628125754734144e-01 -2.973883165207770740e-01
1.536445091783097128e-01 -5.263029421868895552e-01 -5.771875015050531577e-01
1.026435095568595801e-01 -4.767673028055401940e-01 -4.258049589579009364e-01
2.061204954284540924e-01 6.501963813563818029e-01 -6.384347216191090801e-01
5.985633480415341462e-02 -5.664417217436921170e-01 -3.089076253506840009e-01
3.658441658648824840e-02 -7.348587712301127839e-01 -2.545396079213569918e-01
1.881593892877918284e-01 5.683879255590709167e-01 -5.927644735533572629e-01
-5.713119988301052984e-03 1.451448316034971708e-01 -6.439505804159401103e-02
-5.307419974160201837e-02 2.236136631389609719e-01 7.868341105078527353e-02
1.468361596576098216e-01 -2.192065436602012862e-01 -5.338419206259480410e-01
-8.619000362112717861e-02 8.773225857179337561e-01 2.248367647893086962e-01
4.908608725194887890e-02 7.273801191077929884e-01 -1.781219432908227318e-01
-7.939345366967774653e-02 -2.485889150419056393e-01 1.184776199645645733e-01
1.189713378723333548e-01 7.165528512145005191e-01 -3.811644495287107026e-01
1.991827933505858558e-02 8.434719580159363295e-01 -8.478770237043405100e-02
-1.530268974372246127e-01 -2.962888593000697051e-03 3.504445015282268705e-01
-1.798127253577739004e-01 9.263431787397455319e-02 4.353085646219082006e-01
6.788928697431415027e-02 -1.894026249985222010e-01 -3.031189717258923055e-01
-6.744580274848820112e-02 7.950302304235941087e-01 1.642651281393776030e-01
-1.493036905765877768e-02 4.799494099324812524e-01 -1.194597538065931587e-02
-1.560154021245426792e-01 8.375770570076418453e-01 4.238120524635894393e-01
4.380913561650488786e-02 6.924294883898064468e-01 -1.655445506753091267e-01
2.320992569047500981e-02 7.059099286185448463e-01 -1.049039841238398468e-01
-1.735509974256022325e-01 -8.323964000634020977e-01 3.459644563563295527e-01
3.195712950034137328e-02 -4.047710012701935534e-02 -1.876843358392535910e-01
-9.516518719834053675e-02 6.495392766842723598e-01 2.332669046366980525e-01
7.667586034090689145e-03 -2.338985492908849384e-01 -1.322971866927888651e-01
3.485433079998380423e-02 2.317585292029140376e-01 -1.751054238275679686e-01
-2.089551580727672941e-01 1.829027994513006683e-01 5.265810187419465160e-01
-3.449532714672747663e-02 8.847286595820614830e-01 7.583154785593405889e-02
6.102468296160069861e-02 7.948448381359493053e-01 -2.074708644434014593e-01
-1.849767823076483853e-01 -8.260853578426667898e-01 3.795102281748365947e-01
9.195600232797926377e-02 6.534451442672083443e-01 -3.078563931123861064e-01
3.109061756779012836e-02 -4.916541092848618622e-01 -2.199171820135377986e-01
-5.016888818376016856e-02 -2.461464889766089292e-01 3.410613969555444103e-02
-3.147943510398223954e-02 -3.489907466152028515e-01 -2.788955740431835195e-02
2.754319582203039463e-02 -2.708404135138771894e-03 -1.720047401753511673e-01
-3.966357080524285914e-04 -2.011952333616249255e-01 -1.064457271123002702e-01
8.544503492999155556e-03 -3.244083087404384114e-02 -1.193225111428145718e-01
-4.878672880854451749e-02 3.186112005738428454e-01 7.359255632104017009e-02
-1.628599897495892068e-01 -1.759456576905963354e-01 3.655765201252765273e-01
-1.614375942593220814e-01 -8.476284124783194374e-01 3.097421987029786994e-01
-2.891843523839529237e-02 -2.601179279697810598e-01 -2.845656611090793472e-02
4.127002863444354658e-02 5.165611796753046825e-01 -1.717394280992628197e-01
1.371953563620931238e-01 5.407447529182143331e-01 -4.474315607863648125e-01
1.126595794614607265e-01 8.380168664055699379e-01 -3.535491792778794329e-01
-1.804783282060571509e-02 2.752272597324968983e-01 -1.868912034793010837e-02
-1.200521510830611926e-01 -9.308585856393949975e-03 2.545454215798877984e-01
-1.001968148941621423e-01 -3.975972839784550072e-01 1.671974577321802546e-01
-4.460630726807541168e-04 -4.392779240995857148e-01 -1.246347716508675180e-01
1.176773607472850203e-01 -9.664462349366189642e-01 -5.070091594842938143e-01
6.085506650686365454e-02 4.324758211402385949e-02 -2.648521072668826859e-01
1.174786092221506151e-01 -4.361576659731289385e-01 -4.656025488601347462e-01
-1.202943614256388599e-01 7.894643218379225891e-01 3.167507250207876601e-01
1.015105660715678593e-01 -3.761200912875753977e-01 -4.147771490025977670e-01
1.662992600331059945e-01 4.505152126752591246e-01 -5.385895349743123894e-01
-1.296438051960021876e-01 3.064267133711554014e-01 3.066095131288814613e-01
1.836787193651338579e-01 5.132068868650100368e-01 -5.840487900492529194e-01
2.011242639371549693e-02 -4.436316771681957094e-02 -1.537116133119347805e-01
1.567861424373702683e-01 -7.179650151129099434e-02 -5.512812217911821078e-01
1.073970116699819316e-01 2.107523315296345179e-01 -3.866208110534998244e-01
-1.294241950997130665e-02 -9.381113284296203891e-02 -6.187681001742005582e-02
-2.756987579944102373e-01 -4.828691578225235981e-01 6.684360788883648707e-01
7.212430049122235676e-02 -9.796024792277786830e-02 -3.083317867944918023e-01
-1.536649107745513276e-01 2.250150223745165101e-01 3.698445599040645626e-01
-1.646644035012628446e-02 4.635846222052499854e-01 -8.761511876532689785e-03
-2.082712030061918684e-01 -1.834739856345341813e-01 4.963914961496007083e-01
-6.316843742242971016e-02 8.425195711813822097e-01 1.555454436000770768e-01
-1.345856819967695961e-01 6.652462828114689142e-01 3.485371834403543922e-01
1.724632855305406054e-01 2.083785657437495567e-02 -5.895093779819915447e-01
-6.001672148796217271e-02 -7.980373383689455258e-01 2.010537768802971026e-02
3.951566578689329895e-02 -6.143607837413812556e-01 -2.537428139265380245e-01
1.598532779325089193e-01 -2.410198110124515403e-01 -5.731857723837684437e-01
-6.336390304743304280e-02 -4.257761270135054232e-01 5.845388113042469802e-02
5.926728043724877049e-02 3.636634278074962062e-02 -2.607877891501232392e-01
-2.194247016481210705e-02 1.375059181578947576e-01 -1.802458400530102672e-02
-2.000719838947155882e-01 6.720989864604647313e-01 5.385455565902469433e-01
1.944083432828724034e-01 2.344496758488882546e-03 -6.544300635919036990e-01
-9.788494574950765137e-02 -4.613883308679859185e-01 1.555963734980582436e-01
4.852639740246447730e-02 -1.952593185344818350e-02 -2.340133151913820764e-01
-1.967325216238924035e-01 6.559618746775650600e-01 5.276404841515439648e-01
1.189189683442681555e-01 3.921086390392925641e-02 -4.331673795851721520e-01
-3.190181805942860632e-02 -7.075345603974416697e-01 -5.427482798715262818e-02
9.896911386201202865e-02 7.896648897100686515e-01 -3.176596702088180235e-01
4.972717551401824310e-02 7.518803686367842021e-01 -1.780904065188527452e-01
-2.172985846440913804e-01 4.394722137106392423e-02 5.400228277815907196e-01
-1.621232672003876107e-01 -7.837792791183095797e-01 3.166424534220226850e-01
1.583621876175248799e-01 3.373023450717853589e-01 -5.243413320840157876e-01
-2.314629680036005832e-01 -4.078428743018496228e-01 5.462193756481695806e-01
4.075077910591515251e-02 -4.106332105600402627e-01 -2.416297809312534794e-01
-2.624619258462374677e-02 -8.229102843516281629e-01 -7.952282600847869476e-02
1.719079109553982576e-01 1.675621611946289391e-01 -5.766048526970981580e-01
-7.706166234669206694e-02 -2.995661964562623680e-01 1.078055354825246809e-01
-2.281983748407338530e-01 8.045968031179120961e-02 5.743721353082571479e-01
1.918291523333273130e-01 2.384838124727672315e-01 -6.287849055015222177e-01
-2.047469076627078111e-01 -5.106181872710384706e-01 4.610044759716431795e-01
1.856485379982709683e-01 4.354633625046446799e-01 -5.957344941948322647e-01
8.994011307507614184e-02 1.105959172044734679e-01 -3.438222266736298827e-01
-2.348301155297109200e-01 -7.324766840446995664e-01 5.309656329071593683e-01
-2.557320797180561711e-01 -7.799514032870846769e-01 5.877887323789948715e-01
-6.538048758320308407e-02 -6.125190887360818515e-01 4.990978181660331303e-02
1.270821919644699871e-01 -4.220113554937322820e-02 -4.630558009375316253e-01
-7.584813815798008285e-02 -5.610959993877635554e-01 8.415681830496665738e-02
6.971137346680418567e-02 8.153381740580460946e-01 -2.310273269229491666e-01
4.764338574851822300e-02 3.000724310056105404e-01 -2.068497122828800439e-01
1.326509802634628088e-01 -6.929279771529383014e-01 -5.292738853545151390e-01
-8.208943518823419438e-02 2.793530412017735109e-01 1.669291310588026100e-01
-2.722308737831294345e-01 -8.229847535724227336e-01 6.322135003768930561e-01
-1.128741804020646361e-01 -5.830713660515589591e-01 1.895973968689455003e-01
1.191015657385833121e-01 -5.198620193601763972e-01 -4.767436042151702580e-01
-1.861681118326244389e-01 -5.426736560336750115e-01 4.047796043626370466e-01
-1.256072535687072222e-01 -4.310044366529758308e-01 2.381487447251164069e-01
1.212596709047764759e-01 8.011762958245900457e-01 -3.812697092657574283e-01
-1.873368177477430785e-01 -2.327193268951076033e-01 4.320272685016204872e-01
6.941186662394029094e-02 -6.955847585901040464e-01 -3.464998359879901124e-01
2.552200159344088226e-02 -8.134756580629287637e-02 -1.722116486387458290e-01
1.343636787173296543e-01 -3.372700856143875242e-02 -4.834718534107405596e-01
5.785117188583070724e-02 4.831772792727709320e-02 -2.557701219715235452e-01
-1.059807830841349996e-01 -3.265227345277232351e-01 1.894056745568561129e-01
2.988412843049555526e-02 7.891750651055585708e-01 -1.178040852542391187e-01
-5.571974144295543246e-02 -5.732174295267936648e-01 2.498316382885211462e-02
-7.382629885901190181e-02 7.721847785131320530e-01 1.809676442621584169e-01
-1.395364603006175874e-01 6.156531342412316921e-01 3.590433579372649397e-01
-6.789076171034102991e-02 -6.665273132296847258e-01 5.301454733166142963e-02
-7.650814089316029798e-02 3.944521921689723293e-02 1.323073951859078667e-01
9.860482299013019480e-02 3.632140287852868299e-02 -3.746120916893605490e-01
-9.473004918940992891e-02 -7.154024173377755424e-01 1.269091111665097971e-01
-2.163507602268478214e-01 3.867769683624089350e-01 5.636778018658811229e-01
5.640624354621848191e-02 3.356633390462914618e-02 -2.527251459550202695e-01
-1.672123659043574517e-01 -2.091527002934981672e-01 3.756129625518953019e-01
-2.458604872475461667e-01 -2.460026258405514643e-01 6.003392322843862372e-01
-2.512764615391033796e-01 -6.382518955402375349e-01 5.858073449775480501e-01
1.136911809572761257e-02 7.563090613949478014e-01 -6.676264271474476042e-02
-6.726146899516131927e-02 -5.302857867239981760e-01 6.168414782099461424e-02
-2.865151727421700115e-02 4.930098036302137943e-01 2.876098521872002406e-02
-3.443974300544296735e-02 2.836900708038888053e-01 2.939152340529168836e-02
4.946701081092665098e-02 -3.788152810921623925e-01 -2.643997400410327825e-01
7.138113803380408129e-02 1.612262728550897251e-01 -2.862244630402127621e-01
5.050834930636097925e-02 -3.753148488077278078e-01 -2.671432623440018195e-01
-6.288002524789680636e-02 5.247533201331008312e-01 1.302433492015535876e-01
-2.030662330807976590e-01 2.677081041199020350e-01 5.160716630807306027e-01
-1.622080089692289062e-01 5.858564313321680261e-01 4.223478293917625748e-01
-1.618623336788364009e-01 -8.305135920263939653e-01 3.122889760478626542e-01
-3.769912988957314914e-02 2.582963951795271274e-01 3.686708548050557366e-02
-1.975324847214545987e-01 4.747898861524877390e-01 5.160051207298971265e-01
1.122537164361418344e-01 -3.352271282599982860e-01 -4.427131109661198716e-01
-4.074975496800952585e-02 -9.688392979282245410e-02 1.834546162353747900e-02
-5.490672533416932760e-02 2.268931085504529988e-01 8.423822803846123253e-02
9.739975033163539297e-02 7.898656103418245922e-02 -3.678401234766214278e-01
5.938711945611842291e-02 7.645922632656521056e-02 -2.580474359818117902e-01
3.151681804541801857e-02 7.637443400735233201e-01 -1.244863086338081209e-01
-1.899623962686033951e-01 7.319331536836303220e-01 5.139012190275361602e-01
-2.657786275828948053e-02 -4.890749613878803137e-01 -5.285826937670971143e-02
-1.647151712630989528e-01 8.043821569137156180e-01 4.464283531556933471e-01
1.546046617208952367e-01 5.496373576665991578e-01 -4.971196324271650036e-01
4.664924744891941338e-02 -3.311209330415415542e-01 -2.525743059658262513e-01
1.338380684980017277e-01 1.122353329837822156e-01 -4.707121196936471796e-01
1.184616284355103910e-01 -5.478843198536786918e-01 -4.770496645938349656e-01
-7.385868637285633587e-02 5.725169859655774296e-01 1.656871934720798023e-01
-1.744035690573474129e-01 2.298688711528406592e-01 4.302243755911660528e-01
5.190009959257160799e-02 -5.458871281591284319e-01 -2.843040543099651374e-01
2.402359414267024942e-02 -6.445737733376762923e-01 -2.112437862268113642e-01
-2.570900956258723169e-01 -3.991657530090840789e-01 6.210380739771008685e-01
-5.793772242785701770e-02 -7.023554293508340596e-01 2.145730083924505746e-02
-1.548832790174858864e-01 -5.019052366593012016e-01 3.173979149660067223e-01
-9.773696686662282362e-02 -6.024056595573284989e-01 1.443100532198146324e-01
1.051283648504784535e-01 -1.536178066382140328e-01 -4.081126462897829432e-01
1.345316567146830899e-01 3.496017488363615255e-01 -4.544420685501621704e-01
-1.141860887317898837e-01 6.865506779060726039e-01 2.911525832299947103e-01
1.008665118244882475e-01 -8.563118350949155966e-01 -4.498877603658275603e-01
-1.681888137917499360e-01 -8.894617765569565182e-02 3.876940034861209861e-01
-2.574513383447858336e-02 -8.583343468147087707e-01 -8.370021678901862217e-02
-1.220190884822635602e-01 -5.830853131133226785e-01 2.160565711690354274e-01
-1.027388649741072524e-01 -7.763692836822927434e-01 1.453877738493779548e-01
-1.156859195572016753e-02 7.985202875267055633e-01 2.856468419000844899e-03
-5.822578060631323355e-02 -4.686774362362387536e-01 4.028368371784609575e-02
-1.298692452001819486e-01 -4.641423194878606107e-01 2.479289901163906074e-01
-1.382549055404918015e-01 9.055588557092542068e-01 3.776576214931340325e-01
1.625293415413294751e-01 -1.429040754176895411e-02 -5.634709322178476087e-01
5.154101041826534982e-04 -8.532144248004325249e-01 -1.592893130818983372e-01
-1.014368151543267316e-01 8.407687729032891077e-01 2.661379117313023568e-01
-1.960226551456829003e-01 4.922163955835551219e-01 5.129783372738225822e-01
5.612126151686033099e-02 6.957706509590779742e-01 -2.009116902681930550e-01
-1.087689548137016765e-01 -2.662442404058881218e-01 2.021144499956375462e-01
-1.318518841346363601e-01 -8.789899123085537225e-01 2.217229092451628858e-01
8.803372152626476321e-02 1.609508460972134680e-01 -3.344289315043287858e-01
-2.192505904302808339e-01 -2.483260438809496151e-01 5.231661766228207222e-01
-9.669181679341379287e-02 -5.263715241851086857e-01 1.471405037969350793e-01
-1.132620887547218166e-02 -2.765348742633887413e-01 -8.062271154995069578e-02
-4.787165305595913502e-03 -2.378137937815420766e-01 -9.656157243143913271e-02
9.748888645624416427e-02 7.564399526511302874e-01 -3.159349973951516843e-01
-4.340342609200837504e-02 -7.587349283971218661e-01 -2.493797069322531423e-02
-1.357483327761879466e-01 1.449148476658457529e-01 3.118363959431882382e-01
1.072739218216081231e-01 5.153183672571906571e-03 -4.020955267254442411e-01
-2.171236490251491624e-01 1.232096779986383561e-01 5.456197687472837954e-01
9.711773721145812444e-02 -5.408088897828692287e-01 -4.147475844596196781e-01
-1.726947534051158917e-01 4.955562231170045906e-01 4.457376019688925051e-01
-1.787306966266744568e-01 4.587014897374429023e-01 4.603644781994235546e-01
4.358168129906271615e-02 -3.522253983945453082e-02 -2.209146914667515227e-01
-1.607658589397454596e-01 -1.626901457768589465e-01 3.605379343417491889e-01
1.631716842004193313e-01 2.212548437896535297e-02 -5.625255358950943529e-01
-1.619540854749724687e-02 -1.373387893036992768e-01 -5.581605283396703227e-02
-3.556078697389342125e-02 -7.165073376962878271e-01 -4.437871108544660242e-02
7.891648968797847219e-02 -7.114217954128334576e-01 -3.752203295082863765e-01
-9.178824778007278751e-02 -4.332306903001138521e-01 1.401240421007359238e-01
2.355122622278718603e-01 6.791252857734375592e-01 -7.212505643314366388e-01
1.206027424421509536e-01 6.388367042382173677e-01 -3.918688646649744478e-01
7.564456588016170435e-02 -4.365341933884456238e-01 -3.445872220507029682e-01
2.666352868292826139e-02 -8.790890317735045034e-01 -2.369396519751525432e-01
1.220152125682610472e-01 -9.471435328945601029e-01 -5.180741928784876604e-01
-1.119917608831346861e-01 -1.810088134145845518e-01 2.180024656708106912e-01
8.346488899340132050e-02 3.389356848577806391e-01 -3.075046833163834759e-01
-5.070639310310683795e-02 3.052434017889204543e-01 7.811768766408502818e-02
-7.462465205558931058e-02 -5.481848348686455541e-01 8.161087695042029688e-02
1.224493861683701862e-01 -5.335621885016977872e-01 -4.874852190543990105e-01
-2.456653032103861545e-01 -6.334204465077423185e-01 5.699438070630534758e-01
-1.957047102911337877e-01 -1.569650493292596566e-02 4.729497454028276926e-01
5.303790799922870891e-02 5.472309096382909077e-01 -2.034275582846621633e-01
3.234384617124955869e-02 3.798717365248031053e-01 -1.564369600469572019e-01
1.600054442037376345e-01 6.582632959081622381e-01 -5.043824187214986932e-01
-2.034416606887722578e-01 -6.443240170159156843e-01 4.469326452036968544e-01
1.321446675439652829e-01 5.821837585329918685e-01 -4.296269428563558868e-01
-8.827589511089432850e-02 3.214559334785176969e-01 1.880711536159820896e-01
-1.960786393612660439e-01 4.395237332098438920e-01 5.090830573299973683e-01
-1.383354339353500273e-01 2.490151967632995011e-01 3.273376118658964384e-01
-1.724229032607962203e-02 -4.758180238863490286e-01 -7.884942649210534282e-02
-2.376090652282660531e-01 -4.376834256445876759e-01 5.617050588995223803e-01
4.693307948181574957e-02 2.342975065399738599e-01 -2.098590675310242903e-01
6.133950819995098724e-02 -6.588371451241968255e-03 -2.700911145806989544e-01
-1.220768470018802759e-01 2.904299334541629030e-01 2.834832377757355859e-01
2.027420377443449606e-01 4.328069456115519187e-01 -6.453980608078748737e-01
1.044606151275245670e-01 -3.023727320662307760e-01 -4.176344892667919195e-01
1.592358686651960953e-01 4.428894849959039148e-01 -5.187392028888306861e-01
8.848156132202079915e-02 3.670583886031038023e-01 -3.198547147795223200e-01
2.733966460388066039e-02 -8.771884355233275921e-01 -2.387496676348557223e-01
7.160665152466416661e-02 -6.332007363052054583e-01 -3.480468265586750265e-01
-1.316855029440157365e-01 -6.945545925365015361e-01 2.354427765628258062e-01
4.637126059633503439e-02 -5.233285631539724703e-01 -2.665697067889651328e-01
1.564885437479993924e-01 -5.467744760968196172e-01 -5.869928282307363965e-01
4.911310320901422777e-02 6.947506071857385557e-01 -1.807125426315323302e-01
1.874295157946215609e-02 7.423251407980580030e-01 -8.917513562459862542e-02
5.253488541346841567e-02 -5.894082799123260274e-01 -2.894918418418468420e-01
-1.593168244234761596e-02 -3.265443514248821399e-01 -7.114771255776365655e-02
-1.703144974817702995e-01 -3.628062619693550039e-01 3.727576701733676945e-01
-2.516666645557881221e-01 -5.603610312066802379e-01 5.929338701738779971e-01
-2.693673247769106105e-01 -5.888791515894569173e-01 6.419538204428856254e-01
-1.022935346369516635e-01 6.464974634519151664e-01 2.536581387454131531e-01
-9.621332462851349410e-02 -3.809354176026882866e-01 1.569544075093019797e-01
-2.579124429794331652e-01 -1.565151890953223046e-01 6.421012672029222657e-01
6.477095101076850436e-02 -3.258945945832297797e-01 -3.046059572506211177e-01
1.803146122967989318e-01 3.116225764200533654e-01 -5.898366776578095605e-01
1.715774862433751546e-01 -1.361864103192937381e-01 -5.990370361121336584e-01
1.747567699925043350e-01 -7.006935856653097316e-02 -6.031451771614055879e-01
-1.143519973017214225e-01 4.135957863690613023e-01 2.706154557175756703e-01
1.351884069966183821e-01 8.028253056836533175e-02 -4.770795684281120552e-01
-1.132841661659983457e-02 -7.982198494643019671e-02 -6.546968517724109649e-02
-2.090622319004628860e-01 4.860112225634544147e-01 5.502297875885359124e-01
-7.806433852771409165e-02 -7.101619598608740480e-01 7.909137597994791991e-02
2.348224395994703145e-02 -8.281431711697570530e-02 -1.664226690703415890e-01
-9.240195411277363213e-02 3.189929774516127026e-01 1.998200157644277331e-01
6.145340870544081791e-02 3.192541266147799206e-01 -2.453312274301520102e-01
-2.383014216005117647e-01 2.543576943456575534e-02 5.993679307885971808e-01
1.035880434861749799e-01 -2.898157894602506057e-01 -4.141428867022020621e-01
-1.064677986792488124e-01 -5.587985603792529066e-01 1.729298866610386176e-01
1.977616375937602256e-01 4.859708563322321373e-01 -6.268940164119786163e-01
9.823414247696776735e-02 -4.363806576188468678e-01 -4.099369977685276556e-01
-1.091478361911938366e-01 6.848296943795789682e-01 2.764421853315320310e-01
-1.930826894406271754e-01 7.729466329352487897e-01 5.260875868653174248e-01
1.802138259660560904e-01 7.803809360854537802e-01 -5.534512701473646157e-01
-1.492354317978413225e-01 -1.530517659377930995e-01 3.279174712599126629e-01
-1.983575712124485135e-01 5.516719979266806323e-02 4.860820546018534971e-01
-4.129351119631298646e-03 -2.174821534595356709e-01 -9.689940865132889991e-02
1.272169566888387005e-01 1.081187276173215944e-01 -4.518712993486064811e-01
-8.564736261898751868e-02 -6.117925653341589332e-01 1.086067219852520915e-01
-1.792160543497340885e-01 -6.245950989960644684e-01 3.783563937776586172e-01
3.231558438886224932e-02 -6.246350058006572281e-01 -2.337009080065167443e-01
-2.358563849706361570e-01 1.044364018971652430e-01 5.983763092295861785e-01
9.951926144136089003e-02 -9.043272027621402920e-01 -4.496866927202993747e-01
-1.318024901002636529e-01 -2.448437184418201726e-02 2.873758134859378810e-01
5.873197257797892201e-02 -1.727886826667880682e-01 -2.753435744802785745e-01
-1.642899679286698167e-01 -9.115311267116560368e-02 3.762429934767549389e-01
-1.922642516177729688e-01 5.504550405880471731e-01 5.065879204078105325e-01
-1.309233838613154399e-01 3.832135914948328614e-01 3.162243884119937953e-01
1.177886012542627911e-02 3.282913446447815464e-01 -1.009050182999583628e-01
-1.814515937339676033e-01 5.704786154096312956e-01 4.768439266298660772e-01
-2.248535944213215787e-01 2.747609154763486217e-01 5.796551560373813805e-01
1.472573145802288652e-01 -7.051043171146901267e-01 -5.724740083476618224e-01
-1.754226362041287901e-01 -3.613441016287445295e-01 3.876503505356095891e-01
-2.135568552691081146e-01 4.642032424506987304e-02 5.293867818686063265e-01
5.154648605536787942e-02 -1.889551033180896789e-01 -2.557975896464421139e-01
5.071167199560216998e-02 -3.078404208825133992e-01 -2.625361206644415968e-01
-1.383017317757529174e-01 7.753550486833304944e-01 3.677675854517785115e-01
1.035354212503038912e-01 6.654378187853718929e-01 -3.404373333506264809e-01
1.194382924537948643e-01 -1.400368001894296277e-01 -4.484718516622341333e-01
-1.517826126259214647e-01 4.558146918361181132e-01 3.821695184934350564e-01
-1.037936008626688805e-01 4.239801100863790917e-01 2.408649424385852500e-01
1.631890053619603764e-01 -1.992570803721851469e-01 -5.796218251971567703e-01
-1.348478412293791506e-01 4.578304196130130177e-01 3.333249720343649525e-01
6.572344321888777541e-02 -9.349534731932478415e-01 -3.542586838629893098e-01
6.871108076322246516e-02 1.627632041286012632e-01 -2.783804692402804815e-01
7.238050163841251716e-02 -7.607704933869323671e-01 -3.601086224136534897e-01
-2.137320633651691726e-01 -1.325770741480767900e-01 5.161111676000132986e-01
2.160629759645889270e-01 7.229514634996206945e-01 -6.616006509849479134e-01
-4.481979240830303440e-02 3.982602903655844684e-01 6.824733857354313427e-02
-2.116934730260923436e-01 -4.128809750675792034e-01 4.886295892392000240e-01
-6.294461773664029869e-02 6.226708398033208303e-01 1.379697662753925913e-01
-3.980930652968901057e-02 5.981281643211848742e-01 6.913936351771782229e-02
-3.195391156184567566e-02 1.461038660867927941e-01 1.160495775515442939e-02
5.242357335262118334e-02 4.276690660244817366e-01 -2.108561250173527357e-01
1.032370786969745019e-01 -1.279156625018262050e-01 -4.006612902692894829e-01
1.396165490436227508e-01 2.909030419090772868e-01 -4.736746270151785398e-01
-6.885531209920868478e-02 -3.073531496248338435e-01 8.346136326691855345e-02
-2.260591765635740213e-01 -3.044359087200568803e-01 5.385460289609667051e-01
-8.290557227917789984e-02 -2.792264933503155189e-01 1.262806725379499451e-01
-1.892291483850210843e-01 1.140860036185907672e-01 4.642061772911157402e-01
-1.552623880316295613e-01 2.591231363913119035e-01 3.770930461624686925e-01
-1.735234857846545964e-02 -1.916961447370370553e-01 -5.665396175228833153e-02
1.647533778839592178e-01 4.489203770964854678e-01 -5.342394171005715453e-01
6.682557354538014305e-02 -6.600016353602916608e-01 -3.362766960941099281e-01
1.956316471577140004e-01 2.820716462960133966e-02 -6.559782286517972238e-01
-2.284797470321684731e-01 9.514864977547436709e-02 5.763173007036463957e-01
1.213226146859240767e-01 -2.829352019499534188e-01 -4.649270184574718079e-01
-1.935345070189567196e-01 -2.058991316569916963e-01 4.520250345786835378e-01
-2.387995821819288988e-01 1.822778512195834255e-01 6.128859665555507208e-01
-2.497425452672935864e-01 -7.055536220713667928e-02 6.250809492145160684e-01
-4.544030535573206908e-02 -2.677038367845637756e-01 1.876437828286024387e-02
1.038163672493257472e-01 -2.199083693383044880e-01 -4.094207468878975353e-01
-4.508214091353032055e-02 -3.756283404968098483e-02 3.544861071156159282e-02
6.786579318795746274e-02 6.030068081174539962e-01 -2.420364909693932531e-01
-5.471504802499866510e-02 -2.578126226997172754e-01 4.636190586746414405e-02
5.075825524351589707e-02 -7.170299583766635010e-01 -2.941779724064083612e-01
-7.355451960377036580e-02 7.046839260491235546e-01 1.749837886779975205e-01
-2.184151513362769248e-01 -3.620586646404749809e-01 5.119916183375411434e-01
-7.146030647397971433e-04 2.918154055242471734e-01 -6.756452503064379334e-02
3.671506728554444626e-02 7.456062654374321363e-01 -1.409237422877981927e-01
-1.651873223182251046e-04 -7.440027162483959788e-01 -1.489108843627776901e-01
-7.804837891175755993e-02 5.625418350638371479e-01 1.770417461765708411e-01
-1.620341830031937491e-01 -5.876260788567102544e-01 3.314882366607313502e-01
9.703595258193697948e-02 3.303263417788349088e-01 -3.474346578128091889e-01
-2.166218593390108471e-01 -1.402147612531043919e-01 5.238845285172473165e-01
9.330260315716901176e-02 3.399960925471457451e-01 -3.358878747410317112e-01
-7.970549979543649702e-03 8.097563571174467567e-01 -6.689089423376228666e-03
4.211588478329670628e-03 5.163716380808379691e-01 -6.452762770970092709e-02
-2.237851635847129539e-01 -5.480756618310546058e-01 5.132063612052395474e-01
6.327207507488383231e-02 8.331346512656828684e-02 -2.687605567140448071e-01
-5.315005349933974582e-02 -6.389523550718357869e-01 1.248642007188286232e-02
3.290276720784994502e-02 4.203670124952001985e-01 -1.549360809129088079e-01
-2.445024698773176908e-01 -2.865108666107387680e-01 5.932908074879401639e-01
2.240892825669013322e-01 3.974635744715573349e-01 -7.098864393318410348e-01
-1.769587674692309764e-01 -5.348644430864869515e-01 3.787342129103481447e-01
-4.024227501124550549e-02 -6.439705682124592656e-02 1.937854577850321031e-02
-2.543717982764087115e-01 -3.402148802683979678e-01 6.177119831586254106e-01
1.031282792257247061e-01 4.835881004437169173e-01 -3.532614855288931932e-01
-6.987763265894748888e-02 -4.122745421947928146e-01 7.834057535521478377e-02
-1.245354646407357407e-01 9.440653460616311721e-01 3.409261843820509674e-01
1.796269472908753329e-01 2.788223228402960663e-01 -5.903725369803933809e-01
-1.166363830511700922e-01 -7.741612127795285403e-01 1.857694353230507633e-01
1.285187393770217679e-01 5.981308732230677938e-01 -4.179076278977073011e-01
1.095846397806962691e-01 -5.148967158695944013e-01 -4.488246224272201546e-01
-7.352520499798624598e-02 -8.520038705909684928e-01 5.503601886956300399e-02
-8.075870774711002564e-02 8.322261475320460455e-01 2.056492653719288743e-01
7.076323920066240891e-02 8.553883775588710936e-01 -2.309870239885173648e-01
5.968277529207793863e-02 1.380250850488576875e-01 -2.541624069736877489e-01
9.379959478827584740e-02 6.905651745081859971e-01 -3.103325239786587919e-01
-5.031480213747122759e-02 -5.224810394690343474e-01 1.325092957460497108e-02
1.624587755462881256e-01 7.191663017640602673e-01 -5.067915344128177679e-01
-1.810505932750439140e-01 7.426630395376297711e-02 4.374759485474745135e-01
5.936522112770053344e-02 -2.561947282848653362e-01 -2.835979993219978068e-01
1.460966798776639208e-01 -4.770278501680703109e-01 -5.515541874187881444e-01
8.714779440746353578e-02 -8.462279082606040115e-01 -4.094170172445852907e-01
2.002055326055771634e-01 3.331851214750733980e-01 -6.457295856775360221e-01
4.479256082375956266e-02 -8.268446076890711982e-01 -2.853721762027183195e-01
-6.171998500930128695e-03 -5.074305753206231895e-01 -1.133147838015612779e-01
-1.205506878723606734e-01 4.110661955778214249e-01 2.883562233786783890e-01
-2.227932191729084244e-01 2.730924455002200005e-02 5.546401236135545254e-01
-2.596632558045191552e-01 -3.842682200477717247e-01 6.296304508719792192e-01
-2.419283390358469357e-02 2.995642332578907774e-01 9.649907222522861785e-04
-1.012041854568763166e-01 -9.094662672259265501e-02 1.937239291463825619e-01
-2.038117325010343761e-01 -3.644925572816593018e-01 4.695500869773980290e-01
2.013736721023877407e-01 4.566321306650725775e-01 -6.396042676445096165e-01
2.239200156633425545e-02 6.506788494376596343e-01 -1.067900910267637893e-01
-2.183616475490444686e-01 -3.355431831862161207e-01 5.138784661328281711e-01
2.216272998591775067e-01 4.201504653732696104e-01 -7.010159773429672780e-01
-8.054950206528238565e-02 -4.548075167383764383e-01 1.059440113325611360e-01
-9.055423569040720044e-02 3.167806212888720219e-01 1.943034037202875375e-01
-2.386301539851670428e-01 4.693802748135408875e-02 6.019747445101913952e-01
2.196683065560068593e-01 5.199094145790430499e-01 -6.876664363682982728e-01
1.240089437442528225e-01 -8.842745222428899377e-01 -5.190021029639817485e-01
-1.394308456100738502e-01 -2.201631200349003503e-01 2.943809960580319740e-01
1.819059914057357674e-01 3.073830881986256425e-01 -5.947676736786616791e-01
-1.270906880511859516e-01 5.957097291861254140e-01 3.214966389406744285e-01
8.336962803012029979e-03 5.901427574971684908e-01 -7.078387230530981677e-02
-7.443503119896673070e-02 -1.237952292801102333e-01 1.137396717604543112e-01
-7.088171733071171789e-05 2.248721880994366401e-02 -9.016501701940908553e-02
-2.186693905725326792e-01 -7.503509709146456430e-01 4.828292383940999688e-01
-4.992667764251584178e-02 -7.559409675325751143e-01 -5.848198518289953254e-03
-2.270497471835654923e-01 -2.695554457817069677e-02 5.627778158453263790e-01
-1.459828002219563381e-01 -5.513084880041662084e-01 2.878409218283584647e-01
-6.167415329588634559e-02 9.049147313690026895e-01 1.560261680049235267e-01
-1.789898211300825492e-01 -3.658855503981915946e-01 3.976221024930013948e-01
-8.127674744910526328e-02 -3.879049012986514611e-01 1.131996676210800523e-01
-1.620736937434105740e-01 2.461662466753351541e-01 3.958034907879037778e-01
5.185616648029404280e-02 3.694987311039263922e-01 -2.136934076001182348e-01
-1.947262004493291176e-01 -3.828403087183490094e-01 4.418488866194735243e-01
-1.055764548044190870e-01 -2.821921872803619460e-02 2.112047601323729928e-01
-1.712841295174573897e-01 -4.988032996956878740e-01 3.650916466076552513e-01
1.809289402438694905e-01 -9.584237622726123063e-02 -6.229884741497581091e-01
6.371021679379244851e-02 -4.032145540684472368e-02 -2.795480229418936258e-01
3.129185868509446605e-02 -9.571522841681048277e-01 -2.563422194631996276e-01
1.091560517445493567e-01 -4.487749313490556058e-01 -4.424932364024081743e-01
-6.673334131366022437e-02 8.180189071660680655e-01 1.639737617242187917e-01
-1.129596797728795038e-01 9.429038879739712886e-01 3.073429078436088480e-01
-2.437571215920815437e-02 1.377299175566600309e-01 -1.096689519574784930e-02
-7.170637024904577203e-03 7.929618886517747489e-02 -6.524807953266602289e-02
-1.270117150563988273e-01 1.640930289716992230e-01 2.880342068277408352e-01
-2.707352082117449044e-01 -3.176099055963456652e-01 6.667990914645623990e-01
-1.572112365060510802e-02 -6.825762202738985263e-01 -9.917094596581903232e-02
3.312654432803661259e-02 -2.082169861776641262e-01 -2.039837227396996133e-01
2.924227251868711033e-02 5.892972234901165951e-01 -1.313372489519381292e-01
-1.710397034828011753e-01 -6.081925107397020414e-01 3.559615864340694991e-01
2.609138098811826772e-03 7.366607644742015903e-01 -4.292905453359868034e-02
-2.421749136733738761e-01 7.671370240775200744e-02 6.145239845754199015e-01
-3.192612914641754923e-02 1.660954291804222216e-01 1.306389552404142729e-02
-2.194158956246289871e-01 -7.794149060306150290e-01 4.827513209451856913e-01
1.317222776051677480e-01 7.996288900314267867e-01 -4.116617883884637341e-01
-1.661846813432350523e-01 2.614392028559619496e-01 4.088743870623831045e-01
4.550192863024535295e-02 -1.827155027356533734e-01 -2.378275806748468557e-01
-1.760921909511362071e-01 -6.868726889869728458e-01 3.645223866389980527e-01
-1.099030428458371289e-01 -8.941468170288568995e-01 1.570481789302989872e-01
-1.244999562538299243e-01 -3.921735859135536129e-01 2.379347710854891051e-01
9.736296699146357314e-02 -8.770078500243047026e-01 -4.413440279655255205e-01
5.498089201589077823e-02 -5.270510649381476842e-01 -2.917677916089232437e-01
3.927575663193810102e-02 4.268834869560132472e-01 -1.728741870577537310e-01
1.466739393809326775e-01 1.339382564354650584e-01 -5.061808524044070223e-01
-2.289335657930972601e-01 -7.397678051442021507e-01 5.133429096670392155e-01
1.657628232844051905e-02 -4.739702925272831074e-02 -1.437135939708967802e-01
-6.978783516155231958e-02 5.595332182156425027e-01 1.529086940056401944e-01
2.279937512653158749e-01 4.928199915772688566e-01 -7.138414665797379044e-01
1.498763271396264807e-01 7.543092676773573979e-01 -4.676790045211163815e-01
-4.502216070047263680e-02 1.791699286826364812e-01 5.196320432910001008e-02
1.532985495839416235e-01 -3.460598577355942229e-01 -5.623080032706524456e-01
-7.209791657633826678e-02 1.396771218360637334e-01 1.272644001918914747e-01
-9.642603125328828850e-02 -2.186792496611175141e-01 1.700633768535910750e-01
6.297743011412164360e-02 -3.224105063098483548e-01 -2.991482407971636226e-01
1.185071619288945721e-01 6.591653280692369443e-02 -4.299195401760994573e-01
1.741719433815084872e-01 3.353333349917154704e-01 -5.702375323188973999e-01
-3.828154445419471030e-02 -6.433280060257365873e-01 -3.087164694299493820e-02
-2.399059632378014451e-01 -3.416320176652632434e-01 5.757468311803948247e-01
-9.613892450763315833e-02 -8.377050375420482808e-01 1.215684644037805517e-01
-2.299988858607636411e-01 -1.942036000817396746e-01 5.584330891335419489e-01
9.545637161765613277e-02 -5.690788470249168174e-02 -3.726807694309756669e-01
2.093576809064756628e-01 4.145873021094003685e-01 -6.659429202612331400e-01
-1.901608475046157876e-01 -6.753193377094870442e-01 4.061188016449527871e-01
-6.889921796261785913e-02 7.801829770169956824e-01 1.673272793743152964e-01
-1.204844550730964775e-01 3.561250023785736962e-01 2.839341817942569457e-01
-3.756913283438519796e-02 -7.853512034910976602e-01 -4.386857040760672177e-02
-2.846614947718492661e-02 -6.149633909875273918e-01 -5.708787042679490387e-02
-3.240749886321146744e-02 -1.370426509026015649e-01 -8.884530436074674492e-03
-1.604133228767308239e-01 8.312364361536810353e-01 4.360489552511683242e-01
-2.588935422398852548e-01 -6.864200281922450131e-01 6.041380314327706724e-01
2.683549796581803995e-02 -1.996467489002547169e-01 -1.851210566579199746e-01
1.274369522117406173e-01 -6.040150200381415313e-02 -4.654836833452972167e-01
2.405848555243331188e-02 -2.493585388609474429e-01 -1.809136798494639653e-01
2.777630389810068975e-02 -7.851863329084332044e-01 -2.329290144184225086e-01
-9.014400793915000598e-02 -3.983357872175525283e-01 1.380533942772870504e-01
2.851295980356410159e-02 3.959991973957230904e-01 -1.441107242886024431e-01
-6.971607527769776991e-02 2.193464016022296792e-01 1.265071155479564335e-01
-2.734505360808847998e-02 -9.140166273308253375e-01 -8.335840766076853259e-02
-3.485377274098118427e-02 -5.588423259582563779e-02 4.442711075557707889e-03
2.075175787899508507e-03 1.945492650045489436e-01 -8.312595158429837705e-02
1.447519390150996121e-01 9.355659136478743088e-02 -5.037289945910854438e-01
-1.086268184874430026e-01 -1.007729826093661796e-01 2.144442601095621348e-01
1.637081817773903755e-02 -2.191667543192708234e-01 -1.563451426320285609e-01
1.666443422304550170e-01 1.189095439706686769e-01 -5.651212180016084163e-01
7.396368212088322291e-02 1.249268537742079105e-01 -2.964919093053520749e-01
-1.489827343303135321e-01 -1.446934788883241230e-01 3.278298834584005839e-01
3.125798507974059115e-02 -5.735181852637096789e-01 -2.267048780811166675e-01
1.888232859138460479e-02 1.262311927838400960e-01 -1.370168529838841076e-01
-1.064534445696033033e-01 1.453447636836484036e-01 2.271064803856763237e-01
6.154624393756066153e-02 -4.415340501619990921e-01 -3.041795476437934020e-01
-1.209966810234708312e-01 -5.994046283041295498e-01 2.118417297392458931e-01
1.559676092836214945e-01 -3.325819838140682827e-01 -5.689929900514096861e-01
2.162279158026598688e-02 -2.232991277809383626e-02 -1.563852330719139871e-01
4.576630057894449238e-02 -1.063773578141378462e-01 -2.327145866399998875e-01
-8.847629385730224061e-02 2.833930914733596707e-01 1.857202058096753539e-01
-1.699234286314009815e-02 -1.663025373329315715e-01 -5.574034192867294984e-02
-1.494505215445218055e-02 -8.284646201294386669e-01 -1.126496810922071046e-01
-2.590765136360944076e-01 -7.844509011342875038e-01 5.971191976960643633e-01
6.512350872769212540e-02 -5.821052593674486478e-03 -2.809808127288339064e-01
4.888730681113892529e-02 -5.751895656734952178e-01 -2.778429672370814618e-01
-7.729098816370427727e-02 6.096514471688491144e-01 1.784776603315157140e-01
1.461289013580871765e-01 2.887956987240002382e-01 -4.926799942236865237e-01
-2.581990278058205468e-01 -7.601353967281955226e-01 5.964525070136182938e-01
-7.623905036639634647e-02 -5.764569159098632545e-01 8.410512882265692991e-02
4.438516181458878468e-02 1.847493955449817649e-01 -2.063019596904719366e-01
-1.619973765026716875e-02 1.466290803083178662e-01 -3.393836764235761555e-02
-1.611567599461588007e-01 9.210777225775397259e-01 4.451177092584037709e-01
-1.047406481105632725e-01 -2.702888509507943571e-01 1.901473540949460417e-01
-1.537784468091349908e-02 -9.123841809917715429e-01 -1.178591194269892339e-01
2.048982969970661594e-01 5.939232821152020669e-01 -6.392313190318451577e-01
-1.308085432579071117e-01 5.781981806383998945e-01 3.309056654728584346e-01
2.102198057514099161e-01 6.880255879555566834e-01 -6.473830324389477919e-01
1.167509419436970758e-01 4.504299925893655576e-01 -3.952309822214544743e-01
-3.648018982653015302e-02 -9.783621615881706035e-02 5.918403733095867029e-03
-9.306462547474646241e-02 -8.575018586350838801e-01 1.111488331499322357e-01
7.627255302712848684e-02 7.648889969533659849e-01 -2.538962316403519104e-01
2.223239676157979794e-01 7.152064158099599167e-01 -6.803128170136051311e-01
-1.771500871534803234e-01 -1.586421250377517411e-01 4.082564176145083712e-01
-2.257045232978486804e-01 -2.695630319735759506e-01 5.402050272755254401e-01
-1.686901464448606336e-01 -3.841558585200108289e-01 3.664138155957805676e-01
6.790668416023405707e-02 8.484781768222465770e-01 -2.232538282264264484e-01
-1.579004394908550268e-01 -8.230732360388445246e-01 3.013983684031537047e-01
1.021605936409105408e-01 -1.742966714083463986e-01 -4.011178224970520234e-01
-1.757310470979341899e-01 3.044318604286246344e-01 4.398066083018639105e-01
1.451987045543742250e-01 8.117997525693737559e-01 -4.497178883986278630e-01
1.276688514797724439e-01 3.540162256330153800e-01 -4.342450403294981776e-01
-8.339936879719449248e-02 -5.015521361728136895e-01 1.105906560813527256e-01
-1.062911390213046592e-01 -6.349094164784867544e-01 1.665582948210256042e-01
3.896285597901945341e-02 -2.852523102445566616e-01 -2.268023642055035094e-01
-1.142370910954649960e-01 9.646266580915979771e-02 2.458641407596517670e-01
-3.279382489291499808e-02 -8.250339310911957158e-01 -6.074115899340605529e-02
-5.490910441396135155e-02 -5.899602239978253282e-01 2.134846019820386964e-02
-4.715000068168389994e-04 3.629346704379318722e-01 -6.279183774392706197e-02
-1.094122818273695202e-01 4.924164417088107149e-01 2.623917711318238255e-01
-1.764326091692797194e-02 -6.543967760237535680e-01 -9.143957517423161041e-02
-2.104728706725430276e-01 -6.225948192367243283e-01 4.689501537119247221e-01
1.954569561345127771e-01 3.436181273919342027e-02 -6.549988705998861516e-01
-1.580280372374058828e-01 2.830192286083594855e-01 3.869352560612807079e-01
-4.896275020425164964e-02 -1.478715541333972816e-01 3.818329416379619146e-02
-1.410662684477658468e-01 1.461044295888029587e-01 3.273151231272812822e-01
-1.590551690050866496e-01 2.006447907021831623e-01 3.835644754815907831e-01
-2.487235739215417352e-01 -8.022094339959547904e-01 5.657961976351251199e-01
8.400039278635937356e-02 7.917389831421602908e-01 -2.741888625940493984e-01
2.084984128393732039e-01 2.293378272510759042e-01 -6.777206494582052043e-01
-2.224551155938241098e-01 -3.750839244421649843e-01 5.226780867098997918e-01
1.699470217228213065e-01 7.397482164911756142e-01 -5.268735489766638302e-01
5.693827511769015449e-03 -2.253838420276285115e-01 -1.259306122131348682e-01
-7.069855620592595258e-02 5.351426456143706378e-01 1.536657686514167065e-01
-2.120583289855269560e-01 -8.013429849575892661e-01 4.597742052530000567e-01
1.695358148235150131e-01 -3.831618130137482980e-01 -6.121463681765130227e-01
-2.086795770750204670e-01 -1.513006070963259231e-01 5.000504108477408227e-01
2.489300636539870139e-03 -4.131779913918923186e-01 -1.311184110373698197e-01
-2.021330332118377870e-01 5.337174397039873980e-02 4.968678818071496361e-01
-4.047102876763878504e-02 -4.114066134228877569e-01 -6.678856482376158490e-03
1.011544822137870059e-01 -6.390985603416985406e-01 -4.339958439727326645e-01
-1.261972597819414899e-01 -6.529829051326500045e-01 2.227638372815384238e-01
-2.345030727238004153e-01 -2.727010799814672537e-01 5.654214816498814855e-01
-1.999717572037123040e-02 2.591545300208744629e-01 -1.428639191171071632e-02
1.528593147457445456e-01 6.346813152846501882e-02 -5.295039771315734889e-01
-1.257566128557221774e-01 -6.388427673250807182e-01 2.225776239284891767e-01
2.021730971945747413e-01 2.612446905790610230e-01 -6.569619371787814854e-01
-1.312514696899159949e-01 4.766105679373818238e-01 3.243651318200024836e-01
1.080460513421734187e-01 -2.422934187166618236e-01 -4.233827064031672194e-01
1.000885615396918393e-01 6.070298872088242259e-01 -3.349613848576873387e-01
-2.701383576414938953e-02 2.666599050553243588e-02 -1.188542021688737856e-02
-1.945097132152207031e-01 -4.259823183332707708e-01 4.379006146511418285e-01
-4.249028932209718973e-02 3.836584610258165773e-01 6.038273779623356402e-02
1.943219562247793242e-01 2.238723794605156914e-01 -6.371227469270372978e-01
1.015782536371506173e-01 -1.479880512094310374e-01 -3.974071265192441471e-01
-7.287716220705307835e-02 -6.650244618981782097e-01 6.755811852454229882e-02
-2.780504124034374747e-01 -7.936093780113211427e-01 6.513138555971580423e-01
-2.772346744708420550e-03 -1.229884984108670087e-02 -8.502697082096016823e-02
-1.030338266112750117e-01 7.236491718795047268e-01 2.617407114908466004e-01
1.288927141763188122e-01 -3.611470177444427443e-01 -4.928528603709736444e-01
-2.851885322543764034e-01 -7.789043104752598756e-01 6.730998524978049069e-01
-1.570193892434536553e-01 -1.540394503891199807e-01 3.503638392353324860e-01
-1.838288984455493241e-02 -6.249719709725901629e-01 -8.703383083139493159e-02
1.392321157784711105e-01 1.160766386637780839e-01 -4.860236994484856132e-01
3.254274517158443208e-02 6.515962256188835289e-01 -1.360900277837873984e-01
-1.205324252160202697e-01 2.851894783430351521e-01 2.786110368216743738e-01
-2.940333009129308950e-01 -7.047758051738730600e-01 7.043994642837602127e-01
1.188525717195022674e-01 -3.081530004527775479e-01 -4.597218337998497106e-01
-1.785674085345195783e-02 5.320857133069537559e-01 5.357355677297583529e-04
2.945406275505593405e-02 5.299796784637502700e-01 -1.365174257708869909e-01
6.980741077716422216e-02 8.010400127618836352e-01 -2.324061451270708900e-01
-2.282265359489358547e-01 -1.388389320193263998e-01 5.575679078961988111e-01
