-1.050352213162378673e-01 -8.196087465660527593e-01 -3.580253868438810771e-01
-4.406170149500155397e-01 -2.650601994052164123e-01 -2.617062831221825814e-01
-4.696196602732297665e-01 9.350956942956899498e-01 2.657497477008518572e-01
3.817805711419563486e-01 5.638914262506451447e-01 4.880249810931838184e-01
-1.267261713191705774e-01 -3.197221556752282146e-01 -1.427274282326731203e-01
-2.667520168573027095e-01 -6.888700820887846410e-01 -3.731078691232585509e-01
3.935605041425136452e-01 -2.913918501946931652e-02 2.262270625355992937e-01
-3.363231922383184136e-01 -4.934960563035720726e-01 -3.169121180906866453e-01
4.300126907933414233e-01 9.362308135147080768e-02 2.982141024275093977e-01
-4.622584032316695568e-01 -6.146770830886369996e-01 -4.291256471621510138e-01
-2.463247944770996511e-01 9.157211097355379970e-01 3.591790792181180358e-01
-3.232201950323501105e-01 -7.390125957102273713e-01 -4.215338150734742051e-01
1.602082313019665138e-01 -3.280936079509301773e-01 -1.522529354526097264e-02
2.049772966199343849e-01 4.673530994144624584e-01 3.636417292338793850e-01
-6.272272557813725335e-02 4.257853251235250158e-01 2.224395196066746572e-01
-8.646490518693915328e-02 -8.153362336157668477e-02 -1.699292761134228724e-02
-4.668445002661475440e-01 8.354196456897682310e-01 2.221107979764666285e-01
4.575132689387894080e-01 -7.628480504574629562e-01 -7.508349638688537053e-02
2.074831207847226966e-01 -8.890313306168753371e-01 -2.463247928773620032e-01
4.504782513181482262e-02 3.559851967375856630e-01 2.402969234092998951e-01
2.026608926956511014e-01 -7.225653686453263613e-02 1.194632511822252274e-01
-2.337669678215872626e-01 -4.641474561883340844e-01 -2.567692764697414587e-01
2.962419270558668272e-01 5.091793931719351685e-01 4.242403820124346359e-01
-3.250836341510147942e-02 -6.178318106363680506e-01 -2.339343065604665428e-01
-2.548895492686572770e-02 8.790960499962792163e-01 4.437112699545380234e-01
7.686746735325755697e-02 -9.160055601295795658e-01 -3.182351947743376486e-01
4.830284779108953708e-01 -9.281163275307269256e-01 -1.378710511191874044e-01
1.897042558667080547e-01 8.164126489684411236e-01 5.139214618582521599e-01
2.293011202180672559e-02 -2.751633158871436002e-01 -5.418317986745005421e-02
3.771466853867658786e-01 -2.423380847850291897e-01 1.226618499771932186e-01
-1.789036303855557342e-01 7.200916681782383311e-01 3.018846113499648598e-01
4.725497361077085623e-01 7.117924055597173449e-01 5.961884320045849339e-01
-2.945645754959337961e-02 -7.197196967554324587e-01 -2.784431772527229398e-01
-2.929349968187210940e-01 -8.145762616174541115e-01 -4.417230649973249990e-01
-1.773379604919617103e-01 -1.017599785786794803e-01 -6.768067703937288848e-02
-2.893767594762661766e-01 7.271311631000082487e-01 2.545142418962137998e-01
2.740940088587884294e-01 -6.007424558304144124e-01 -8.596272918259036111e-02
4.538959819716252286e-01 1.680684886282483026e-01 3.426818676807662500e-01
-1.608585959682340139e-01 -1.413356120683043338e-01 -7.797191428152867865e-02
3.133692338562264479e-01 -6.959732101371565172e-01 -1.108999179198516399e-01
7.274800934455609436e-02 1.958879578512427444e-01 1.808387934170716527e-01
2.356076299246002148e-01 7.160417321915272248e-01 4.897008056192696523e-01
-3.621673407361230002e-01 9.732000387891809323e-02 -6.254640117924170628e-02
-2.573419712949817084e-01 -5.581536526225572281e-01 -3.099090248449687390e-01
8.026252382997504931e-02 -5.140777203081771107e-01 -1.355951466798204774e-01
2.903365442402329188e-01 -4.686135371001941552e-01 -1.900159755541874773e-02
-3.275121287495840749e-01 4.186313963207111688e-01 9.807393646430644096e-02
-4.219593087385443975e-02 -8.573228259557530428e-01 -3.462680223971975613e-01
2.163098866387471175e-01 -1.029005314194171294e-01 1.119012159672712337e-01
1.673406224412612164e-01 8.680318308852892628e-02 1.749677060127000916e-01
-3.719940462629210964e-01 2.563333903363935184e-01 4.600605524951905528e-03
3.170021275597074140e-01 -8.759262958588552583e-02 1.648653023474499768e-01
-2.840821714955448635e-02 1.872951897195602317e-02 5.474139463686478191e-02
1.614266438066407350e-01 2.190691789726285366e-01 2.318538865025487339e-01
2.809343637566113494e-01 -7.214019070051236326e-01 -1.371958112273228558e-01
-2.223376732752697371e-01 -5.127204979606092561e-01 -2.734246868947461384e-01
-3.387545792747326812e-01 -4.256455605685795507e-01 -2.874547513383003405e-01
-3.704276191593746104e-01 -1.764181118451419450e-01 -1.896570036592483688e-01
-2.878848620256113100e-01 8.584851293393847005e-01 3.143777350660993952e-01
-1.651961095702861315e-02 -7.796187475221681984e-01 -2.995117582209693152e-01
1.365942826674961807e-01 -8.185539169908527812e-01 -2.470034897551126318e-01
4.128705435284484304e-01 -2.294811904266440827e-01 1.447983014842373350e-01
8.416542146234077745e-03 -3.569525498201302494e-01 -9.767298133002345895e-02
-1.238745743313434539e-02 2.062798216719524957e-01 1.465709199286100439e-01
-3.244955224791265525e-02 -1.112145732707245371e-01 -5.653265959250131784e-03
-4.125941312006777273e-01 -6.965203489041745799e-01 -4.432781242616002371e-01
1.275020725334180816e-01 7.304465458803615086e-01 4.467320229725352809e-01
2.844799010701618003e-01 -1.566230616716942636e-01 1.188848759582533249e-01
-4.393995106103900650e-01 7.663973756306556862e-01 2.035693358083273674e-01
1.867130854814776364e-01 -4.032742051279306073e-01 -3.697147895482031515e-02
4.284852843343870954e-01 6.198801099057689168e-01 5.346180611406345928e-01
4.406737575552318598e-01 -6.511198969208391585e-01 -3.244903230663349208e-02
3.941761587791745014e-01 -8.144795797173288721e-01 -1.273228807664575080e-01
-5.156938683916009181e-01 3.442042578835060596e-01 -2.155292014871894660e-02
1.253967292117174614e-01 -8.259775963692320699e-01 -2.554711293629913782e-01
-4.743587240801281357e-01 4.787073108178270808e-01 5.795785508059254909e-02
-2.684510061446485074e-01 -3.495134707713171696e-01 -2.209895588330219596e-01
5.210307846072493448e-02 7.793227427829340082e-01 4.342575765311186275e-01
-5.253731877525698035e-01 -1.690106847672861179e-01 -2.572079557033611907e-01
-9.459926411371059884e-02 -6.587866936219807235e-01 -2.807932288722700398e-01
1.809071319374788711e-01 -4.357925176652326926e-01 -5.427871085710066212e-02
-3.020111237215299393e-01 7.587792564192625822e-01 2.629928672429153735e-01
-2.767646647656801795e-01 -5.168234538655657184e-01 -3.001738630606209379e-01
2.663019115638998180e-01 -1.036394993761513422e-01 1.344398666408383736e-01
1.388206890607023569e-01 7.273494964226024928e-01 4.505149821106380625e-01
-3.863358451800081861e-01 -6.625610353584060475e-01 -4.159646163191004220e-01
7.771210512813370164e-02 8.353452638953560161e-01 4.712145248840748923e-01
4.592457015000240839e-01 -8.935512449395194290e-01 -1.331786409176081154e-01
1.916602872069952113e-01 3.567916902887005581e-01 3.077361848158574609e-01
1.205087454296562832e-01 -4.865381996156801225e-01 -1.047745006264958201e-01
1.023078728492467920e-01 8.359777379688714261e-01 4.827521640727608920e-01
1.999713463399536428e-01 -8.658720160213032591e-01 -2.393271396621304836e-01
4.504398928017731008e-01 -8.382384220382342876e-01 -1.122863949341229156e-01
2.604059003380673754e-01 -1.147022244598512597e-02 1.732688696158133923e-01
-3.843399815057638724e-01 2.022831120096441060e-01 -2.539983018233380602e-02
1.378799746391574654e-01 6.564689961092032844e-01 4.181497078549630819e-01
-1.158198025557206079e-01 -3.961532548481378480e-01 -1.721734030662951664e-01
1.475207572925724131e-01 7.473298345543973875e-01 4.634973568744245598e-01
-5.061749982657758329e-01 -2.401795959858591401e-01 -2.804895277966244493e-01
-4.368364546702880880e-01 6.521633871214874700e-01 1.532743326424446384e-01
-4.026734943219416607e-01 -4.587459477050356838e-02 -1.455938463187663456e-01
4.711463498666602634e-01 5.143732917223947654e-01 5.066000758698827600e-01
-2.712435240089273170e-01 6.005337972774821287e-01 2.057724055396799034e-01
1.320651438899301533e-01 -7.530729663980576527e-01 -2.195734423941348989e-01
9.799780933273662120e-02 4.469609788778955428e-01 3.055105256758877119e-01
4.385143238059076021e-01 -4.280707067605148963e-01 6.705683316908098157e-02
4.364587141780245649e-01 -4.185233355728258386e-01 7.041790743763944038e-02
-2.972947272563903898e-01 -6.917892883240023272e-01 -3.883965398621679332e-01
-4.549667334846191902e-01 2.594555696454297067e-01 -3.195310991794084177e-02
-3.952143951562669955e-01 -1.148913984557940748e-01 -1.732764856772875950e-01
-2.247748912166048774e-01 -4.864458711632647647e-01 -2.627018099196959389e-01
9.993725567430543355e-02 1.831493811785598891e-01 1.875386942043040517e-01
1.752568779849996428e-01 -6.776154741009413618e-01 -1.658159822030250419e-01
4.493836268341443868e-02 -5.121244181952691044e-01 -1.508760670173294738e-01
1.376333777136426739e-01 -7.812580942094657921e-01 -2.297246323993673567e-01
4.440510540483209173e-02 6.125376252053957860e-01 3.555914271954915273e-01
-3.319194718717299319e-01 -1.776478768137674802e-01 -1.725934080753311062e-01
-2.605032715204316784e-01 -6.118100624621036765e-01 -3.355299906207023786e-01
-3.188390274472886476e-01 -4.665836153545332987e-01 -2.967877493630182717e-01
-2.286204096884915105e-01 6.266881940938776596e-01 2.370564299500889927e-01
2.138766409968943516e-01 -3.764943098834480639e-02 1.401865864511295523e-01
4.218474332366127788e-01 -3.271168287165127087e-01 1.049159703783312109e-01
-3.868684694435376992e-01 1.556749079056747864e-01 -4.755574370058252703e-02
-5.140786982411938988e-01 -7.333744874328900210e-01 -5.063122643507913523e-01
-9.281737668515133155e-02 5.778624598426711501e-01 2.771887474738927715e-01
1.249887671167380504e-01 -8.191835861972794897e-01 -2.525967630162970212e-01
7.711805376287395042e-02 2.758745541867941853e-01 2.188757133747641359e-01
9.026730234135203756e-02 -7.118732583722672813e-02 6.852437680725712021e-02
3.101567085800625567e-01 -8.237085649944074772e-01 -1.699202573099871105e-01
-3.277669354564806403e-02 3.123605244022920058e-01 1.850369343026461166e-01
-1.944039399725653317e-01 8.586213712751633587e-01 3.572070851108419265e-01
-5.037320965386699045e-01 -7.037818411094609594e-02 -2.028686206826220695e-01
3.353316043385026757e-01 5.603874484942081291e-02 2.379635996572784795e-01
-2.980698277842778188e-01 -7.332113186388586890e-01 -4.074136628494692824e-01
3.301416629548604709e-01 -8.394055628067959018e-01 -1.678492578226207788e-01
-5.182864733859983142e-01 -1.226413185098777781e-01 -2.330742392201469448e-01
3.697035640523150812e-01 5.072126232528382239e-01 4.569633112422111787e-01
1.713508782309523804e-02 -8.505389203791259289e-01 -3.160673405351036580e-01
2.319459083689788884e-02 -1.373096095102485925e-01 8.047192330767654472e-03
2.087676692930015843e-01 6.050213003819565616e-01 4.274016360229911937e-01
1.201694008742656139e-01 -1.135887366500999002e-01 6.310096291663772061e-02
-2.655661107159700274e-01 4.929099154552933904e-01 1.598803897416284370e-01
-3.084296674559652840e-01 -4.078406141582596178e-01 -2.655590207167238259e-01
-9.750092837727022954e-02 -7.810673106314384162e-01 -3.372137400877842639e-01
1.271035289590562722e-01 -2.412542578652419195e-02 1.065806547742706861e-01
-3.733342989033788251e-01 -1.996123060595482446e-01 -2.014368641187194997e-01
3.256067085379757975e-01 -6.315964439696244437e-01 -7.629655044744050596e-02
1.902199624704049297e-01 -7.965039679179274357e-01 -2.125349798636623211e-01
1.155797509308995608e-01 2.011485964075803434e-01 2.028046763028713839e-01
4.589337796841400641e-01 -9.651615185712903999e-01 -1.655850356729697270e-01
-3.508591426347471565e-01 1.615059040349163810e-01 -2.845417599537585635e-02
-5.066146343813898723e-01 5.216822649387174715e-02 -1.489746573484338477e-01
-2.255138372697843008e-01 -7.315534305573438700e-02 -7.683367919016251268e-02
1.783454077725709352e-01 -7.124182913736984979e-01 -1.800832190476020500e-01
-3.525425741662920887e-01 -4.121457903165293146e-01 -2.876805634284059776e-01
2.496065739695688124e-01 -7.035034684679832839e-01 -1.434643626236520031e-01
4.555402636896230817e-01 1.606068017037085849e-01 3.400723046673663763e-01
-4.825009702115398008e-02 5.104264842093063637e-01 2.671955123646331809e-01
-4.076912144919767611e-01 6.006419975221075624e-01 1.433956867307298044e-01
-1.974351873279819869e-01 -7.416784883035445475e-01 -3.651876812621753232e-01
-3.132018138494302439e-01 8.599311191414120703e-01 3.034465933359105083e-01
1.312794805978742541e-02 4.613855187110385558e-01 2.731810721414523746e-01
1.536922151050589269e-01 2.978714164417300969e-01 2.638193447863269037e-01
2.730005706325353554e-01 9.236070100809377903e-02 2.258115501812195391e-01
4.094500623406725492e-01 -8.597265496491351966e-01 -1.407208174484442520e-01
-3.515722071471027443e-01 4.009896758710934095e-01 7.911793768404770666e-02
-2.264969955140229696e-01 5.491486672449413797e-01 2.030928144411200953e-01
-3.506784880817179900e-02 -9.071382474162795750e-01 -3.654510066289511916e-01
3.524496486334320888e-01 -9.442107604449618830e-01 -2.048627620120514192e-01
-1.254954815502315191e-01 5.542021296570072419e-02 2.685433734842897907e-02
2.646923617330983469e-01 -5.568084936763397774e-01 -7.046977701832168872e-02
-2.627400795468415318e-01 -5.570233736551671866e-01 -3.118694429255459144e-01
-3.305056553008191983e-02 -2.338811746950968454e-02 3.364158511279549679e-02
-3.067199952181116213e-02 5.604246960495417040e-01 2.977640467488968934e-01
-3.293703514138503485e-01 4.464163537931266357e-02 -7.127562615118977762e-02
-2.339306862082929650e-01 2.778895721865077273e-01 7.747729147392795612e-02
3.946308311127310620e-01 -6.414006494436018668e-01 -4.913492678460875535e-02
-5.471382928222014164e-02 -4.793467465497307511e-01 -1.816995856239532747e-01
3.497894603976774430e-01 -1.878737449496396816e-01 1.346844544380507158e-01
4.915126940736560535e-01 7.096708016869444913e-02 3.161430865226745879e-01
3.376529133338543875e-01 6.170944462998386726e-01 4.918067507070397193e-01
4.072169735038745353e-01 -3.660266513817497791e-01 8.069181853665133297e-02
-4.529291309627938023e-01 -6.979039311527884815e-01 -4.623549454691382454e-01
4.419479552590166449e-02 7.320827081872125497e-01 4.093557127846779164e-01
-5.354970566682177857e-01 -6.079425859592535453e-01 -4.595984821454293101e-01
6.496880699724030817e-02 2.917128769721180626e-01 2.204532607554789414e-01
3.630428710365863343e-01 -8.939200437605462346e-01 -1.773580544838319339e-01
-1.392578138113878539e-01 2.067650044581641755e-01 8.874572486571581653e-02
-2.665623117460921843e-01 5.195733878609057887e-01 1.714377314660038010e-01
-4.079720427147228712e-01 5.098934174245872697e-01 1.023808389180354411e-01
-3.975473245147509438e-01 6.786699471565436903e-02 -9.200283395067539172e-02
-3.051086419153735685e-01 -8.309198544104225981e-01 -4.546560983384026478e-01
-3.894156144632919259e-01 6.102306272769832951e-01 1.560769750657469146e-01
-3.773280986479444765e-01 8.241063716731313882e-01 2.579678327599968513e-01
-4.835922858809572622e-01 3.318396379076138381e-01 -1.243711765388635405e-02
2.348757019743994423e-01 6.729043915660978259e-01 4.699306088903366652e-01
-1.372067597842133169e-01 -6.746782480867081766e-01 -3.074462298787769554e-01
3.988674064264925191e-03 -4.857070419628067293e-01 -1.577085135927987769e-01
-3.994049593013843102e-01 2.918180171511182142e-01 8.047422491981358686e-03
-3.823100571428987848e-01 -1.215212006801880545e-01 -1.703597173955901933e-01
2.461831000824061810e-01 2.496051787148328427e-01 2.843882270645076149e-01
1.567231443961285553e-01 -5.527545853003021925e-01 -1.180397376123513559e-01
4.956406496446934540e-01 1.390483842350447030e-01 3.487053734063963462e-01
8.057068623639053462e-02 -6.943856542806560173e-01 -2.166910954751536666e-01
2.369226019714699705e-01 -6.548689718784195257e-01 -1.273552849121157016e-01
3.913811058822136424e-01 -7.309553099795783604e-01 -9.097014398407708702e-02
-1.937478242222682168e-01 1.692061887241982920e-01 4.689432898061708654e-02
3.539758237059174584e-01 -7.589550434442493554e-01 -1.206983935367214600e-01
2.050798613478871935e-01 -2.622318904316615629e-01 3.497739356006839689e-02
3.060756272379340226e-01 -8.044650778494855103e-01 -1.631173042421498742e-01
-4.453800206533301553e-01 9.637129464136895418e-02 -1.010440350806493109e-01
-6.224107405505362178e-02 -3.344713694790567571e-01 -1.198703816803753514e-01
2.954966065995097146e-01 -8.975577555040273880e-01 -2.098997467966189912e-01
-9.095763869512862865e-02 -5.746557850838071024e-01 -2.412223627163104511e-01
-1.397262653506498031e-01 1.665245750128646618e-01 7.040126024633738822e-02
1.427533255129101800e-02 -4.583026602006226025e-01 -1.406553965256454319e-01
3.302157548563793843e-01 2.681640925964727806e-01 3.311952024378707615e-01
-7.614379018749665995e-02 -4.554297807054003555e-01 -1.807282125838338971e-01
-2.116436599025433574e-01 -7.075233983360915690e-01 -3.562997018236409019e-01
-1.556085046242264291e-01 -4.153374476169062746e-01 -1.990202760672273030e-01
-2.997965993485311731e-02 4.433418575497903857e-01 2.453296453030968660e-01
-4.116220948910421784e-01 2.160949363738532691e-01 -3.165867113426997642e-02
2.157857916463444270e-01 -5.143984874503948479e-01 -7.373712670811195802e-02
-3.642924213151341184e-01 9.361525225714582010e-01 3.144136101882465395e-01
-1.966603066873866268e-01 7.819927705386960914e-01 3.216501126879923733e-01
-3.400785527888112308e-02 -7.622903570650151339e-01 -2.997054843018811532e-01
-4.143455570158543488e-01 -1.130903225768418174e-01 -1.812176166053304227e-01
1.055758556198678894e-01 2.982192453883294458e-01 2.419625940459692315e-01
4.140382938318866168e-01 -5.448654223110908079e-01 3.237595345064482426e-03
-2.546548679560231010e-01 -6.435868436004049675e-01 -3.471712050052754295e-01
4.971523606028346171e-02 2.863404842415281926e-01 2.110541718815803769e-01
1.683129840758617879e-01 2.935185605287392308e-02 1.495281272178333454e-01
4.346789734146463968e-01 2.702529289468546050e-02 2.703436127150477541e-01
-3.824539996935730213e-01 7.608239635202935780e-01 2.271111021974110133e-01
1.655052363694846373e-01 -8.877789543532508265e-01 -2.649656222966026431e-01
2.378565204842577052e-01 6.800460987735582608e-01 4.745120118426616740e-01
1.069215065959259192e-01 3.630206332387354157e-02 1.245726188735328255e-01
-2.616357148367550178e-01 4.149614900096372516e-02 -4.170389231392864632e-02
-4.697364581044390364e-01 -1.223578910492061356e-01 -2.107346791328714164e-01
-1.383218811543523163e-01 7.805295210249862947e-01 3.476809595506183403e-01
-5.129223085420007294e-02 -2.719159058632157899e-01 -8.667714897733339030e-02
-1.997429763447098328e-01 -7.332959474482397821e-01 -3.624667893697000598e-01
-4.752470577652312400e-01 -5.701494911428119927e-01 -4.150063107106181648e-01
3.761671591686090999e-01 -9.789673671892038520e-01 -2.096713220144349188e-01
-4.010016575360087487e-01 3.433101950874999087e-02 -1.086926916409219068e-01
3.417599468678297198e-02 -1.356404239027821090e-01 1.382328099073300634e-02
-3.627802662198622574e-01 -1.711650746792733047e-01 -1.837915708448235041e-01
-4.789429811196622144e-01 -4.396352838604710156e-01 -3.578946199038385845e-01
-5.331782723162413751e-01 -6.705205038676618212e-01 -4.867318287646595354e-01
5.895496102977316327e-02 3.724832939737557913e-01 2.540926483311522488e-01
4.673518914409895419e-01 6.845379217596144761e-01 5.815310073426882553e-01
1.888964093438594838e-01 8.310881871481959893e-01 5.201638664278924740e-01
-1.837959517069865933e-01 3.299113846045269027e-01 1.238523664750663528e-01
3.073527011137393017e-01 -7.546807130823625087e-01 -1.401029136095288119e-01
-2.764374326170291329e-01 3.614785889257259854e-01 9.569091090223774687e-02
-5.292596427180148444e-01 2.237636747785775593e-01 -8.202329342396706691e-02
2.203025373382070662e-01 -4.148900784756531235e-01 -2.683762470113787782e-02
3.823956763604798303e-01 -1.328834540906921879e-01 1.743775834715785289e-01
-5.313678414116989046e-01 -4.690162308521800272e-01 -3.951166975315134056e-01
-4.646918367293179086e-01 4.032964487227951866e-01 2.840447486022502910e-02
3.363121296345312761e-01 5.162571666079198707e-01 4.457615496624862672e-01
1.349856987380183837e-01 4.726733772651514620e-01 3.340172674428111277e-01
1.752014423967394874e-01 7.242301809197515539e-01 4.657539562781644049e-01
-4.795042661911947945e-01 -6.452572224738098994e-01 -4.507934568213460835e-01
1.575796304276505522e-01 3.280163141267075644e-01 2.791795048549965408e-01
3.532782755569820882e-02 -1.973539438521199618e-01 -1.345450084633231964e-02
-1.599396313723838378e-02 -2.465425669622318128e-01 -5.909617891376139215e-02
2.009239779551164062e-01 3.390806858095820608e-01 3.039947534451563627e-01
-4.874296273881847386e-01 9.250363619661131631e-01 2.530694156971700082e-01
3.447468507500571211e-01 4.541459663772049460e-01 4.216365507928416245e-01
1.157636490805170199e-01 2.084231107605678465e-02 1.216526188063224850e-01
4.044178737441883054e-01 3.571737562091296669e-01 4.052459315692947261e-01
-4.661323454205340555e-01 7.234690613273691007e-01 1.719977762915265440e-01
-3.257641364221872116e-01 5.728597379166404380e-02 -6.392891541156627000e-02
1.874407414967965702e-01 -7.469749819055143680e-01 -1.914914231920163967e-01
-3.458033595598082321e-01 5.663109881932447687e-01 1.562419920125015516e-01
-5.350946373863874062e-01 -5.533290773861694323e-01 -4.348085009739888207e-01
-1.879339148397988490e-01 -4.237526694221648293e-01 -2.176007457335734085e-01
4.758228377204043458e-01 -2.135055196344314288e-01 1.807970429001164170e-01
1.973220130371076686e-01 -3.295562743876754852e-01 1.095440444063159983e-03
2.742020689245254217e-01 -6.244831611613370637e-01 -9.660955997097336878e-02
4.025320890054533418e-01 3.742186780241684718e-01 4.120626894911217364e-01
-3.011781658747136881e-01 -8.610095242786547365e-01 -4.664146532456006078e-01
8.188029330434336284e-02 5.751270297825532563e-01 3.558813273308972791e-01
-1.659169726308256376e-01 -5.904766422038912888e-01 -2.826446313649326747e-01
-2.290285890980774952e-01 3.774310859204463853e-01 1.245680087906789052e-01
3.338269191646706796e-02 -5.238147543733164824e-01 -1.614298701700185024e-01
1.288224310732166977e-01 3.894510778677469642e-01 2.937021077464653795e-01
-7.001149383324228176e-03 5.658839433671594144e-01 3.110532128737601432e-01
1.418605714748775726e-01 -2.291364784270735477e-01 2.096525759723534901e-02
-3.417979139634728103e-01 2.251101791225610382e-01 4.348001400123281505e-03
-2.879943268759448949e-01 -6.833008832011387979e-01 -3.803171493874243358e-01
1.272964073768666493e-01 -8.461098815345206858e-02 7.941739751662162117e-02
-5.063289371986466891e-01 4.125294175259026641e-01 1.351517605325458331e-02
-4.364711542194926741e-01 8.541399122946418121e-01 2.444410809145544372e-01
4.857814405864195328e-01 -6.302879300627270420e-02 2.531497684113600544e-01
2.225474940253943934e-01 -4.935115810215020549e-01 -6.123311325108683062e-02
-2.533435212494098976e-01 3.372427541827832664e-01 9.533713816126744567e-02
-4.167015043511608230e-01 -7.628806307341663429e-01 -4.750555957058354983e-01
2.819821278215418614e-01 -3.654345234555202993e-01 2.366306105819682148e-02
-4.710761293822897100e-01 5.624767133170210931e-01 9.720158804095885285e-02
-4.602664401865961263e-01 -4.381386914226995666e-01 -3.486757304781006872e-01
-3.031451351359644164e-01 -6.119450567858816248e-01 -3.550996673083496868e-01
-3.453498382104142617e-01 8.505310725264959570e-01 2.845035701217952240e-01
4.316902730914509712e-01 6.718624186040490776e-02 2.870706043246244454e-01
-4.499961982552050377e-01 -5.876303995847175221e-01 -4.113298675247358815e-01
-3.943895823627289188e-01 -2.060408102936888697e-01 -2.139660904125851304e-01
-4.483748487110105208e-01 1.796328541279780255e-01 -6.490105931594555844e-02
3.324422145137422291e-01 4.183235330218679771e-01 3.998674837408592864e-01
-5.291308802152780988e-01 -7.525548834070288073e-01 -5.218403510231188758e-01
1.875368603491883723e-01 7.421202358181007153e-01 4.794577530673910792e-01
2.044434618557148045e-02 3.911417000554151535e-01 2.448803202616900987e-01
1.485921505294284795e-01 2.666678959260460613e-01 2.474274341221100182e-01
1.609461248040980688e-02 6.588296077086571723e-01 3.634958879321458225e-01
-4.973269269392714409e-01 -1.936066560631047040e-01 -2.554582629134692917e-01
2.448511101199035700e-02 1.272921233272655550e-01 1.278527407182575848e-01
-5.064928946234682483e-01 8.325995273628473692e-01 2.027008770943183880e-01
-1.688403203173642342e-01 3.549479926786962974e-02 -1.953438900858242219e-03
-1.711729141348881933e-01 -2.408732734625855798e-01 -1.275370128416828397e-01
-5.144845990599272723e-01 5.942709507026975105e-03 -1.734019039314279031e-01
-3.802273968426983508e-02 -5.348995265153227985e-02 1.780454433317826476e-02
2.711423015313157436e-01 -8.785489459133365431e-01 -2.124776230169804492e-01
-1.479489192255568353e-01 -6.261250638581398187e-01 -2.904853985998380184e-01
3.930894672608891555e-02 -6.351572643728864431e-01 -2.088834511109763925e-01
2.607004013972739065e-01 4.261479636887091083e-01 3.705705250182941835e-01
-1.036170904175549162e-01 -2.004381400462604546e-01 -7.841203308113763037e-02
3.969560683366785137e-01 -4.415184429761483398e-01 4.198491594979709279e-02
1.099453327634384962e-02 -3.759427301645582586e-01 -1.050494790772898562e-01
-4.796293947946088099e-01 -7.859070684819602359e-01 -5.142198638602493155e-01
-4.893850782340550265e-01 -1.634791048309963135e-01 -2.382509956382784511e-01
2.831149685977151775e-01 -3.285226387845576190e-01 4.081182593035963257e-02
4.857761580128176493e-01 1.632797204886067555e-01 3.551096418799272736e-01
-9.387406426960462347e-02 -5.259984199526095416e-01 -2.206342826988958450e-01
3.430612552947689409e-01 4.880666544104325481e-03 2.184509080103353706e-01
-1.461628950586332798e-01 -9.975210150846057847e-03 -1.206471860733343733e-02
1.134523303354436768e-01 7.949136686128662754e-01 4.693495733308455375e-01
-2.033030712235554260e-01 -5.361427039972568864e-02 -5.786800495830222990e-02
-3.587200666475772737e-01 4.650944928347438001e-01 1.047298969859766504e-01
7.046126701217850230e-02 2.684302294668476363e-01 2.124761944840152239e-01
4.442396623695711311e-01 -8.424670749279581372e-01 -1.170282305508573567e-01
1.904566643090366274e-01 5.734079384473977914e-01 4.047810050108661684e-01
3.781356298294920593e-01 3.389187660841121996e-01 3.849969755725003440e-01
-3.901246294285176108e-01 -1.558464391573999852e-01 -1.894000043482265971e-01
1.734208271179732419e-01 -2.525929846503397608e-02 1.272601778998778410e-01
-4.579229013246126634e-01 6.098369454004413104e-01 1.245571935907056754e-01
4.270623476598090495e-01 4.338710974040987933e-01 4.501615307993694359e-01
-4.126622286784309424e-01 2.876633524145201237e-01 1.102929954498121598e-04
-3.466418832788805693e-01 5.004700284537696442e-01 1.261940129933460109e-01
2.897065467921906556e-01 6.400139134065948587e-01 4.801973233366375049e-01
-4.003304467094641050e-01 -6.942888574055269268e-01 -4.366620416954814510e-01
1.985498946515589225e-01 3.782600446100750635e-01 3.205606842009890989e-01
1.597537979644382544e-01 1.762390511395202711e-02 1.403282828970506269e-01
-3.536937901558123709e-01 3.740030463983591291e-01 6.598859794623375408e-02
-2.680098146786505375e-01 -7.500721844337445710e-01 -4.012576515538683330e-01
5.916565274421156650e-02 -3.205906662431994292e-01 -5.807233735659253493e-02
1.145355162287646777e-01 1.818786618236813424e-01 1.936449509705200633e-01
2.193546071377901474e-01 -2.436943337206803201e-02 1.486760256679363901e-01
-4.301058148345540122e-01 5.615567496438038653e-01 1.155312164577101952e-01
-5.330878901448320162e-02 7.387727311042799894e-01 3.677615186520443169e-01
-1.917978126502718483e-01 -4.011161981147055577e-01 -2.091697363016060962e-01
-3.288727283764390497e-01 8.049412141685948763e-01 2.715016191878942831e-01
-4.367007618819098713e-01 8.158538882578185714e-01 2.270864371360593326e-01
-2.549037948833336453e-01 2.115014361549446276e-01 3.797111615286179881e-02
2.812143006103483556e-01 -6.242970487064246621e-01 -9.331757845789716288e-02
2.773923266387424147e-01 5.797762455327943876e-01 4.474236967004481258e-01
-5.187855795489494382e-01 -4.641788252878299020e-02 -1.989604539275643957e-01
-1.133377937881685921e-01 7.994226882482309282e-01 3.676235305887804450e-01
3.739523019992339048e-01 1.865387259364233441e-01 3.144289364751328142e-01
2.105462059885314929e-01 -4.756719391626216820e-01 -5.868618867505621256e-02
-5.018405592979381380e-01 5.233337642880193652e-01 6.549103399365019396e-02
4.825706924149642668e-02 7.482904535092499421e-01 4.185165496338248969e-01
-3.921173245747873182e-01 6.729617913524617023e-01 1.831041757034231054e-01
-5.327106886832269073e-01 -7.143501060954130510e-01 -5.062651386080050386e-01
5.346066398344717641e-02 8.137930941722662515e-02 1.204233808357562246e-01
-4.727567849171210312e-01 -5.224616540053595992e-01 -3.923814569352151449e-01
-3.545745598400509152e-02 -1.479910667153716275e-01 -2.359888114920216315e-02
-3.375424126353231413e-01 -5.464533065681299595e-01 -3.413295698750535290e-01
-2.059483662734415965e-01 -5.796716248492949086e-01 -2.960910321992605843e-01
-4.739277176154246263e-01 3.477394897825846209e-01 -8.519243966058106902e-04
2.952287710330641149e-02 -6.030774814650484428e-02 4.563525824155107574e-02
-4.550582361702441569e-01 -6.010753511971850260e-01 -4.197033368846670998e-01
-5.372623298682799309e-02 7.890245121274637174e-01 3.902112516096192252e-01
1.506406319804991234e-01 -2.503766197270711480e-01 1.541252625150700203e-02
4.331564224905518068e-02 3.442189003702202932e-01 2.342031892035502660e-01
2.646767401985469781e-01 -5.613686159580404400e-01 -7.253146667748659737e-02
-2.547046640989925614e-01 -5.449080155195109576e-01 -3.027346815940362701e-01
-1.200323578378398870e-01 8.288320233840210660e-01 3.778109802976430398e-01
2.037357054431494958e-03 1.783077746009022468e-01 1.405676603143940218e-01
4.307439564133225818e-01 -1.310001489205381460e-02 2.504650454436621598e-01
4.639286107959493810e-01 -9.323953270704020690e-01 -1.485372153844637111e-01
3.096980265626468332e-01 7.536792184002956141e-01 5.405549161407695591e-01
5.452637205277571786e-02 1.188300532488856531e-01 1.377842127637632086e-01
5.858982600990843281e-02 1.649256111486823995e-01 1.604114100846837088e-01
-1.619440259250522485e-01 4.051533314811612829e-01 1.677496497494232741e-01
4.581251951208458739e-01 4.856044428449118877e-01 4.876811591805954582e-01
2.956153936201991739e-01 -4.452977570862337586e-01 -6.081678255841434927e-03
-4.390446661191527711e-01 -2.252775834027837820e-01 -2.430630460393813641e-01
2.035019320596142267e-01 5.355391337409767250e-01 3.936876562343653574e-01
-2.775021619260885641e-01 1.065171174543425164e-01 -1.966796037513816181e-02
3.384531122179821327e-01 -8.432297838857817363e-01 -1.657697159503593587e-01
4.538813055652848871e-01 -4.769159804857571183e-01 5.208028049827233968e-02
-8.965260697275785617e-02 3.539011100163552692e-01 1.777318585224633707e-01
-1.642495685843848863e-01 7.536270419223788375e-01 3.236981272862139991e-01
7.759075168819667967e-02 3.676088644388428861e-01 2.604224588095360171e-01
-1.061435625750215411e-01 -8.812847799415257644e-01 -3.863203196953008400e-01
2.141545080968611237e-01 7.372118779164756885e-01 4.894240148870704354e-01
1.448845429314898625e-01 -1.469979893427202366e-01 5.935586843667276652e-02
-3.391312966961423370e-01 2.647199584451671028e-01 2.341400070743226633e-02
-1.502838356026215128e-01 -7.886899941726416285e-01 -3.647965374465129140e-01
4.595381231112307674e-01 -5.204087276807753959e-01 3.507283840400741287e-02
7.316744514373541008e-02 1.236587565789378923e-01 1.484881431672946395e-01
2.416087337908112143e-01 -1.455962452621462344e-01 1.042391957404276148e-01
-2.400258837142957846e-01 5.759043457279883205e-01 2.089579351606187796e-01
9.555759504555946804e-02 6.920974453876171939e-01 4.148392564568226248e-01
1.619264797729256036e-02 -6.601413792560861804e-01 -2.307157492368700769e-01
1.959125521210857562e-02 4.478208044783952846e-01 2.700265445016967747e-01
-3.242134411380508396e-01 -1.798145122516241201e-02 -9.713086720389484119e-02
1.812579416795446763e-01 6.298717945859825251e-01 4.260120838859864922e-01
1.928108024579536228e-01 -2.507208941679477388e-01 3.455046868107485708e-02
-2.311578388550277752e-01 2.401594271301564498e-01 6.174673395070418014e-02
2.257479351086591202e-01 -5.491327687244026423e-01 -8.482877398690018278e-02
1.631806178868122070e-01 -3.267136224836791891e-01 -1.324366624231331120e-02
2.132920562942252907e-01 1.754352541211168792e-01 2.359234896042257945e-01
-4.997839833118180586e-01 8.809387875616007113e-01 2.275492738009532445e-01
1.675865687447729291e-01 8.389380991727489745e-01 5.139512557219821920e-01
6.049724791413788050e-02 4.665591652938051725e-02 1.079981818580884323e-01
2.563193573266667746e-01 -3.287060388138350886e-01 2.847007615085407270e-02
3.413652499868595203e-01 -1.131870201430438538e-01 1.644801084521655132e-01
-2.485884157096396041e-01 3.280357324188190038e-01 9.336443903634038255e-02
-9.846043221052354355e-02 -4.966559843481726522e-01 -2.095124645194932633e-01
-5.012139196489665549e-01 2.490930731856969005e-01 -5.778019425537938430e-02
3.723477121375778354e-01 -1.688786792454155250e-01 1.535631040347822385e-01
3.570421264490757918e-01 -1.775921602771868835e-01 1.426349057485440663e-01
4.207608838204951462e-01 2.830325967585720082e-01 3.793189681342281627e-01
1.936028191892528172e-01 -5.061420208251625752e-01 -8.016602803550493261e-02
-4.077545327695019095e-01 -7.224651964581314534e-01 -4.527533201605576929e-01
4.729143461479751731e-01 1.374203363535165257e-01 3.375744716659389022e-01
-1.113537623470047394e-01 -5.752302809616441914e-01 -2.508125229340115725e-01
3.828314641709449906e-01 7.184632593333278860e-01 5.581474188775720213e-01
-3.948799511566323805e-01 -4.937432952324763424e-01 -3.438135064468038071e-01
-2.652443596025715888e-01 -4.168351093515259564e-01 -2.498539664412947059e-01
4.465052118485969279e-01 -9.486571186804095834e-01 -1.638351809456017605e-01
5.273876153971529535e-02 -8.550198038017705615e-01 -3.017973323394589902e-01
-5.268952853851827101e-01 -6.616536618883006593e-01 -4.798624162712571972e-01
-1.173000754105489249e-02 -1.161366998971194858e-01 1.608382204266974643e-03
2.043602010396893265e-01 4.231537327824194672e-01 3.434455777855966452e-01
6.948755174637503973e-02 -4.957919129268459346e-02 6.875299052660106824e-02
4.446366572975837816e-01 -7.190119068301535910e-01 -6.122442873126703738e-02
4.980606701606334341e-01 5.750505558821028540e-01 5.462513759669429536e-01
-4.074261339025487261e-01 3.391963892252694013e-01 2.572381091781661758e-02
-2.248152308286313072e-01 -4.794186941072854924e-01 -2.595542022385174952e-01
3.616039775231821157e-02 -8.138745526082041826e-01 -2.908442034836576373e-01
4.224664274765478900e-01 -6.815282197192679137e-01 -5.447930655385918586e-02
2.328394115538351128e-01 -4.686797216515288800e-01 -4.533662862476194044e-02
-4.828634157613258537e-01 5.443048270798623856e-01 8.362158620460870273e-02
3.565663582682346289e-01 -1.793772273684982321e-01 1.416129855334109788e-01
4.888881673169901410e-01 4.306628676081388774e-01 4.770016840005938397e-01
-4.793265736344372585e-01 -3.287070356424990902e-01 -3.080918883735074831e-01
4.385861660709469145e-01 2.480391313663718178e-01 3.717079700357799332e-01
-3.039426508150603889e-01 2.257852212609579579e-01 2.197110171929740619e-02
-4.175206745793426100e-01 -1.714113967604046218e-01 -2.089465475711239084e-01
-5.303532848808527600e-01 -5.237759909932382385e-01 -4.193242985141632517e-01
-5.039991241928248877e-01 3.781757582164764209e-01 -8.968112159373013139e-04
4.004365388482022392e-01 -6.665344564100055269e-01 -5.780271236238586352e-02
-2.334699751721803218e-01 6.443807533120492481e-01 2.428090342124540613e-01
2.237359064119658902e-01 4.498701939081798384e-01 3.643470374994232097e-01
-1.734214931571915197e-01 2.315524296171410645e-01 8.428354265883397645e-02
-5.141474029397208323e-01 6.290247701965228089e-01 1.074792052356776245e-01
-5.266491733863726266e-01 -5.646189354057337129e-01 -4.360312561105959550e-01
-4.564561570452482231e-01 -8.053172126292427180e-01 -5.123631510531300171e-01
3.994794056418764228e-02 -8.806136522776505382e-01 -3.191803879780173436e-01
-1.338818413228765603e-01 -7.098544335812627670e-01 -3.217735371650085052e-01
-5.182090482028978151e-01 5.696556994257639950e-01 7.887251344404093423e-02
-4.080038469815199242e-01 -2.396823687459317398e-01 -2.353517352341241431e-01
-4.727213590197256732e-01 3.582236650701673408e-01 4.423588766930270158e-03
-3.774791553898432239e-01 2.140896770588659459e-01 -1.694157440804421044e-02
1.362877927272301004e-01 6.684760173156585328e-01 4.228309868431264773e-01
-2.015629757426653512e-01 2.680710700889729070e-01 8.786199081654226528e-02
4.486765102466899191e-01 5.635224643910812653e-02 2.899606804224978962e-01
4.496469786882782982e-01 -4.687437347896811213e-01 5.382502460350896412e-02
3.756559970565682693e-01 -2.618579257725904275e-01 1.131852757703709356e-01
2.476044068926970820e-01 -5.517628710003030096e-02 1.477205531447873255e-01
1.875033637504141260e-01 -7.949486417660186488e-01 -2.130770914571454566e-01
-4.885291726903763787e-01 -5.747899492226365981e-01 -4.231736791853683566e-01
2.409978634221005833e-01 3.814121558661348055e-01 3.414010016362225008e-01
-3.537358011004339969e-02 7.005333795694911325e-01 3.587383930126686882e-01
2.854611968500096464e-01 1.768392898899059651e-01 2.695737970113405435e-01
-4.404606436126592417e-01 8.297023128002642967e-01 2.316056191889531435e-01
-3.882419502195799677e-01 -2.564977523828509964e-02 -1.298791440565911504e-01
3.833016139750634599e-01 6.987692829810469852e-02 2.661448391883164954e-01
-1.970166717276007617e-01 5.671071020968527776e-01 2.246712955493161690e-01
8.042252448043893387e-03 -4.069743447064262942e-01 -1.203813169837929797e-01
-3.285017217537221628e-03 5.911224509777361913e-01 3.241244579421770911e-01
-2.745925342656233004e-02 7.976922711733330784e-01 4.061337399365710366e-01
-5.268153098168930626e-01 7.684057891326210310e-01 1.644810732699203693e-01
-3.112883137103610726e-02 -2.499861499341987092e-01 -6.757194411141678736e-02
-1.111472403287159239e-01 -5.680858504982870816e-01 -2.474991468826466257e-01
-3.371723634715488305e-01 2.855663292988268598e-01 3.370246129060721491e-02
4.277187458214696258e-01 5.245602272332865468e-01 4.913214185940452117e-01
8.032351850366724333e-02 -6.007076730788013519e-01 -1.745979797380070864e-01
-8.503052720697708289e-02 8.651718097297859122e-01 4.101972129134161538e-01
9.467481379919391593e-02 -7.686214274742200203e-01 -2.436849861176519916e-01
-2.731561809190396484e-01 -6.155096376189197471e-01 -3.429855839719205268e-01
-3.597914547620812420e-01 -4.151748374062936286e-01 -2.923616844501654710e-01
3.101946902852935062e-01 -2.165164598896536507e-02 1.914602831163608465e-01
-3.815133875414720155e-01 4.534075182153892158e-01 8.903632993939132600e-02
-3.482784519298502690e-02 6.152984766021180052e-01 3.205858643832512622e-01
1.691380226266174236e-01 -5.924164174111856696e-01 -1.302293330863024401e-01
4.152269558946419803e-01 -1.018047821068470554e-01 2.034004070433442501e-01
-5.084166253617949938e-01 -3.030695912923000446e-01 -3.098498894410798288e-01
-3.733281582535115106e-01 1.760777562420710526e-02 -1.035665168430281863e-01
1.150342977413187362e-01 -5.821058451571780035e-01 -1.503366624868804347e-01
-4.879197303571782829e-01 6.096906362760464715e-01 1.107675825877055403e-01
3.106786609030124935e-01 2.533123275956823406e-01 3.155654925422896051e-01
-2.712403584726859607e-01 1.587877929360655138e-02 -5.763985403785674283e-02
4.880926522443769788e-01 5.740055626091316032e-01 5.412201432650107780e-01
1.287624101043198781e-03 -8.034742018566362609e-02 2.368871082234457262e-02
-3.579976042268862013e-01 7.052458828426675375e-01 2.132595634573152543e-01
-2.471799486399806345e-01 7.103990670284263675e-01 2.662809125538683208e-01
9.189162624332805618e-02 -5.903868019798450550e-01 -1.646554929877194484e-01
2.131921076210155364e-02 5.793858249116040637e-01 3.300931249004271373e-01
-1.709578493734567328e-01 7.731598511022055309e-01 3.294294768514510197e-01
-1.254976595403214656e-01 8.290778273965898615e-01 3.754213246518867675e-01
-4.957660410165881659e-01 7.132991368907459773e-01 1.538582054416500200e-01
-1.290526400574109125e-02 7.763600454201265988e-01 4.031811203167170454e-01
-2.959919479149637489e-01 3.527399585713468788e-01 8.280747617793331183e-02
2.482560504902182885e-01 -4.333116932841726276e-01 -2.234853566140227246e-02
-3.400871295626836099e-01 7.454999789689572554e-01 2.395899941500288788e-01
4.801416269876299450e-03 5.029370144361370309e-01 2.880924850781648727e-01
-3.384699927188185020e-01 7.116756180326611059e-02 -6.348761765632229825e-02
7.295723776302313890e-02 6.045100178406782598e-01 3.650373610155462911e-01
-3.684482006363725692e-01 6.724712686628092628e-01 1.937119097729162187e-01
3.545498831174753729e-01 -7.940368265354516564e-02 1.857330727348145416e-01
-1.136150181651730123e-01 8.634209249673346909e-01 3.963308189136012794e-01
1.439750640973397056e-01 -4.719512882471340043e-01 -8.746648034072196376e-02
3.298547367182387280e-01 -5.711338006982469989e-02 1.844777219988533723e-01
2.923667370265580212e-01 -1.794607112677915972e-03 1.922504098343053025e-01
-5.115021587156449723e-01 -8.471644648098849290e-03 -1.785317461796639416e-01
-1.740786829872265629e-01 -7.068682711997741341e-01 -3.388183814532611526e-01
4.530865205544356566e-01 -2.321386794805556930e-01 1.619999825917211866e-01
1.911649770961043326e-01 7.864652083273634270e-03 1.503020590033952442e-01
-4.600915982598057785e-01 -3.929916909168457151e-01 -3.282549599710009036e-01
-1.677575897075186950e-01 -8.347034307687605237e-01 -3.935220115371727556e-01
-3.739411831850398826e-01 7.957737514537438495e-01 2.467522271748247842e-01
2.095389899580164250e-01 4.044126347774004149e-01 3.373711803432124512e-01
-1.528962020589031690e-01 2.775685290360963009e-01 1.144063091735459808e-01
3.457427685932874528e-01 7.305708847135004014e-01 5.466342006461624159e-01
5.467221082316853914e-02 -2.221316843134842622e-01 -1.576785374428332082e-02
2.429182696176607203e-01 -1.668825099721880645e-01 9.524788309477995318e-02
-4.866861094350600769e-01 3.620581136576592196e-01 -2.377573363374109461e-04
-4.921885297432471162e-01 7.082006413409878132e-01 1.531978294749153091e-01
-3.043088092082569737e-02 3.779432126856780982e-01 2.156581421201896609e-01
-1.912186242723227791e-01 3.776930454539872972e-01 1.419842723884234825e-01
-3.784236174584227896e-01 1.489327126047731709e-01 -4.672984970467143617e-02
4.151897725039979115e-01 -3.382641159597182118e-02 2.340107467704194699e-01
-2.502892323665300081e-02 3.554571136631938244e-01 2.079985519638428426e-01
-4.553082298663548300e-01 -4.463120576192232125e-01 -3.500897992985326779e-01
4.492003715338098169e-01 2.150616104496684833e-01 3.617061447612605618e-01
-1.237145474892571706e-01 6.015117954760837993e-01 2.737082473207413935e-01
-2.155717774090499042e-02 1.240078762409179136e-01 1.053084715722388404e-01
-2.166358666766786401e-01 -1.149115299829349957e-01 -9.158502895647223363e-02
-1.192233810986408626e-01 2.241924180726538041e-01 1.057634165937047649e-01
2.261757421454205774e-01 -5.544282758109433384e-01 -8.701891730405160452e-02
1.000002817606195082e-01 2.475750494760344533e-01 2.165942261249543255e-01
-7.938532979012097313e-02 4.559387785331776577e-01 2.284018026548413072e-01
-3.168321324860106647e-01 2.315139450816634525e-01 1.865515343357762590e-02
1.929231676482186519e-01 -9.108878263684093701e-01 -2.628333873189994119e-01
-2.386731473580583907e-01 -3.098038218692030221e-01 -1.894750416762883416e-01
-1.969209643968933554e-01 -2.877696585156245823e-01 -1.604458252982858268e-01
-4.397470224361164637e-01 9.125114952109542044e-02 -1.007737701028837696e-01
2.491586086113584120e-01 5.910756798145875290e-01 4.395975459610707570e-01
-1.697607242971517771e-01 -1.657531135204616257e-01 -9.304587662334017073e-02
2.215726399124974266e-01 5.617864299693876573e-01 4.137806932210710831e-01
3.978234469601675816e-01 1.131055788220775155e-01 2.922651223837161027e-01
-3.002866540014216823e-01 -4.684058899812308385e-01 -2.891209678906785374e-01
2.144271267856616148e-01 5.978372347838283307e-01 4.267541160894887664e-01
1.015214160374181829e-01 -3.817921670261870681e-01 -6.626843692681012865e-02
-4.661779927953563774e-01 -5.606903352902594673e-01 -4.065953898806785038e-01
6.701403467371422340e-02 -4.252497521304847705e-01 -1.016353490982332408e-01
4.152408884539376399e-01 7.268292699796521372e-01 5.767441535117797669e-01
-4.925990189569744993e-01 5.231259014136805385e-01 6.962543100346149649e-02
-1.977914525209580610e-01 -5.388277584701337553e-01 -2.739571837007646615e-01
-7.499703529289110382e-02 -7.269366002731303400e-01 -3.025297520190370903e-01
4.314434034043320709e-01 -3.223366780287025835e-01 1.114598479597052605e-01
-1.557883858403096566e-01 1.080312629470482760e-01 3.669886308531541963e-02
3.602760282072369202e-01 9.131566383790386265e-02 2.652696506597264081e-01
-8.680218566175469663e-02 -5.982034879360723645e-01 -2.499305355496687364e-01
-1.786111887953909239e-01 -2.647083229079975619e-01 -1.416788340106689970e-01
-1.899962947194553942e-01 8.568224294517710060e-01 3.584130985903151156e-01
4.784881905991359985e-01 3.880534798577791600e-01 4.530461757468784989e-01
-1.682636136558504636e-01 -7.214766120471117761e-01 -3.427396822933733711e-01
8.204529384903418154e-02 2.945977056145563377e-01 2.295655814455219712e-01
9.936492780966198288e-04 -1.168479506553934399e-01 7.109064915786959295e-03
-1.954974902703562056e-01 -4.506093964596573076e-01 -2.331612959484469505e-01
2.947249081237391377e-01 -6.397365389450337947e-02 1.653147924435974803e-01
-2.478834500787917838e-01 8.417186432451567724e-01 3.251245060096253914e-01
-3.949898417079257262e-01 5.691039057146084490e-01 1.349972787994697110e-01
-4.690260331759218970e-01 7.199783935483009545e-01 1.691011955864572536e-01
-4.059525539407986550e-01 4.644027079485529286e-01 8.280912861064691766e-02
-3.466846766979398420e-01 -6.151188014506738799e-01 -3.764491313277325002e-01
-7.519257652916318257e-02 7.962084910413252947e-01 3.836270068725684546e-01
-2.876002096727092172e-01 -6.420171161327565823e-01 -3.615366219731400155e-01
-1.811490121516331486e-01 4.733949841776036727e-01 1.897092490451549873e-01
9.695051929558456960e-02 -3.634820280768460421e-01 -6.011009259812257616e-02
3.737226602754575855e-01 -7.447359134211732901e-01 -1.052577562602235173e-01
4.443162011029630487e-01 7.284657374891889692e-01 5.907835505892534700e-01
3.815258513340849533e-01 -2.336543775780375864e-01 1.285777447535420281e-01
-2.171738427566540508e-01 3.917714290503863661e-01 1.364525892421213082e-01
-2.510521053941488501e-01 -1.195025205945344782e-01 -1.093990723268523507e-01
3.493530991332208235e-01 1.620323827152347906e-02 2.264307906540083959e-01
2.052882238705845130e-01 6.200594733708941764e-01 4.325851548721988404e-01
2.105140450574088384e-01 -3.202310526696313664e-01 1.133229490040294114e-02
-8.902664998020203002e-02 4.448280587919291595e-01 2.189849676017758262e-01
2.755111901374428518e-01 2.484965133772173707e-01 2.973064636614948242e-01
8.084187351503555052e-02 -8.851767796143767963e-01 -3.025271156270547546e-01
-4.009951524025381214e-02 7.260387958991001423e-01 3.680676066368667176e-01
6.194141628386498621e-02 4.157423815827160918e-01 2.749491545939616310e-01
-6.817774755984613855e-02 -3.039322986823777550e-01 -1.088271960816822731e-01
4.306826992199851434e-01 -1.061030893622453286e-01 2.085349000490498428e-01
-2.455844175510502048e-02 8.648221631804996479e-01 4.377059481893576520e-01
4.549878478351437883e-01 5.848298598219724143e-02 2.938081426011451280e-01
3.989231756944135454e-01 5.152831158795035532e-02 2.650248907094612250e-01
5.171676399829922693e-02 5.434075680465168257e-02 1.074434391403418093e-01
-4.849902226164350405e-01 -7.941600233055463587e-01 -5.203908000543179257e-01
-1.943241660688890260e-01 4.781017248542566156e-01 1.858021544045031226e-01
-4.298910425080025299e-01 -7.783497732983132300e-01 -4.880594253119284187e-01
4.948447331381496395e-01 3.255991406870395455e-01 4.323908481724896280e-01
