1.234876345784202516e-02 3.935687605099474906e-01 7.126415576574265387e-01
-3.677063664948684862e-02 5.499884901546934352e-03 8.031110972836859041e-01
-3.286165207963278601e-01 4.174871578300697883e-01 6.018731621659000330e-01
-4.706245503874014607e-02 -1.735550693652086751e-01 8.486370325627324851e-01
-1.172401512779829534e-02 1.363114594780872046e-01 7.752113264109342650e-01
-4.328697794246441077e-01 2.401562851022932561e-03 6.828269193315390506e-01
-5.151184307521333716e-01 -2.104385325224365083e-02 6.640486816947718252e-01
-6.405652793745242324e-02 2.449634036273689031e-01 7.296728876840263833e-01
-2.908995069735637595e-01 5.429368591200328664e-02 7.121351502980921566e-01
1.635863245764875018e-01 1.032408811515802549e-01 8.378106079749962909e-01
-6.931007391593135836e-01 3.872227227230510271e-01 4.986414339015377006e-01
1.661029823307627606e-01 2.629632345912413793e-01 7.951622932460935544e-01
-6.044452979920292846e-01 -9.030297088169221553e-02 6.555596422871450280e-01
-2.950738816270349618e-01 2.656044902009985775e-01 6.534172549855900014e-01
-4.237234508159948287e-01 -1.417361450913501297e-01 7.248053238634744044e-01
-2.311604735937341226e-01 5.347446459649024542e-01 5.998005198040590180e-01
-2.112503446914916830e-02 3.643865714278744505e-01 7.103380302526998147e-01
-2.796988242731576202e-01 -2.091918148212914275e-01 7.871845141393405410e-01
3.530707431490065495e-02 -2.981315551516559512e-02 8.347516030684496435e-01
-7.446344892158491824e-01 2.338678808107115537e-01 5.245695062401177777e-01
-8.048249201041755008e-01 5.250755508912832159e-01 4.270033480354156197e-01
1.029768863905846654e-01 -2.394815668169273659e-01 9.124398314189891002e-01
-5.697926849626221424e-01 -2.294355903349982184e-01 7.039772714781113994e-01
-4.723895241042755933e-01 2.177522282059101977e-01 6.122023033619350407e-01
-4.685523898715408808e-02 2.900248919897255861e-01 7.226837838183503004e-01
-2.740695751769710656e-02 4.258367353973763758e-01 6.917128094844589015e-01
-6.978151638771474818e-01 2.048630447083047215e-02 5.968910562790653573e-01
-5.062279789402004404e-01 3.996277923959399847e-01 5.524146732562534856e-01
-1.483277416701492268e-01 4.244264023056732449e-01 6.551188269369174755e-01
-2.182221723686737502e-01 6.286891753226384605e-01 5.782197483859736753e-01
1.173119427322845965e-01 -5.216772464049582170e-02 8.659052677134800868e-01
-2.606007223449739452e-01 7.251162413194948142e-01 5.390483463814530474e-01
-6.598886411695690235e-01 2.332901753392933597e-01 5.506416740390746023e-01
-1.147684679052901058e-01 -1.600892162254697881e-01 8.242721840149846990e-01
3.398337295768825705e-01 -5.093655130971834477e-02 9.336173559402355382e-01
1.088878309667389195e-02 6.979925420127263136e-01 6.294424823826654247e-01
6.573356265311211533e-02 4.560932076977745608e-01 7.119702870364388314e-01
-9.387454393441119205e-02 8.044493954814885273e-01 5.684674943180456630e-01
-9.723892611263568186e-02 7.068183227401058089e-01 5.939780793765458977e-01
-6.486254696684534693e-01 2.807531818602919671e-01 5.411838911751634118e-01
-8.131178854970269043e-01 4.737031877281742132e-01 4.384321091234725798e-01
1.694973313168425810e-01 1.435430622246589294e-01 8.286626957874023702e-01
-5.420884256362993314e-01 -5.247705837729805811e-01 7.927311620140142789e-01
-3.964425929992575481e-01 1.915557009619240081e-01 6.425478350136807348e-01
-2.553354137654013645e-01 -3.182117768525866142e-01 8.242700912759760579e-01
1.437312735459452262e-01 5.354683407028352216e-01 7.142450178010139039e-01
-6.254930579599121687e-02 1.216511816392512740e-01 7.636542001317795370e-01
-5.089778310937427275e-01 4.405739705217334157e-01 5.404432259389475579e-01
1.594852677761295634e-01 -2.451237386335368695e-01 9.312537248352472652e-01
-5.013054866473937166e-01 -3.594539041053392281e-01 7.602638814161133407e-01
7.930066625997932162e-02 2.834008409260575512e-01 7.630626726483793476e-01
-9.560925849398481738e-03 8.552234568152751459e-02 7.896789834450873569e-01
-6.082848080753676667e-01 2.581059311960594571e-01 5.596762769284602257e-01
-1.384185705940268463e-01 5.767952079628551054e-01 6.167300709465080022e-01
-5.137840929878437768e-01 -2.108682154116145180e-01 7.160573616714689393e-01
9.684105560938516266e-02 -2.391180512247003120e-01 9.104646896366888065e-01
-2.591862600186725651e-02 2.386392435694875414e-01 7.430545088249000951e-01
-2.287953081155076063e-01 -3.058513406238500543e-01 8.290260258702341067e-01
-5.244865329350488770e-01 5.746243616329298476e-01 4.992612908693556117e-01
-3.576312533989336462e-01 6.230128391894569351e-01 5.371317208915845631e-01
-1.160168426456169299e-01 1.443370722310875209e-01 7.411371358844979218e-01
-2.492764173906092048e-02 7.052586161675475362e-02 7.890564177625603026e-01
-3.602438745348220811e-02 -2.188044900162348372e-01 8.643127672202777223e-01
-1.284560428252345399e-01 -3.616118527964561902e-01 8.748671742687447184e-01
-3.505380544971486434e-01 5.886803270635924124e-01 5.486335391260359629e-01
-5.836921571253870233e-01 3.616300082485265910e-01 5.390553416671535203e-01
-4.045284960135151486e-01 5.322001358257636427e-01 5.474765734908834114e-01
-6.585812872950129737e-01 4.025141433674977454e-01 5.050406981498370973e-01
-4.170088755350766924e-02 7.494333474066391387e-01 5.993773157070863000e-01
-1.890115017191283942e-01 6.178792459323739772e-01 5.900908211201191245e-01
1.016301419726322458e-01 7.617899700154520115e-01 6.398487416058509236e-01
-1.410019573472041099e-01 -2.249508213786981931e-02 7.788473197198811926e-01
1.609431925121456164e-01 1.800166954546365272e-01 8.161320960740696684e-01
-4.816868991827480406e-01 4.753670984824682200e-01 5.393308022489129439e-01
-3.890036361214597171e-01 6.889234106911799049e-01 5.096213939579889995e-01
1.459284970086606181e-01 6.116532553735691824e-01 6.942073043025718260e-01
-5.448383793042450574e-01 2.864428238529406756e-01 5.713751609609192261e-01
-5.159338405772889713e-02 7.167533802532376486e-01 6.052357215438903815e-01
4.398704557706052155e-03 1.771099210619815345e-01 7.690512319668333374e-01
-5.786266780010914657e-01 -2.449830613773519850e-01 7.055021774833315495e-01
-5.368607388349244669e-01 -3.979467469054316919e-01 7.598547976632471501e-01
-1.158755207265580942e-02 -2.149830710850703791e-02 8.181510553241162498e-01
-5.836798617034413134e-02 5.447167496568960932e-01 6.499293989705937635e-01
-7.264262506195557911e-01 3.819995800679649722e-01 4.898703781173132654e-01
-4.247007729199451243e-01 2.516620816461199173e-01 6.175675998511438447e-01
-4.835961495328734427e-01 2.396892841414943465e-01 6.028121083083185505e-01
-2.975861811976476257e-01 6.552905338101867594e-01 5.467192337682086345e-01
2.979659231942336992e-02 2.674828035576075000e-02 8.176912082017698813e-01
-7.234800144249746712e-01 4.202898158345623192e-01 4.803627587833423362e-01
-1.865007336035933994e-01 -7.109985175335636898e-02 7.781462857602792216e-01
-5.396976758967062526e-01 -6.137366256628860178e-02 6.674953904118768877e-01
1.231871989992630173e-01 6.813433466442084807e-01 6.683089470552640021e-01
9.681188400016520201e-02 3.621132633634053244e-01 7.470208895150604045e-01
3.634427325632275663e-01 -1.771187345584560868e-01 9.751375051847575026e-01
-2.508561637701741971e-03 4.012085995543232531e-01 7.060214493060581464e-01
-4.283293189071961660e-01 1.620773510686016605e-01 6.408101378430862693e-01
8.265729180425866740e-02 5.633034809348557159e-01 6.880021772500205524e-01
-9.267351431920811677e-02 8.059802794173230867e-01 5.684186213071621419e-01
-7.604574698803530097e-01 2.770486022692492112e-01 5.079928957342596529e-01
-3.061251488077205707e-01 7.396675846874186666e-01 5.211715143642845494e-01
-4.129550028549237584e-01 5.960913711151154953e-02 6.733658807100776356e-01
-1.673741083838199695e-01 5.307773602123727619e-01 6.203847172670384769e-01
9.844394157321328942e-02 7.525245784537353266e-01 6.413930520983952555e-01
4.781539597035896344e-02 -1.453687000604260149e-01 8.699885063360215387e-01
1.226393601912754427e-01 2.281299577180365412e-01 7.913400511523357439e-01
2.155381739639597449e-02 2.080746548249794714e-01 7.658799792401469464e-01
1.105947531275773138e-01 6.953213616232685190e-01 6.606585054466572737e-01
-3.887731265803434089e-01 -2.115301859900932668e-01 7.544654363925303864e-01
-6.269850903508626949e-01 -1.356559997025187647e-02 6.278072176307594177e-01
5.424334739896989888e-01 -4.363874066238671023e-01 1.974845877237985659e-01
-3.381674198028174205e-02 -5.191923492619110458e-01 4.503051658235074917e-01
5.756274302596819936e-01 -6.561381834875347208e-01 -4.326994283509416062e-01
3.053131772732179533e-02 -7.338410242168520448e-01 -1.918324733895210854e-01
-1.968288588409373430e-01 -4.629600386962862690e-01 7.402370550388445158e-01
4.345474400919626112e-01 -2.109361367803046228e-01 9.054980141661780335e-01
2.222885665417744655e-02 -3.726471061423090592e-01 8.054511555258953015e-01
-8.926550979113431761e-02 -6.883332130628881940e-01 3.270647361584505530e-02
6.696362665703601280e-01 -4.746610651703911388e-01 -1.338602999144711606e-02
3.791175662762729104e-01 -4.897274264993479176e-01 1.872293700121555882e-01
4.745576607017028548e-01 -2.676728001527332035e-01 7.166117475322102415e-01
3.985519037635844031e-01 -5.496343768269623675e-01 6.784734612036410865e-03
-2.602477105028823054e-02 -5.180868692663334052e-01 4.468476377251813791e-01
2.952974132484341152e-01 -5.765297649692303628e-01 1.902344048528541165e-02
6.667092263428363585e-01 -5.127315415577233804e-01 -1.153352974540523684e-01
2.288431346608432726e-01 -3.342480371216795532e-01 7.386830151661899491e-01
-2.466649343431293884e-01 -7.224208352357377461e-01 7.031316889831260020e-02
7.578712760599325415e-01 -4.987614280760689911e-01 -1.529444000429598105e-01
6.011045566581791899e-01 -6.012967972458418409e-01 -3.035437800089960114e-01
3.389747180557944328e-01 -2.769387939122392450e-01 8.041102628694478671e-01
1.398202793048184678e-01 -7.166089460502718111e-01 -2.355924780923430439e-01
1.544202501924430981e-01 -2.949906031294476927e-01 9.082991713758262753e-01
-1.872891765092737082e-01 -4.327640460299597702e-01 8.150884011880241697e-01
2.378701805974387518e-01 -2.887470791195808628e-01 8.559264568776696613e-01
7.900729526705974060e-01 -4.945082893888280706e-01 -1.680981796541731188e-01
5.105117025729511981e-01 -5.763737843241063530e-01 -1.597662879227417232e-01
1.292164366053289160e-01 -3.148649756685668599e-01 8.747931643669919488e-01
-2.377250917774280936e-01 -7.378368159190319409e-01 2.059901002745427590e-02
-1.683655663004692549e-01 -7.066195055716386619e-01 4.843640176004528758e-02
4.255888049552122299e-01 -3.742809900902246967e-01 4.650774345706425450e-01
1.838811628033003853e-01 -6.182066410469992945e-01 -2.471097237521931601e-03
2.855922047844374756e-01 -6.957056131691874423e-01 -2.996669463751776008e-01
-4.205547860477572564e-01 -6.495445296819928327e-01 4.149401102592270574e-01
3.732202945779835579e-01 -7.307889703543886117e-01 -4.688345546444311895e-01
1.136829702688257754e-01 -4.665703924041922357e-01 4.717622712537134499e-01
5.687670906391439907e-01 -3.373831557964929173e-01 4.470186576954455759e-01
6.386203402501772208e-01 -5.755503230567041717e-01 -2.641895209677270762e-01
-1.454546306702307057e-01 -5.698246107140297889e-01 4.044401204002039396e-01
5.920171562210155836e-01 -5.522506505135669208e-01 -1.614950520858971506e-01
2.812374122907717044e-01 -7.594983526422858233e-01 -4.709560129967651498e-01
1.035406523486412239e-01 -3.420379123953086742e-01 8.216680054804279543e-01
-4.102322776297653156e-02 -3.852739283975574192e-01 8.235017462338581895e-01
-3.086890571102020031e-01 -5.862364576876382127e-01 4.953716585600775879e-01
-4.199828839869448882e-01 -5.003883431893981770e-01 8.234402665709127378e-01
-8.629076139934351020e-02 -6.335736350332616951e-01 1.803764258899109574e-01
3.599086216415220418e-01 -3.516555353143066553e-01 5.818094117486271033e-01
-5.247202030988926125e-02 -4.788532895729472050e-01 5.764471856001568417e-01
4.623912438303237060e-01 -3.614765636294562379e-01 4.695394846705149283e-01
7.769738975404680836e-01 -5.095797859976571864e-01 -1.985151276417040922e-01
3.526606878361815411e-01 -2.973820181896183468e-01 7.366594473430716494e-01
5.490729140200266700e-01 -4.814170300659758595e-01 6.848741417159309730e-02
3.450969354038234127e-01 -2.704756496059042004e-01 8.167335656687159107e-01
5.448014621699156373e-02 -5.333084003632043713e-01 3.380715897749354548e-01
1.364667482469308080e-01 -3.711756385602425490e-01 7.143554296503512591e-01
4.738652228976078518e-01 -4.621834891466248818e-01 1.838529189018096310e-01
3.957507520316493055e-02 -5.444772389153502701e-01 3.198594127228173711e-01
1.625937610896399654e-01 -3.122788987641167968e-01 8.540894032688584048e-01
1.360036649768827655e-01 -4.523170127083930292e-01 4.922567741963731480e-01
-7.278736310342905080e-02 -7.410417906456935322e-01 -1.255389631116405891e-01
-9.893990182552281354e-02 -6.646880076669550164e-01 1.055963108417087570e-01
8.499239518411917660e-02 -6.207536516915297398e-01 7.289374046480545655e-02
-1.922259406966042306e-01 -8.276648763628231542e-01 -2.635925281291132127e-01
2.408311524383658364e-01 -4.097541489625123878e-01 5.216673540256612229e-01
2.887675786518359433e-01 -5.758037741076260652e-01 2.645170993737607640e-02
-3.704815365425022655e-01 -6.609644162857324368e-01 3.419295687500002456e-01
1.125930534528957194e-01 -5.318865723706699411e-01 2.935772409280652528e-01
1.420464737696295054e-01 -5.332261767964500132e-01 2.653771107558793863e-01
4.250513407144864697e-01 -5.924688069138180913e-01 -1.327315657129125304e-01
-7.401169041317184893e-02 -8.734884950960276617e-01 -4.876795242279184373e-01
-2.644179338816538549e-01 -7.152803486902915564e-01 1.046755329923416827e-01
-4.203791237220860788e-02 -3.622116336614134013e-01 8.875820014510021894e-01
4.802356970877693088e-01 -4.757960753305137680e-01 1.412231627801306399e-01
1.787157497696675867e-01 -7.028968071629003722e-01 -2.303844903925708898e-01
-3.366564265686989854e-01 -6.920734663778308482e-01 2.284631086114703169e-01
-2.485151515154532254e-02 -6.662297387972023754e-01 3.967266774273831009e-02
-1.939682051724224421e-01 -7.468377861907866677e-01 -4.051913861129648881e-02
2.297314673636363103e-01 -3.303712121472359708e-01 7.485732632870530923e-01
-1.826395412490351977e-01 -6.876820642136945994e-01 1.122481151461595245e-01
2.556015940039704226e-01 -5.990783798266179350e-01 -9.747098129706994324e-03
5.826559727368668673e-01 -4.637676181006406551e-01 8.891499887615228470e-02
-3.261652958397840418e-01 -6.120694893765937783e-01 4.390923461182794085e-01
4.085246787668144197e-01 -3.218778653851239735e-01 6.229733079176337229e-01
4.929238204027170944e-01 -3.308314896527477234e-01 5.281405720379657165e-01
4.987983274056608796e-01 -5.330056895025446773e-01 -3.109965031900106813e-02
-4.819943486290892976e-01 -5.414682668276588062e-01 7.624412215437349483e-01
5.745209855670353472e-01 -5.923979922598846537e-01 -2.570066581951979123e-01
5.318206777043551492e-01 -6.647932045489338693e-01 -4.199513152552386552e-01
1.895366145990901863e-01 -4.180193318183473283e-01 5.417197514913497658e-01
8.525325936936991589e-01 -5.510873978758287217e-01 -3.752469579757767848e-01
4.243639959293885600e-01 -3.905770287675611740e-01 4.214147206801346912e-01
4.482509573018001459e-01 -6.674751360990704985e-01 -3.577131958622328245e-01
3.744365733237570160e-02 -6.482240753269056244e-01 3.716736228070891684e-02
-3.062053102527390602e-01 -6.877885168350834633e-01 2.148543127830434551e-01
-3.730978818031023825e-01 -6.706498566453701349e-01 3.175514654192981845e-01
-3.488369261408917343e-01 -5.309595188138244160e-01 6.803700823933652719e-01
-3.280980655039756333e-01 -4.772298813913400384e-01 8.104231295401603807e-01
3.078370566779018436e-01 -5.482162327525450518e-01 8.621501875439445406e-02
4.249336385531173217e-03 -8.089080173635352367e-01 -3.757751642016564642e-01
2.680045828252052842e-01 -6.181550728111960824e-01 -7.238258641405509453e-02
-2.394663916366727152e-01 -5.845212766775732538e-01 4.424301309416963091e-01
4.037843580617041517e-01 -3.417451735636827248e-01 5.724459142422652080e-01
1.434164321538549114e-01 -5.884942079650484770e-01 1.126950051010274650e-01
-6.025970014388859312e-03 -6.419545940627642278e-01 9.055673655606290284e-02
4.919611740833303992e-01 -3.901736825423583466e-01 3.662298361421132964e-01
1.324057693678904468e-01 -5.528858900135136256e-01 2.194996712928477534e-01
-1.728521718978325572e-01 -5.430807813376978821e-01 5.005849442417869000e-01
-2.313228451999829183e-01 -6.336399446113706313e-01 3.009685390879113798e-01
-2.987172820044618482e-01 -6.320068318396602214e-01 3.615684288434300453e-01
6.048657687044106668e-02 -6.682391242375561591e-01 -3.690132537702489612e-02
4.595833336954349702e-01 -4.583928279331581646e-01 2.061397530936043831e-01
4.365041636109497913e-01 -5.675723709644495685e-01 -7.400440120976131686e-02
5.873551700871243453e-01 -3.986621694290873874e-01 2.635166278364407533e-01
3.446993509769497588e-01 -3.868002589028665672e-01 4.981102621596972257e-01
-3.607228946177820639e-01 -6.271377865024699849e-01 4.265535455500547024e-01
3.270280814535782565e-01 -4.737749933728276908e-01 2.743468529888651308e-01
4.327729651930221633e-01 -2.386059571253658085e-01 8.311068713631155624e-01
2.518471496984557856e-01 -6.221635815557721161e-01 -6.991872128141758680e-02
5.088161729038007675e-01 -2.720918916608170424e-01 6.759664780769272241e-01
-2.062905135830038206e-01 -7.838165083399828426e-01 -1.316510781959736309e-01
-4.505740949244372434e-02 -5.442785525642742650e-01 3.908810016388791220e-01
-6.597129941114265872e-02 -6.106785337086244603e-01 2.262324635028303554e-01
2.004625815930276833e-01 -7.454907049066032965e-01 -3.652835854185523257e-01
-2.759996547817118451e-01 -7.101545669843716269e-01 1.283746427835319726e-01
6.509804101848444269e-01 -5.964585185836406289e-01 -3.318111278831842870e-01
-2.086482525137623445e-01 -7.347679526166961406e-01 4.800200771788776244e-03
7.417532914970517144e-01 -5.112650128702860286e-01 -1.738063221475068254e-01
4.588549065529314297e-01 -2.150870476755114835e-01 8.738747060274125733e-01
2.171803369717098531e-01 -7.647648560150315244e-01 -4.320535669146147173e-01
6.368864258129899314e-01 -4.102253425054053770e-01 1.905645438647775580e-01
5.407981714058069933e-01 -6.055854773487622245e-01 -2.650835545470342502e-01
3.076374562422284908e-01 -3.124501368678115898e-01 7.328362808029639242e-01
1.325951156835551148e-01 -4.676069022163543698e-01 4.531713413538525637e-01
1.670972712327560006e-01 -3.425971806033659695e-01 7.672084286916680540e-01
6.044850362099402075e-01 -4.585046262741658274e-01 8.516785339054298853e-02
1.811241277025209817e-01 -7.534294200561743038e-01 -3.709471250918243701e-01
1.837259681716076620e-01 -5.949673234738390715e-01 6.137881173095053461e-02
5.607876188109818250e-01 -6.386241313113711904e-01 -3.723193596472294531e-01
-7.123876369863010871e-02 -4.743576381174108847e-01 6.044017711849313246e-01
-8.183612738023742644e-03 -8.597211575293776109e-01 -5.047480284252497951e-01
3.099692973117083028e-01 -3.312230608345853589e-01 6.794203485640974982e-01
4.661798137396823694e-01 -2.610737518532316725e-01 7.416824648719949620e-01
2.510589629923452581e-01 -2.605587317291631066e-01 9.222342230407678532e-01
4.132306746832258848e-01 -5.208649115495973536e-01 7.344511545749599080e-02
-1.054466343761119307e-02 -6.540162267583699007e-01 6.124743120295994547e-02
2.176332803511201175e-01 -7.896264065786581243e-01 -5.005994785986348505e-01
5.562340717471235818e-01 -5.015176448688937194e-01 7.409479211896913275e-03
-4.732002336835129663e-02 -6.429299006465198918e-01 1.222696953821131860e-01
-2.786171113207497885e-01 -7.180530577463525299e-01 1.088971625082044148e-01
3.406990804757389912e-01 -4.755040782647746433e-01 2.582214370853390117e-01
-1.164022348566950138e-01 -6.606773589981551620e-01 1.311348169602967462e-01
3.037464112922311221e-01 -4.362107816321717513e-01 3.967330018879369202e-01
3.728441823766796559e-01 -5.736961833008205058e-01 -3.778331551147084966e-02
1.326141373369164600e-01 -4.129129804075045707e-01 6.031226187065784616e-01
4.620317877464438228e-01 -2.412516759420747781e-01 7.994875111102591747e-01
8.428531621104541627e-02 -3.184681261983607348e-01 9.023294778423347484e-01
-1.054356145022016800e-01 -5.085386476634962127e-01 5.391567677750039866e-01
2.153984177571709180e-01 -7.544749639055123858e-01 -4.023554887531493596e-01
-4.891059025656925852e-01 -5.960100833577924861e-01 6.188132378490660557e-01
2.984973915896119712e-01 -3.859934618700860964e-01 5.387966379754590696e-01
-3.801109499891974774e-01 -6.362366830863255274e-01 4.177501701982209159e-01
3.073487774565193953e-01 -3.258791404794980640e-01 6.962552349748168945e-01
-1.782218725555702599e-01 -8.520166925471235331e-01 -3.420253372784133328e-01
2.275171856788355540e-01 -5.792210530128286683e-01 6.808737228741407188e-02
-1.090876911983812425e-01 -4.560621710870844669e-01 6.860850251274558387e-01
-3.892118696063197325e-02 -6.648159426703112995e-01 5.526557323352035422e-02
-2.364262602811783576e-01 -7.062156791363947139e-01 1.062204882546528284e-01
4.430322123590852978e-01 -6.305566207280743907e-01 -2.521392131308017315e-01
4.990945044826046173e-01 -2.734070671880842185e-01 6.804559700124700461e-01
4.107852415378002164e-01 -2.725832472662165773e-01 7.562534319417416606e-01
-2.791264236653648867e-01 -6.642678807246422679e-01 2.567966862712353082e-01
7.328467015454110944e-01 -5.187019802473900043e-01 -1.867811266645489909e-01
3.231877895390024014e-01 -3.346816500428330676e-01 6.589295664083886228e-01
-2.456804115154789525e-01 -5.891025209677513974e-01 4.350433211461255389e-01
8.363459472890154289e-03 -4.703134928335793163e-01 5.492026430276714111e-01
1.767487625722832523e-01 -6.461120953965643343e-01 -7.304657740374290165e-02
-5.197768842836476139e-03 -5.727248573991987612e-01 2.796904215219995771e-01
3.224620016663788391e-01 -4.383834849268745670e-01 3.751903837055303170e-01
2.304731579576701217e-01 -3.676843595124433262e-01 6.456454452475395289e-01
1.824125740280413133e-01 -6.730027933289340902e-01 -1.514955721406583411e-01
-6.214927209233141875e-02 -8.205633741932035763e-01 -3.524406449848414002e-01
3.315615321182573405e-01 -2.553031928519106653e-01 8.696069024785583190e-01
-8.240811777642612079e-02 -7.526247442723358327e-01 -1.492870747093112127e-01
5.614297628924731498e-01 -2.953293205802722254e-01 5.684375752752498512e-01
1.014503360998372239e-01 -3.571488989595504870e-01 7.819753680935845885e-01
1.856623801175523725e-01 -7.619769448172900583e-01 -3.981630544240670755e-01
-3.658454103871315588e-02 -8.397644159681404430e-01 -4.263773906907195044e-01
5.002264328759896683e-01 -2.873212711448540624e-01 6.413615413553878097e-01
-2.311576295884722188e-01 -6.131257134154889377e-01 3.570796231508949758e-01
6.465704465326308492e-01 -6.228150800528536868e-01 -4.004067263675101795e-01
3.724994322000952374e-01 -4.813391767220611128e-01 2.157405772649949594e-01
-1.486531747110964863e-01 -4.581002093906813566e-01 7.134445956384258825e-01
-3.769534621577770861e-01 -4.920637421734144756e-01 8.104334774752633974e-01
3.841411136183406350e-01 -4.994574811257360691e-01 1.563668977701991314e-01
5.079389935768463538e-01 -4.907672424926226573e-01 7.710358591214241941e-02
-4.118408289461881755e-01 -6.124848005788051664e-01 5.092989818408093505e-01
5.507341943331185430e-01 -3.835071374918792020e-01 3.355664525945230015e-01
3.261260896514826119e-02 -7.384951310541096881e-01 -2.063268998299310764e-01
-4.429819349689444880e-02 -5.899095306808664896e-01 2.651316475321199295e-01
8.592829263705917264e-02 -7.421899383183732102e-01 -2.608558872103206583e-01
-2.466568043512389896e-01 -7.935266089517768462e-01 -1.246609315354461067e-01
1.100056053818328494e-01 -7.188959917193800120e-01 -2.170355525897662563e-01
5.154158182759063789e-02 -5.624592798329470789e-01 2.605888639520124728e-01
2.146079070057931582e-01 -5.686831788816207878e-01 1.077315913368080552e-01
6.784969415134095572e-01 -6.290079738951329658e-01 -4.439736819363490627e-01
-7.973865380926645208e-02 -7.211321633007679033e-01 -6.515946767060193379e-02
4.002384202424034143e-01 -5.290073375015795776e-01 6.193828394423360473e-02
-1.405667293457159017e-01 -6.925359990283214140e-01 6.390325889138145921e-02
-1.087934499533164956e-01 -4.136064722969150509e-01 8.022507179144102718e-01
-2.044915485181788284e-01 -5.809976003004293510e-01 4.229668889064961412e-01
-1.408363745070314310e-01 -6.887664651827627438e-01 7.446361561618969338e-02
-1.111843579045749680e-01 -4.208833502119515013e-01 7.842890030327211992e-01
-1.230766647624643162e-01 -5.013944110964557721e-01 5.734361896060889974e-01
4.863155859582136697e-01 -6.076833148680569341e-01 -2.254658910957858531e-01
1.084689775599408795e-01 -4.303112564947187413e-01 5.755243217251443388e-01
-1.598040956917315403e-01 -7.733741794722190921e-01 -1.417299743469107032e-01
-8.881670800751853556e-02 -5.455402289284169148e-01 4.238616602241218057e-01
3.753010837901574748e-01 -2.705980990828884547e-01 7.912456330539168192e-01
7.319167084257677258e-01 -5.981823825239528380e-01 -4.039366928386359246e-01
2.375698626122466628e-01 -7.818582342295392618e-01 -4.959016410658268481e-01
1.979788314371293823e-01 -7.501087264976096236e-01 -3.758775786925523388e-01
-2.260374539625216450e-01 -5.109344095366452621e-01 6.330176499106169308e-01
3.050153262472188875e-01 -3.607987329626318185e-01 6.024511778925795147e-01
1.720953703660647316e-01 -3.753731200807501889e-01 6.731768556259475345e-01
5.704219141496481571e-01 -4.811312620049935096e-01 5.149281785533299516e-02
-3.189452132988601085e-01 -6.411145059743991181e-01 3.534403837951468619e-01
-6.481189914282878273e-02 -8.952354763792670367e-01 -5.549693376876055906e-01
2.301666166324978502e-01 -5.910893780287275190e-01 3.333892425647214108e-02
-4.789091506265923393e-01 -5.237128117480539524e-01 8.085563395275039422e-01
3.343462065602477717e-01 -6.456007874868389118e-01 -2.028822050348033090e-01
3.050869300921965066e-01 -7.043656568319082156e-01 -3.396462392798924035e-01
5.364079861497705881e-02 -7.301216289892537015e-01 -2.008783127149374181e-01
1.235992677511853072e-01 -3.515868659830475029e-01 7.787818068366562096e-01
5.495974289063689788e-01 -6.407745251934612307e-01 -3.688970855277395322e-01
-2.922192401811357643e-01 -5.323661616482505687e-01 6.293653832078220933e-01
2.792835193707387531e-01 -3.941842743464515353e-01 5.323381200340652208e-01
7.257753745060932689e-03 -7.775144441319420396e-01 -2.922012896827150819e-01
7.198281101571186724e-01 -4.539925300774343975e-01 1.489001256027725059e-03
-5.063334935937102710e-01 -5.780379645573530123e-01 6.824376930723826673e-01
-4.476610430747908487e-02 -4.432496673970637846e-01 6.676529437944196399e-01
2.545163472920056735e-01 -5.090791830396610429e-01 2.379284767242642318e-01
-1.548470321343117517e-01 -5.953397408839986582e-01 3.423007431535817213e-01
7.826530324527225524e-02 -6.855321889308256811e-01 -9.912281125022290307e-02
7.239371681232728006e-01 -5.636269062433649779e-01 -3.025429840005789961e-01
4.832780398489024409e-01 -5.546271420704822486e-01 -7.745988886128836459e-02
5.266468378130969574e-01 -6.665276911575248597e-01 -4.203987025585773640e-01
4.106806395679460375e-01 -6.749141798201364617e-01 -3.468242782537742652e-01
-2.816010906412720893e-01 -7.347902350281745321e-01 6.548980613709974585e-02
-1.112382557962804559e-02 -7.454299000670815412e-01 -1.889205259319128027e-01
4.377758540460617298e-01 -3.309296389705637109e-01 5.737953372208774994e-01
4.428166590069438913e-01 -5.226302271387753828e-01 4.396732215084087070e-02
9.697811330928823859e-02 -7.935975936899865024e-01 -4.110139003266629065e-01
6.447688265380981942e-01 -5.897054425328311922e-01 -3.081220094350132221e-01
1.505397549727682527e-01 -6.686651928546299972e-01 -1.130604063791427194e-01
8.916846147643316123e-02 -4.794320696558665995e-01 4.569105998111283595e-01
-2.439209577986399188e-02 -4.842248294019123045e-01 5.383355191796798112e-01
-5.405587278178992927e-02 -8.762327091458711470e-01 -5.118219732101546571e-01
6.711959195878220985e-01 -4.427399797527257208e-01 7.284069120576426581e-02
8.530234375437666106e-02 -6.174108923100294355e-01 8.180125929276574337e-02
3.133634932151844188e-01 -2.853239214497000908e-01 8.024462734278919873e-01
6.441466938049419388e-01 -6.322049727253673534e-01 -4.241348368699585092e-01
1.385462649963427884e-01 -6.681231145197108479e-01 -1.015866118417055181e-01
-2.880509402128216268e-01 -6.611626569320242508e-01 2.727428011120407447e-01
2.973119224220538426e-01 -4.165013248666477597e-01 4.561332815870104973e-01
-4.316210629544635635e-01 -5.287274637077246098e-01 7.554278419001194678e-01
-9.059861087783516176e-02 -5.080508133700192275e-01 5.281390197364562722e-01
9.698342160799430789e-02 -4.985378178846519015e-01 3.980160762021238696e-01
-2.642330564424669181e-01 -5.048098524887849603e-01 6.816177632915437767e-01
4.920657505527267772e-01 -6.345882912839401202e-01 -3.040259461509505212e-01
4.520598850319640927e-01 -2.301393199670237477e-01 8.382608527150243738e-01
-1.484500145259867454e-01 -8.822898380240206118e-01 -4.498244996584745969e-01
2.838660404869605691e-01 -7.316470788911243472e-01 -3.967786240509643125e-01
8.695289317950426200e-02 -6.303158114525833078e-01 4.504234670189630890e-02
1.920892125028622610e-01 -7.594986740934143166e-01 -3.967196764640371631e-01
-1.575712189862583379e-01 -4.717468099814853266e-01 6.834529258746544489e-01
6.687913660184067188e-01 -5.596988232872052160e-01 -2.458503583802679193e-01
4.825765514521686561e-01 -6.749924802444599026e-01 -4.069095309845924269e-01
3.682537546902550085e-01 -4.874127796572246818e-01 2.026227025013990213e-01
3.285847787769972661e-01 -4.969937453160702123e-01 2.093862471147150406e-01
6.919993636108042745e-01 -5.649246156784086814e-01 -2.795053494736137178e-01
-6.500433572383260139e-02 -5.252298223244823427e-01 4.597219517984479920e-01
-9.398630803940946632e-02 -7.349461073041489989e-01 -9.117180583958317541e-02
4.275275614557703108e-01 -5.008049473510284288e-01 1.165426301595449132e-01
5.171639043050160200e-01 -2.555050767947942836e-01 7.144949429843104882e-01
5.953134297810465103e-01 -6.597774058393092167e-01 -4.590712427526991712e-01
4.591451002600153708e-01 -2.962678624610588507e-01 6.510406235393843000e-01
1.554770513254963293e-02 -3.561144807476078200e-01 8.563461793539980382e-01
-3.679228923387003469e-01 -6.985872484420354578e-01 2.366395666393499297e-01
1.571656634919905149e-01 -6.985678423451163743e-01 -2.005691492751968119e-01
9.798416899368075916e-02 -8.379722401431082268e-01 -5.335240292094305392e-01
-2.707282814465986620e-01 -7.340268711597019990e-01 5.852868284603424814e-02
5.594207867025915992e-02 -5.032287473216894291e-01 4.193306009091610220e-01
6.880923517225829844e-01 -5.075549126136352784e-01 -1.189478940352469982e-01
-1.270209465251377345e-01 -5.935370310389290749e-01 3.240717766728100635e-01
-4.007014133074448536e-01 -5.071354010662195710e-01 7.888838397413920900e-01
4.921271953407400646e-01 -4.411775945946875277e-01 2.262422290499728483e-01
-1.504399813008627795e-02 -4.876972097424334684e-01 5.210299526888501065e-01
-3.362119911398755989e-01 -5.790967260638352210e-01 5.378677620433455209e-01
8.072052743005123654e-01 -5.862908038144832856e-01 -4.340265250208213965e-01
1.991823493474131901e-01 -7.315943684484503828e-01 -3.261146498012043038e-01
-2.432859171231179646e-02 -6.252054661414659931e-01 1.517230520379160008e-01
8.278145019419749784e-02 -3.845020942117488572e-01 7.225210319566549577e-01
-1.378447903247157214e-01 -7.371031273411647877e-01 -6.056352617564118856e-02
1.247520049418204130e-01 -5.467809515583740287e-01 2.426126000554682527e-01
-2.457865883382933658e-01 -4.618202520090167740e-01 7.841313048044912248e-01
4.991551562421039923e-01 -6.198816004444090977e-01 -2.696047996254944401e-01
-1.377551011608200981e-01 -5.604814419507202494e-01 4.236467698690207229e-01
9.934475911882512111e-02 -6.417972264920637215e-01 3.241870832271059790e-03
2.864941379597553059e-02 -5.338451354564174300e-01 3.581101661174319051e-01
1.834826458133443916e-01 -8.054087377271372805e-01 -5.154350084025233203e-01
7.596805479691035035e-02 -4.133448318411462319e-01 6.491099351148125196e-01
5.802645997375636133e-01 -5.800330304012515370e-01 -2.278856840937895645e-01
1.563387280229260601e-01 -6.375539062573930549e-01 -3.258434880452674987e-02
-2.869119615253616917e-01 -5.479529036812654796e-01 5.822079870777424615e-01
7.594738631058549627e-01 -5.783273911959934122e-01 -3.724435476666829170e-01
-1.572823036083116077e-01 -5.752975344981676731e-01 3.992830944375303504e-01
-3.287483195552675652e-01 -4.717675798717504976e-01 8.259418913240584859e-01
7.013327300045750778e-01 -4.742995916102658582e-01 -3.878978716343960131e-02
4.258379511286359276e-01 -6.192237965333325933e-01 -2.067470197852822322e-01
6.634786762160108653e-01 -4.750056378138375890e-01 -9.203157333337805279e-03
5.714968213691172805e-01 -5.197875892601478975e-01 -5.539539324712271923e-02
5.020508204374435346e-01 -3.439975277721981084e-01 4.844397535215185790e-01
1.480099578277026540e-01 -5.986954256851134692e-01 8.089873079153644952e-02
-9.774972791953639648e-03 -5.578455569965877769e-01 3.243000975057175328e-01
2.666699611673027936e-01 -4.363255170351552636e-01 4.272934256337131420e-01
-2.626060356678304730e-01 -6.624649067681360748e-01 2.479831437524012971e-01
-2.374744190820496925e-01 -4.346501639079466406e-01 8.517080191931735156e-01
-2.185822686956839511e-01 -6.630455550154815691e-01 2.097307195875294794e-01
5.009341032845093800e-01 -6.747127134599304465e-01 -4.214294855597328082e-01
4.378399284313134188e-01 -6.309572839639495667e-01 -2.489139858579957065e-01
-1.653840553809755864e-01 -8.728310918629378357e-01 -4.097876001318438433e-01
4.760428377312539427e-01 -2.163122850070950676e-01 8.562021188668567095e-01
-3.049648309861145712e-02 -8.171412474816264204e-01 -3.694159241478808808e-01
6.414425129628786859e-01 -5.999425882567577251e-01 -3.334216338132281465e-01
-9.082030730491666426e-02 -5.203591486114151898e-01 4.945749936362707766e-01
3.453139641952437389e-01 -3.895118134282592459e-01 4.901635462900042484e-01
-4.119908252275439886e-01 -6.624139369947514844e-01 3.725214987372470477e-01
1.036720625451376977e-02 -3.539590689470644147e-01 8.665701815029155375e-01
3.263706130758002311e-01 -5.707792171224296274e-01 8.915184859695880065e-03
3.903863016978135203e-01 -7.384788570398895802e-01 -5.042145258866721491e-01
9.689931269515818235e-02 -5.615818208696056191e-01 2.252236290671643382e-01
-1.770704498410703986e-01 -8.366904922405145051e-01 -3.009607444057146308e-01
5.451859916336482259e-02 -5.913152590941694875e-01 1.789885970579483954e-01
3.909613043142480537e-02 -3.646344612371671401e-01 8.133752547326952298e-01
2.078789862253699883e-01 -5.905328502420056358e-01 5.342467450668279827e-02
3.182105196258437352e-01 -4.046425292784275318e-01 4.712462298429648255e-01
-9.887646731280415324e-02 -8.162264715662310710e-01 -3.099649624050887509e-01
-2.944885609453384845e-01 -5.106849177543587581e-01 6.907036732779324728e-01
5.391946804751553968e-01 -3.831668194878284917e-01 3.461089898462934578e-01
3.451600026041799496e-01 -2.994328775784000363e-01 7.372822425745139130e-01
-2.267768708926047316e-01 -5.299695471729610752e-01 5.814403026540395647e-01
2.109684711149373559e-01 -4.942194319563758542e-01 3.149369637692928658e-01
5.670822984350499807e-01 -6.509119845368903645e-01 -4.112536684625863748e-01
4.801529791336565656e-01 -5.365521535820164667e-01 -2.529710431125458195e-02
5.999154547142367955e-01 -6.602846542187376100e-01 -4.642943717289227390e-01
2.986795770241403858e-01 6.755708905465599434e-01 -1.750475195145345664e-01
-5.035489256418145265e-01 5.878913857659480158e-01 2.525883531587082009e-01
-3.459900159696390198e-01 2.105492879140636597e-01 -9.132642417083774999e-01
-2.497115863854709183e-01 3.427091980029965401e-01 -6.310653473615217557e-01
-2.661147862226336813e-01 6.565101795116289329e-01 2.430157872371137562e-01
-4.446239759880960540e-01 3.103246584239907069e-01 -5.575503883986110409e-01
-4.449236836578916998e-01 6.192340320511856566e-01 2.897082684846913336e-01
1.395942143372675970e-01 8.676640834042880224e-01 4.841359634149530189e-01
-1.776028107505978892e-01 6.370783137117220774e-01 1.160274871006570369e-01
-2.751253319649917262e-01 2.341036341425747347e-01 -9.076915957431883619e-01
-3.284692923551853910e-02 7.197573803785708435e-01 2.221840963032298555e-01
2.406101165966818833e-01 4.162350724061958940e-01 -8.377724591688506806e-01
3.139315238948552911e-01 6.822028110946012358e-01 -1.695641288559374682e-01
-4.066466453333139053e-01 5.007958642854597464e-01 -6.691615454523691664e-02
-3.919842705420334972e-01 4.855152686066768752e-01 -1.210244747066103882e-01
-3.462673763769462676e-01 6.736598427430335878e-01 3.567852493522408741e-01
-5.309557886703475393e-02 6.650832171778316981e-01 8.913300390522099770e-02
-6.879900330731198999e-01 3.999851896329008061e-01 -1.090466367894637745e-01
-6.606362176106691519e-01 6.065607065183173940e-01 4.345911727428753979e-01
2.717496396364531552e-01 6.037100027251000034e-01 -3.496597029757007591e-01
9.265447503345322633e-02 8.936065399855888103e-01 5.943570342336720325e-01
3.064900165115808095e-01 5.247502709049653991e-01 -5.950917475015014002e-01
2.042076867006301366e-01 4.057867274357277454e-01 -8.361073928331231864e-01
-2.616251849491686987e-01 4.830603102299361185e-01 -2.363109542935071250e-01
-4.085370739490686298e-01 5.610254080874895743e-01 9.980350677853008778e-02
1.419131295863442464e-02 3.780730749440448513e-01 -7.538622755834165634e-01
-1.701820640992837141e-01 7.200949966430785221e-01 3.374741948567774319e-01
-5.013326044269486026e-01 3.785498779679489778e-01 -3.232578382965060060e-01
-3.482071074426256740e-01 4.521823825083948756e-01 -2.488760128378837699e-01
-5.452998309615098016e-01 2.497541184348794074e-01 -6.397940538086666074e-01
2.245314220076265466e-01 7.961912502880554854e-01 2.174316216356567966e-01
-1.742107559096239267e-01 7.153282369875278990e-01 3.277589054220018117e-01
-1.519387510843492051e-01 7.957545783741986067e-01 5.297358401843389464e-01
-6.681993119844190088e-02 8.199273828079230997e-01 5.251342771721622116e-01
2.589063246635805449e-01 5.226153075104620349e-01 -5.613208612257080121e-01
-4.116775862354720705e-01 3.866179385536208102e-01 -3.757950151830646845e-01
7.427870627987714913e-02 8.654260547728964692e-01 5.323902335227417293e-01
1.773340769251578464e-01 4.775315484301566049e-01 -6.170091236400930823e-01
-4.362868449363164758e-01 2.842661923583191252e-01 -6.359436369234879871e-01
1.445559405364276774e-02 6.364642269087297244e-01 -4.559089807670706207e-02
-5.206656353405260118e-01 6.392109481447992847e-01 4.075569586089496932e-01
-9.480996468854407944e-02 4.859053057894010541e-01 -3.674237701179111637e-01
-1.516673076099707418e-01 3.359649140808537160e-01 -7.312030613298869941e-01
-4.234607925712677301e-02 3.255634740713297948e-01 -8.507592156568963837e-01
2.094549165284539105e-01 4.482564097564593064e-01 -7.240279068442987409e-01
-3.457471327613397261e-01 2.176857092453858000e-01 -8.938989046684804318e-01
-7.245288620124662460e-01 4.518593905429738045e-01 6.361631466301083393e-02
-4.690892811657648154e-01 6.712527619808149604e-01 4.524638317002496191e-01
-1.814585977659630978e-01 2.826641205584585204e-01 -8.525419321779372783e-01
-4.931802665575031885e-01 3.146950660618350604e-01 -5.051322835934942690e-01
1.331136746092074497e-01 8.567175452735983354e-01 4.595178803371696707e-01
1.338857942208536156e-01 4.660721697308394806e-01 -6.122488857401972018e-01
1.969158125555962868e-01 4.534995833728080461e-01 -6.992096655957023010e-01
-5.735460822884708154e-01 4.431641850322075027e-01 -8.595467254984973104e-02
-3.932126484643770348e-01 7.118664046493486941e-01 5.006382934801267837e-01
-4.804352794150498207e-01 3.781946022929623119e-01 -3.416340064891317252e-01
-4.978480402832939355e-01 4.718772171150246719e-01 -7.026217866181870553e-02
-4.133921875207914876e-01 6.045953792997909026e-01 2.233125314885075763e-01
-1.165283049969317725e-01 2.824355059151747449e-01 -9.072387911131708504e-01
-5.238853117199778753e-01 5.773521886910023548e-01 2.406254814265551822e-01
-1.135682433546630760e-01 4.993083203854268293e-01 -3.150528326329881668e-01
1.241736022178784593e-01 4.662406456224362783e-01 -6.036992110946428625e-01
-1.519457497623213638e-01 4.939334163636746600e-01 -2.978320026349292049e-01
-2.941847352597056278e-02 3.513064532658892736e-01 -7.909389953109356997e-01
2.023855943765087151e-01 6.526659227234345995e-01 -1.576636340669957115e-01
-6.546591205962665194e-01 5.236752086855879229e-01 2.023472536291513191e-01
1.743716626546753523e-01 3.920325020622463796e-01 -8.489749368224372983e-01
9.432418070154978407e-02 4.108143857938524324e-01 -7.308175617521911471e-01
-1.091803103648563283e-01 7.766056168141558524e-01 4.416240156044403675e-01
-1.989305181654166255e-01 2.537261878175019469e-01 -9.173382740629560939e-01
-4.918216655921554548e-01 5.571286360250565783e-01 1.584731758571685245e-01
-3.643471382115895940e-01 5.556316513841541571e-01 4.821548217583664780e-02
-3.423323581915194702e-01 5.633703867750394778e-01 5.110200837157374831e-02
-5.677856484709096208e-01 3.065360817038325636e-01 -4.653768386838489368e-01
3.184944016211310180e-01 4.703090874040571356e-01 -7.543623975940522142e-01
-2.497421483476385540e-01 6.296378319230477860e-01 1.556994462992457029e-01
4.976068496234098415e-01 5.347383819915346725e-01 -7.268555232039863867e-01
7.843875966415732315e-02 6.368627385029287380e-01 -9.777950823542046199e-02
-4.096590053635144058e-01 5.089809008135651736e-01 -4.196481468240920859e-02
-2.522337872599111352e-01 5.693426633438033457e-01 -7.551033563919980554e-03
-6.572873831138673628e-01 3.594805282018184167e-01 -2.456750465526683080e-01
3.296376382516392201e-01 5.025151931235856129e-01 -6.753347971906958902e-01
-5.213588018168867633e-01 3.788025950183894763e-01 -3.058883013601981227e-01
7.968254582176523271e-02 5.435339731890852510e-01 -3.547165618929211672e-01
1.925396522045426106e-01 7.660171230667399689e-01 1.613369668218579966e-01
-4.817834438756083415e-01 3.718045111908885314e-01 -3.580325441441368772e-01
-1.453408780965385894e-01 7.866234332370718452e-01 4.992045351788726437e-01
-5.920199501563415678e-01 4.424456148289617197e-01 -7.254102699169066859e-02
4.130359996063056038e-01 5.688664252558536250e-01 -5.628532065447470201e-01
3.853294013510040195e-01 5.341460012122200007e-01 -6.349819378213211740e-01
-3.539741488331821923e-02 5.419569206230807623e-01 -2.632091189395296960e-01
-3.747261471482791761e-01 1.794285154509598912e-01 -9.746656337238519541e-01
-2.494883143948420090e-01 4.878789826711623645e-01 -2.332053232921287023e-01
1.505725324721432223e-01 8.408063398857275050e-01 4.013517284267474339e-01
2.111510705619197223e-02 6.463931989882774065e-01 -2.391195192958408058e-02
1.555234256297437778e-01 6.795697360821910671e-01 -4.487118258469917353e-02
4.231436698535339658e-01 4.983387568185247418e-01 -7.646524655655757563e-01
-5.515977811785810481e-01 6.331610916494426755e-01 4.167270684957398164e-01
-5.538266809949564662e-01 6.433771092292551730e-01 4.465948059368883283e-01
5.487331174198977965e-03 6.553348510623369094e-01 1.361933149590855395e-02
-3.266601442294619906e-01 7.327659049052591689e-01 5.025224492886999350e-01
-1.031168109697124524e-01 7.057018227499076701e-01 2.421611853701339800e-01
2.347200606939471301e-01 5.924142674879945281e-01 -3.497958730073362776e-01
2.026187644850962477e-01 6.769330540059914636e-01 -9.131893448148022119e-02
-4.652251722190232086e-01 4.988170958627082263e-01 -2.356115970976543558e-02
-3.529664763345390002e-03 4.141323492908852155e-01 -6.402331731731967235e-01
-3.374674669632892754e-01 4.382059114605127981e-01 -2.961418940888779772e-01
1.470351628646848485e-01 8.337106168221989355e-01 3.848414319562170061e-01
-1.786608115609383263e-01 7.230689479257309538e-01 3.526891596758379155e-01
6.629037558350873993e-02 3.820571812401559186e-01 -7.863230614093402737e-01
-3.553739797288752444e-01 3.608379856885221004e-01 -4.933681726626712449e-01
7.240166457140111145e-02 8.283236211825332207e-01 4.322209002746950079e-01
-2.960270909573677889e-01 5.846851982888030541e-01 7.098559207475554911e-02
5.383531187496094078e-02 7.045518372806474083e-01 1.083077854709427051e-01
-5.356314720599352208e-01 4.772973763660381952e-01 -2.393670824956021376e-02
1.485704394601103095e-01 3.982733696739556573e-01 -8.103771954693339552e-01
2.226387093946858020e-01 6.595743366036754818e-01 -1.555867867081986988e-01
-4.152688954072736860e-01 5.830837758306733898e-01 1.658919456361116762e-01
-1.713058007778650860e-01 7.826821413134971150e-01 5.100197873058188724e-01
1.575455566607071034e-01 8.048456062989501891e-01 2.969430625851961492e-01
-2.044356212214212543e-01 7.537839568351695219e-01 4.583713827340001323e-01
-2.955175937338033743e-01 5.099674740736900302e-01 -1.343097460632094453e-01
-2.856467519318554027e-01 4.038084916052400719e-01 -4.336104959658025337e-01
1.443577951008299942e-01 4.991766357006608423e-01 -5.301990764743105267e-01
-6.769342431191716081e-01 4.925200216199945302e-01 1.354711626118570711e-01
3.494616923630941563e-01 5.172440368803971067e-01 -6.514575522495167359e-01
3.700333090342270426e-01 6.442469758050396456e-01 -3.203546863143215684e-01
2.627495909177259281e-01 7.423058529913648673e-01 3.785565011345928821e-02
5.706505346268133522e-02 7.177495813263502500e-01 1.418055940016822170e-01
-2.062803046635850179e-01 7.410306937451708320e-01 4.249389191145431233e-01
-5.236619409243237211e-01 4.264864750352645451e-01 -1.732243403757501576e-01
-4.828220557932473844e-01 6.236243383611518309e-01 3.333056655875443752e-01
-7.120284434248927430e-02 7.243308332958604545e-01 2.666646833515978199e-01
-5.172177931340495860e-01 6.180135538963084096e-01 3.465639510436293591e-01
-3.349082015930082701e-02 4.344005377703467619e-01 -5.597093060137393605e-01
-2.715129219713610653e-01 4.117290541217131783e-01 -4.236626342311493043e-01
-7.295863475730098857e-01 4.536135688295079849e-01 7.263772300909461521e-02
-6.131700692901691507e-01 4.474810149137532500e-01 -4.112175547643311113e-02
-1.804673768910688633e-02 8.455356212749354228e-01 5.547350142825008268e-01
-1.261118447401156362e-01 6.452435142127812551e-01 9.553737115225598153e-02
3.865344092789801955e-01 5.832188459452031237e-01 -5.014308996575059796e-01
1.163285844862959554e-03 5.191110220453288848e-01 -3.562965981447904773e-01
-1.701279865206909228e-02 5.467841609087917831e-01 -2.652827394283240325e-01
3.063744916023354303e-01 4.748905409741105421e-01 -7.317076282813982369e-01
-5.016783266045786727e-01 6.308206910141033186e-01 3.687399483065980088e-01
-3.425061530818915984e-02 8.036649061016124529e-01 4.534218888599937380e-01
-9.157572057661503284e-02 7.431494488080174765e-01 3.352293794898107415e-01
7.716672546744095251e-02 8.873222125719242293e-01 5.900230831616690708e-01
5.544908045323942297e-02 8.164891978608725953e-01 4.138887786138142899e-01
3.348643581902418509e-01 5.624337442316188485e-01 -5.153945872513245874e-01
-2.875002370702763321e-01 2.799548446197852036e-01 -7.716655371462642909e-01
-2.699253357609495696e-01 2.548164567278148884e-01 -8.552286473638381903e-01
-2.369894569539005291e-01 2.962848658283360193e-01 -7.689520151353897992e-01
2.729537861116804742e-01 4.381449912534430280e-01 -8.046307580698621731e-01
-5.858543209935035412e-01 4.376941334577432730e-01 -9.070363705761072537e-02
-4.325632870483424042e-01 6.655452234354852781e-01 4.063975041386883036e-01
7.853276269819699229e-02 8.899709497695639238e-01 5.961481924158562595e-01
-2.803975508414807138e-01 6.875071366025430342e-01 3.399012149355737922e-01
3.480092843483172105e-02 3.374968895562023286e-01 -8.822819318809873579e-01
-2.957912311863332144e-01 3.017082053028360966e-01 -7.051150229862476193e-01
-3.086767931472007565e-01 2.515997038873371006e-01 -8.317789058044203765e-01
2.276810630202548147e-01 6.442626538328825037e-01 -2.017693750179076762e-01
3.566219863700670900e-01 5.803207439468638373e-01 -4.844680507774413725e-01
-4.286472011799766779e-01 3.170165839497822713e-01 -5.525060608361975767e-01
