6.463375691564319236e-01 -1.867421691564390973e-01 -4.839288595958883832e-01
1.826272207191637353e-01 9.495305215039325647e-03 -2.456577728896787438e-01
1.837122702063702373e-01 3.477351106353674393e-01 -2.299235590452625710e-01
-7.967401444082882200e-01 -6.954766124637576374e-02 2.338385812315345591e-01
-6.575568719830313658e-01 3.313043262070256012e-02 1.700933092637033905e-01
-7.238409351124052149e-01 8.939020192034373424e-02 2.055093313616823403e-01
-3.043786977278677402e-03 2.037192819469768046e-01 -1.446904453325511819e-01
-1.132048408632325143e-01 -1.838861302908302298e-01 -1.089723451076208827e-01
1.453683298533483825e-01 -2.453166895733552288e-02 -2.289079787970633162e-01
8.726227324701983645e-02 -1.251320895484485558e-02 -1.996556910418812170e-01
7.592752371962386837e-01 -1.400874774135973944e-01 -5.374172258470039099e-01
-5.088628454443215599e-02 -3.530733324414395691e-01 -1.478633877083143366e-01
-8.008172243885808284e-01 -5.613735965053581189e-01 2.121932326523656154e-01
2.593140097905307639e-01 3.957617352015040391e-01 -2.649213927540231550e-01
4.535766177563453350e-01 4.925697786021113189e-01 -3.561295810860815036e-01
2.069437744742901389e-02 4.785006342292829062e-01 -1.431875084939036868e-01
-3.239300097214353191e-01 -8.625030662916602364e-02 -2.872695209259677166e-04
1.820739558075999409e-01 1.725948449720002831e-01 -2.375395008005629638e-01
-5.790395148759673871e-01 1.918415290145996932e-01 1.389807070164300051e-01
4.171541117552456379e-01 1.916051431002311345e-01 -3.526324880164712905e-01
-7.008982215220532774e-01 -5.592614587148704297e-01 1.629867795686327780e-01
4.480616671612118740e-01 3.246666124224943939e-01 -3.614843681189830460e-01
-3.169435654217774845e-01 -1.525032599228419716e-01 -6.921773033901330516e-03
-5.827482533116609131e-01 1.511303293475183343e-02 1.323100830867276756e-01
-1.501829662868423565e-01 1.809459702650211277e-01 -7.317559299266761241e-02
5.383353344557061382e-01 1.257395797572461449e-01 -4.156012191525894073e-01
3.242514283920451823e-01 -2.440716736723579638e-01 -3.277433332407353461e-01
6.300598631710901953e-01 2.443203757944864551e-01 -4.551616055706949049e-01
1.997634564757516662e-01 3.646344932311247899e-01 -2.370316247952465594e-01
2.336386829823998978e-01 1.477389895517816354e-01 -2.641812632659492621e-01
2.880754312168406495e-01 3.575912309141824341e-01 -2.809506230496230939e-01
-6.660516821959664435e-01 -2.948884868173499707e-01 1.585073001601313425e-01
4.369283811003579765e-01 2.919247058442509535e-01 -3.575652295635673994e-01
-7.501050845223172781e-01 7.703141395114225520e-02 2.178756991754124128e-01
-1.382170111433220494e-01 -1.419182690900943622e-01 -9.461063942863089105e-02
-8.045306187864414982e-01 -2.000316296252295165e-02 2.400661646946384842e-01
-3.707038617629105359e-01 3.678058779095669806e-01 4.463524506477096337e-02
7.240673136796483833e-01 3.277244840732578268e-01 -4.975406016423976063e-01
4.125641854650730078e-01 -3.074696905127698998e-01 -3.743734361742166450e-01
-6.137456780242288579e-01 -3.069200075881735046e-01 1.321165951728566212e-01
4.125170128186080309e-01 4.589958523090993392e-01 -3.374824178294547616e-01
7.351396716403450771e-02 3.566203943143946703e-02 -1.905538978847083065e-01
-2.525458401512959972e-01 2.211058735635305916e-01 -2.072981160040937923e-02
-3.612305390887371459e-01 -4.459287634668424594e-01 8.189186637049762543e-04
5.317533476643921952e-01 5.729234366237347942e-01 -3.908431597068252605e-01
-6.063389877666683914e-01 -1.085065988741797660e-01 1.380054185492103902e-01
3.597437848069046096e-01 -2.611196353188857677e-01 -3.460781317574700422e-01
-7.548351160223762957e-01 6.513137797747207969e-02 2.196374727124443538e-01
-6.413364623583134305e-01 -3.327761757145575316e-01 1.444883939074159407e-01
-6.133763567102408221e-01 -3.634970928994991080e-01 1.292129294776346027e-01
-2.359078765193025340e-01 -2.084590531065975971e-01 -4.960280874031799264e-02
-7.023010211370013245e-01 2.324685378679020309e-01 2.017620178211640691e-01
-3.613707464248843149e-01 -3.150048324355631535e-01 7.185676883325719209e-03
-5.473134976727689338e-01 -3.717310745202850319e-01 9.621615440941978792e-02
4.390553339973065627e-01 4.135510929867084462e-01 -3.527644909388474304e-01
5.970854914677244940e-01 3.663049053441474467e-01 -4.330218314558187398e-01
-7.389216786459958941e-01 -4.056354016201464963e-01 1.891401656505065365e-01
3.033333769417775883e-01 3.235942121256041859e-01 -2.901154068097319683e-01
-6.734241715706429376e-02 -4.469199225975312717e-01 -1.442567246315817342e-01
-2.651184767972499801e-01 1.354029584478427528e-01 -1.864785816273310456e-02
6.072760788989680636e-01 -1.650171543563866972e-01 -4.636077934015080393e-01
1.441585976991844979e-02 4.420811281430430117e-01 -1.418409981049872648e-01
5.038147136555617411e-01 4.883413176808493739e-01 -3.811244795134722807e-01
6.310098638987343689e-01 -5.104497736494903633e-03 -4.676279916114291502e-01
-2.153853435402808963e-02 3.486362773264228276e-01 -1.285930050912869882e-01
-8.870419371044975243e-01 2.063059354474019169e-01 2.916695542933367968e-01
6.841957360013620759e-01 1.005998661709563702e-01 -4.887896832024258287e-01
5.988688570023644742e-01 1.299619960841594535e-01 -4.452702112929859957e-01
-2.399317704374050869e-02 -3.481587095198587778e-01 -1.608982054766129322e-01
8.625887808054094608e-02 5.265890644188140346e-01 -1.732291906620341826e-01
7.089066455029069402e-01 2.280305744625237274e-01 -4.948544863718140618e-01
-6.059806220740278082e-01 -4.780333562799676250e-01 1.200539750195054323e-01
6.770956863864459330e-02 -1.841824200525011834e-01 -1.982642749246406044e-01
-4.789180565016481483e-01 -5.793294652315575943e-01 5.247867388592880600e-02
-8.234930148668287986e-01 2.111018293155861592e-01 2.605401069555183802e-01
4.819575332689508551e-01 6.550481918696963168e-01 -3.623196307701506691e-01
-4.784606112509209863e-02 -2.321405264715696026e-01 -1.435466919289642151e-01
6.151508137306196389e-01 6.271317932417119767e-01 -4.293906827001311433e-01
2.202548657789803015e-03 4.383881362097757362e-01 -1.359916074727974822e-01
-2.981197270591077197e-01 -2.594797301928772892e-01 -2.135663692574829575e-02
-7.341227098323487299e-01 -3.317188083496981910e-01 1.903274297595180797e-01
1.391249576835297541e-02 -6.041175812762902830e-02 -1.657629954797321115e-01
5.916126819760123556e-01 5.111806363374759021e-01 -4.233524445121527591e-01
-7.031089219384961675e-01 -4.730873534605513631e-01 1.682227748848939552e-01
-1.374506733812500825e-01 -4.565082881532627757e-01 -1.101208984409701164e-01
-6.107092653882066902e-01 1.665452125071146261e-01 1.533923241824657613e-01
2.162749242373829262e-01 -5.248373327166697827e-02 -2.652435003203127972e-01
-1.810264362457309206e-01 2.520692342486799409e-01 -5.453385312632566539e-02
3.523293019045573016e-01 -1.137475070812445227e-01 -3.353304883011024584e-01
-8.262986740464762780e-01 -4.354961822442845465e-01 2.308226496872684275e-01
-6.415859155231932176e-01 9.177541603709980789e-02 1.650328394188919356e-01
-2.002401575411838497e-02 3.132829139655499140e-01 -1.310409212562664849e-01
-2.583356992081953935e-02 -2.724511381894438242e-02 -1.445537513382113004e-01
-7.508644491539135934e-01 5.428495489620603805e-03 2.148062604220263294e-01
-8.598076152850898657e-01 -3.924151960427730845e-01 2.494308859489283159e-01
4.906669804869889240e-01 -2.799401548048978672e-01 -4.115914211566509273e-01
-6.107313760417161230e-01 -3.982509295160037155e-01 1.262359904918283759e-01
4.058105693485118404e-01 3.251775960515720931e-01 -3.406097093415475507e-01
-4.378301171441699169e-01 -3.118424933583469061e-01 4.506897360953580900e-02
7.382909867512128521e-01 -1.175317364322115837e-01 -5.259769607325613938e-01
3.512407667175730941e-01 5.897949289219698299e-01 -3.009522409277423094e-01
-9.505620065344626557e-01 1.197494035977574450e-01 3.188519969742694693e-01
1.501089914274615356e-01 -2.548811001743894744e-01 -2.423274335241329680e-01
-3.726362603212018954e-01 -2.065415204338518773e-01 1.796217588365730394e-02
-3.562700084939629530e-01 -5.470294658924006459e-01 -6.492047254662527966e-03
-5.979112984894129346e-01 2.965519520782863294e-01 1.533302318609265080e-01
-8.151580017418133539e-02 -4.845400600513782158e-02 -1.180958419055449654e-01
4.632920860847065669e-01 1.401260014680241750e-01 -3.778768614450221386e-01
-3.057684582119793992e-01 -2.015849450454099967e-01 -1.479734400101382491e-02
-2.218612802878020818e-01 -3.813917571332600120e-01 -6.485275737819209962e-02
2.812144867369221757e-01 9.493271843540310173e-02 -2.901990132604110317e-01
-3.961441019310553147e-01 -2.698878985136515252e-01 2.651580761319049725e-02
4.790814583511857072e-01 1.635874341740036209e-01 -3.845400861645013046e-01
-3.880752244421536434e-01 3.088701090665659788e-01 5.037280058071990502e-02
-1.664502935690932439e-01 2.777231379418508284e-01 -6.049291308064094763e-02
-3.866110366654424424e-01 -9.183982534170309631e-02 3.037571455011163143e-02
7.480394172092039717e-01 6.282288506283859042e-02 -5.221123850304499880e-01
4.771112320410991758e-01 3.935185149566369223e-01 -3.725079094340062458e-01
-4.202464034436582119e-01 -1.776982949163501135e-01 4.284422582930427076e-02
-1.222304504374827593e-02 5.009791139661033677e-02 -1.475500009134877721e-01
7.471536128157986179e-01 -1.320143346162345743e-01 -5.310471182536293799e-01
-5.833247818641188465e-01 -1.015263619165952119e-01 1.269841199442509061e-01
6.172822131569627446e-01 6.092402781717800586e-01 -4.313030854148788285e-01
-2.541020877421747426e-01 1.513380144494094748e-01 -2.331773625305733066e-02
-7.164725441676810247e-01 4.664853727145014395e-02 1.998172606410320573e-01
-7.291222918478289516e-01 -2.261030558379279742e-01 1.929400431448103637e-01
-7.444154385713601663e-01 -6.409977249631072516e-01 1.805300702390701117e-01
7.075298620341791134e-01 -1.206871980890446561e-01 -5.109487357047260980e-01
-4.234557407632376091e-01 -3.861090161566989587e-01 3.440321143316688729e-02
-5.317971989951618683e-01 9.042931754134553302e-02 1.107895335820833632e-01
-2.315343355840058237e-01 4.165631607401592551e-01 -2.169688696277096915e-02
2.541102792036508684e-01 2.271135586652166249e-01 -2.704655964213479313e-01
7.711542259109732678e-01 1.940110002171748782e-01 -5.272088091347811867e-01
-4.765822875721891783e-01 3.295553056627761324e-01 9.504426142496560925e-02
-9.331552040546025051e-01 1.534720645946008322e-01 3.118841775594787813e-01
4.700308596362297586e-01 -2.866259662424318067e-01 -4.017294982711608897e-01
2.308384838869761979e-02 1.314760698759254720e-01 -1.610588848211662316e-01
2.215707825853885093e-01 4.191778321026932708e-01 -2.451695205699892521e-01
6.449222499224626093e-01 2.163997309938055502e-01 -4.638389093009671060e-01
-3.479034657963117616e-01 3.393984447331753196e-01 3.201727600766587217e-02
-1.523109928399662139e-01 -1.674274341539152833e-01 -8.888255429937964858e-02
4.313086696925188535e-01 -1.202678736430448508e-01 -3.746188780655433370e-01
3.989949292001144232e-01 -2.081468133286908384e-01 -3.628997497643557391e-01
6.832291474277908394e-01 3.440315330287005979e-01 -4.766033904699917834e-01
-5.743668291393199121e-01 -4.699846329152991831e-01 1.048403457706938158e-01
3.108925020885384971e-02 1.030662098862896170e-01 -1.663759340211858617e-01
4.161847701623067608e-01 -7.074442697163582650e-02 -3.647734071350482443e-01
7.605769590555454540e-01 -8.339990143393988253e-02 -5.353328721531480650e-01
-8.737259295941620652e-01 -2.339883197095387890e-01 2.639197855498864320e-01
3.950364231804256443e-01 -1.573357506222302360e-01 -3.585022438090715302e-01
-9.040248244517991305e-02 -9.683927418735946424e-02 -1.160378187639138914e-01
-2.974806326163964010e-01 -2.843207856406177458e-01 -2.286689635183576999e-02
-7.525911885182993144e-01 1.056941026569109682e-01 2.204812455192406151e-01
4.449562367892605508e-01 4.866578854476275584e-01 -3.521599616319280313e-01
8.164030031156255252e-02 5.382067935296973304e-02 -1.936906340700591811e-01
-4.758185151756529341e-01 1.137803587047125919e-01 8.428836963939065341e-02
5.444960445090136353e-02 9.084439364118858384e-02 -1.784916874486929816e-01
-1.229916954231702192e-01 3.647063138623246603e-01 -7.775489501456049612e-02
-6.843798664780947894e-01 -3.483218978252039522e-01 1.649816969610439499e-01
-4.079434024398709280e-01 -5.828547972599728011e-01 1.728451588798878349e-02
-2.030584881514013729e-01 -2.513891455882312775e-01 -6.787831058806745310e-02
3.725617685675456370e-01 3.794289425126788351e-01 -3.215925420288310854e-01
8.329369492808941233e-01 -2.913074446873985951e-02 -5.684306948656374647e-01
1.790658804058575804e-01 4.761495893375409239e-01 -2.214537961292742940e-01
5.631795489482095407e-01 5.426820444976825364e-01 -4.078060080624661965e-01
-7.328572169277011161e-01 3.308063196792430244e-02 2.072501426737708707e-01
4.478320432065638901e-01 1.197633554044028187e-01 -3.712270995986998168e-01
4.806936776825951885e-01 2.321724591750110867e-01 -3.820366779308436156e-01
-5.428322620220228378e-01 -2.846315808881672016e-01 9.819432389641365166e-02
4.297882841009646460e-01 5.061197076308626697e-01 -3.437387447752142666e-01
-3.926166602225955593e-01 2.180780783257035282e-01 4.824672403190056330e-02
5.744255444304644520e-01 3.111216956365425723e-01 -4.244939625506761183e-01
-5.951907719854133694e-01 2.334632464258921958e-02 1.388462489770521391e-01
4.914928867225933362e-01 6.498970656402340840e-01 -3.672729130389097429e-01
3.387442225940511809e-01 -1.741752822886327712e-01 -3.315331555986094081e-01
-4.430036048108299540e-01 -2.621423147624708794e-02 6.136098506858726070e-02
-2.159228530177624283e-01 1.923131297993702915e-01 -4.018748944999266104e-02
-4.668287743341109630e-01 -1.053343212704639792e-01 6.931248093263707444e-02
-4.805541881979918939e-02 3.493426511320534278e-01 -1.154734705188509708e-01
-1.938640484325322155e-01 -6.465229014039648725e-02 -6.343335975524491688e-02
-5.705349007825366581e-01 -4.709676511373938057e-01 1.029020808853431668e-01
-9.797520931371694886e-02 -3.385911399366734464e-01 -1.239293283806041368e-01
-4.821620487053681070e-01 -8.093423074913104476e-02 7.805281628532706462e-02
-2.235927640146843642e-01 1.680074082703085780e-01 -3.757166917233688286e-02
-2.164022408140155729e-01 -2.637191339651975275e-01 -6.188651738589275031e-02
2.103218713687010633e-01 4.694423962380235293e-01 -2.372006311538983891e-01
-1.425825743673774793e-01 -4.039501921193870970e-01 -1.050603113037691522e-01
3.335815898652341738e-01 4.805978404114301106e-01 -2.974902732764575508e-01
-9.398459830494708400e-02 -3.541881886145368807e-01 -1.266488491191253563e-01
-4.628415612565732196e-01 -1.380469066938575795e-01 6.577136300826759430e-02
-2.938507787193356258e-01 2.462524233518376959e-01 8.629310700814776715e-04
4.134586227711724571e-01 3.310951957502771825e-01 -3.440992299196122817e-01
-8.655201805820138261e-02 -2.049594299849095136e-01 -1.231386315422250133e-01
-1.288031065167067890e-01 1.138181001921840518e-01 -8.695504632142254942e-02
-6.489664631584043386e-01 1.916739429910486736e-01 1.734802100053137730e-01
-4.876684727679800879e-01 -4.145192532435406085e-01 6.472436282149732212e-02
-1.755088333494952690e-01 -2.383025869629202056e-02 -7.052771536863670920e-02
-2.177493784197492843e-01 -9.299871193244257928e-02 -5.300991298075266589e-02
5.055319085557079539e-01 -5.730681893527993231e-02 -4.082180883260441151e-01
-1.488158679721474642e-01 2.217537695728160618e-01 -7.188733401847821614e-02
9.350490372840731743e-03 1.118001408958507192e-01 -1.552281759955758955e-01
1.304979744423589993e-01 -2.641893217450598241e-01 -2.330975195767660546e-01
-2.395410784082056821e-01 -3.518338400338770766e-01 -5.470636254432334478e-02
1.162859591222816097e-01 3.753318568711645070e-02 -2.115710248374174374e-01
4.109942092639094074e-02 -3.760399248739178524e-01 -1.943612270146106435e-01
6.746022414343435525e-01 3.492726176001008098e-01 -4.720940819466752369e-01
-7.469242554506185794e-01 -3.188375773024325621e-01 1.972643387481895216e-01
6.125073665778836274e-01 -2.356461709871531807e-01 -4.695866547951427772e-01
5.585004416207609568e-01 -2.344514121176573540e-01 -4.428778378964007834e-01
-6.919896891061501076e-01 -2.567025024703852853e-01 1.731439759170848025e-01
-5.270066415059262432e-01 -2.400580109959430941e-01 9.252872575740991867e-02
-6.311164464824159381e-01 8.584790386042980004e-02 1.595812446878013824e-01
-6.874025237575996927e-01 1.492731503457603859e-01 1.904081252175759964e-01
2.135859550363792270e-01 2.592600545941878831e-01 -2.489213672659374987e-01
-2.249472205314526074e-01 1.491733795672633145e-01 -3.780920684253337438e-02
-2.597236030470352897e-01 4.103277882927288123e-01 -8.085969263487067377e-03
2.665247673959718622e-01 -3.661398135886674565e-02 -2.892774521632685558e-01
4.759262251997428139e-01 -1.444974303955480141e-02 -3.915468028274607382e-01
-9.335545696206687394e-01 4.662914536482033051e-02 3.069420080166886389e-01
2.843108318880750995e-01 1.672896388984828342e-01 -2.882465598772862569e-01
-5.535426933013173206e-02 4.429779212228724533e-02 -1.265445873528406040e-01
-4.480762805942615223e-01 -5.067620884630131411e-02 6.268760514966763286e-02
-7.716810817843715586e-01 -6.562272408641137700e-01 1.932525705983321462e-01
1.415982816640562469e-01 -2.341553982612511534e-02 -2.269938477843492508e-01
-7.082479104788995672e-01 -2.552640268848327953e-01 1.812362782400521455e-01
2.052219209036579561e-01 -1.432533380549816425e-03 -2.573334496179336406e-01
-1.585754810607452048e-01 -2.831218259676137050e-01 -9.135616643129070014e-02
2.343276555967893637e-01 -3.030717585890581600e-01 -2.862056939343589068e-01
6.557503717819355149e-01 6.244226357868180033e-01 -4.495560736181556383e-01
9.528853802109946147e-02 -2.364907418210515297e-02 -2.041521397138099658e-01
6.014581455061098758e-01 3.155218957382943668e-01 -4.376223618744465305e-01
4.359746252378807196e-02 -3.159911294001229581e-02 -1.790260223350039759e-01
-6.677329862487676460e-01 2.062341601335121177e-01 1.834414781046196097e-01
3.061798882108192621e-01 4.048930290769340856e-01 -2.876095514183492630e-01
-3.905900088092872924e-02 -3.409859898338727380e-01 -1.531185049918202812e-01
2.706784214941432842e-01 -3.482588716866725775e-01 -3.063176211376327784e-01
1.370688061657281964e-01 1.084520032731568356e-01 -2.184156839982174525e-01
-5.326546667057675544e-01 -5.494447726580027336e-01 8.043410957906718672e-02
3.152245601243287010e-01 4.657869039254899368e-01 -2.891438631484324340e-01
-8.444569454950675569e-01 -6.007101385707324520e-02 2.578417134882620698e-01
7.767058057104941904e-01 1.057010993542268767e-01 -5.341961961090802014e-01
2.945107487235316263e-02 -8.080863909895155683e-02 -1.744120863711381975e-01
-1.575254766972615864e-02 -3.775451103409875886e-01 -1.663783073813591973e-01
7.800238339603270399e-01 2.652152562492014476e-01 -5.281607909320973349e-01
2.961879346607962926e-01 2.503291940814042493e-01 -2.901133913322866409e-01
8.191117225568098625e-01 -1.439680024821990978e-01 -5.671320033191731280e-01
7.049341844981144023e-01 1.992929210923196359e-01 -4.942764646762187186e-01
7.258481580883712203e-01 -8.106162221721462460e-03 -5.145731944622189413e-01
-8.475959181508585516e-01 -3.825401483322706051e-03 2.620962030950250155e-01
-1.848398282467060283e-01 -4.476964860996844320e-01 -8.631143281385329769e-02
3.271239421297528205e-01 5.825157933601039506e-01 -2.894011991536656891e-01
-5.760147597917818496e-01 -8.620192224900456723e-02 1.241138893127476384e-01
-2.977875739204625949e-02 -4.444084354530504766e-01 -1.626728417796976522e-01
4.206493426653462042e-01 5.800521315315758653e-01 -3.356726365365823028e-01
7.112989981082423752e-01 -9.387852396022088042e-02 -5.115192063553767321e-01
2.255981589858624958e-01 -8.749415510052158118e-02 -2.715283674272576664e-01
-4.399385851661008484e-01 2.007897412096674439e-01 7.076757089379112631e-02
-5.159787353705477253e-01 1.999826872373895448e-01 1.082530589246950281e-01
-6.138160711562988814e-01 -2.958863020800354127e-01 1.326820647773355455e-01
-5.158495271365933776e-01 -3.133577911513144021e-01 8.349711992759437096e-02
-6.614174540797194135e-01 -3.220606718290138781e-01 1.549133917878769418e-01
3.373486936646303835e-01 4.289423256249891292e-01 -3.018339449948599928e-01
6.591410531176983278e-01 4.728672891135919931e-01 -4.585192675783315019e-01
7.559931098833323482e-01 -1.561422845955109107e-01 -5.365698128940797895e-01
-8.265815623368386600e-01 -4.110531476243645815e-02 2.499328345400941565e-01
2.070632748671558977e-03 -1.121938552014128260e-01 -1.624100399475323364e-01
5.640673057289896652e-01 6.673440623445467956e-01 -4.022477339020102405e-01
1.057450909828367841e-01 -1.183687047376609860e-02 -2.087440629931797131e-01
-4.833690312622411223e-01 -2.283435859014160130e-01 7.155790462986628964e-02
1.918404393099695793e-01 5.032375419503180014e-01 -2.264548310224938910e-01
-2.398585279349428889e-01 -3.298591115345216873e-01 -5.349270163356503738e-02
-4.991268328822322520e-01 -6.087050743672794972e-02 8.738968592542499525e-02
-1.068722728611021938e-01 -4.684455739920146966e-01 -1.257849285599417499e-01
-6.031646820474655390e-01 -5.749595668411409122e-01 1.140021191988629112e-01
5.961993951069767261e-01 7.931719289257642413e-02 -4.463889491076331040e-01
1.316397143968718597e-01 -3.846113610295349983e-02 -2.228031999160771659e-01
-4.530993636120264623e-02 -3.722521573454580235e-01 -1.515377252632718330e-01
-1.933268315450510921e-01 2.692710759706714585e-01 -4.763642631037069003e-02
-7.513188112957466247e-01 -4.303190901226142118e-01 1.940705956091212658e-01
4.895517057605889948e-03 -2.158563930763611749e-01 -1.687903335031414875e-01
-4.818049484859200926e-01 9.621330009483521073e-02 8.639756327444038375e-02
-5.546089406239483877e-01 3.145516366813910780e-01 1.328271782499356457e-01
-7.218402906580971834e-01 -1.990723632805393439e-01 1.906467224363754265e-01
-7.637108271361902068e-01 -1.224628683821223224e-01 2.149939942871666732e-01
4.722223768036593605e-01 3.463887995129708020e-02 -3.873578163947522524e-01
-2.594783259240996953e-01 -1.853824787478078329e-01 -3.686125306712700889e-02
-1.342825674844221329e-01 -2.228831161080258860e-01 -1.004466974975499194e-01
1.434210523374812862e-01 -3.444356983499790581e-01 -2.433347314898995084e-01
-3.066049355451699876e-01 -4.490435891086428932e-01 -2.628756094718718087e-02
5.723590085421617069e-01 -2.171129010022796735e-01 -4.488827669143042320e-01
-1.972264677999674698e-01 1.625500231022009578e-01 -5.084541970204246170e-02
1.025015153137676799e-01 -2.113085597238718305e-01 -2.167382052915785839e-01
5.824050334811406993e-01 -1.741319957940841157e-01 -4.517728578271725248e-01
-7.330647782608351593e-01 3.524999014294493554e-02 2.074569183232115033e-01
4.626955709690886431e-01 1.187367083525622952e-01 -3.786113388937870083e-01
-7.089412594269943746e-01 -3.496294527747345060e-01 1.770393632635486603e-01
4.666003255676411388e-01 5.820895423566975202e-01 -3.582505350708816150e-01
-2.418709253836841613e-02 3.773472514023216706e-01 -1.259049682496282130e-01
-2.858357533608473222e-01 -3.238478628271564408e-01 -3.051470456617915925e-02
-5.026526125296748582e-02 2.703028354255173626e-01 -1.181848492097875986e-01
-6.150936475185615482e-01 -1.651410458925822722e-01 1.396014976510761840e-01
-1.425853130070458552e-01 2.628998641271546588e-01 -7.298282224707620947e-02
2.180783796546713338e-01 5.391112514859914828e-01 -2.376771745375270695e-01
2.041275600106035593e-01 -1.450272207708517558e-01 -2.637004485969796086e-01
-3.499015723637138309e-01 3.401728112798368953e-01 3.304054981076284814e-02
4.718097294502816563e-01 2.316427494537655896e-01 -3.776781049829677217e-01
-8.513395006254312891e-01 1.992400740339817997e-02 2.650859566154684099e-01
7.781820790543391153e-01 2.642136362199142274e-01 -5.273001002623993738e-01
3.745043657962834338e-01 -1.661514264364795657e-01 -3.487941227355342844e-01
-2.522655174625036412e-01 -4.999033464991551878e-01 -5.554939144868251827e-02
3.658848136056907507e-01 5.261466435191163027e-02 -3.340176822758628150e-01
1.225283815739696275e-01 2.933034132137515293e-01 -2.023487394750890511e-01
6.126351808989500408e-02 -2.482350808331285907e-01 -1.981642720528638546e-01
-1.333150872826690536e-01 4.079777867472220709e-01 -7.057910557522587003e-02
-1.043650191018990758e-01 -1.565518740606367809e-01 -1.120198177062387279e-01
-8.573081271216321797e-01 2.492266550331295391e-02 2.682717959058825707e-01
-1.287551981377482446e-01 -1.836848089860508224e-02 -9.333699153209008836e-02
2.339673736736974652e-01 1.136517453799603949e-01 -2.659830952770257384e-01
-4.901500849255563952e-01 -2.575661957852071748e-01 7.349858429596627107e-02
-1.551490947826086597e-01 1.013151706730342078e-01 -7.455522600214760376e-02
-3.400097399875713355e-01 -5.020652594199571245e-02 9.381499876438378210e-03
-8.589686126887932094e-01 2.102829801707482155e-02 2.689038897751558910e-01
-4.114529573765563497e-01 -5.838779855441306177e-01 1.896719538716096221e-02
-3.232768626539422874e-01 -4.029634783991909441e-01 -1.584379688163161520e-02
-9.084098875344396307e-01 -3.831302164511021964e-03 2.921064087068717119e-01
7.320822848663891547e-01 -8.049276527789106517e-02 -5.211314787094804002e-01
1.877322011926721157e-01 -3.192208680440986601e-01 -2.639885479348097475e-01
-4.048415418963156598e-01 -5.120026519401777998e-01 1.916186638330926242e-02
6.765826378043241496e-01 5.676045525719818352e-01 -4.625693894823622587e-01
5.362564012079776843e-01 3.457402284331403952e-01 -4.039930611635191293e-01
-2.092744012551060739e-01 -1.964124040255948722e-01 -6.216644573317910843e-02
-1.778535985359228078e-02 4.627065002845273112e-01 -1.249582334809916789e-01
3.380250403349552846e-01 2.963543772236400531e-01 -3.085453182145840301e-01
-6.754540699276137539e-02 3.480338008842545627e-02 -1.209851928395053594e-01
-2.765456604017827447e-01 -1.524272881849728367e-01 -2.685368474635258310e-02
-4.576207221065724529e-01 -2.623611276414961613e-01 5.721534710950647307e-02
-3.125828209363996080e-01 1.775397097732328289e-01 6.801674418998207398e-03
5.527632115683778213e-01 -2.321886291572675121e-01 -4.399377864285823891e-01
6.693336168474185444e-01 -1.622907324280849217e-01 -4.941008157473306683e-01
-8.028441067350933213e-01 -5.468839195932483355e-01 2.138904265275350935e-01
-2.915267188104572194e-01 -1.650262771960863684e-01 -2.006685277879927468e-02
8.083837156672002422e-01 1.531973033773825210e-01 -5.475440035746855783e-01
-7.476752932249838279e-01 -1.657354157940744976e-01 2.049993241912856090e-01
-4.241710635020101011e-02 -2.300475051016408201e-01 -1.461250972195930198e-01
-1.556402243274834785e-01 -4.420137938315199522e-02 -8.131235117143159608e-02
3.420268690762022779e-01 4.644801404829336788e-01 -3.024331283784414959e-01
2.468050634460567938e-01 -3.586586109876516715e-01 -2.950368293600142966e-01
-5.438342112235685644e-01 -1.244863723302176567e-01 1.063919065863717789e-01
5.480802144710249513e-01 1.710775563737233773e-02 -4.256354210466556931e-01
-5.117292971757703146e-01 -5.714448360348204359e-01 6.904962966434785576e-02
-5.084415912996353981e-01 -4.030951928733141898e-01 7.552499383235158903e-02
8.382106851623047361e-02 1.793990887138246504e-01 -1.887263561136641732e-01
3.492118307175673397e-01 1.223374764020720706e-01 -3.224361602283386530e-01
2.189025080545209945e-01 2.246816464665204460e-01 -2.532082360132024701e-01
-6.365069120151932713e-01 1.391903050737484382e-01 1.648071541512619032e-01
4.962658378488563615e-01 2.910668880412162207e-01 -3.868883511338948034e-01
-2.964904497533353556e-02 -4.342713103326239499e-01 -1.622492466907769493e-01
2.899901970214768254e-01 3.611995990531230438e-02 -2.973586034805838496e-01
-5.682864446564400707e-01 8.646781740563828922e-02 1.286057016112952811e-01
8.226861554763594681e-03 3.089411610539186115e-01 -1.451910122321019292e-01
3.281958387460770510e-01 1.466244491734585709e-01 -3.108969573629503658e-01
7.920578497702867038e-01 2.393696627315802794e-02 -5.457050602832651531e-01
3.813672234908144915e-02 4.026533688941827394e-01 -1.554432876291788057e-01
5.417189554822094966e-01 6.459385273892765955e-01 -3.922488927676131554e-01
-6.701488142720196661e-01 -3.735237831512079887e-01 1.567467193053181940e-01
-6.782171819257832857e-01 -2.936294894171879305e-02 1.772827704760646106e-01
-5.740117270965041651e-01 -5.528432541796423072e-01 1.006795295118463329e-01
3.452327154800197695e-01 4.569653132060036427e-01 -3.043766206010542485e-01
-7.144047330346683378e-01 -2.851467424155357255e-01 1.828371604928501204e-01
1.713677951011381706e-01 4.031023130540595245e-01 -2.211685886740863971e-01
-5.452646601135441307e-01 -4.555765516059596260e-02 1.108943529996301441e-01
-1.379495808791796341e-01 -3.431236444504732752e-01 -1.044207856093672948e-01
-4.009799948759970589e-01 -7.912903829535053446e-02 3.807791208714967485e-02
3.981978177276336295e-01 1.251381488213208215e-01 -3.464750595535577293e-01
-4.673814459505080676e-01 -3.702269898012520294e-02 7.287106903548119796e-02
5.551790668318458133e-01 -2.582541692718915427e-01 -4.423837410359087730e-01
-6.716525453099572163e-01 -3.068430305252437540e-01 1.606961899762549550e-01
3.560619615652020342e-01 -1.748111474202848625e-01 -3.401097025270966578e-01
7.448781880251416077e-01 5.012345614452375087e-02 -5.211632359451600083e-01
-4.156803869780226757e-01 -4.270340022088712217e-01 2.859769662180116495e-02
7.192353245101782422e-01 2.431016791831972224e-01 -4.992265500725662219e-01
-3.975600737054932332e-01 2.655300599462362965e-01 5.296868723983748362e-02
-3.814480421956032430e-01 -8.948811919418560301e-02 2.794099839245822378e-02
5.347362869113094774e-01 -2.189143128328626398e-01 -4.304033485905372491e-01
-4.280955085714284181e-01 -5.000305657914248803e-02 5.285986916544992836e-02
-1.368770402913026818e-01 2.117388627419022340e-01 -7.826063580336402314e-02
-2.534219945458021650e-03 1.854214484619471359e-01 -1.458220501935352797e-01
-3.838741649649931587e-01 1.461641896303486066e-01 4.047334764087453379e-02
-8.055433251338585121e-01 -5.905187976401574668e-01 2.131235571890287006e-01
1.355271074271466314e-01 -2.785209656040971704e-01 -2.362686631370147783e-01
-6.040778907814552401e-01 -5.217062660266242879e-01 1.170143052903682285e-01
-5.595827928393006800e-01 -3.984896541806628306e-02 1.182346614622514086e-01
4.870649767069465397e-01 3.501903325927505084e-01 -3.795040130855237837e-01
-3.224794734800480178e-01 2.796964264539995026e-01 1.659931407165048459e-02
4.912863053002495817e-01 5.936563843332347268e-02 -3.955761063566356484e-01
-5.469320023808908575e-03 -8.385204279066341138e-02 -1.573259537889554749e-01
-7.699137824529472818e-01 -5.880070668641458331e-01 1.956619002346979275e-01
4.667649080598721412e-01 2.435008092282148484e-01 -3.746182013103910857e-01
2.318063184590843651e-01 -8.779203807829212558e-02 -2.746062996331913308e-01
6.559113508284106775e-01 5.888630661520787291e-01 -4.513459635437625517e-01
6.754058757827545723e-01 3.142424708159352043e-01 -4.741756437806164959e-01
-6.575934829775452739e-01 -4.038651591704716104e-01 1.490914622198957484e-01
-4.324815312992315031e-01 3.310261016330069972e-01 7.335215836087835561e-02
3.413978556861141933e-01 -8.819141646436786872e-03 -3.248888794583210116e-01
-8.039294199809987607e-01 -1.466799603761148249e-02 2.400261117197289296e-01
-3.032699789213457731e-01 -2.978944716238343116e-01 -2.066287613537374016e-02
-6.729381612878786445e-01 -2.140958659017329624e-01 1.657918450053686710e-01
3.594981060283503060e-01 3.519853030513236392e-01 -3.164659491015923698e-01
5.310706888187277652e-01 3.135148466068194972e-01 -4.029840870764789806e-01
-8.121941922552814441e-01 -5.779983271904790554e-01 2.170078752203772887e-01
5.779719132283960281e-01 1.409827778914311269e-01 -4.344278730693678092e-01
4.020950743697031537e-01 4.704602109670653620e-01 -3.317879507923354732e-01
2.932700078679085220e-01 -3.408189556165112100e-01 -3.171082543620231675e-01
-6.364143225327535403e-01 -6.022167872052929249e-01 1.290990593895756655e-01
6.745192717236946356e-01 -1.368175536618087829e-01 -4.954345490004866681e-01
-5.148150608995708533e-01 3.007046615290308034e-01 1.125236337436582856e-01
-6.462947394088488506e-01 -1.652046399512867580e-01 1.549955596098337163e-01
-7.793796734891407230e-01 8.709966570796479068e-02 2.328064217546138015e-01
-6.424593430468628075e-01 -2.230749288232565797e-01 1.503192501741635878e-01
3.294266723088498106e-01 5.429261678048712403e-01 -2.924418504621073001e-01
5.654666555165406283e-01 -1.007223965869567806e-02 -4.355226696179756996e-01
1.625160204070751624e-01 -1.529681887877426538e-02 -2.369258191782077361e-01
2.386679293913653022e-01 -8.831219136298090744e-02 -2.780173886106235837e-01
-1.722071110257426541e-01 -1.515216361263618805e-01 -7.829912964074627058e-02
-5.905823024752883121e-01 -3.065488532428857771e-01 1.207037809871680245e-01
-3.201909995973751255e-01 -8.749323076784175368e-02 -2.192182826600827267e-03
6.667762143870890057e-01 -1.963002399828903122e-01 -4.944746787415291722e-01
-3.048623896449012549e-01 -4.562584110822876515e-01 -2.749451280521962929e-02
-7.578295861047877890e-01 2.030652714589369912e-01 2.277499390927732459e-01
7.080518362754092410e-01 3.514473072692483879e-01 -4.884961898226841126e-01
5.133301065691030507e-01 4.671167316794254121e-01 -3.868410607306358995e-01
-3.424155257031143984e-01 -2.693554559901978895e-01 2.743036973275764798e-05
1.492602484282468632e-02 5.591375586650097068e-02 -1.606677814149883587e-01
-7.089332363735697529e-01 6.705304994386213080e-02 1.970782385093277911e-01
3.949795814239668856e-01 1.281642370759829008e-01 -3.447413658822834348e-01
6.974046457591068782e-01 2.501434889057616018e-01 -4.881148245658560314e-01
-7.430956284690415359e-01 -1.191832505160982103e-01 2.049785548545777214e-01
-6.010576173967199787e-02 4.165914787931946917e-01 -1.062921308021741590e-01
2.799322248035016059e-01 3.047059385723664415e-01 -2.794759460664732464e-01
-3.766202779299388514e-01 -4.056870697836637563e-01 1.034911466471715238e-02
9.560308026994490671e-02 3.742984057990101920e-01 -1.851656984723244470e-01
1.782128395304418411e-01 4.925372035622326700e-02 -2.415669446866890724e-01
-5.285168757310655385e-01 -4.483127204828176171e-01 8.325674195312021686e-02
2.278733479847129817e-01 -3.192435048970287959e-01 -2.837984977163057754e-01
1.286059808325047682e-01 3.899608928146798825e-01 -2.006985953718256055e-01
5.889799106256412564e-01 -3.856964501262948042e-02 -4.484967482928043925e-01
6.607328985180680458e-01 7.266187546673339437e-01 -4.470991189664378362e-01
5.624044163079250369e-01 3.553740843424978424e-01 -4.164331908830724571e-01
7.583748829992287277e-01 8.615326368677693469e-02 -5.260905187501531133e-01
-6.260355616971058357e-01 -4.698658094375591232e-01 1.303435574884989345e-01
-7.223652010995801342e-01 -4.104209501550174499e-01 1.807396823421517640e-01
-5.995082757199053924e-01 -6.053877932972915460e-02 1.369418963074364171e-01
1.008983990457824054e-01 -3.323087091262870718e-01 -2.217673242722474347e-01
-3.846113251988052539e-01 5.617808171518998833e-02 3.650870212867112635e-02
6.230500035172612527e-01 6.742568786372338252e-01 -4.310220138786708399e-01
-8.146009552668066755e-02 1.068108838082235806e-01 -1.106549385305273941e-01
1.167813050622610593e-01 1.651632037617578042e-01 -2.056763399954584515e-01
5.455875622300361272e-01 6.353069569644351766e-01 -3.946693624765756914e-01
-3.658495246189891748e-01 2.957625148561088269e-01 3.877436985316603385e-02
-5.128204893994980917e-01 -5.883498940382015929e-01 6.877496165016969143e-02
6.778892933287204992e-01 5.513788621572306425e-01 -4.639946696265921378e-01
-6.926184852896963839e-01 -4.707292635692636451e-01 1.631593785888206805e-01
6.708735268028029886e-01 -8.040107041383030145e-03 -4.874411254037269714e-01
-5.306025369748734732e-01 -3.193784517130505707e-01 9.048783845167632234e-02
5.045243613285173012e-01 1.147413104911244319e-01 -3.994452010273933928e-01
-2.811758030030125921e-02 -3.728033715902772660e-01 -1.600483264186667864e-01
6.681739699083563133e-01 -5.998360801240619489e-02 -4.886074805612374838e-01
-6.047690303345270024e-01 3.079653165410837223e-01 1.572633806594470607e-01
-7.445626754811163206e-01 -8.840445070702673824e-02 2.071830037661206714e-01
6.188897469319416533e-01 6.620488212581268073e-01 -4.295562291071790550e-01
-2.293827967741607909e-01 -4.051918752910848021e-01 -6.228584683757491802e-02
2.300571628191434292e-01 3.789783833842104155e-01 -2.512910137986508752e-01
1.677800653926246055e-01 -3.379802338333898204e-01 -2.550449078559353100e-01
-1.648417887236553747e-01 3.708430578293089308e-01 -5.680751946690625748e-02
6.004376609831141298e-01 6.115260983295602859e-01 -4.228806823544235538e-01
-2.976541878084114634e-01 -3.926640631509417112e-01 -2.799266753742161648e-02
1.505242273744216153e-01 3.467638991680518368e-01 -2.135926334312149844e-01
4.249081259957417922e-01 -2.236713871094927752e-01 -3.764341462879675082e-01
-2.993124273292971371e-01 -3.067916350834422046e-01 -2.304381169804859547e-02
7.578921540316319039e-01 2.905756453514230994e-02 -5.285986603378263204e-01
1.797975169574000665e-01 -1.610242329797788030e-01 -2.524635260959683380e-01
7.357770040290755043e-02 6.529235169630703828e-02 -1.891601020793043930e-01
-1.301525245245621909e-01 -4.908439074665957857e-01 -1.153739671094996116e-01
1.887980941303773197e-01 3.611952862183871460e-01 -2.317858648612071415e-01
6.874710198910202186e-01 -1.287270550747453834e-01 -5.014368193386177230e-01
2.011117949775862238e-02 4.848549250243526232e-01 -1.425940642763683097e-01
3.357388123627967347e-01 7.797694011336256392e-02 -3.179212775375683253e-01
-5.981467072910525706e-01 1.699708605800026862e-01 1.473577275799460573e-01
-6.434295608578245451e-01 3.909485289473954572e-02 1.634086554496057830e-01
-6.476035511187360205e-01 7.105602768675862990e-02 1.670058006310911336e-01
-5.961875047270331907e-01 -2.503505297209589475e-01 1.261730314147909704e-01
4.463899306297580694e-01 4.993134464271345996e-01 -3.522587163304606861e-01
-3.021535998166854364e-01 2.750024337661474139e-01 6.343112359786275134e-03
5.467071992573943051e-01 3.159471073141496000e-01 -4.105834011788052629e-01
1.133488199460502416e-01 1.344755657948736582e-01 -2.054585818658728191e-01
5.488252337669705661e-01 2.141254823173855959e-01 -4.165263286544128585e-01
-8.317181242372163608e-01 9.358945633897471084e-02 2.589465758642057192e-01
-6.044394209922975270e-01 -3.284105470848321801e-02 1.407076063830506596e-01
1.130889727678886791e-01 -3.056122948416186702e-01 -2.264990074194201120e-01
4.586904216962562897e-01 2.321965858600108235e-01 -3.711773463697803366e-01
6.635106477493531996e-01 6.547151842444226544e-01 -4.519285150092310355e-01
-7.650231477313338413e-01 -5.719299871755428866e-01 1.940217920621309933e-01
-2.908842443158659030e-01 -2.175152925804822723e-02 -1.349224621139785696e-02
6.185342053613810398e-01 5.030222270363369219e-01 -4.370301105471436909e-01
-2.242004015829425490e-01 1.545478845014085223e-01 -3.791922827738693907e-02
9.890813474174470210e-02 -3.898161779880072175e-01 -2.235513335532126611e-01
7.739821385041477375e-02 4.155273717194770677e-01 -1.741988040096154045e-01
-9.063787962118749486e-02 -1.768105691902456880e-02 -1.121140675245042989e-01
2.215920631459432633e-01 -5.487149682444480286e-02 -2.679822568170607822e-01
4.001441595108222171e-01 1.217407576013137815e-01 -3.475989585039606089e-01
-3.254045765661460754e-01 2.664035578562698459e-01 1.740339457726438818e-02
3.436995122462542518e-02 -2.617091388013557673e-01 -1.855409447646887700e-01
5.886097780951090458e-02 -1.864580081716301352e-01 -1.940071286073683510e-01
8.701692461353867369e-02 3.406793813522413505e-01 -1.825457085486210662e-01
-4.974736800471575848e-01 2.041498420406198944e-01 9.932162483146833587e-02
4.413541255437363198e-01 6.347228549921084262e-02 -3.707380308520085710e-01
3.101354427343111855e-02 2.695288149882967832e-01 -1.583315611078935925e-01
-5.439997193404936260e-01 2.478643634382797778e-01 1.243840148334885154e-01
1.537576970987187264e-01 -3.239135809049825676e-01 -2.474485271080779925e-01
-5.426290641507245383e-01 5.220113666273526465e-02 1.142960317499636946e-01
-2.181053676482728743e-01 -2.061349077253655793e-01 -5.827620062290651132e-02
-4.447280950789628817e-01 -4.892110619695992368e-01 3.994138809563849146e-02
6.831636720319991252e-01 3.574112625054782777e-01 -4.759275016317304208e-01
1.371151831997105830e-01 -1.577285764207689289e-01 -2.312421154387531985e-01
-7.476072159550682938e-01 3.518353099835955233e-02 2.146301265555947413e-01
-5.388814379566304602e-01 -4.759440753399250545e-01 8.704235303910934363e-02
2.807591430508197261e-01 2.431671476719885205e-01 -2.828440896596861598e-01
-2.560610224458172990e-01 1.980621639995015226e-01 -2.010356364552531167e-02
2.479255376294498547e-01 -2.073937888241333127e-01 -2.883137758149495466e-01
7.631814038928100841e-01 -1.178082128640016261e-02 -5.331731665456945768e-01
3.388242988320063209e-01 3.524007978063400381e-01 -3.062438490024271265e-01
6.182094061404408425e-01 2.830620561050812278e-01 -4.474501271510589739e-01
2.825420786023306596e-01 -1.904245593225306066e-01 -3.045801167109306595e-01
7.804222113542986783e-01 2.057739931739155648e-01 -5.312165649690869795e-01
7.640766288897359315e-01 3.169450004836784629e-01 -5.178029099604367635e-01
-7.666403774923881143e-01 2.280383269772455826e-02 2.234271392601348549e-01
3.072592573349688938e-01 -3.192671259973366982e-01 -3.229750079018045561e-01
-1.844843200464856697e-02 4.297119165430733356e-01 -1.262180921401490630e-01
4.126890638423271751e-01 3.517664657531136552e-01 -3.427251595971455567e-01
-3.235722540700071703e-01 -1.257188227979885442e-01 -2.362288941620702132e-03
4.620808117318745412e-01 -2.774837276405941466e-01 -3.973665564985245369e-01
-6.177324504288206342e-01 -5.449732844583581315e-01 1.226333937793837592e-01
-6.633369893417329077e-02 3.649960501033471250e-01 -1.057005575469642938e-01
7.943283618180004835e-01 -1.010925100487386347e-01 -5.528395526702828411e-01
-1.513267942262741805e-01 7.929614271226802236e-02 -7.750059232798817144e-02
2.492368219258147555e-01 3.587250413719826891e-01 -2.617300011941831595e-01
-6.510016273877520243e-01 -1.569323524561202499e-01 1.577162206955772250e-01
7.169453438451407479e-01 3.944783056242143759e-01 -4.908151267108209481e-01
2.391306164808740531e-01 -1.529986475019954467e-02 -2.747337514604299424e-01
-8.982686693686079415e-01 5.563862716597754721e-02 2.899624799517603879e-01
5.467712651009305480e-01 -1.793143841690933993e-01 -4.344375768071632171e-01
7.320524970298162293e-01 3.821030179730868781e-01 -4.988654709993995962e-01
-3.226829131296392039e-01 -4.260464156377618550e-01 -1.724721098534531469e-02
-3.614633294557941801e-01 3.887900733059255209e-01 4.108458563344163234e-02
-8.391325445154483864e-01 -1.356536960115310442e-01 2.515786263855403493e-01
5.786213426771175117e-01 2.303724662702588966e-01 -4.304486225132187482e-01
-2.909582475488758924e-01 -5.286141726408298824e-01 -3.783631419741680796e-02
3.581756707411772878e-01 5.565992393658095172e-02 -3.300668930017566227e-01
-7.794574830261102871e-01 -7.580294603046192070e-02 2.250090448367208784e-01
-3.298736423013769459e-01 -3.346798511960322187e-01 -9.303907762965130460e-03
-5.014747837761360794e-01 -5.801449228339482511e-01 6.357074774347329371e-02
-1.395777613157537234e-01 -3.981901692025091033e-01 -1.062660643171500774e-01
-7.559755018286251627e-01 -4.830420654497619704e-01 1.938325536640111979e-01
-9.005100495516357162e-01 1.121369311023764741e-02 2.889316740575142428e-01
6.348416897907452894e-01 1.908426070797577256e-01 -4.600936750936632236e-01
-2.159923848268417157e-01 -1.825118402374727722e-01 -5.818262322830948519e-02
7.099762347282952968e-01 -1.337021769404983518e-01 -5.127820053443239434e-01
-1.696482568490774723e-01 1.155680680858933371e-02 -7.171764146232825765e-02
5.006730231972517098e-01 3.883207484576094159e-02 -4.011959501500578229e-01
4.637468038031544726e-01 -1.125650838303394324e-01 -3.902559430991777711e-01
3.130566227212599473e-01 5.016643318277669295e-01 2.586239668644042464e-02
-6.768955594662974251e-01 -6.348388574001413431e-01 4.597172811135976644e-01
3.036517903824630382e-01 -2.298157559085212964e-01 -4.681409914565242206e-03
-6.055281762147282087e-01 1.400723324514331625e-01 4.617728743758562904e-01
3.488010712901317145e-01 -2.312335068023920470e-01 -2.702988103857028451e-02
-4.496925873736251078e-01 -4.750365136719734982e-02 3.758485100567744430e-01
-1.954891406639826801e-01 -8.577206566130508858e-02 2.485633957067786559e-01
7.950468518321966993e-01 2.042842070666909260e-01 -2.262945091437734702e-01
-1.797887912772969665e-01 -2.539892758879710999e-01 2.327241724875328821e-01
2.893585639934001530e-01 -1.118751635232781566e-01 8.045071658254309560e-03
-5.413427876849981057e-01 1.021672593738473106e-01 4.282753854035959429e-01
4.418073205726852359e-01 4.361437295244908752e-01 -4.082512755732183724e-02
1.179131949950395220e-01 -2.868624628518192665e-01 8.423290606578766326e-02
-2.749316017590101597e-03 4.677834239972724489e-02 1.598259133567067614e-01
3.691699302256045701e-01 1.635312536149936824e-01 -1.809293980914925687e-02
-3.560187911553635010e-01 -5.563983005603994059e-01 3.051440183028177322e-01
2.876317623817472580e-01 3.058571877743876399e-01 2.899054725699326540e-02
-4.444349305431658514e-01 2.684030474711768810e-01 3.884493806262350191e-01
8.492731380397533503e-01 -1.354869234960312530e-01 -2.693974299171951192e-01
-6.187407254427980119e-01 -2.624207646456079290e-01 4.489326955140133246e-01
2.929626539467912183e-01 -2.120819038829406811e-01 1.446482778029588691e-03
5.021028824526939660e-01 2.033016522361803108e-02 -9.058083084100246318e-02
-7.549125292900611406e-01 -3.408037310198704373e-01 5.123604866917291778e-01
-3.315364105591950827e-01 -2.431994184654608093e-01 3.081276198246714615e-01
-5.999705602247661362e-01 9.836557464870354650e-02 4.570241652599781323e-01
-6.790160546015150400e-01 -3.074943469274851182e-01 4.765092934366749189e-01
5.090714311620557764e-01 4.918440665108886334e-01 -7.133939344205357524e-02
4.845138960418035601e-01 -2.184988410100772993e-01 -9.338892235925558283e-02
-4.387922113424275739e-01 -1.543280916577740303e-01 3.653310306876332847e-01
6.799455675262163767e-01 5.984634949569020979e-01 -1.505338970763372974e-01
-6.116619040151314302e-01 9.238836561021111782e-02 4.625061022878232397e-01
-5.262363624469532652e-01 1.800279350441796045e-01 4.245658381185752339e-01
8.157859689119892899e-01 2.065661994748020092e-01 -2.364190866155111981e-01
-6.026198029013219992e-01 -2.379443367762858891e-02 4.524554985982982003e-01
4.528408793070173854e-01 -8.082308708514988893e-02 -7.113657796287807533e-02
7.471286146027908970e-01 4.942220502165654838e-02 -2.100968213362137960e-01
5.099780513413962879e-01 6.670713659880610213e-02 -9.223629319561638118e-02
2.360129997016640335e-01 -3.491796667068970406e-01 2.295547323010080007e-02
2.905683512626813791e-01 1.662386001826577919e-01 2.082560867468508450e-02
5.286009095202348629e-01 8.639276290795820656e-02 -1.004794070617145013e-01
7.315863661405216378e-01 1.768646962012293267e-01 -1.962969215155627722e-01
2.677002978729897120e-01 -2.967399431970448309e-01 9.840820971595701586e-03
2.059974393394533310e-01 3.423132719834640625e-01 7.102904204980878267e-02
4.024636359981469402e-01 -2.735316279417434049e-01 -5.554587475756051634e-02
3.617602050920077916e-01 5.550524127833520449e-01 4.396162108732228416e-03
8.064522310177804076e-01 3.135159179139905272e-01 -2.266686861378990892e-01
5.919596456274513890e-02 -4.461711304242797493e-01 1.055457941942049421e-01
7.135067412175587487e-01 2.756340108437335679e-01 -1.826240844007667452e-01
4.379888027990255783e-01 -2.188037273139926131e-01 -7.044437562454138047e-02
3.121606589983350610e-01 -1.842473232970989194e-01 -6.688482036312393131e-03
-6.792373263271204997e-02 -2.812041472532830766e-01 1.762119197534255666e-01
-4.112985254760822412e-02 -2.363660947467434992e-01 1.651464246203703246e-01
-4.885560752197880552e-01 1.365752885278510298e-01 4.038812480037656250e-01
5.695727129580291370e-01 -3.103628422503381112e-01 -1.397825118627352980e-01
4.823974419087979082e-01 4.609170549813753071e-01 -5.966392743184927017e-02
1.745119494122870374e-01 -3.856299756438074100e-01 5.155172810654450738e-02
