-1.030742254312545791e-01 5.766277937451135260e-01 -2.688249850170579616e-02
-3.375759482386358479e-01 7.350613231162578254e-01 -1.245849427326222864e-01
-3.008839689660677830e-01 2.440696711284546239e-01 1.089262638386871880e-02
-4.741529264717787850e-02 -3.827616504397025610e-01 2.339501798085173723e-01
-6.455241936655311541e-01 1.313915909123540560e-01 -4.361935117539950807e-02
2.016546145799494871e-01 1.545415152942088491e-02 1.916765238896279144e-01
3.403227662771253770e-01 5.912942834756881316e-01 7.684208096825403955e-02
-4.878610827531342786e-01 2.541794868543431063e-01 -3.704809190414153769e-02
4.399806000018545715e-01 -6.747165685330593077e-02 2.708397502377123400e-01
2.343148639604340500e-01 2.385446673926558958e-01 1.420809282448023680e-01
2.441690557469091971e-01 1.404116502778631759e-01 1.697695818541599955e-01
-4.282828555977625240e-01 1.871490671248672022e-01 -5.321863609143787956e-03
6.336594871514612537e-01 1.587732366217397273e-01 2.594713932919670563e-01
6.209852547835483794e-01 6.184975454416993257e-01 1.378781004395416843e-01
1.034288820071134762e-01 4.923419078002919669e-01 4.491561426183490746e-02
6.961544410968476537e-01 1.448032419254831615e-01 2.782254412188488457e-01
1.420441071327802340e-01 5.589803449198346152e-01 3.709835416180989887e-02
7.442681734400212745e-01 2.451028469907461094e-01 2.640330855372004515e-01
-5.278435720472693937e-01 4.951583476920525251e-01 -1.088683394139123850e-01
9.341206413906776029e-02 6.282782896055054689e-01 7.441545015188330559e-03
5.367413872661324081e-01 4.132745868244201426e-01 1.703603823202743950e-01
-2.110159047325410597e-02 6.403995829121457428e-02 1.251414400014771444e-01
1.121196011936966865e-02 5.140998428979158819e-01 1.694741154436434777e-02
-3.508800463116377721e-01 4.557610757875341645e-01 -5.580498672376774799e-02
-2.938622838261603643e-01 -4.665025491628934512e-02 8.754483399361838447e-02
3.364566524797468327e-03 4.061829250811674896e-01 4.286651334138381897e-02
-7.259383766581707365e-01 4.232260566946546843e-02 -4.015387537789711497e-02
2.912781323970424219e-01 2.169142628584533050e-01 1.614686777668276063e-01
3.457312485589582596e-01 5.058187420264081968e-01 1.001896408076409228e-01
4.805736447203396433e-01 -7.710679113875367197e-01 4.620741989218855039e-01
-1.884352918409249178e-01 5.669205514538485646e-01 -4.507648140660154568e-02
2.148562207626965592e-01 -4.320115355054138240e-01 3.102373205585172156e-01
-8.172323724577830184e-01 -1.716515571492773784e-01 -7.124837610664600668e-03
-3.085893960887008403e-01 6.043140039756056403e-01 -8.384926418597653253e-02
1.683492162452565263e-02 -4.395258458383420330e-01 2.641624665282560347e-01
1.628005702853308270e-02 7.341391335301602483e-01 -3.855152878365047248e-02
-4.111773263136054846e-01 8.668611534056870627e-02 2.472561824781794107e-02
1.079986750125745826e-01 5.758417709304117782e-01 2.449672410775585035e-02
5.016910150216268294e-01 -1.879477747685011357e-01 3.168616412854105557e-01
2.172790855732684712e-01 4.499090354400225866e-01 8.345915741610442085e-02
-3.700340929745386531e-01 3.458097745314092641e-02 4.813426408049461397e-02
7.480355364512661920e-01 5.647350053938983150e-01 1.825429964709466835e-01
-1.031866972656324544e-01 3.207704660631008897e-01 3.905213240649998974e-02
-6.016663144457230494e-01 -6.017902246711103187e-01 1.560340621016173268e-01
-5.966115893637332634e-01 4.435360323299093466e-01 -1.122331697470991818e-01
-1.244823263570222771e-01 -5.360652867609623229e-01 2.547873684120302018e-01
-4.892967999167771587e-02 3.825365587173078508e-01 3.628349595867622068e-02
5.273381837372578124e-02 -2.174788316171498981e-01 2.156211333392693552e-01
-5.992178105133797450e-01 3.963186790142666505e-01 -1.006920912707856414e-01
1.101264339367964001e-01 4.250200540673877980e-01 6.389556677736482615e-02
-5.730267839821814313e-01 7.789703379055407106e-01 -1.929922460726415656e-01
-1.260566020425762934e-01 2.136219859301137780e-01 6.113077830863287293e-02
-4.835863020155124481e-01 -2.430912285005581985e-01 9.218841582075756880e-02
8.152283156540078846e-01 2.190475923977563966e-01 2.879552656643974973e-01
-5.084268967523575267e-01 1.240246023388935082e-01 -8.479577599793359372e-03
-4.294893209359862407e-01 1.462084391674864647e-01 4.940412672619040255e-03
3.298391443652792243e-01 2.552893564595620224e-01 1.609247710027365830e-01
-2.741836432951564873e-01 -6.403929615241381601e-01 2.453873390667387355e-01
-7.021285149182833196e-01 -2.204745638421467258e-01 3.337008918999050111e-02
-3.081871941878637777e-01 8.269331862101827468e-01 -1.411446090133952891e-01
-9.022921786373396813e-01 -5.153540078619264220e-01 6.086064387426468741e-02
-3.071711611717466983e-01 -5.361391599387007600e-01 2.105118129825942486e-01
-1.257557826369544440e-01 3.116488781776230454e-01 3.593166101274466312e-02
-5.437240129439485647e-01 4.454709995885391960e-01 -9.990893566953445992e-02
-1.819964484221151813e-01 2.709966224405128687e-01 3.277604106574719817e-02
-6.145622811953178610e-01 -4.897278739374470446e-01 1.240168173242054139e-01
-9.411172929935859299e-01 -2.203189500963497194e-01 -2.461507247698255935e-02
7.835303203482074652e-01 2.061204394217867608e-01 2.836025081522906555e-01
-5.669832239509039473e-01 8.136709009153071659e-02 -1.167968123361309493e-02
3.520309231901505020e-01 -6.202685082172550990e-01 3.920306300612955153e-01
4.102843362414618777e-01 3.527627413327558692e-01 1.553000975625486169e-01
4.081565791442962610e-01 4.125119752052522348e-01 1.393804112318138000e-01
-4.521680480256952683e-01 -4.665470776168303968e-01 1.574146238471468284e-01
4.777752717279368233e-01 -6.873088226854620064e-01 4.398019984021174222e-01
8.293163605207354294e-01 4.733981151250739039e-01 2.257976073101711778e-01
5.177066627645019459e-01 -4.650278100792519520e-02 2.842792238232230706e-01
-3.952224923014024394e-01 4.397012370440602225e-01 -6.241587901589846360e-02
9.272029827972308458e-02 6.939743413819631224e-01 -9.663105327291608704e-03
-4.026902427358924341e-01 -2.828437097291124913e-01 1.220508968506003739e-01
-4.412722058040962625e-01 3.110512114037232712e-01 -4.041413592096900625e-02
3.690173625494687082e-01 -7.521269664052300241e-01 4.301432299078044030e-01
1.988738991509169662e-01 -4.597556033765295425e-01 3.135148833567090731e-01
6.466691192431690549e-01 5.825813027747647199e-01 1.533648628207597286e-01
3.195241052428146045e-01 -6.181491440121265890e-02 2.401756073369915867e-01
-2.327602391892006628e-01 8.002898472237124361e-01 -1.159877962632014925e-01
8.217895751340269506e-01 4.362972031789866256e-01 2.335375564166700113e-01
-5.679567148983112324e-01 6.272682674325731622e-02 -7.110116153868703028e-03
-8.215736833083517876e-01 -4.588727609791437012e-01 6.587031003352858405e-02
-2.700490088164677616e-01 -5.777030640407057049e-01 2.302279028843684239e-01
4.332806662309529599e-01 -3.112386826317801725e-01 3.320602212241273166e-01
-2.062361359327272714e-01 -8.665404543941596094e-02 1.191038767415430466e-01
4.940156000712908613e-01 -7.201113544359075691e-01 4.521963503909000037e-01
4.578237299662208937e-01 5.854303723317814123e-01 1.068430375925995407e-01
5.165571678319892390e-01 2.899980787915437241e-03 2.712641228103523927e-01
-1.528014978136180424e-01 -2.440933236198508660e-01 1.726486035679291042e-01
-3.268805741165752288e-01 2.113267397549843662e-01 1.303087713756508580e-02
7.854724348560681024e-01 1.021356030050807606e-01 3.108814473783860777e-01
5.041760531897397923e-01 5.036871477262759855e-01 1.391555922515707866e-01
5.455994117077976879e-01 3.533331654539411670e-01 1.879614316700373156e-01
-6.553700343633799275e-01 2.245509418869486296e-01 -7.002373227681833734e-02
2.273178571897119943e-02 -5.577793876939252105e-01 2.960788486289648302e-01
2.421855930573464655e-01 1.319062515035680228e-01 1.714814273056395888e-01
-3.644767752285355544e-01 -1.549824889187431387e-01 9.835254300340022515e-02
8.132640373113650956e-01 2.004086468604614479e-01 2.922842654198916645e-01
-4.662074215499301122e-02 4.751902445947518427e-01 1.295651769889513347e-02
6.618128945068533220e-01 -3.420315563695789512e-02 3.160481808702969575e-01
-3.450534167538490959e-01 -5.732570964134440228e-01 2.108961861679018168e-01
3.053394651754391953e-01 5.034750650970115649e-01 9.100049587493837244e-02
-8.276562439357323386e-01 -1.873218265571285068e-01 -5.612291121627028048e-03
-8.952363307959855521e-02 -4.139575991233238050e-01 2.317831675652574641e-01
8.721323369801416980e-01 3.427809134707004435e-01 2.698528126551547612e-01
6.608953398599217710e-01 4.251477791827452668e-01 1.974016620114563136e-01
-8.885357157299289543e-02 1.964954711092744277e-01 7.456633918015737050e-02
7.721448846588040427e-01 2.017487247348885293e-01 2.819690639892415418e-01
1.518704982297321426e-01 1.352889765538766442e-01 1.487116044662507020e-01
-3.472762780814841466e-01 8.719311938160855258e-01 -1.622229368277881278e-01
4.247392479143574096e-01 -8.926239230319359397e-01 4.798746659218975363e-01
4.365831550034405817e-01 1.904140835007188115e-01 2.035311677720628709e-01
-3.345893236003879556e-01 -5.009257103290767343e-01 1.947857392105737939e-01
5.247126875746891406e-01 -6.100256708653774007e-01 4.312582448063770335e-01
2.525506514871154184e-01 2.489930027092872866e-01 1.438087061861750005e-01
8.396089316674338887e-01 3.975725974938343343e-01 2.478415126321636686e-01
5.182789512171971369e-01 6.312703549183119600e-01 1.096830814227731377e-01
-1.179064350460761468e-01 2.901611432794830581e-01 4.337450414009973859e-02
-1.441865174754218548e-01 -3.076917568663381161e-02 1.197408511600059067e-01
-2.437572453313357757e-01 -1.831646171641728160e-01 1.348876713277853967e-01
7.341866094492119910e-01 3.041121837250813087e-01 2.463756759626525294e-01
-3.788998881050013590e-01 3.418669819665629689e-02 4.608631800806854695e-02
1.314035803611205699e-01 -6.955156353735297836e-01 3.579367496192859543e-01
-6.696083494149838167e-01 -5.457084433061413220e-01 1.251025906083709782e-01
1.046317750166795152e-01 -4.140912335023417823e-01 2.788923968903576633e-01
-3.564113772264607821e-02 -2.569176059144747115e-01 2.043614125662832071e-01
7.879087226297034618e-01 5.081457025484567014e-01 2.067997583078735879e-01
1.670062878806797824e-01 4.121444441872005315e-01 8.100604123503234166e-02
-7.062406680663667613e-01 3.649887188665398852e-01 -1.185636804339646050e-01
-5.508742736142571150e-01 3.904352191184077836e-01 -8.745395365212543792e-02
5.662643865947434296e-01 -1.994418432431343258e-01 3.354813088323225223e-01
-3.784419467006086002e-01 -5.988004679856305801e-01 2.093860968090106578e-01
4.488088635065972526e-02 1.620175472227440017e-01 1.158801597961508639e-01
2.630345506115364107e-01 -3.179030659004833392e-01 2.925006003067111005e-01
-5.792621941392398499e-01 7.294146948277014930e-01 -1.817282697955832638e-01
-7.196287603343100026e-01 -8.606896875277986192e-02 -5.523758320772542349e-03
-4.658325193563522260e-01 -5.788260463234414788e-01 1.830478900556759270e-01
-2.572357530578201490e-01 6.780651006090401278e-01 -9.041167278467540647e-02
3.035946876594133870e-01 5.320737552258510972e-01 8.320450576147885025e-02
-7.938085879288115931e-01 -8.148163006995452762e-02 -2.469199439179978889e-02
-1.611801620995310658e-01 6.974273429527033663e-01 -7.211383334606771833e-02
-2.730258140546652501e-01 6.492059057946333311e-01 -8.680000669220117038e-02
6.595188028747453468e-02 -3.928679270219520570e-01 2.640425735778689775e-01
6.905079830495237658e-01 6.771191951963019540e-02 2.967311150295127153e-01
2.093193545117519316e-01 1.303124365433939447e-01 1.639236005070767443e-01
-1.729477407586905435e-01 4.028586846224718743e-01 9.749746751552130749e-04
-3.896706771232510413e-01 3.618032683084466267e-02 4.296086830340854756e-02
4.901324882751483814e-01 -2.831126516471832999e-01 3.385933745317549759e-01
-6.653715665356967346e-01 -2.731666895048530108e-01 5.586656936467146450e-02
-3.674295198401045237e-01 -1.201258822391719772e-01 8.865033316687778719e-02
1.151108341134331609e-01 -5.617961220211585838e-01 3.195125483859725390e-01
-4.797803200305115166e-03 -4.930527653281955303e-01 2.727170454846269410e-01
8.951351275368797378e-01 5.485145018789985283e-01 2.223904201964750360e-01
-1.364770003615475014e-01 -3.717724589450790429e-01 2.095232492963113868e-01
-4.929191909189172272e-01 3.102143723877877068e-01 -5.272068268049345807e-02
-3.482266995744162097e-01 -5.559338175834650092e-02 7.666928162026126481e-02
-3.435248427654118419e-01 4.236421319566600063e-01 -4.574114954919283882e-02
3.907786439158165287e-02 -3.798217855230404116e-01 2.541633282314033626e-01
7.326220702439041610e-02 6.452634417837520564e-01 -1.822871662489915353e-03
-1.703297912577409479e-01 1.508452341090324722e-01 6.658064172808686454e-02
1.271987654649971433e-01 -3.576807635402610708e-01 2.698209387712387497e-01
4.574697196890870066e-01 -8.826167565302439622e-01 4.852305509067639799e-01
4.547092571468029920e-01 -7.868939369432503828e-01 4.598832043189785557e-01
-5.406265754472250329e-01 -6.879649671119690557e-02 3.342400940762358524e-02
3.007050247186250913e-01 -1.703939360563551664e-01 2.636052172322457809e-01
1.709665654719561279e-01 -3.634850113721475595e-01 2.819292251369241997e-01
-6.236288208801016308e-01 -4.160993362251768080e-01 1.028365722689481704e-01
4.872919648204180887e-01 -2.110209643786388825e-02 2.703564152487201167e-01
-3.375914291198059414e-01 -9.669904579000788980e-02 8.984524396361857901e-02
9.131900702191857178e-02 2.755575057774749537e-01 9.786807603727082361e-02
7.734880257674470183e-01 5.193524730702286929e-01 2.004141388972409399e-01
6.685297020570434012e-02 3.783595136587105667e-01 6.543294507541680405e-02
-3.957143009419049062e-01 -1.906309847760705167e-02 5.573769704409066439e-02
-6.617254982998017621e-01 1.591571609665027032e-01 -5.470567573539304035e-02
4.688757273443213136e-01 1.065269026701896465e-01 2.329875332585943370e-01
-4.023264911461724158e-01 -5.948887411365312294e-01 2.025865957855282617e-01
4.909217351530917872e-01 3.727361393486683383e-01 1.697020930743105560e-01
-5.575820372321292906e-01 5.494536568917963715e-01 -1.300764358224982820e-01
-6.203651652838291231e-01 7.273779947537836188e-01 -1.911689896805511268e-01
-1.208354292981579925e-01 3.039251571103929184e-01 3.911587835742607461e-02
-3.785142835853286813e-01 5.863970328362186901e-01 -9.618407403416208423e-02
-2.248812763824551419e-01 2.040876410251273032e-01 3.962784471294074351e-02
-8.157984102687103611e-01 -4.573472241158385021e-01 6.687728386290281435e-02
-6.285383669569051257e-01 -2.348576124510903251e-01 5.492075803126998668e-02
2.703359907020544961e-01 3.785014439303645006e-01 1.147326978468056896e-01
-6.552080208305194331e-01 4.366783504276826045e-01 -1.246724565805402002e-01
-7.115722137454394414e-01 4.443439397011783032e-01 -1.403147226156816196e-01
-6.397560968200211029e-02 4.571464788075103036e-01 1.340048480746153930e-02
-6.306396302022675426e-01 -3.280571276020400329e-01 7.843880772061018192e-02
6.710753821945751596e-02 -6.328375510644295154e-01 3.261887074538577513e-01
4.397632223620279168e-01 -3.656766101944129432e-01 3.476664750966241280e-01
-6.754953049087649708e-01 1.414390221474066955e-01 -5.347642642147478614e-02
-4.513069664660365743e-02 -4.403731573931931043e-01 2.493567714630212651e-01
4.997929752327747721e-01 3.731714358847733615e-01 1.717407847687759670e-01
1.625314702535036460e-01 6.706368630628167793e-01 1.327983360987195979e-02
-5.275080329395324119e-01 2.669484367633518929e-01 -4.995279147069502795e-02
6.868291974331344196e-01 1.511554934987223986e-01 2.743267923286838994e-01
-1.297994765130206785e-01 7.528116173974386260e-01 -7.878376867516090343e-02
-8.548772668532569341e-01 -2.069564582177954581e-01 -7.150327868144816176e-03
-5.763375986476325652e-01 6.133495219628870565e-02 -8.783303567017473890e-03
-6.306102859195383825e-01 1.413854130999168957e-01 -4.257981693428485037e-02
-5.585730842050507655e-02 3.908173450811889271e-01 3.246898064215360952e-02
-6.016578972299131411e-01 -3.006139636391297332e-01 7.839064787722904715e-02
8.446102428034899662e-03 1.525810822073613848e-01 1.094789989729895441e-01
-1.482163960392729463e-01 1.676008970744947146e-01 6.762250612320117038e-02
-4.159250090154079094e-02 3.793372826618767735e-01 3.888725989838155012e-02
-5.837129870613241150e-02 9.339716713455933905e-02 1.085365496204446084e-01
-4.996619614123592457e-01 -4.484487856056527111e-01 1.412334117684665991e-01
-6.981453156577546171e-01 -4.643717857432779761e-01 9.721435026914426736e-02
-6.722087308511224268e-01 6.491333154914455394e-02 -3.295068025888115565e-02
-2.942151527899643237e-02 4.903984703068779705e-02 1.269913361537306218e-01
-1.926087521897483501e-01 4.052834614930808654e-02 8.961940627946589355e-02
2.671949792219782682e-01 1.271754807556494393e-01 1.787648121654069611e-01
7.417100000873169674e-02 -4.457417340240227843e-01 2.796666315971469419e-01
-4.623701761848453273e-01 3.212514769976314577e-01 -4.815923778355230001e-02
6.498249429415240419e-01 -5.260692367568110123e-02 3.178862177023072944e-01
5.124307562793600779e-01 9.843942475282189963e-02 2.456328648144866234e-01
-4.257828444686361791e-01 4.088024863757390159e-01 -6.185959435473122048e-02
6.920783283830134192e-02 -6.883775992031052615e-01 3.410165762142067236e-01
-1.980004539483024850e-01 6.634767874711563485e-01 -7.228855132944891904e-02
1.255086942254798332e-01 9.480382493251281184e-02 1.527573106936346292e-01
-6.473517367105490194e-01 4.911066563554272735e-01 -1.367996452671717822e-01
-2.827820219003820412e-01 1.336523341038270418e-01 4.374801268624690931e-02
-1.112703679891232783e-01 -1.584925838157046629e-01 1.606497104879173743e-01
5.485123294025551210e-02 5.925557132935604931e-01 7.301657143755399537e-03
3.851559389041037812e-02 2.800824446571908988e-01 8.389883681764030710e-02
3.567593189888909611e-01 6.941669154037649614e-01 5.430595437106822132e-02
-7.632044960547729184e-01 -4.658259424966857409e-01 8.181504156207290712e-02
-3.992887483273330207e-02 -5.016137910078196649e-01 2.664062870850900100e-01
3.670022078059622661e-01 -4.765254557907428468e-01 3.586025406588414510e-01
3.693861163956602134e-01 -2.524422780846226622e-01 3.014102501778545551e-01
-3.172020875643462579e-01 -6.659359597836685962e-01 2.415422915235827250e-01
-5.267895428254690815e-01 -2.611861473639321418e-01 8.637839300001262655e-02
2.760801716668004890e-01 -4.001916095153590924e-01 3.168782237140888025e-01
2.367385088613021549e-01 3.795049565477399134e-01 1.063279641856970381e-01
2.387181193253412326e-01 -3.476161019263503960e-01 2.942650954757898285e-01
7.903895632661336879e-02 -7.750688241681300550e-01 3.657498585375567046e-01
-4.567390329025388662e-01 5.717865572446789724e-01 -1.113837011422709328e-01
-4.858744677829066050e-01 1.690056813443775452e-01 -1.460798523976009587e-02
1.027312234070163477e-01 1.476067888076907364e-01 1.336217094575887776e-01
7.232295485621760278e-01 1.994645665232692988e-02 3.169790493413700561e-01
-7.013946171218448100e-01 1.758455951064054612e-01 -6.862622215310465457e-02
1.218501147007348268e-01 -7.339511712723300052e-01 3.655293871880666012e-01
-5.077220179404826755e-02 -2.335443097513827948e-01 1.946669382572765172e-01
-3.626855389416922537e-01 1.545126904565576609e-01 1.899671144995681085e-02
-5.672858397238218497e-01 3.951449473613404817e-01 -9.264729247454971117e-02
-5.488969053247660934e-01 -5.763679027657641063e-01 1.622744326601789633e-01
-1.919319223166946753e-01 -5.885035366804156620e-01 2.519525554805584489e-01
4.543860321653290235e-01 -3.915836276439386698e-01 3.578909304313011575e-01
-5.713823712382434250e-01 -2.168046538855664118e-01 6.412457321497638807e-02
-5.786530058111586383e-01 -3.107123411448091121e-01 8.657183291322340102e-02
5.173565526728177710e-01 4.524464846562745168e-01 1.555615462411855388e-01
-1.222060616036891312e-01 7.776921418704599298e-02 9.708822117765342208e-02
-5.139370300043157869e-01 2.583160470584982549e-01 -4.443688253201587973e-02
6.831364867150304665e-01 1.237776713677973817e-01 2.804896642968864873e-01
-7.946233049251434644e-02 4.507941158646288637e-01 1.128327175823899860e-02
6.408742498605827231e-01 2.014846551332186153e-01 2.502093615423164885e-01
-8.390994666581996775e-01 -4.235243155171414253e-01 5.250793229119424255e-02
-8.387352153067494376e-01 3.985151117989639558e-02 -6.686544755488228742e-02
8.296719968168646542e-01 5.404692976254877879e-01 2.085923905098342468e-01
-7.662086015952367379e-01 -3.526457637504136766e-01 5.190798589302891147e-02
-1.430121414125814228e-01 7.150348831732118438e-01 -7.224818177847415479e-02
-2.431418014667246774e-01 5.961870279998346955e-01 -6.588569437089557279e-02
7.528548573668979171e-02 -4.299092409386437996e-01 2.758551158313211071e-01
4.279354673463151709e-02 -7.715233499065123068e-02 1.770338195475109899e-01
-7.799608833755458104e-01 2.616235149261381676e-01 -1.097895198370098108e-01
-4.516278291387720301e-01 -5.732283476237657327e-01 1.850488209025556718e-01
-4.638297249730482519e-01 4.433870712620952559e-01 -8.000057334088117589e-02
4.409549866826112385e-02 -8.732490530756500946e-02 1.799720532960103758e-01
4.755898564442890830e-01 -7.699488731720147694e-01 4.605773370014548118e-01
-4.049716592674608151e-01 3.462030918842182725e-01 -4.067514542329146027e-02
-4.454335745176513095e-01 4.722489847510014105e-01 -8.298106979491565172e-02
6.301250187118353496e-01 -9.197807790376157089e-02 3.232599616776899998e-01
-2.294358537023185318e-01 -5.153384707811051735e-01 2.239968877979278683e-01
7.511130526720098954e-01 4.082837056086242589e-01 2.236234644753009870e-01
2.800592513246002446e-01 2.753806310121488243e-01 1.436754964227169029e-01
-2.842963649762234469e-03 3.278590709755789256e-01 6.155390575356908811e-02
-4.929169802838841985e-01 1.500330379104655165e-01 -1.142422063015637902e-02
-3.855262619696643855e-01 8.904741986101694096e-02 3.033619476488765010e-02
-1.957341006136608108e-01 1.911589473750462953e-01 5.002795981055484231e-02
2.264754398039756367e-01 2.959646916430898611e-01 1.253768826916074330e-01
-6.114613869727895112e-01 -1.521208976090640541e-01 3.773109647116206639e-02
4.769581631469002603e-01 -3.729681068703119551e-01 3.585645345409966822e-01
3.915086645648578334e-01 -6.976377135263205770e-03 2.434911524182230558e-01
2.327401693600075760e-01 5.787360445194503766e-01 5.399529003328100429e-02
7.229869287776693465e-01 5.629692136407341563e-01 1.769249635838896773e-01
-2.658439100716832315e-01 7.760482219046942465e-01 -1.177595694752578415e-01
-2.478728823193767639e-01 -2.192992511203760153e-01 1.432055713931515983e-01
-3.444425902113329996e-01 8.703840647860161539e-01 -1.611370217095304258e-01
-6.640356370511767414e-01 5.153934257221182841e-02 -2.752112523386218354e-02
-4.063996131188350458e-01 5.934495439402568406e-01 -1.047633197459543614e-01
-2.732571548876577133e-02 6.942401976184836565e-01 -3.883791319609211645e-02
8.326496039584155295e-02 4.654835332287604599e-01 4.695097115436352303e-02
-8.156153026257183525e-01 -1.298129564884398790e-01 -1.751906299592488614e-02
1.458827435574817644e-01 -1.934847762503667454e-02 1.871264908225441226e-01
4.155306520847683593e-01 -3.462308042150046838e-01 3.367777921428527499e-01
2.181769154245489784e-01 -1.739158672150963036e-01 2.445034923262367488e-01
6.386770679493638525e-01 -3.465883364438250847e-01 3.909738823939624131e-01
7.338615044168713686e-01 -2.003911356556922763e-02 3.298654396064953365e-01
-3.343511482158321724e-01 5.729787216359729651e-01 -8.201697341432094557e-02
5.740919760430409635e-01 -4.190593386309034440e-01 3.939981858706479989e-01
-3.716071060650268931e-01 -3.442427817433951209e-01 1.454164236156597068e-01
-9.284963646262904824e-01 -2.385593689967339392e-01 -1.685249733140528269e-02
-7.228156228185822485e-01 -5.363823923811844585e-01 1.097976697298774368e-01
4.668359297601468727e-01 -3.239810359822696828e-01 3.434810781372769073e-01
-6.912273615767743351e-01 1.719566465319328497e-01 -6.515847731081540750e-02
8.384199189185004286e-01 2.465066816348126244e-01 2.864991295792749804e-01
6.667325227964152612e-01 7.507503417922974098e-02 2.890682693187384134e-01
-3.368953571170021921e-01 7.712942111000277157e-01 -1.337610321023650350e-01
-3.352154283779695820e-01 5.815677932592142607e-01 -8.444085197824893751e-02
-2.593986673321317937e-01 1.543965109900587440e-01 4.406952226916135973e-02
5.613510326474093759e-01 1.276442421471122857e-01 2.499648223228047306e-01
3.700296217710991042e-01 -6.743515046052683815e-01 4.103375754922050089e-01
1.329513168665314438e-01 -7.628314518880567885e-01 3.756665252366673813e-01
6.810700107324679786e-01 -1.805309372433761272e-01 3.584416253492467286e-01
-5.258657343754189473e-01 -4.000612235452178367e-01 1.224053948956534965e-01
3.735024759833460717e-01 -3.670858431260582422e-01 3.319642538940402177e-01
2.269886374505525606e-01 1.639235016992874050e-01 1.595425020629749058e-01
-4.883625274865727728e-01 -3.324386131981231784e-01 1.140647885760447122e-01
-9.874159969261483427e-01 -4.336264236635827829e-01 1.915161325944103252e-02
4.695081387484901225e-01 -4.992662171113769198e-01 3.893187887700754746e-01
-2.223714460726089470e-01 4.803085708422449862e-01 -3.097541081507000985e-02
-5.327299013474794398e-01 3.587375264046230305e-01 -7.488278420359673060e-02
-4.329696749913831133e-01 2.037307861282127430e-01 -1.073311549824136971e-02
-4.197172782583790673e-01 -6.285986151682676493e-01 2.070606917777154665e-01
-3.480664500767835512e-01 5.538305710343852661e-01 -8.040584136493586498e-02
-6.677826147093959275e-01 -4.587079218959674298e-01 1.031158826480727264e-01
-2.327703538651720583e-01 -3.564153785291064302e-01 1.822168653796394366e-01
-7.068501095007561075e-01 -2.205137139324972462e-01 3.223538802260030034e-02
8.391682578479295329e-02 7.388009961979714602e-01 -2.335423007482487212e-02
-7.357433408376982120e-01 -3.909706665608213561e-01 6.917501240195265966e-02
-7.399586712369926600e-01 -6.276381441233725485e-04 -3.248033695898749906e-02
-1.286338957663925309e-01 -6.348290025169470718e-01 2.792427942145143116e-01
7.090833490013975782e-01 1.779475171352439822e-01 2.728153368126795542e-01
-3.190008881014309017e-01 4.784490140751708753e-01 -5.392470682494217293e-02
6.428053931800337129e-02 -3.280995468904513435e-01 2.469395767474113768e-01
1.213105163367198501e-02 7.151986736519793109e-01 -3.467450372732004682e-02
6.097542053237041682e-01 -6.783166323364955841e-02 3.120957459675242074e-01
-2.233390414605439522e-01 3.616302728657883048e-01 -6.138752582355205866e-04
4.710399018993054188e-02 6.245914868313657831e-01 -2.835791654588545093e-03
-4.919457778580437757e-01 -3.791830427412967719e-01 1.252470540394728660e-01
5.611569834418747016e-01 5.763418608685515476e-01 1.342402272995576740e-01
7.363726257460128100e-01 4.903187248730671577e-01 1.989002801254934893e-01
-5.649674749366913051e-01 -3.464148369788229154e-01 9.909438265552178438e-02
3.386501845874237970e-01 -2.667672838622485165e-01 2.976511306061364603e-01
7.751968231223888006e-01 3.755555924226308684e-01 2.379003460134120340e-01
-4.397308700189417885e-01 -3.960436722611022087e-01 1.422538364671669942e-01
-5.596462563084995123e-01 6.861840433670524098e-01 -1.658270240604919343e-01
7.183610002508256098e-01 2.620969727161098217e-01 2.533704407935326586e-01
-9.573505089536097357e-01 -4.394152641786290281e-01 2.793367501098847211e-02
-7.425619837030496273e-02 5.723775223716246474e-01 -1.879954964488060945e-02
4.993769578969536327e-01 5.704222620227356044e-01 1.207872038772705714e-01
-2.570073129385680444e-01 3.573140556890007646e-01 -7.664307058506758877e-03
2.320538699340347344e-01 6.719949053058051902e-01 2.978607020830902757e-02
1.947342034608149919e-01 -3.292812188312311816e-01 2.788739198924674589e-01
1.991957448003674747e-01 4.660034230263725985e-01 7.492543243304265743e-02
3.318277604931503810e-01 -1.180177731750033515e-01 2.576482528653343262e-01
-4.310910762685985498e-01 -1.027757220903856988e-01 6.874200014759941635e-02
3.451204937505542580e-01 -5.641332745479484823e-01 3.758830563442963069e-01
7.991576885571894939e-01 3.913740265946317187e-01 2.396317711536068706e-01
3.216018859525107687e-01 -6.803549560305209853e-01 4.001435562248313316e-01
-3.405245036589226726e-01 7.827035869404056490e-01 -1.375823733032608132e-01
3.938462391048093703e-01 6.767571395435626469e-01 6.778638999082486905e-02
2.384760240491504424e-01 -1.988505047682489757e-01 2.558535322083254071e-01
1.755344942654369078e-01 -1.331936773069799795e-01 2.236659622212239518e-01
-1.921067770914158812e-01 -4.127887779525708511e-01 2.066096032487666490e-01
5.633778164565121926e-01 -3.481001575207890997e-01 3.731066398697088227e-01
-1.394292849292395886e-01 -3.634599797537415022e-01 2.066644222835465616e-01
3.226393546322747219e-01 2.663877695183236027e-01 1.563178627728274150e-01
2.138961547406185715e-01 -1.576887212758360524e-01 2.392821046767209803e-01
-4.956916597137925318e-01 4.755645785504613032e-01 -9.602139262036940570e-02
5.666122989137479804e-01 6.370871356161496024e-01 1.199023405018962429e-01
-2.665527100663738769e-01 1.761701984815153832e-01 3.672154156422486465e-02
5.411873323960526561e-01 -4.168891250161879114e-01 3.854606531507840383e-01
-2.392703343302691188e-01 5.055889664637391867e-01 -4.159017474151552318e-02
1.266789965717499133e-02 9.014172505573221639e-02 1.265999382989847766e-01
-8.045306607121094356e-01 -7.929902917465544987e-02 -2.785435083266248057e-02
7.513044486588664472e-02 -3.255141425973529512e-01 2.489037006230706839e-01
-5.442238689146439157e-02 -7.971960244471186507e-02 1.541247762363412155e-01
5.030503805947983409e-01 -4.121012884977091062e-01 3.749796564098848428e-01
4.415350213676513813e-01 9.575065500610036029e-02 2.291367217034416537e-01
-1.872913636138652249e-01 -5.970805949518229738e-01 2.552889306306552197e-01
5.779058089489461647e-01 5.441493075823700121e-01 1.466006122024383351e-01
5.432684660566434731e-01 2.615100829040726826e-01 2.110689382848992268e-01
3.084442532575413787e-01 -5.230346604295296187e-01 3.563950370842566828e-01
-5.196768140993773821e-01 5.376502836687009346e-01 -1.178429668867546909e-01
-1.939567756923036845e-01 5.384766340422393327e-01 -3.908216522297203871e-02
5.731663077678637030e-01 4.959063731746912174e-01 1.578888595198983114e-01
1.446886939568779173e-01 5.536379341949092536e-01 3.911687151241823729e-02
-6.157082144921498523e-01 6.008715578204453234e-01 -1.574255790010722078e-01
8.963935981870158054e-02 1.957071797948980452e-01 1.180468312994793073e-01
2.569094418880471520e-01 2.195563212327918678e-01 1.524545282728044515e-01
-4.457232490663223801e-01 8.013731114960986890e-01 -1.679019244490481677e-01
-1.276325434685776361e-01 6.445683959958614651e-01 -5.035247714524583584e-02
2.085932504270390508e-01 2.073693930931914398e-01 1.438816997408497167e-01
-2.028759474324097201e-01 -4.564401812219786442e-02 1.093458989277294041e-01
-5.263239200377926030e-01 7.723217844237689755e-01 -1.799546580582483679e-01
4.231425728324691299e-02 -8.707597917281507949e-02 1.794759998320939742e-01
-2.460133538225980077e-01 1.787794745813546249e-01 4.102880819936728651e-02
-6.426721148589648047e-01 -4.644327230285962838e-01 1.106800518013534018e-01
5.293503479379468857e-01 -2.383291994506644140e-01 3.365566046010687318e-01
9.928186727616158946e-02 -5.494189711167539736e-01 3.124837482032609137e-01
5.506616007288309689e-01 3.049649602507559232e-01 2.016584853147899148e-01
-5.492513896371340465e-01 6.277339869044537557e-02 -2.586843343766310685e-03
-2.003420806776337604e-01 6.384406327303412398e-01 -6.640179560603694242e-02
-2.972476975380387021e-01 -9.739597565576324500e-02 9.980662908536593048e-02
-3.427439135820057881e-01 -5.607960450849709400e-01 2.082435959320674823e-01
3.859257068069279484e-01 -4.107839180572398496e-01 3.462420663884376304e-01
-9.541210102351378730e-02 7.576566038226139055e-01 -7.169530404633836507e-02
-6.813256358569802495e-01 -1.192841670614776667e-01 1.232631145982362314e-02
7.557592659449505201e-02 4.536523397796916601e-01 4.813686235817727505e-02
5.651206334768044126e-01 4.946360986188367281e-01 1.562655973733723669e-01
-3.362255181052068442e-01 -3.194433184106381662e-01 1.476015333691307885e-01
-3.560735046709695983e-01 -1.023207723597555213e-01 8.681341597741017158e-02
6.770969529669241815e-01 4.242358195085739747e-01 2.015650031161198841e-01
-7.131203022385141921e-01 -3.654139388718333215e-01 6.807146534416108619e-02
5.549629248007210691e-01 4.126431908231999457e-01 1.749411414372577245e-01
-4.020293306842712133e-01 -2.695966843978658267e-01 1.187959605464288526e-01
2.596750888625899423e-01 -4.384604611497378013e-01 3.227666508019510494e-01
3.501355034387766338e-03 -4.064697135564220021e-02 1.580957124375188816e-01
-1.071085659425686787e-01 -1.081715581728760062e-01 1.486856474598574618e-01
2.492773211263621114e-01 6.877084162573898762e-01 2.991099682611725319e-02
-7.688214433578198781e-01 -1.280216822878381400e-01 -6.635261968491583742e-03
6.186527523359464098e-01 1.338361474549079055e-01 2.622618363934740016e-01
-3.515943184863843524e-02 5.953245395231391290e-01 -1.523608618160171395e-02
3.136818670353359595e-01 3.056377130152060362e-02 2.149431979981716867e-01
-6.418766374242537154e-01 -4.127225823332064114e-01 9.754166810802167298e-02
-1.911931231646992746e-01 -2.159540350668511521e-01 1.560856827957448068e-01
-1.120286757339076095e-01 1.010811299388936907e-01 9.354583934241533782e-02
3.695143338861384130e-01 -6.390887335996063845e-01 4.011216374699352327e-01
1.392590239381601980e-01 -7.695081848040581374e-01 3.789171981013543244e-01
-3.553229509008534737e-01 -3.492033908367129791e-01 1.506435494023059818e-01
-1.639049353086213523e-01 8.214513310816346295e-03 1.049096563556718015e-01
-7.021658810415254415e-01 2.794899437555914967e-01 -9.553349755648961328e-02
7.137436386728342186e-02 -4.600865342855537943e-01 2.826867562603063155e-01
5.180037253221608795e-03 -5.190276676526642818e-01 2.818327861882519714e-01
-3.522324917385568077e-01 5.824046129191026155e-01 -8.878253490314866325e-02
1.141604352287774182e-01 -6.268258841140982029e-02 1.906069757403967280e-01
5.256869822807715975e-01 6.537801187279285164e-03 2.725398740516061791e-01
-7.476394234802037353e-01 -4.101786986685548309e-01 7.124266889724750751e-02
-2.691232755002116450e-01 3.587437368706308249e-01 -1.097051675005298287e-02
-2.156248968448129522e-01 -5.739775268597154811e-01 2.424630621468490677e-01
2.825655522249135299e-01 -9.524348793303585858e-02 2.398327958667789694e-01
-5.155144987716036020e-01 2.573220880816414757e-01 -3.352093854069307932e-01
-1.609107819159851793e-01 6.554041311922371715e-01 -3.518609074711545048e-01
1.208949601590232209e-01 -1.017497166390004815e-01 -8.833466422097541182e-02
1.862120403350670805e-01 5.332624414859493678e-01 -2.362087374981109433e-01
-3.409678680600425338e-01 2.402073307981349160e-02 -2.327421326408510016e-01
1.754381190594018758e-01 -6.192860218996867339e-01 5.831449560727945680e-02
-3.791403926733061813e-01 1.212803396859114119e-01 -2.670716567399733510e-01
9.438659315314669451e-02 -8.172781949764608145e-01 8.970664059609539942e-02
-4.373848400282743382e-02 -2.384773975795176637e-01 -9.300216627256598090e-02
6.460095754744478169e-01 2.837152276636641379e-01 -6.039145843256254337e-02
4.325428412287676827e-01 -8.640263549063216253e-01 1.837477751431827455e-01
6.116625950309196869e-01 2.029367483578764231e-01 -4.789391600047265135e-02
-8.477379518628650468e-01 -4.662459944416907920e-01 -2.292188663503695878e-01
1.477206586629135621e-01 4.739790444438511940e-01 -2.302576338291303648e-01
-1.733866563930349103e-01 2.694151582645907816e-01 -2.553750028905905078e-01
-6.340171927786093509e-01 1.381141016422835766e-01 -3.332087658049035506e-01
2.064213241819155831e-01 1.932582928674570211e-01 -1.436532393744774094e-01
-9.023190308467592124e-02 4.488218766594325726e-01 -2.814657340095662041e-01
4.284492078375168878e-01 -2.850090692017814842e-01 3.348032123977320862e-02
-5.968186429399444659e-01 -5.765896593155088734e-01 -1.399337470071007339e-01
2.501809202594036941e-01 5.886969078380908937e-02 -9.839694994420196406e-02
4.264232263396934841e-01 -6.653884886163192736e-01 1.310537150332671819e-01
4.423862294583681409e-01 2.579332414075664603e-01 -1.031150394269197412e-01
-6.840010935698813688e-01 -4.244455063202343115e-01 -2.002958214102379397e-01
3.747894191297300170e-01 -5.219681987396768141e-01 8.155981462974613849e-02
5.508108909565998523e-01 4.646056028029229568e-01 -1.301081304854434795e-01
-4.469999122111302237e-01 -3.470783779684943893e-02 -2.433099265700866265e-01
-3.510932811180503821e-01 3.899539588219382291e-01 -3.295374096466696656e-01
6.278904981890994774e-01 3.086128261913124171e-01 -7.120338058689533456e-02
3.066271766082870887e-01 2.698192552397826738e-01 -1.390953812778868703e-01
6.860881771368448900e-02 3.697207137412661937e-01 -2.225604681703575449e-01
1.344861385679524401e-01 -2.893622657132113307e-01 -3.667146217967016258e-02
7.327437606511675305e-01 1.249608761898262504e-01 1.566087640226785944e-03
-2.350989340567132546e-01 9.856404581050687286e-02 -2.262910430355000446e-01
-2.700416870997412455e-01 4.535197369989121263e-01 -3.262734248941883686e-01
6.607325683780321812e-01 -1.484876678621908442e-03 1.670495196170228638e-02
-3.479739518223959327e-01 -2.366076068844147062e-01 -1.672489197546508100e-01
4.899629902445757357e-01 1.362394501610055542e-01 -6.020605864596752926e-02
-4.384296085689527445e-01 7.392016026367550455e-04 -2.503704845024132819e-01
-3.945634806680571871e-01 -6.783130998570083836e-01 -6.467005808595878424e-02
-4.384492665804352041e-01 8.647053393144354949e-01 -4.731120749999881414e-01
-8.316817470791312839e-02 7.479868799857037898e-01 -3.568800056526653108e-01
-5.557409069121701517e-01 -4.774450412318382853e-01 -1.555342810406681875e-01
5.233483476329966466e-01 -2.088988660086686655e-02 -1.160237085164407371e-02
-2.398439712395518050e-02 6.123323571740304505e-01 -3.075576168487600404e-01
-4.728578557128229054e-01 -4.345258280316530164e-01 -1.465034062340083154e-01
-3.582216650943748082e-01 -6.071431759195057287e-01 -7.420677802123309963e-02
-5.038639943400623489e-01 2.827691499858737134e-01 -3.389450523802589044e-01
7.720742229563537506e-01 -2.009682412652593897e-01 9.512904607773656207e-02
-8.888237902424198644e-01 -5.516043718419958442e-01 -2.171744910443693388e-01
4.128227576039100732e-01 5.059954840195364234e-01 -1.742352475491696639e-01
-7.813850509794647570e-01 -5.979819524101633865e-01 -1.791684920210435683e-01
-6.578890828793185555e-03 6.517204080799303689e-01 -3.134920197962625110e-01
6.216702203410356953e-01 1.760652001706706216e-01 -3.853979178475196860e-02
-3.258310248272039411e-01 1.252225315807823924e-01 -2.551626326966117686e-01
3.513028192148582307e-01 5.499172453656586690e-02 -7.287924050420220567e-02
-1.191561130231583304e-01 -7.252672136077810139e-01 1.421012548836211691e-02
2.597316079016617069e-02 -1.723015949247631018e-01 -9.316054077147926937e-02
7.417642891901501390e-01 1.486538979823587847e-01 -2.355036912376390172e-03
-5.930384896084429647e-01 -3.493653297148311965e-01 -1.975973170748780428e-01
4.399746131169333108e-01 -7.948965959440545959e-01 1.677275168209017009e-01
-8.756200369455548194e-03 -4.452811692465306059e-01 -3.120485427298779965e-02
-4.189117028204170090e-01 6.161866238745681290e-01 -4.043050591257652537e-01
-1.491691098830446593e-01 5.690149002474083062e-01 -3.267422512327211592e-01
1.857031673694843066e-01 -7.598815188029096612e-01 9.704990476140251676e-02
-3.863484235032702552e-01 -2.169733744553124788e-01 -1.816150154424889807e-01
-2.652776966362825339e-01 2.114162785578418621e-02 -2.136480948648621647e-01
7.170820137554523299e-01 -2.825122865139116299e-02 3.726795941774116439e-02
2.968732213758589755e-01 -4.247646676647301445e-01 3.760852546623827397e-02
8.088752006493123980e-01 3.928378168532821180e-01 -4.903578480040509530e-02
5.252450409836872947e-01 1.670840194681765256e-01 -5.960355539195883595e-02
-8.300727075200402538e-01 -2.860301392930372222e-01 -2.713967370357935893e-01
-3.232186044969819760e-01 4.442824057971700435e-01 -3.367852092434316380e-01
6.518930857533340728e-02 3.651732911480365384e-01 -2.222172008522047548e-01
4.577978684280752941e-01 -7.049929259682200522e-01 1.488711028855702612e-01
2.265114757224391262e-01 -5.178839680262413703e-01 4.455550885014702978e-02
-1.416282834762750964e-01 -7.708487651493423076e-01 2.051279878504914597e-02
4.932122081491814858e-01 5.541376688975229170e-01 -1.671554898326732264e-01
3.564564396403079038e-02 7.205739136313664694e-01 -3.210052302620766684e-01
8.076279346689080318e-01 9.798948252795343372e-02 2.667587302108591005e-02
-1.483646087986769391e-01 -5.894392254907135920e-01 -2.788919917370022775e-02
2.702980305394891425e-01 4.262246283285185955e-01 -1.882261747505627192e-01
-1.890901481903446146e-01 -5.201601501048164211e-01 -5.562413862983652674e-02
-8.446549645761237679e-01 -5.085329178480889611e-01 -2.175694876731592564e-01
-6.803335877054451919e-02 3.412720729840376110e-01 -2.483563609386941762e-01
-2.952862023762273802e-01 -5.925118973784638809e-01 -6.271954324638880085e-02
4.483004830000429375e-01 -9.480859081640353736e-01 2.092395324086137876e-01
-5.372758123472702874e-01 3.602783452782077345e-01 -3.670284977697501061e-01
2.213300786923771621e-02 5.180016343187940908e-01 -2.720568706691484651e-01
-2.322223839449217841e-01 -4.472292275458917832e-01 -8.488407697367390814e-02
-4.482268702399708031e-03 6.101111536049133033e-01 -3.022565025244626780e-01
-4.844956811916049100e-01 3.070341637836219162e-01 -3.405047244353002212e-01
-3.987685621307492378e-01 5.496031915687816793e-01 -3.822554695264651636e-01
-1.857365304729722555e-01 -4.006500020780802696e-01 -8.562161802886127104e-02
-3.978313291609990032e-01 6.924424964712212471e-01 -4.188532520074280119e-01
6.809670578097075655e-01 5.184672028286829715e-01 -1.124364786360472351e-01
9.027288756381526280e-01 3.111067922554869858e-01 -5.209232592703875835e-03
1.129403545489346683e-01 6.888519042218479438e-01 -2.940862442811288946e-01
-4.593496334041321516e-01 -2.329339958228568430e-01 -1.952000695163411681e-01
5.245584065223897197e-01 -1.535192415355382811e-01 2.288384224417912630e-02
5.905200857282788540e-01 -1.585698638669178276e-02 3.386520657061198487e-03
7.039271462544817448e-02 -7.444134137894052872e-01 6.510402599675468860e-02
9.314871790712372368e-01 4.027388588559707161e-01 -2.185993616683274895e-02
6.915956934697047309e-01 3.947627538408091108e-02 1.362791631891694007e-02
2.530216272987563242e-01 1.465958905255893840e-01 -1.203246536700065400e-01
-4.683542130137808429e-02 -6.340088983607221618e-01 8.217882375798651884e-03
7.161182378476166344e-01 4.659146824452420899e-01 -9.036532314049472436e-02
8.333573554632809355e-01 4.139366472569355748e-02 4.750502751288805670e-02
3.482521106346156414e-01 -3.076147550166735134e-01 1.986370410976360731e-02
-2.900624772239962512e-01 2.236556738630756658e-01 -2.718670049553718049e-01
-2.782462720860261474e-01 8.148276411802308772e-01 -4.214105374242527180e-01
-4.558469234491036026e-01 -6.801406856966079051e-01 -7.905763146386088347e-02
-1.991806338660393472e-01 3.798420508176605370e-01 -2.900978567117107332e-01
1.873185958163931242e-01 9.608509298434170232e-02 -1.232329072616282634e-01
-1.607084498795285643e-01 6.612666315618629387e-01 -3.533232459047574436e-01
3.451624140683183795e-01 -3.397602978786147254e-01 2.740193591360074940e-02
6.064699840645683127e-01 2.321099428830016576e-01 -5.667397673407546799e-02
-6.988714571880172421e-02 -7.237391552726342159e-01 2.576189837518416681e-02
3.931813161923883859e-01 -5.012678242418749930e-01 8.068239167613912299e-02
8.949924681197859999e-02 -8.419959663030454067e-01 9.489408142970696958e-02
-7.105753672752245231e-01 -3.591876323365950086e-02 -3.069040519990806626e-01
-5.047655792849213841e-01 -2.847931511038410135e-01 -1.928419147173689174e-01
-2.652753076486276673e-01 5.074869040262561803e-01 -3.390309045935584464e-01
3.818271019140301314e-01 -9.277322337202970060e-01 1.878751183774408917e-01
-7.778938154577719200e-01 -4.753660253129146085e-01 -2.099332973939166957e-01
-3.071381235436801416e-01 -5.553179187730771238e-01 -7.518203255556114850e-02
7.411255864720770470e-01 -2.631330561750084250e-03 3.649254822305549734e-02
4.757974382950386771e-01 -5.887114426642715559e-01 1.232570437794793111e-01
6.270859502922683237e-01 -2.652317313149373246e-01 7.654289651349965862e-02
-4.903591994708628166e-01 3.574310752800049507e-01 -3.549190831846803507e-01
-2.710183161750966963e-01 3.456625989183205738e-01 -2.987038542425500265e-01
-4.933914732951896753e-01 5.480314895631410721e-01 -4.047924746137303020e-01
-5.492784501992727941e-01 1.603295000259325614e-02 -2.811896539017529895e-01
-4.494187107998762198e-01 7.130387815391511230e-01 -4.366709643680183883e-01
-6.375380360921176770e-01 -3.640076280804963038e-01 -2.046117521716958598e-01
3.776883743336987842e-01 -3.102793785463834990e-03 -5.150462415083504469e-02
-1.953696227023023757e-01 -4.997883728084864807e-01 -6.239864940857867831e-02
3.845377166970399552e-01 4.736460525690424084e-01 -1.727532964193586318e-01
-3.141703179789553380e-01 2.855857527494577441e-01 -2.936782040815044126e-01
-1.856580142293844105e-01 3.289805108832775660e-01 -2.737066932539458097e-01
3.417045119790975694e-01 -2.836593924530041999e-01 1.210030951150343516e-02
4.140890327054264630e-01 -7.247122680436647313e-01 1.433572821449642376e-01
5.171194529326603728e-01 -2.453342509694816098e-01 4.475078370375453612e-02
-3.115906195379876745e-02 -3.975063797161115242e-01 -4.895332770459929345e-02
6.713394315834247776e-03 -3.049432922040000160e-01 -6.363424452570472234e-02
6.332434755264902682e-02 6.860890183689551114e-02 -1.462128973203535021e-01
-4.994718990816413573e-01 4.455853603036263322e-01 -3.798553646262500250e-01
-3.900756035105712449e-01 4.561607921477161542e-01 -3.560576433942347907e-01
-1.377218114487900880e-01 -5.840457117024347999e-01 -2.669924187908931726e-02
4.196634166720014658e-01 -7.800056004517152974e-01 1.589638709227479407e-01
-2.668905504880445534e-01 4.113706053235506310e-01 -3.146430465034223412e-01
3.743220960144701820e-02 2.693842538384063484e-02 -1.417477307483685778e-01
-3.593929752644551834e-01 8.204136658343939015e-01 -4.425254256116788465e-01
-3.684067251324132375e-01 -6.137387555545040785e-01 -7.497585124826443292e-02
-3.008781674269124240e-01 8.035097793650808340e-01 -4.239800221057316021e-01
5.322044381725943296e-01 -8.277122717266663932e-01 1.985496149023017187e-01
-5.660212641711934722e-01 -4.729189185265520456e-01 -1.591937166182485763e-01
8.524750374197128666e-01 4.624557225910662372e-02 5.088942916958034968e-02
1.083629528619120541e-02 5.058620906288358032e-01 -2.716661996486133823e-01
-2.346802919077948524e-01 2.312353136590146185e-01 -2.603931679333026383e-01
-4.702973033123675206e-01 -6.265126305526974582e-01 -9.638696695057882846e-02
-2.354773883056760497e-01 7.373358109328851384e-01 -3.910628615880671899e-01
-2.183370436405621673e-01 3.853164166864871953e-01 -2.961538375130383094e-01
4.680319998872890519e-01 -2.378840650288469721e-02 -2.426707208016106940e-02
1.176265737361224389e-01 -1.540442514924787731e-01 -7.564519910969820515e-02
5.616893804926961220e-01 -3.528377648299476088e-01 8.327237204221683842e-02
-7.467805435674716996e-01 -1.992366908495256383e-01 -2.735777695651694374e-01
8.428206414027058502e-01 3.012049368439232988e-01 -1.718176784159852408e-02
7.241976785404784234e-02 4.793271924475225182e-02 -1.386771564733330353e-01
-4.231721834364484125e-01 -3.760928047741110558e-01 -1.495211178235374971e-01
-4.086531203253720990e-01 -1.465359035579655855e-01 -2.051822938442569577e-01
5.967772811600325911e-01 3.699954056069205688e-01 -9.457194870024188127e-02
5.681111941682714939e-01 -6.451556819429935530e-01 1.601911091077024007e-01
1.023623789753832780e-01 -3.778453932264954629e-01 -2.164856428502372893e-02
2.645673875837789013e-01 4.435009336749451969e-01 -1.940695808000359734e-01
5.108390277574940130e-01 -8.751831235524469843e-01 2.056077079314092004e-01
1.411843342785889799e-01 -8.436291986880907201e-01 1.078466690304100278e-01
2.695530543843600579e-01 -1.880609150796676288e-01 -3.003947034592557158e-02
-6.721652646315769974e-01 1.633109239706381222e-01 -3.489540453424218591e-01
