-1.209140518868635911e-01 4.506670748828274786e-01 -4.440998566839440831e-01
-4.092726961242959538e-01 4.787916346375574173e-01 -4.615189816966060454e-01
2.217733478355948251e-01 7.722259416197707615e-01 -9.629528942504234079e-02
-2.513151342566310453e-01 2.454893398384542513e-01 -6.527606879683038876e-01
-4.478663120229296746e-02 2.213871715176566890e-01 -6.439326108543302896e-01
-5.387541355229216039e-02 2.961180686375023408e-01 -5.764366195251093838e-01
8.289818790154067640e-01 1.889578600781593454e-01 -5.425040156539961966e-01
4.258443878909338731e-01 4.325566733108990869e-01 -3.786203880378845588e-01
2.154897842673741126e-01 2.902533485227811183e-01 -5.413602030642277185e-01
-1.578284463043493069e-01 7.269310408205872376e-01 -1.950799751118781900e-01
-3.547291128921915560e-01 4.173617906417160794e-01 -5.099275195875667688e-01
1.338788904622131154e-02 4.423869627300565655e-01 -4.315466176796812769e-01
4.733466319447811044e-01 5.381181261656202697e-01 -2.742105634824436033e-01
-2.686194608233064551e-01 6.780860942005786374e-01 -2.567386729350834007e-01
4.316075373367375123e-01 6.034928324658451748e-01 -2.202427002269695955e-01
1.058316657271864136e-01 3.376061389716442096e-01 -5.142058527011192925e-01
2.847599225260240563e-01 8.232699794788501668e-01 -3.979431975596128129e-02
-1.172011955393394839e-01 5.764338058947015009e-01 -3.276523119266700479e-01
4.083597780605907612e-02 3.964095671994256054e-01 -4.697882192825837966e-01
4.246701973586187173e-01 6.108422021847562666e-01 -2.145130696360560973e-01
-3.204541639327710967e-01 4.172401880566985466e-01 -5.048886887366528242e-01
2.379262608778101307e-01 8.962010623026296363e-01 2.037085778405488268e-02
7.470815296942391326e-01 1.931932939837533170e-01 -5.509093034572434266e-01
3.107641335940168337e-01 8.222557480877779046e-01 -3.682095172227057428e-02
4.462231371601886876e-01 5.788320982856585140e-01 -2.407702390520225222e-01
6.043667436631144224e-02 7.846691615142341591e-01 -1.090751869289975085e-01
-5.237735071147829879e-01 6.634039445306590954e-01 -3.086126294266922088e-01
-4.757347212208062892e-01 6.631425308111170702e-01 -3.016341824903904789e-01
-3.971089218478762034e-02 1.360268466406534815e-01 -7.218263273141826142e-01
-1.051735600344450156e-01 1.090483740503064430e-01 -7.565238445147810520e-01
-2.589513888824085952e-01 2.847242008167318317e-01 -6.177547444198019377e-01
6.081117917567251396e-01 4.310585099930328568e-01 -3.526095129456663368e-01
-1.356313270339087051e-01 4.003644036711679899e-01 -4.926637110678288578e-01
-2.572951972831963863e-01 6.377486443046149756e-01 -2.922063742650080620e-01
-3.577755161160308672e-01 6.709619339072564470e-01 -2.767018197917880951e-01
4.755382356722870907e-01 1.018997356295603673e-01 -6.758409468905464124e-01
-1.285026803523868222e-01 7.492777389963645174e-01 -1.700811733736658782e-01
-1.926645394742027007e-01 4.203231267249459280e-01 -4.828434816045040212e-01
2.067480315848249373e-01 1.425984246853683746e-01 -6.787326884350191047e-01
1.371793435913112036e-01 6.742347497570779780e-01 -1.993035848963890244e-01
-2.696434741287462300e-01 1.436633536422132207e-01 -7.493441210286349019e-01
4.155376566829318552e-01 5.293420689061012485e-01 -2.909849952619786295e-01
3.782476605009755799e-01 4.343800533094061000e-01 -3.840931054528130550e-01
4.132056107757080543e-01 6.480430225552740175e-01 -1.819567488415863854e-01
3.834635397438651006e-01 8.058628400335103859e-01 -4.100107372604470252e-02
3.506071045067010727e-01 4.807035961762584075e-01 -3.455614656071969715e-01
-4.956056085613248507e-01 3.165650152591386046e-01 -6.239792655727109949e-01
3.290890735910335652e-01 1.483907375443004181e-03 -7.903791310976269191e-01
2.712504006450753291e-01 4.401814640160747055e-02 -7.598774118060623861e-01
1.879162155102097886e-01 4.356006732121558978e-01 -4.115716013839302856e-01
1.564716233957764990e-01 1.160090926992332350e-01 -7.107894158133812867e-01
7.122186484942819584e-01 2.638525012956026150e-01 -4.910385941957359779e-01
6.154568202715530179e-01 1.733110885397865508e-01 -5.890107792416467980e-01
-3.401878161699900538e-01 5.712415148637827178e-01 -3.659475390179808274e-01
4.111712203139634147e-01 1.444033207295004062e-01 -6.463485617770584613e-01
5.205126102378043740e-02 3.146596307912692958e-01 -5.434324325279776824e-01
6.945855575829465445e-02 6.719671047791913043e-01 -2.115703060276218073e-01
1.359072516842909639e-01 6.247259092289962901e-01 -2.451153931341909231e-01
-1.616819126585432032e-01 -4.147784814538172000e-03 -8.693222288165788347e-01
1.227070316134858119e-01 5.211851176534643137e-01 -3.425082979705725839e-01
-8.042356263391507720e-02 5.410834509603041909e-01 -3.546994175186873877e-01
-9.282247861136283529e-02 2.608362640414345623e-01 -6.148005631952155881e-01
-1.947151457703542032e-01 2.732160985152783453e-02 -8.452885769478950539e-01
5.656705444793574955e-01 1.687132389539725830e-01 -6.007294796036629636e-01
-3.602177141170900265e-01 5.321873363245662736e-01 -4.049446950308279169e-01
-6.351351544069141486e-01 5.643978051927556194e-01 -4.165788386624278417e-01
1.270463586292738534e-01 1.376342205259385165e-01 -6.952846957860220334e-01
-5.017124772143344291e-02 6.261012634138347632e-01 -2.718121688049827678e-01
4.986846328361796976e-01 5.415545796273709689e-01 -2.672361664875666509e-01
2.043557649151160616e-01 8.986477309557826948e-03 -8.022108612829125240e-01
-3.102878746929913639e-02 3.896567087095239579e-01 -4.868106674747240681e-01
-5.873206864960434093e-01 5.873853077305273285e-01 -3.882110526289906383e-01
-5.373899268796971107e-01 3.908917923057866894e-01 -5.617691836248941417e-01
3.286636472506053175e-01 4.765925922942726434e-01 -3.526473004624711138e-01
-3.493101630139630043e-01 2.917176666189730261e-01 -6.248897468054196436e-01
-2.951513088946277064e-01 2.581096030109637507e-01 -6.477193206470225340e-01
-3.563855964737970838e-01 4.686617960543307260e-01 -4.629053266623110452e-01
6.880726357668238702e-01 2.154459271426732159e-01 -5.392722253237077767e-01
1.510118980474149109e-01 5.297659870887945210e-01 -3.303476401661644690e-01
-1.434834676009201504e-01 4.419264071714985032e-01 -4.555458320255004190e-01
-2.429481082583864193e-01 2.219706789456792895e-01 -6.731748905492572765e-01
4.255911263146291285e-02 7.123026712807811744e-01 -1.784449981526212980e-01
-4.782658947972836909e-03 1.858067174723799508e-01 -6.707068861802800708e-01
5.553750460490687324e-01 4.565768395495362064e-01 -3.370206251862070679e-01
7.292553937657256791e-01 2.862346104685926651e-01 -4.678539722791830169e-01
-7.297347716342715562e-02 3.643425799162531842e-01 -5.164402390946192245e-01
-5.307138815272243182e-01 3.820105533101039730e-01 -5.689496449919378973e-01
-1.358941006687287151e-02 1.839145185743824573e-01 -6.737739700606856230e-01
9.398183773851974399e-02 2.079413633446199894e-01 -6.354681415450981197e-01
3.565862483039986680e-02 3.618452914374334362e-01 -5.024160299740956237e-01
5.041614825905335051e-01 4.340941930758551726e-01 -3.654340247434637035e-01
-3.781242922938802264e-01 7.469738221774926412e-01 -2.097176069744295379e-01
-2.541919668260328447e-01 2.086361479293678267e-01 -6.871519283656153387e-01
-5.721404633779211268e-01 6.557202134169800578e-01 -3.229615627613624529e-01
-2.390575306761148489e-01 7.134400076690343706e-01 -2.197186936196764695e-01
6.991288016677300876e-02 7.615746305723384291e-01 -1.289318798730052507e-01
6.307982022812603784e-01 1.974471308040811335e-01 -5.644647516957217448e-01
-3.424259794015607067e-02 7.003191597791408318e-01 -2.010292376327953989e-01
1.274656957446848593e-01 9.160532005430072067e-01 2.206374201137962371e-02
4.811950624657857639e-02 5.493071240825253554e-01 -3.278039777326643978e-01
-7.826115531531581404e-02 5.000754075240904095e-01 -3.921619024672880482e-01
-2.218653725119604514e-01 5.229388336912892121e-02 -8.263576855152110490e-01
-1.111989807162394178e-01 3.793100406162491778e-01 -5.083928338384918755e-01
-3.880550120680906767e-01 6.655000775969011073e-01 -2.862851677322663657e-01
1.038343927461951866e-01 7.136358402647399179e-01 -1.680080026021683326e-01
-2.471428086774920818e-01 6.179880181712577025e-02 -8.213979665832806809e-01
3.578258394103532303e-01 7.610883508950629928e-01 -8.611204035205671792e-02
3.044141775764460656e-01 5.287773056413609396e-01 -3.082051835654289196e-01
2.588791785420886948e-01 4.091007389866438970e-01 -4.253259436254474002e-01
4.528339818596521793e-01 6.175130464970995936e-02 -7.162483232606928762e-01
5.778713858668703407e-02 2.796550854792225621e-02 -8.067488798905739777e-01
-1.573934792006138061e-01 7.287275758810786153e-01 -1.933591645013839899e-01
-3.107651644575919470e-01 5.067702518003109891e-01 -4.209338422883855402e-01
4.182237987706517446e-01 6.808934543564435504e-01 -1.509321039547319721e-01
6.995199814412573769e-01 2.831811632921434341e-01 -4.751362912298565666e-01
3.883044104702111643e-02 9.225671135935875622e-02 -7.503556587190186589e-01
3.556739690792455888e-01 4.630202410189662721e-01 -3.610945938768650443e-01
1.460815418106619842e-02 2.043563816116625298e-02 -8.201763809669224692e-01
3.237135563467688493e-01 6.499617467540983462e-01 -1.936376934715789422e-01
-1.587534572875146446e-02 4.935179070574930993e-01 -3.888289865283322544e-01
1.364421362363353596e-02 -6.817347889536863326e-01 2.151344177325665297e-01
2.805715942662858065e-01 -2.290385254559956785e-01 6.723921216261199429e-01
-2.706465374964347470e-01 -7.430625249977151903e-01 1.158995101396623623e-01
-2.959337949629050057e-01 -2.269168890151380402e-01 5.877091645375055462e-01
-5.283580600633662749e-01 -2.784041346961214081e-01 5.053364810825838882e-01
-1.922125216218890931e-01 -3.707951277590954553e-01 4.707178480892718619e-01
-4.270196093868404152e-01 -6.746671615848692793e-01 1.554234603464300646e-01
3.326360914588895046e-01 -5.922620271545465664e-01 3.455188959253123748e-01
-2.428316509073085161e-01 -2.914926488156965312e-01 5.361851557327130813e-01
1.293891002402412782e-02 -5.752174942163794658e-01 3.131803244850362433e-01
-4.241561929064129738e-02 -3.784373021318638841e-01 4.861875267623950725e-01
-7.323730423384530175e-01 -3.805335871169280848e-01 3.805681877951703207e-01
4.022620054713400561e-01 -4.797759603566870146e-01 4.596342795868997300e-01
-2.785395606905652355e-01 -3.830578977582509981e-01 4.464448032413723677e-01
-3.219527575206195813e-01 -6.259404715074380343e-01 2.161129544608184072e-01
2.461279707488497615e-01 -5.507539106065131307e-01 3.707665984314376106e-01
1.834300497870780880e-02 -8.860432440332802750e-01 2.757757941508470756e-02
-6.821503028808869606e-01 -3.368915196140375712e-01 4.283303393651621271e-01
1.177893838034724250e-02 -5.706009770478782661e-01 3.172599589233495165e-01
1.877633763475112516e-01 -7.934395480122191646e-01 1.383693042785595073e-01
2.529704797603140459e-02 -3.867276081570426571e-01 4.887242509833856219e-01
4.054716038144957624e-01 -2.376360639453445611e-01 6.832399292320893158e-01
-6.025684963470833155e-01 -3.568705774679040710e-01 4.218800037605487940e-01
-6.587204511198699874e-01 -2.251358187845184100e-01 5.348303132368373847e-01
1.865832439515191787e-01 2.527187513934652657e-02 8.926054258003066622e-01
3.735274360949603772e-02 6.097257758381291470e-02 9.030758029539222020e-01
4.465711329493055742e-02 -8.334302118238636758e-01 8.001313630038467406e-02
4.477488009088839704e-01 -3.722253260239736239e-01 5.655741799597562292e-01
-5.563204703744183410e-01 -1.635273758298107227e-01 6.069891039001081845e-01
3.721078552755688884e-01 -2.719489413204849715e-01 6.466078855241917944e-01
2.238938034105848393e-02 -5.795711628385652459e-01 3.105888024173424911e-01
2.042280738885268721e-04 -4.123561608390076128e-01 4.613374695432465589e-01
-7.230026082837960333e-01 -2.802396339631431088e-01 4.743937012859431035e-01
4.169478413123679506e-01 -7.229597305878453506e-01 2.377560861359553079e-01
-8.250391156099251555e-01 -2.502556261621806111e-01 4.866887213680091140e-01
6.109407950814761401e-01 -6.504647180632802117e-01 3.337111731838046658e-01
-1.648340992258037763e-02 -3.533933040027952277e-01 5.131618064874835516e-01
5.214387340939773824e-02 -1.873154970025263655e-01 6.765099981959216136e-01
1.801269198718010722e-01 -5.232963361572028349e-01 3.861490546231435839e-01
-3.358344244390427669e-01 -3.028444045960406172e-01 5.117483401619804528e-01
3.216990033841393704e-01 -4.308724718875523441e-01 4.925899944869839842e-01
6.854507997832524069e-01 -6.370054623043723829e-01 3.573108580393312139e-01
2.243064982420640563e-01 -6.872909027950883099e-01 2.416732547822113830e-01
-3.073171870890048507e-01 -2.014961065187546863e-01 6.094228011883986440e-01
1.468104726730641296e-01 -3.316888612920839696e-01 5.577016931188003568e-01
-2.558623541246125566e-01 -4.136542836855011673e-01 4.216592809343790993e-01
1.124311740744584481e-01 -4.737064682018182760e-01 4.216709516069371277e-01
-6.440693024518645560e-01 -4.135820179548010955e-01 3.633856329046645239e-01
-1.692919142461016546e-01 -3.195353161390445118e-01 5.213964806292288312e-01
1.346849587006149485e-01 -1.359234598764575974e-01 7.362703137639741158e-01
-5.121202255386149149e-01 -5.251412591250151918e-01 2.804172344047737853e-01
1.409144430477708709e-01 8.066979397771825711e-02 9.367894727543997213e-01
-4.631220626432033804e-01 -3.438032113439283277e-01 4.548773061233371551e-01
-2.267758131858830517e-01 -2.176883692868497588e-01 6.066060676599758228e-01
-3.957013003350999258e-01 -3.142389309027924377e-02 7.528558222787761212e-01
-1.259277806749633244e-01 -2.532193962015610866e-01 5.890210611267132634e-01
5.040418905163716878e-02 -6.568717208621910331e-01 2.435691874370286003e-01
-1.249558113041921159e-01 -3.761114158185746015e-01 4.759265023515417692e-01
2.039843559039190291e-01 -4.699258865823773834e-01 4.389133528232201931e-01
-3.881448653546963889e-01 -2.793103768497950390e-01 5.255728299713177121e-01
2.817621107707597439e-01 -1.927367818723519088e-01 7.060218002520421976e-01
-3.830294053304559854e-01 -5.167571843799033671e-01 3.075427953568040107e-01
-1.490813328177275909e-01 -2.291763024323630049e-01 6.076963718383555646e-01
-1.022138752607849310e-01 -3.648775998358911865e-01 4.896957517765614387e-01
2.569463503280218220e-01 -7.218585926183134216e-01 2.147255162573495080e-01
-5.486990467107942804e-01 -2.046807376448097626e-01 5.702131012123528020e-01
-3.814314357870710603e-01 -5.671850452952030830e-01 2.613154590185652881e-01
5.505922799818487867e-01 -4.488730481440322273e-01 5.104014786581948515e-01
-6.727878252395614878e-01 -1.811785559055236472e-01 5.732213053777240885e-01
-6.800094996796379743e-01 -2.530145997968020755e-01 5.059416620184166158e-01
-2.394925993198484260e-01 -6.010387026204109251e-01 2.514512676810276570e-01
-1.713382743386110685e-01 -7.776320170619347438e-01 9.896912527684287308e-02
1.294074173086541546e-01 -5.642262473230672537e-01 3.408114045105450907e-01
-1.677568862250340964e-01 -2.711577338813275784e-01 5.662053889608457125e-01
-3.878347895397654677e-01 -3.210312645497317430e-01 4.871751136182557729e-01
6.492388520747104375e-01 -6.281086254201557750e-01 3.600669990004211063e-01
1.527465694447980304e-01 -4.133077021160074804e-01 4.833849168809457586e-01
-1.801305377132513819e-01 -6.614377169442569038e-01 2.047167298025116822e-01
9.503364187104182403e-02 -6.373124237781532253e-01 2.682993558539307766e-01
-3.525672285421751484e-01 -8.287049916181264964e-01 2.467187495121431207e-02
3.493201330950140293e-01 -2.928287613444076065e-01 6.239433054665539657e-01
-3.850430746444966773e-02 -5.281623062394763535e-01 3.488090547791424800e-01
1.749939102187638706e-01 -9.142858284102098332e-02 7.833284422303540273e-01
-5.271664317329243232e-01 -4.952569617667749724e-01 3.056933889361078127e-01
7.959388804316984423e-02 -4.937620203079238768e-01 3.982556437841192620e-01
-3.307785956503079272e-01 -2.312619073650870882e-01 5.784688632230945426e-01
3.466226526592857682e-01 -4.066011645625460802e-01 5.187006993983938052e-01
8.738141729793137691e-02 -7.083254686788941212e-01 2.017133731824268805e-01
-7.454696007874563046e-02 -7.335909000398758151e-01 1.540973719704316069e-01
3.029866456919159678e-01 -2.355655554211551206e-01 6.697462582231384909e-01
-9.350847776704207526e-02 -9.642561758273435202e-02 7.383729689459000989e-01
-2.205563684864542129e-01 -2.823300473609833827e-01 5.479757252914033705e-01
-4.507737362332439601e-01 -3.131084304176516842e-01 4.850171779637166836e-01
-1.570438680219582162e-01 -5.519723986247744296e-01 3.090546237666407792e-01
-6.997145053994062724e-01 -3.869175603839828392e-01 3.795935502013225160e-01
-7.258969111992170653e-01 -2.540308679490011490e-01 4.981091879572074888e-01
-4.080331030263453784e-01 -4.000081098092364007e-01 4.113653296681974991e-01
1.955761909155458445e-01 2.067294317756933342e-02 8.897191450870930440e-01
-6.305774937015708181e-02 -8.504444610125773130e-01 4.814758270789770006e-02
-4.430179413967029745e-01 -2.126443516998297867e-01 5.787568060606582687e-01
2.656409220655019388e-01 -7.004352129762398960e-01 2.357730304484063066e-01
-1.710080596758588867e-01 -6.844170438212208163e-01 1.849130346469999020e-01
4.916956152451897322e-01 -3.605633293036095144e-01 5.829246790332219819e-01
2.645530822968989448e-01 -2.735301188874785239e-01 6.289874173083086495e-01
1.076962897378460904e-01 -3.484598975176783631e-01 5.363696498026430115e-01
-3.248201206181730583e-01 -5.604984132339567715e-01 2.759845738560502970e-01
-1.544273435183924348e-01 -4.693702805637409159e-01 3.855627539252493574e-01
-4.165258057769411631e-02 6.590351549120761210e-02 8.957464654568971785e-01
2.285327368031247752e-01 -2.087329023459804089e-01 6.832825652344459710e-01
-9.578509750285853219e-02 -7.415944772969969012e-01 1.435306654904177359e-01
1.896789700005836743e-01 2.171927657130376388e-02 8.897970621886763798e-01
-4.999175252575210338e-01 -4.028142513294351024e-01 3.949710611318987818e-01
-5.551048457105437622e-02 -1.399347107027636705e-01 7.039912734485436197e-01
5.241832359154303678e-01 -4.431170284118312042e-01 5.117366611999061288e-01
-3.003404197560494704e-01 -4.013670136740216665e-01 4.262973426926762732e-01
-1.134580441050091343e-01 -6.320215883440348792e-01 2.418422745311769873e-01
-7.328444981511865741e-01 -3.575425040999382631e-01 4.016828025365039023e-01
7.012263262593569912e-01 -6.201472977506988782e-01 3.752158237723904888e-01
-1.784900754353884551e-03 -8.116103473496868448e-01 9.314000030833106958e-02
8.701039665538591594e-02 -5.369054407842787091e-01 3.596150778845637608e-01
-5.876877945484032528e-02 -5.337586997271049905e-01 3.406068062642385597e-01
-3.219540754543864236e-01 -2.801021660712547656e-01 5.347904611903495642e-01
-1.714054878221348277e-01 -3.977000226291479978e-01 4.490528516053388652e-01
-1.851419688398085461e-01 -8.089823979372378071e-01 6.800642680409869911e-02
-5.260833837689691261e-01 -6.128027278580856496e-01 1.975419057727196837e-01
-1.413993413070031846e-01 -2.740549826364320207e-01 5.674967228944147735e-01
-3.762495086961627488e-01 -3.485270954551218936e-01 4.635797337166625565e-01
2.388653766030374437e-01 -6.784067836422532638e-01 2.520475816954479975e-01
5.394528787048291640e-01 -4.499130685588343948e-01 5.077690932983253136e-01
-8.844834981863992224e-03 -9.193238311150098152e-02 7.552366856640674309e-01
-5.363558610046756381e-02 -5.517952511358400480e-01 3.247581881785356339e-01
-3.603756602495669092e-01 -7.085478604932230473e-01 1.342189388668943439e-01
-2.169739190157447262e-01 -2.208492285338729821e-01 6.051664894577476472e-01
-3.159960509336852685e-01 -8.618071434212085657e-01 -3.346177401211650367e-04
1.688475272914959635e-01 -4.272014684029822873e-01 4.730019777409639192e-01
-2.949466820901897393e-02 -2.355298849487236501e-01 6.198134088110712758e-01
-2.711814802403081370e-01 -8.322314024754773332e-01 3.365316738795457591e-02
1.002621437064263876e-01 -5.248629022185228449e-02 8.079815948144654092e-01
-3.987734780985015270e-02 6.543673851145236087e-02 8.955831313210673716e-01
-5.263793722664119601e-01 -3.807314059098437231e-01 4.113428978736050623e-01
-1.682171764315830431e-01 -3.415659591329773814e-01 5.012575392212945680e-01
-3.559314285993732674e-01 -5.389150529564464831e-01 2.911974258337646781e-01
-1.958629630054793333e-02 -9.098014861575853818e-02 7.544998953122520335e-01
2.830816385074377221e-03 -4.261002824401487477e-01 4.490674771180159786e-01
-1.435018522982420275e-01 -1.844890435212143964e-01 6.497125838988851987e-01
1.127663203933857855e-01 -3.208656844135311936e-01 5.625586669869089285e-01
2.132164807550967697e-02 -7.167309785757617346e-01 1.840404477219626522e-01
2.693949887613193012e-02 -1.018226182822567077e-01 7.515009011365426650e-01
-2.864083211041328347e-01 -5.622747674733177270e-01 2.801203010893323353e-01
-3.028070089706301204e-01 -4.473520608227679052e-01 3.835530742039426344e-01
2.340851881445429883e-02 -2.053563480665905328e-01 6.555676092856105308e-01
3.675083541806785647e-01 -3.223462825244741148e-01 5.994773081750746080e-01
1.222158806540525333e-01 -4.289965482125304153e-01 4.643400118137785415e-01
-1.007183363038464535e-01 1.303459659605671339e-02 8.381531584879844399e-01
6.949406811705623188e-02 -3.705519723786543373e-01 5.102715092498623095e-01
2.427134383367325274e-02 -6.026537844786231668e-01 2.896018109928752970e-01
6.029002921149485550e-01 -6.623121798873258248e-01 3.215858211568037861e-01
-6.583691910208046005e-01 -4.469610481619387676e-01 3.304790375047375606e-01
-2.654091763588835029e-01 -7.663123540547919221e-01 9.526269648784975452e-02
3.779914044889174374e-01 -6.317043950439371613e-01 3.159902106316674897e-01
1.327833904216424443e-01 -2.350963130277206881e-01 6.446002848059058099e-01
-7.091883003076667746e-01 -2.911607886495671815e-01 4.664062773903940307e-01
-5.407832204507883045e-01 -3.697419687986878700e-01 4.193046447373003360e-01
-1.821733485542523512e-01 -3.609319639873040386e-01 4.813151027052883224e-01
-4.709031803991907683e-01 -1.445442587385807054e-01 6.373179914410365132e-01
-8.655546541549057060e-02 -5.960514423949844209e-01 2.790304394224899509e-01
-2.946843084776205601e-01 -1.122482363116789339e-01 6.935600262581057551e-01
-1.723216464282728289e-01 -1.098148883224635136e-01 7.141910877962226456e-01
-1.988094761457163268e-02 -7.572179466499730227e-02 7.685156455047764679e-01
-1.036780682527947417e-01 -3.175361517013115531e-01 5.330991725632631129e-01
5.333328342903750352e-01 -4.315164754643344702e-01 5.238011717552867319e-01
-2.988206126062936119e-01 -1.622935155574638799e-01 6.468234713230150978e-01
4.677408065543549043e-01 -6.619240770922240058e-01 3.016315031632388344e-01
1.653196375808115293e-01 -2.736981159060669078e-01 6.139196846218324399e-01
2.589245772552397629e-01 -3.316151812052918757e-01 5.746182381981566056e-01
5.391494012157810323e-01 -6.730506429867445517e-01 3.021101434478325465e-01
-4.406186260557081423e-03 -7.753488810639463935e-01 1.261597223386206612e-01
-3.396340412070177894e-01 -5.578561659717893306e-01 2.761930557880611370e-01
-5.653260726147258941e-01 -4.459897463425530062e-01 3.453566968285791128e-01
4.855953931770947696e-01 -4.386345382098068568e-01 5.100680860583499676e-01
3.981106431714392241e-02 -5.041958768435437221e-01 3.826626020856836452e-01
2.741831886900135684e-01 -4.357366059496993183e-01 4.809671302529751613e-01
-1.664679804225279169e-01 3.340530969326326038e-02 8.470431055938073550e-01
2.266847516939154150e-01 -2.136740832997731931e-01 6.784517250583999015e-01
1.024707220062994265e-02 -5.281499723532341317e-01 3.561468399094488424e-01
2.053637158010488198e-02 -1.972603507209584606e-01 6.625961530757240592e-01
-6.018533119356128669e-01 -3.772885797896927129e-01 4.031730192599556339e-01
-2.581717118279546752e-01 -8.825769470138845607e-01 -1.078333755776234547e-02
3.775296865729595441e-01 -3.838700244432791120e-01 5.442913856999298527e-01
5.917451903942912983e-01 -5.839063941693285464e-01 3.921575625698405232e-01
-5.989901007116745779e-01 -2.966563359876438488e-01 4.779030527097920533e-01
9.190834128107164269e-02 -7.183342403040198221e-01 1.931709578611786882e-01
-7.014914712324055168e-02 -8.796543529587034227e-01 2.016600126282304395e-02
-6.206960960937479843e-01 -2.274630134773018009e-01 5.384002349184598968e-01
-4.922796506670326644e-01 -4.190306086821603548e-01 3.811760938756609818e-01
-9.424539479120026819e-02 -2.891217262836227042e-01 5.606996097969271231e-01
5.990345843520986091e-02 -2.379713019541865593e-01 6.309985950121296261e-01
1.319128141770884166e-01 -2.210346462548222202e-01 6.574267795656326685e-01
-8.186291389693631237e-02 -3.230242842028969719e-01 5.313204629413939006e-01
-5.016496997626155308e-01 -2.531080477727130074e-01 5.326596926286444322e-01
1.890132641779629710e-02 -7.253140633108337010e-01 1.757677112009359000e-01
-4.973104831261378478e-01 -3.170347186801228956e-01 4.744056408615678344e-01
-6.441603418642380952e-01 -2.820113447665367201e-01 4.846096497262929459e-01
-3.872700277646986544e-01 -4.949340344354983268e-01 3.270147660924136446e-01
6.878845359605658683e-01 -6.229215725391196168e-01 3.706544068073082121e-01
-2.290965694054286905e-01 -6.273422893463261873e-01 2.287757762539292805e-01
6.045931132248477669e-01 -6.123312942569965056e-01 3.678958299008054933e-01
1.180558635367663922e-01 -8.228011225073195156e-01 1.008379226382947191e-01
4.290080240570388614e-01 -4.318182559184958746e-01 5.078450254455495472e-01
2.358521199835581783e-01 -2.228227266135057727e-01 6.713992593256129515e-01
1.355202812024992876e-01 -4.600923982481430752e-01 4.376856937703513251e-01
4.299840467849945780e-01 -5.739194607753151933e-01 3.770504944531267166e-01
-2.827183634768860032e-01 -5.598689512517432965e-01 2.828917067839668009e-01
2.478507825099813822e-01 -1.884150673279955113e-01 7.049078686535787952e-01
3.689246712414742113e-01 -5.739229351601071727e-01 3.678712116245614894e-01
5.537585732329124433e-01 -6.775786318412488907e-01 3.001332477936989318e-01
-4.279202517242595150e-01 -5.482742658403028102e-01 2.717546711440272378e-01
-4.015199654171920929e-01 -3.209659012436659187e-01 4.851787177899747339e-01
-1.726060001708646374e-01 -8.158993279712258850e-01 6.351664311438677546e-02
-2.966311027370407416e-01 -4.180792864719306001e-01 4.114550183093651503e-01
-2.067985038929715247e-01 -3.032783015084502543e-01 5.307402032963280947e-01
-4.766749222498514182e-01 -2.488019996029258440e-01 5.403808045596845133e-01
3.651449314989977379e-01 -6.577860484454415291e-01 2.900263097132101953e-01
5.554659823928110862e-01 -6.663283983754324513e-01 3.107565296548138178e-01
-6.870706802404773494e-01 -3.735969388209074982e-01 3.937681597267077005e-01
2.211591227306798357e-01 -4.799225492210105748e-01 4.322828295545039778e-01
-1.397437553891982265e-01 -1.621345276328794438e-01 6.708762472697811230e-01
-4.001613583572622979e-01 -3.368780714436740986e-01 4.707203918000035237e-01
-7.641809396596656312e-02 -6.489507115533726944e-01 2.318091005164942264e-01
-3.216600115193535281e-01 -5.816465468996263599e-01 2.569722256956553097e-01
-1.063194813944271649e-01 2.991893058906645517e-02 8.528697247961041228e-01
-5.615097510433467720e-01 -2.855959853932182324e-01 4.937273676572865311e-01
2.952902043245465014e-01 -2.106710314741865320e-01 6.915290460189157384e-01
3.749595608386351309e-01 -7.516337028132041853e-01 2.050239873489566322e-01
2.953336311041101503e-01 -3.242332773695860704e-01 5.868919995064781903e-01
-3.264917132595411831e-01 -4.625183014717985652e-01 3.660185548148748302e-01
-6.467418723338693720e-01 -3.552381250304378346e-01 4.167458190267331886e-01
-8.866920691778239216e-02 -6.076449772583960574e-01 2.680297533811697441e-01
-5.010621256030507453e-01 -2.689663617285891761e-01 5.181351214395525373e-01
7.792597264015481417e-02 -2.284261998389079951e-01 6.425025138680802161e-01
-5.666141563873738907e-01 -1.570437252247161852e-01 6.114166091128534486e-01
-2.868826399124856374e-01 -5.722530561194488774e-01 2.708543815654650411e-01
-2.933553848209357051e-01 -1.105307219818572190e-01 6.953423670121522404e-01
-2.763062082108216216e-02 -6.471683567901080902e-01 2.407833211397111539e-01
-5.533543796109536839e-01 -1.480005680443513272e-01 6.217422532619628628e-01
-5.074051061294211351e-01 -1.193137914091505769e-01 6.550814139693221794e-01
1.957265453951181899e-01 -3.967953798939006793e-01 5.050595207743066029e-01
-5.990998175084149419e-02 -9.086027491299355496e-01 -4.970161856568286636e-03
-3.898515183731195988e-01 -3.163348631018289003e-01 4.911996040105219841e-01
1.594208213140670682e-01 -3.026329396838432495e-01 5.863707913919773418e-01
1.430522478779197582e-01 -4.192722038411338947e-01 4.764319654794837988e-01
-1.517636488161577257e-01 -2.456972152713582380e-01 5.920698360433871432e-01
-2.340588175408818764e-02 -5.429339630598302158e-01 3.374665089035480126e-01
-3.323118590394596450e-01 -3.886586994522140404e-01 4.332028935795034230e-01
6.336014290053093578e-02 -1.075964079038042691e-02 8.408855389568722360e-01
3.460877208824710838e-01 -3.857775215372746813e-01 5.378085559849862252e-01
-1.504349980357757299e-01 -7.125314067896171277e-01 1.620983946675648157e-01
-5.535241095146411494e-01 -2.737523347841476773e-01 5.058409631378941729e-01
-7.073630790759893872e-01 -3.129235240349841352e-01 4.466269869312069485e-01
4.177337358599477746e-01 -4.549766358765267582e-01 4.848110870383958160e-01
5.522306575367378345e-01 -4.478307435257272151e-01 5.116081427939661586e-01
4.996303442718947330e-01 -4.876512221378507816e-01 4.670101446964855518e-01
2.139407591841057943e-01 -2.352580093270101591e-01 6.566477209306519347e-01
1.078032404115160242e-01 -2.545189585324637016e-01 6.229489584013621073e-01
-2.338913157376790453e-01 -9.177846997951658592e-01 -3.957714111953627989e-02
-1.576725304323355059e-02 -3.975966443379059800e-01 4.725376246593974705e-01
5.205665177029609181e-01 -6.239001577409650778e-01 3.446079088481260877e-01
-1.411534424940245058e-01 -7.379369224675286221e-01 1.400829591482788683e-01
-3.747010080750089178e-03 -5.876068777622085459e-01 2.992563664742357021e-01
5.026125781721663133e-01 -7.084017202254627721e-01 2.640445817628319647e-01
3.846863142186239259e-01 -4.855799622752620670e-01 4.516448007022597633e-01
2.715854589550745213e-01 -6.390931592143223039e-02 8.232023703449080632e-01
-5.777214676518213077e-01 -5.307002165225668255e-01 2.654362139270956544e-01
5.584195246483384389e-01 -6.395078753460978760e-01 3.359145503452707349e-01
-4.046400812221178089e-01 -7.502232485638029580e-01 8.916443623082961900e-02
2.615462647964694187e-01 -4.896407636963567289e-01 4.293972719065735077e-01
-4.747863398209172248e-01 -4.045552387676383255e-01 3.971435498903519989e-01
-5.783633374370629188e-01 -1.227329368457994452e-01 6.412670989386727305e-01
-2.061360531006942720e-01 -8.363022906254927724e-01 3.967709892254343840e-02
3.219739508056204125e-01 -2.349412861889225157e-01 6.731749367059671751e-01
-4.613587401046526093e-01 -5.433943965574008494e-01 2.712261182801172787e-01
-2.163750303986583523e-02 -6.753271094171355016e-02 7.757976176514761457e-01
-4.415531963888627565e-01 -3.196663101550720754e-01 4.803599994609427659e-01
2.954669343514784163e-01 -6.508234921693056840e-01 2.859707590002378841e-01
6.260440252433870922e-01 -5.990103867531710868e-01 3.833942432247147702e-01
6.592910549704831258e-01 -5.832833798461746211e-01 4.028825273236668614e-01
3.601305977496210842e-01 -2.991111879145164076e-01 6.197788832064313747e-01
-1.846205078166604230e-01 -5.252755112574118979e-01 3.295106036554774631e-01
2.135974283733375056e-01 -2.111589225399912451e-01 6.788025765490631747e-01
-7.414815106581855719e-01 -2.786307809239269573e-01 4.730991690104904279e-01
3.408592938640944703e-01 -3.621505767167573775e-01 5.587942110382001504e-01
-3.163152309110507654e-02 -7.860794375741200213e-01 1.121804374046539571e-01
-4.559484732430506559e-01 -1.385179096250275521e-01 6.451184705087612548e-01
-1.802147793003041343e-01 -7.065522221055484109e-02 7.490891379558847207e-01
1.309742173150591771e-01 -3.373938069955773611e-01 5.500648956734186523e-01
1.523515363534538522e-02 -3.957407791597311597e-01 4.789068199069546616e-01
4.545508914445695048e-02 1.576275854040220040e-02 8.626341926828180462e-01
-5.459838306230602178e-01 -4.804752145905138994e-01 3.164863406544381474e-01
5.698460530957717429e-01 -4.709538599484562327e-01 4.929482772264267010e-01
-1.923217200935490589e-01 -2.961172649550241620e-01 5.395144335693468074e-01
-3.458251313935827853e-01 -2.099580598874886683e-01 5.958383886774706317e-01
-2.820581280859331755e-02 -4.731179227045212432e-01 4.010781685108922856e-01
-5.913845417704131080e-01 -5.458258659288107717e-01 2.494451613668318413e-01
-1.875766731324241821e-01 -6.033348670151458260e-01 2.571374258186777118e-01
5.442055513609123096e-01 -4.882098217221946257e-01 4.731942343553878771e-01
-2.534408322319395279e-01 -8.361121075039487094e-01 3.274332300041425670e-02
-3.454643585360115954e-01 -6.478345652947276045e-01 1.924049717449199115e-01
3.833462722362149244e-01 -2.324248405550804475e-01 6.847168631202911193e-01
-5.082434343779853592e-01 -5.867330169066170553e-01 2.242452281890436605e-01
2.921356888191310452e-01 -3.527910133966353778e-01 5.600964700420817399e-01
2.220929934928654592e-01 -4.033742908135951599e-01 5.029596718781719211e-01
-2.216315408646914523e-02 -3.280031217835980839e-01 5.357043976052455747e-01
-2.630378636415541260e-01 -5.582013911499882353e-01 2.873859149089881826e-01
4.700031938247906105e-01 -5.974329307382120202e-01 3.613977964948355548e-01
-2.410773222974772756e-01 -1.023157537911520004e-01 7.107685824966109012e-01
5.749641299436306779e-02 -2.409556158178996765e-01 6.278869219939509083e-01
8.176703554458737699e-02 1.619022172423216152e-02 8.684850907110502893e-01
6.309682653721647438e-02 -2.477589544787674458e-01 6.224595245928128406e-01
2.480848259959689828e-01 -2.322718622295871782e-01 6.645305635042852987e-01
-4.309768282605870304e-01 -4.994904441417959834e-02 7.304843022543694442e-01
2.763608933952841906e-01 -5.579199910760361814e-01 3.687067524240513205e-01
3.648091543994643610e-02 -8.222100665379495910e-01 8.912337182869310703e-02
-1.897495388706229857e-01 -4.443898432840324153e-01 4.032730740456518803e-01
3.472273261982030124e-01 -3.214119775372334398e-01 5.972903780993642497e-01
-1.930796578602818336e-02 -6.469909977205471341e-01 2.421974904957318875e-01
3.597547469144956600e-01 -5.325134909675325323e-01 4.046504744534930031e-01
8.385220702875130494e-02 -4.837479494905263522e-01 4.081231997090082331e-01
4.564859569407280215e-01 -5.868177211018140715e-01 3.691479471272608448e-01
-3.313772341216015271e-01 -1.523325052439412075e-01 6.511095373812998410e-01
7.810190777313945343e-02 -8.354786317041590360e-01 8.315171682646819995e-02
5.005149345554628093e-01 -2.577405674762029419e-01 -3.114494388212341036e-01
-2.255844830537779427e-02 -1.546199356804448810e-01 -9.377425587021912534e-01
1.328415123011050525e-01 -5.254727092112397857e-01 -3.295997138321776765e-01
3.674599875724250952e-01 -3.976213192235898003e-02 -7.086450366275004464e-01
2.991005527032017941e-01 -1.846309296161066371e-01 -5.940486009569979631e-01
8.365720197097298305e-02 -1.686134880142003967e-01 -8.191845791946633648e-01
5.950126344827976199e-01 -4.638762471114651897e-01 3.431830434489108878e-02
-1.168653442101359324e-01 -8.451341956713603887e-01 -1.709326264430095221e-01
4.806272767046392280e-01 5.261993618188168242e-02 -7.154348699191626082e-01
5.783329321436014858e-01 -3.531868035845267539e-01 -1.188961511539390059e-01
6.336270016153451312e-01 1.357482145830864531e-02 -5.212238707677009364e-01
2.937007455570975756e-01 -6.204681263807373393e-01 -5.848784402598179027e-02
5.252485807520924643e-01 -2.596447995669979095e-02 -5.754288656564124915e-01
5.804628692538575940e-01 -3.418870095233982886e-01 -1.308855203060451666e-01
2.291312306143415967e-01 -5.834015272124810636e-01 -1.659920291070888232e-01
-4.925284268644345570e-02 -5.162750662655648526e-01 -5.145015678334745601e-01
1.691390727780431313e-01 -5.436819808554709255e-01 -2.724264003387139588e-01
6.606304598197538791e-01 -2.283353311576764577e-01 -1.953792513898237604e-01
7.929900190065209964e-01 -1.083040862031676016e-01 -2.181855094748086921e-01
4.455804916684817374e-01 -2.154145044109224694e-01 -4.162987310460829482e-01
7.334635543409132596e-01 -3.860376588642455697e-01 6.966038806663030214e-02
6.473167735953174740e-01 -3.756027130406001668e-01 -2.536203984079310469e-02
5.866102997504810679e-01 -5.489643953260914255e-01 1.318744385174690781e-01
1.089184300709273023e-01 -1.547568310365221300e-01 -8.123075952964606827e-01
-6.563552339699151028e-02 -5.511314815746236606e-01 -4.868668991411863045e-01
7.577397976170398008e-01 -5.614597334278438601e-02 -3.164783520621216595e-01
8.309236315706080428e-03 -2.025895742660735743e-01 -8.488214729032644845e-01
4.051306465297466741e-01 -6.260063114483367386e-01 5.454819246712659664e-02
6.000125265915937645e-01 -6.765998769619573361e-01 3.029897470622271438e-01
-1.797895476731559972e-01 -8.883068963999311007e-01 -1.773232876246661482e-01
7.539422630221439547e-01 7.862234499890080608e-02 -4.872918435550796512e-01
8.179481509628955260e-01 -3.277890948781137653e-02 -2.881040905692148768e-01
8.300603312010154111e-01 9.425480693086124573e-02 -4.341638863094042233e-01
2.344110577067129719e-01 -1.336187660758561546e-01 -7.189681508657079778e-01
7.830027737194794613e-01 1.566294930271670272e-01 -5.563810334102042843e-01
5.637972383467466653e-01 -5.977903414013557848e-01 1.707133222933062411e-01
-3.929491191127363475e-02 -1.803089928643673012e-01 -9.218181049804000660e-01
3.387337586696455571e-01 -5.155196167516885586e-01 -1.457829803051306494e-01
2.854140878332731557e-01 -7.067508714597050545e-01 4.066053470443075496e-02
5.886182339876427916e-01 -2.844097525657798275e-01 -1.944225158248523155e-01
1.031576947520649636e-02 -3.950399060071855262e-01 -6.081532893670114071e-01
-3.923089531621897635e-02 -6.079039417149285640e-01 -3.912771106194192772e-01
9.914441911584798151e-02 -1.863921995261376974e-01 -7.823725633749079034e-01
-1.087375478672203688e-01 -3.186351827786976787e-01 -8.163705400995711070e-01
3.818305315601013272e-01 -1.231887810397300081e-01 -5.914532278403837884e-01
4.045850609441341006e-01 -6.363256593206877421e-01 6.683070432957730067e-02
2.829944280582601390e-01 -2.840446771315882080e-01 -4.860597541222861917e-01
2.598665325067921472e-01 -1.805706825726916265e-01 -6.364661695387635598e-01
4.896211143941391342e-01 -4.298167441214604811e-01 -1.083485680644759030e-01
5.950881431408171496e-01 -5.069377169957028917e-01 8.781287996975159493e-02
4.263954294805791245e-01 -3.174829703533083025e-01 -3.079498753218061213e-01
-1.452072104967221111e-01 -5.938363321248030235e-01 -5.096989390645113582e-01
9.107440409580561114e-02 -2.609713283170657649e-01 -6.975374400495748528e-01
5.920324501710074738e-01 -3.017933835358161399e-01 -1.696032428393510205e-01
-4.542368489813908977e-02 -3.535937565879342936e-01 -7.126779269341250167e-01
1.394010590456741527e-01 -2.791849349405822744e-01 -6.288979799687121064e-01
6.833150142747106415e-01 -2.476177915049143363e-01 -1.498443723710531916e-01
4.542534573163454215e-01 -5.557319955582021853e-01 1.416689519356584964e-02
3.113244026319997859e-01 -2.586460207189574256e-01 -4.905781681672845562e-01
2.585630738468563949e-01 -2.101038855471211164e-01 -6.010687591616289405e-01
2.972508908952222750e-01 -6.596305892161749007e-01 -6.519954409254414759e-03
3.334062970076321908e-01 -6.866903798777634904e-01 6.149799299145186637e-02
4.656602420098213679e-01 -3.535895098753625843e-01 -2.257459109265080033e-01
2.825595542067616539e-01 -7.154983932429715976e-01 4.879315852354014493e-02
3.313119173755010305e-01 -5.922870090048813763e-02 -7.189347717705394381e-01
-9.647837782717795518e-02 -1.929805339733821901e-01 -9.605794010169007580e-01
3.451076440607963591e-01 -2.346278410188931407e-01 -4.881883222552348967e-01
2.260371092976488083e-01 -7.159736108259265874e-01 -4.469268864797200196e-03
4.223211402666667280e-01 -5.858605513945888132e-01 2.112113920515820004e-02
-6.998619606078329558e-02 -1.551866548761018927e-01 -9.822264583630231360e-01
-2.467812412123722710e-01 -9.859525493015128816e-01 -1.200093947510735004e-01
-2.416877233403083303e-01 -9.606939421018688696e-01 -1.464926902521672403e-01
5.911509969222127348e-01 -8.054681942918738569e-02 -4.449244922530632973e-01
2.980160991062927311e-01 -5.280228455778571695e-01 -1.690652230121126309e-01
7.035391880390290398e-01 -6.776733950980443066e-02 -3.537005806767000160e-01
1.138590797502545965e-01 -8.476033276819163742e-01 5.195424253916500201e-02
7.593964738229723732e-01 -1.206042575605326822e-01 -2.349321391147686788e-01
-1.041149289472213246e-01 -4.339848348790734667e-01 -6.688620027632065090e-01
6.250149688265624892e-01 -4.800804614398070380e-01 8.300631472858589766e-02
-1.522680060994432635e-02 -3.826286052530266102e-01 -6.478867020439401658e-01
3.673577429911880077e-01 -2.994242537836965812e-01 -3.866021554816762018e-01
-1.062444242014429739e-02 -3.732061138029027503e-01 -6.551914553005612207e-01
6.778649710898243530e-01 -5.233212882156006440e-01 1.870045157659211144e-01
3.499348648905440395e-01 -1.589631197924640527e-01 -5.774598313685674889e-01
-1.027704093538627100e-01 -3.273748728497613558e-01 -7.998427484914557573e-01
-9.358359010110611775e-02 -7.440812231299872570e-01 -2.741185076505293083e-01
1.180994952011750303e-02 -4.005544676467168719e-01 -5.998882644742278281e-01
6.590717731072682772e-01 -2.714335830831183793e-01 -1.433960297418166718e-01
-5.528409888447138182e-02 -7.501319374252521932e-01 -2.301219150980625960e-01
4.965362563287653019e-01 -1.784138095773942501e-01 -4.136539755680503916e-01
8.129947305244544786e-01 5.741602140445908886e-02 -4.047205174270304129e-01
8.069046299965429991e-01 -9.065130776918521593e-02 -2.268285800148651943e-01
7.366249178433763589e-01 -2.141532266977281274e-01 -1.405697313777266866e-01
7.450571833506620667e-01 7.019112750261935485e-02 -4.852972582641401078e-01
6.583255268421116524e-01 -3.060642357702129668e-01 -1.011437688265616336e-01
2.530540987361024063e-02 -4.274057895352758041e-01 -5.537183014567849115e-01
-4.456745582042834913e-02 -5.094365590928567888e-01 -5.185214897891419206e-01
-8.707607632073993686e-02 -2.068983818042562928e-01 -9.343546522831307488e-01
8.161116007651296467e-02 -5.618774675476037039e-01 -3.332454105005768774e-01
5.205921211362323220e-01 -5.989996288196752783e-01 1.310497297287622764e-01
-1.534618983501942757e-01 -6.183060495540301238e-01 -4.872061682677683581e-01
7.313063541208032481e-01 8.104050591883411869e-03 -4.213723600628094257e-01
2.602994537703736677e-01 -4.889492540438678675e-02 -7.994124043720780559e-01
7.047680391346581308e-01 -3.940411607371253067e-01 5.224987082948991113e-02
-3.660100545072745432e-02 -2.650711423662149291e-01 -8.140944203556611525e-01
5.507380860000935519e-01 -2.932619188074672145e-01 -2.195308648548441044e-01
1.595874808273643197e-01 -8.076888826590099546e-01 4.600376877299423850e-02
-4.600089543986812801e-02 -7.068913192266970125e-01 -2.749221935947422923e-01
-1.679950061971910782e-02 -2.798922674712254755e-01 -7.768411706250104576e-01
2.018361906435617581e-01 -1.816421974777100434e-01 -6.904254774479947621e-01
-5.659262128392908431e-02 -7.605523555293075555e-01 -2.184409053009764012e-01
8.509585149920513292e-01 1.813358229010015588e-01 -5.222869279467183823e-01
5.179531333419421513e-01 -2.365813920188327701e-01 -3.210854797555574014e-01
2.691391012301088126e-01 -4.932660453854955662e-01 -2.396976502267494646e-01
5.062369081753625988e-01 -5.036701093489538428e-01 -8.943322339094660848e-04
3.066095828140419921e-01 -1.659842636965790930e-01 -6.100276447472503527e-01
7.896137279758106420e-01 -1.566092119734964136e-02 -3.363366318191173820e-01
4.024559339602332697e-01 -3.829035845229046553e-02 -6.771284085643934914e-01
-3.713964417466635720e-02 -7.633376528540080086e-01 -1.964515254035079095e-01
3.731874706994842139e-01 -4.268309203068969548e-01 -2.229854472866388826e-01
4.242648136470109632e-01 -8.477902314482256910e-03 -6.933356410822201221e-01
1.246220479897259814e-01 -6.157278729158790487e-01 -2.254590807234091721e-01
3.703801908248535169e-01 -6.348687804377443067e-01 3.243445218117405743e-02
5.220421049693294568e-01 -6.693718533714726471e-01 2.197359290138816701e-01
3.503853174972862417e-01 -6.973075742011418665e-01 9.084665666303005926e-02
4.264938803880477525e-01 -1.998752909808920730e-01 -4.537617330096038737e-01
4.639656633184024992e-01 -2.133029803611305730e-01 -4.014017691052889081e-01
3.054118493301966053e-02 -3.378872351252445450e-01 -6.597878092782494264e-01
2.149358407460905673e-01 -3.939495906649528312e-01 -4.145533462075883802e-01
2.879995101720320694e-01 -4.781860027941154945e-01 -2.404368212713817732e-01
2.763968380215283127e-01 -4.099607943734373539e-01 -3.361324186578356632e-01
8.010638735346663208e-02 -5.336408559230921833e-01 -3.697098061799562463e-01
2.180202929622716557e-01 -8.127991315091025459e-01 1.080157105124085054e-01
7.650729185149096612e-01 -3.263723982720516115e-01 2.575481913319560209e-02
1.768641074219895470e-01 -7.152186472422719099e-01 -5.225566376976864547e-02
7.444899326293360486e-01 7.710419286889665103e-02 -4.944141498784404565e-01
7.508820940440712466e-01 -9.773841562913205758e-03 -3.805419427514731279e-01
-9.000242550361114979e-02 -7.253433460191306414e-01 -2.939529990634271450e-01
1.192500003787970268e-02 -2.855249722275879365e-01 -7.424857773826460949e-01
-1.503796845937128146e-01 -4.843486498590349743e-01 -6.504589151122399659e-01
1.225471366545287655e-01 -7.195925240736780193e-01 -9.858008800934804639e-02
5.794788009134974605e-01 -6.120155738556248837e-01 2.033020079412732606e-01
-4.373872916124955934e-02 -3.840101831232810570e-01 -6.733375536766925684e-01
1.574308494238106648e-01 -5.605314924738575844e-01 -2.626777285643143722e-01
1.353563514722075645e-01 -3.714995781526007623e-01 -5.182248126706934244e-01
-2.333833629597002052e-02 -2.627524001556477140e-01 -8.043350210629806041e-01
2.993316614074543192e-01 -4.834899960305146793e-01 -2.230598633920199692e-01
2.977237725819212866e-01 -1.512487199726821885e-01 -6.367747487661066241e-01
2.094243386411637209e-01 -3.815636968298853349e-01 -4.351705574487759742e-01
4.194860422230294872e-01 -6.421739229514820124e-01 8.828310862730144593e-02
2.131615103694707303e-01 -4.184270360073474859e-01 -3.858768011854310509e-01
6.712894812905602082e-01 -1.197588381451666906e-01 -3.199252722633132429e-01
-4.100795953303043584e-02 -7.278150546399547727e-01 -2.442068881531578306e-01
2.448491350320970150e-01 -3.657445809174057483e-01 -4.210448453885407560e-01
6.441717253774644769e-01 9.113910845879416578e-02 -6.074046324296551447e-01
4.021596696528872417e-01 -6.994182798305669246e-01 1.427934502816628204e-01
-1.501191628508383169e-01 -8.175525860215565599e-01 -2.368334502134653297e-01
1.787171098850106887e-01 -2.586480357272666897e-01 -6.169178043975007686e-01
3.192793697907741479e-01 -6.127061802409518032e-01 -4.374728003895906464e-02
-3.096169694350027132e-02 -3.564287174073687003e-01 -6.953821190046891587e-01
4.777059107179594255e-01 -3.331830728202216929e-01 -2.395858494558866514e-01
6.441162244832032702e-01 -4.675311781569092551e-01 8.563630515421155609e-02
-6.317462793300164525e-02 -4.173791276124744765e-01 -6.504572270354622709e-01
6.925442720892516224e-01 -4.693372174255077689e-01 1.340169203844304158e-01
3.338082827416219422e-01 -2.333811864832962546e-01 -5.005004508478377856e-01
4.411368606429572070e-01 -4.425119701642740710e-01 -1.387922705782388966e-01
2.801113806609677459e-01 -3.766102202628400786e-01 -3.739685405897061887e-01
-5.683493333751588050e-02 -4.427293838949136751e-01 -6.129671909022180731e-01
1.698322468657195439e-01 -5.862598950383576257e-01 -2.189432471291980209e-01
4.909578597261456956e-01 -3.151879898444537309e-01 -2.492849414717649703e-01
7.294156679051471137e-01 -9.035647641190600043e-02 -3.010222746938030491e-01
9.471297079337923433e-03 -6.415516486716993372e-01 -3.031321047823921089e-01
1.250724344910255359e-01 -7.362174673810191194e-01 -7.554897362810480965e-02
1.195428449933282067e-01 -2.961504454116714036e-01 -6.267703351664347666e-01
7.029454977800205784e-01 -6.020273881280840955e-01 3.085439276503001427e-01
3.688360498174841351e-01 -3.602748888488258028e-01 -3.097015823881546503e-01
