7.431211540870860111e-01 -1.010112256100873240e-01 -3.048160613149770160e-01
-5.518861938722742222e-01 4.520080235039370953e-01 4.986566210234716356e-02
3.701978551585962118e-01 6.222025835338770112e-04 -3.209855454280717835e-01
1.310619594331490501e-01 1.094417450110308498e-01 -2.417351983343215271e-01
-7.195335739135803044e-01 5.617677666763447597e-01 1.741493225057594019e-01
9.947735489718873003e-02 2.645993075860658128e-01 5.779829008328911388e-02
-6.549891820582195434e-01 6.567609313050610798e-01 4.081098249832194047e-01
-1.834841000465075866e-01 2.766257677298700202e-01 -8.811545599818879082e-02
3.584900068148939023e-01 3.167172105590715381e-02 -2.642922498571810830e-01
-2.747919016310571561e-01 4.127164752440345974e-01 1.362599161087925115e-01
-7.213903910701440214e-01 5.454558118163418401e-01 1.395372998767073491e-01
6.448606062706131459e-01 -1.748607666428722562e-01 -5.156920789489386481e-01
3.373196613414162215e-01 3.108890206768014780e-02 -2.782532402036153596e-01
8.703531519343138401e-01 -2.383962892982484372e-01 -5.101891522349794039e-01
6.580047053053243999e-01 -1.481562288199788913e-01 -4.529360240353941247e-01
5.458663711249240880e-01 -1.568165954665657821e-02 -2.485449135153178224e-01
5.775993950942599486e-01 6.079000851017629832e-03 -1.847319711497182326e-01
-1.048241178299694348e-01 3.267331857863735589e-01 6.219425590084729644e-02
-6.030125079900746643e-01 6.170892105979921549e-01 3.579924514502244581e-01
-2.937151888734522709e-01 3.164640451205781302e-01 -7.277966073328810681e-02
-5.214134433374000288e-01 6.012563045689799379e-01 3.746824135090722763e-01
5.033740943896682918e-01 -1.327826196813620130e-01 -5.146022300616546197e-01
-3.117831802866651292e-01 4.201404838822065946e-01 1.291999499378657656e-01
2.188310323280305003e-01 6.007472755743186593e-02 -2.901789681686006150e-01
3.837419363995981936e-01 8.553673934313088534e-02 -1.384687782060922412e-01
7.488128246168701541e-01 -1.400576548892475404e-01 -3.815563534671610468e-01
1.093427188465740524e-01 1.219131932062094276e-01 -2.292234913882075786e-01
-3.900600953632460399e-01 4.628472353856122878e-01 1.696916872365918094e-01
-5.826854428911526496e-01 6.491272349566964417e-01 4.360303292156056942e-01
1.086385627044397922e-01 1.512231069101331038e-01 -1.694675365484009932e-01
-2.611818013821877726e-01 2.663886909516456347e-01 -1.559812875334090077e-01
-6.469694562041260477e-01 5.958479188501908386e-01 2.878756835057452168e-01
8.174716970193003363e-01 -1.312017932773881790e-01 -3.219763150807115615e-01
4.206888798216334990e-01 5.556707670626164636e-02 -1.777273566489505074e-01
-1.925900037406614862e-01 4.441694134349696288e-01 2.504029001167178969e-01
-3.878952445419428519e-01 5.180532085707697521e-01 2.843484895068673080e-01
2.351439666636030712e-01 1.473830620696822413e-01 -1.010777057476902191e-01
-6.440126885568359105e-01 5.422325894254131917e-01 1.795728642641242490e-01
2.166117084340695720e-01 4.566608818999532554e-02 -3.211015801346686072e-01
-6.800053218345912531e-02 2.315389331498941272e-01 -1.110609419426408784e-01
3.474641227667171761e-01 -3.202055355380183793e-02 -4.017161486111325841e-01
-6.429642055602383666e-01 5.876149638624744709e-01 2.733862884986248964e-01
-5.249441708287632125e-01 4.332929476129110946e-01 2.768323312181844922e-02
2.753518712206846630e-01 1.804442188024097393e-01 -8.952252033154474778e-03
-8.123925975490894347e-01 5.718166202196753867e-01 1.387942569059614495e-01
6.619296546930388825e-01 -8.855027173346812289e-03 -1.645496598781820141e-01
-1.265444679738661482e-01 3.807886323017329322e-01 1.600875449441723219e-01
7.641580643204681778e-02 1.543373989747587327e-01 -1.825013148779816297e-01
7.263993045378583924e-01 -2.009932060732522174e-01 -5.201860076363453711e-01
-5.974217833616258799e-01 5.007071021134302802e-01 1.224019860847422869e-01
5.133124019162937923e-01 -1.314527536307821820e-01 -5.058795432498374156e-01
3.884463055560163358e-01 9.830045529944202165e-04 -3.092421205659280359e-01
4.422132164292595369e-01 -7.509299786026096823e-02 -4.330271092643761532e-01
2.110435719219156403e-01 2.081017969518105803e-01 9.061955630863845548e-03
1.789812607253462029e-01 2.157397629729269073e-01 5.413138457391768188e-03
7.778494459146426676e-01 -9.728499052355762955e-02 -2.762263137095383181e-01
6.640038825550219348e-02 9.253411306597035535e-02 -3.154374077173542346e-01
-4.307360231287867824e-01 4.291644651678642730e-01 7.600771998136987562e-02
1.129463411882297014e-01 1.940357635825453175e-01 -7.896523985946603263e-02
1.963522272480744957e-01 2.481721538834750357e-02 -3.761246089832606110e-01
-4.375162118485327878e-01 3.602853752356061645e-01 -6.950612211175154209e-02
-4.319443238078472108e-02 2.867097539858848299e-01 1.717485997582528234e-02
1.590061422050507434e-01 1.447654976184241105e-01 -1.523582881029743319e-01
-8.015922414687077779e-01 5.617925360788728062e-01 1.247242292869562980e-01
2.722075801345444704e-02 1.758370221396156896e-01 -1.680186234302776527e-01
4.664595022686467418e-01 -8.965284079021938746e-02 -4.483031668028331085e-01
-5.606225465630098048e-01 5.059862080693411368e-01 1.554288052022649025e-01
4.918073437403230330e-01 -4.914966461334206727e-02 -3.498570389065070452e-01
-4.907954713425132787e-01 5.839869370353742983e-01 3.576847361334598019e-01
-4.407034711530887772e-01 4.438216703491533743e-01 1.000928814505492176e-01
2.499851709564746283e-01 4.304316654627282634e-02 -3.063650968069963620e-01
-3.213615889165508804e-02 1.648131098540775719e-01 -2.264417428561153467e-01
-3.804144822907667978e-01 4.624958616325622329e-01 3.700738301237709305e-01
5.969971658692480032e-02 2.923927100141912594e-01 1.484332851690544908e-01
-9.328883816847785559e-02 -2.686305295999956780e-02 3.407280556387717874e-01
-1.628169215799427361e-01 9.325780052256520125e-02 3.473402978825732013e-01
6.662595595297876594e-01 -2.458897879705798373e-01 -6.448161496348392419e-02
5.610810785599608108e-01 -1.263633538071692701e-02 -7.017746288046196323e-02
9.678840968284101454e-01 -2.561899200377258379e-01 -2.487493394491434862e-01
7.340745853176056102e-01 -2.026936916923922360e-01 -1.197731898736646705e-01
-3.276924414961688847e-01 2.407404696109578524e-01 4.048597250176431128e-01
6.899901148855078770e-01 -3.017334209029794989e-01 -6.221679108876539827e-02
3.243851251065343333e-01 -1.499072742491920907e-01 1.186966645465238474e-01
7.087741359689704312e-01 -2.146362042905237411e-01 -1.004160514221547063e-01
5.910821694871158938e-01 -1.870474767322558296e-01 -3.569490502776080654e-02
-6.152655724831489481e-01 2.207472551134008198e-01 5.896239082625537309e-01
-2.719693696286410445e-01 2.997240769334112431e-01 3.522724885028450936e-01
-6.552729566002534201e-01 3.879199796428836056e-01 5.635631519511826726e-01
1.553696587056202505e-01 -1.775149854559316120e-01 2.321180009937827693e-01
2.564018388417137473e-01 1.584917477621860804e-01 6.700262652191393831e-02
8.234842592318950549e-01 -1.097026898917068116e-01 -2.036486429214895422e-01
5.145008117209589615e-01 7.244632511877689696e-02 -6.715106521356503655e-02
-1.083688627321101050e-01 2.968974058244244763e-01 2.514853858779506068e-01
3.362873224595022137e-01 -2.249919415702991976e-01 1.341711751309051792e-01
1.833238677235726199e-01 -1.473915800398722664e-01 2.055744275874669680e-01
-2.165077915198364289e-01 4.308755338280710612e-02 3.959804830456777891e-01
-4.792008646023962481e-01 3.076821515970552534e-01 4.786053995424569552e-01
9.196651066808484432e-01 -3.123274720592538745e-01 -2.016913916974358290e-01
-2.338132960749898792e-01 6.713320488873857073e-02 3.994088028358944165e-01
2.569346312458362647e-01 1.314330693728576471e-01 7.491322609791906117e-02
3.663852771221584037e-01 -5.721293958791207057e-02 6.436799586004947338e-02
5.624225004466468780e-01 -2.044409105817166228e-01 -1.259035844776481422e-02
-4.383186389477455869e-01 4.835028314056526999e-01 3.996523863017815703e-01
-3.281014844394016250e-01 3.280762028829729560e-01 3.785128267311996253e-01
1.303849564321153121e-01 1.057266682085696297e-01 1.613706623303061138e-01
4.747769396401715358e-01 -2.736433433253188108e-01 6.294340671995631020e-02
7.454027934021364432e-01 -1.360458964029705176e-01 -1.471114526338512252e-01
-6.772436517157520708e-01 3.166472330413356295e-01 5.989224763068474733e-01
7.041835060055457764e-03 2.946324083966637697e-01 1.804684380194026827e-01
4.539760897638736026e-01 -1.598830772022655777e-01 4.121783714745305693e-02
9.007927321473144788e-01 -4.845150691940534604e-01 -1.375200893171793504e-01
3.803982860567642343e-01 1.056131830323841919e-01 6.067261312859888178e-03
-1.272735452192657289e-02 1.771989620844571234e-01 2.285197243213447638e-01
8.151981192883751559e-01 -1.993783749778903491e-01 -1.711865532898458053e-01
9.970801520464302181e-02 2.252966300706946839e-02 2.057712758326501745e-01
6.562387872712797110e-01 -2.981325587968179924e-01 -4.234322281748899297e-02
-2.679710040415186345e-01 2.988449186959574178e-01 3.500560063417975099e-01
-6.036574460427828193e-01 6.527518411907761164e-01 4.508299889730688070e-01
1.186280787388877857e-02 1.329212417311730898e-01 2.267276693163097767e-01
-5.406368191019647051e-01 2.335903754372963825e-01 5.393438596704596133e-01
7.906649850231284304e-01 -2.213071044734275516e-01 -1.492645227810162345e-01
-7.466345508327755232e-01 4.086304301687375129e-01 6.140197560035068891e-01
-2.036430317097067191e-02 3.067132241827695838e-01 1.938167652104753613e-01
1.921084356991498154e-01 1.871536887359687984e-01 9.821936150821614087e-02
6.434349628698659007e-01 -1.062686337590973279e-01 -9.282659876628832074e-02
-2.098068896443009215e-02 1.396731322808011412e-02 2.833653818725542228e-01
2.548406040789697458e-01 1.939338830478720965e-01 5.717755279449984740e-02
2.334415551007550660e-01 -1.900619494761387751e-01 1.874320699901157461e-01
8.879984265301938962e-01 -3.773365419817387156e-01 -1.622155842171050799e-01
-6.357061825804160016e-01 4.617089235051267115e-01 5.289310360460481863e-01
-4.697182502388854708e-01 5.567356352866453806e-01 3.968560318577691315e-01
8.057257047912647074e-02 3.036174272559876153e-01 1.320457235390766482e-01
-5.816220447084735623e-01 6.264341763704052157e-01 4.451549139933806409e-01
1.768282837025914878e-01 2.231228460895193777e-01 9.675758578749248107e-02
6.070669187077748497e-01 -4.173593007478212935e-01 2.452270761344087224e-02
4.986930543221438361e-01 -2.556860805988542817e-01 4.261438624508002981e-02
4.904802732680573762e-01 8.930567584710346479e-03 -3.288078752619396500e-02
1.910274727178542520e-01 -1.939548809115314576e-01 2.149704578011859546e-01
5.217833344180600186e-01 5.723880722978764296e-02 -6.704387034965310355e-02
4.677744747992877428e-01 -1.331509567727266197e-01 2.450247271774485744e-02
-6.228917732353514980e-01 2.585651229912998006e-01 5.828435020375600795e-01
-5.113313442433788936e-01 5.554898939617055609e-01 4.230904595133688773e-01
8.551435191694924942e-01 -3.326266425718750752e-01 -1.554201230039854442e-01
2.942411720515513696e-01 -1.019077449118590967e-01 1.228057912596063200e-01
-1.958221310899619927e-01 3.822015591020018477e-02 3.846106247163583736e-01
1.679320312886470323e-01 9.642073386412519653e-02 1.408763974109513151e-01
-3.035483249931573702e-01 1.645292553004877034e-01 4.130712297258118948e-01
2.958116494402603710e-03 1.630071304720259739e-01 2.230966484041711773e-01
3.055517414386838548e-01 -2.175549736638104914e-02 9.136525116909662014e-02
-1.602268442084933964e-01 1.027774429816979973e-01 3.428315059657618402e-01
-2.944695164485245376e-01 3.403289520709735783e-01 3.538846665998647278e-01
2.358325523081439556e-01 1.252479070203316447e-01 8.990824306478950589e-02
-7.209627820405386522e-01 4.800819811082553956e-01 5.763064243230539008e-01
5.986127830969419916e-01 -2.267095093417324791e-01 -2.829340612766271731e-02
2.137817731106256280e-01 -1.549860746713885573e-01 1.889635197955279733e-01
1.916401739239904090e-01 2.203973726848645065e-01 8.838481571391902658e-02
7.281448847384783818e-01 -1.432126864225381491e-01 -1.342059028683369459e-01
-2.267533710177997985e-01 3.509523089340230717e-01 3.085756547227059832e-01
-4.258003818193780710e-01 2.441280573726770098e-01 4.647842226569786628e-01
9.026299329263051119e-01 -3.630091389528506407e-01 -1.756703073327077480e-01
-2.960509297118738559e-01 4.764266596100080187e-01 3.134140794390125051e-01
-3.295095901176862130e-01 1.725705806406374332e-01 4.267521932903275417e-01
-1.662865097876686793e-01 9.056844972551691964e-02 3.503151505791777254e-01
7.477882117648065874e-01 -4.350919026982668636e-01 -5.750900654023895220e-02
-2.090743326622393483e-01 1.522009224986632103e-01 3.581277776400255686e-01
-6.321606296017108217e-01 4.735530458612559057e-01 5.231205904474687252e-01
-2.641314981284573760e-01 2.253315149296074293e-01 3.700614368754939210e-01
-4.827918966673423462e-01 1.766991796301251860e-01 5.207318586205239574e-01
-5.871169728322550574e-01 4.527758086865627529e-01 5.014625310314700934e-01
5.579372200137143745e-01 -1.263089328554596602e-01 -3.360129970410624667e-02
8.823836760086148923e-01 -5.235095675007584992e-01 -1.142051076074357963e-01
6.451910235398198301e-01 -1.996579339801859698e-01 -6.547280976994024337e-02
-3.665422061841492329e-01 4.329424543806439929e-01 3.704562123524283157e-01
-2.093596882142159388e-01 3.770765208360991050e-01 2.898116234697334370e-01
-4.979018757004133322e-01 4.137960481785455946e-01 4.579041206249601093e-01
8.120149026560911087e-01 -1.174644209319139349e-01 -1.941584196797255246e-01
6.340866492044741065e-01 -7.524400596851518741e-02 -9.646791349030583995e-02
-4.106154210336175614e-02 1.266273670267789586e-01 2.615275716201887479e-01
-4.154566751482316467e-01 4.543786919969580174e-01 3.943185591014501390e-01
5.371887842300259175e-01 -1.256250860173548645e-01 -2.091819636965225673e-02
2.170181792935970133e-01 -6.042374052573992738e-02 1.581505305277466633e-01
6.741495413297001749e-01 -8.196122378897356675e-02 -1.193137837855705458e-01
-3.625104960190216330e-01 1.146144490977630132e-01 4.649087698777181754e-01
3.173641614728536231e-01 -8.121153550462535675e-02 1.021353157462889655e-01
3.588858032350163846e-02 2.335394009434750007e-01 1.811533513585177058e-01
-4.965096603110866202e-01 3.476061645119885024e-01 4.771994734747245226e-01
-1.983584957311262387e-01 2.158118333953752133e-01 3.320949781610778029e-01
3.928638146075582038e-01 -6.742020768360953986e-02 5.102535223094525896e-02
8.986541457677811318e-01 -1.734327517050370249e-01 -2.309419614343467819e-01
4.073528585273652469e-01 -1.297611367686141992e-01 6.101107110600542671e-02
2.787291387334475123e-01 -3.838675589079316303e-02 1.130962477982428577e-01
3.845060613855300624e-01 -3.317203649339790176e-03 3.669344817024511318e-02
2.064962965539244022e-01 1.782023503886925875e-01 9.200634605910983088e-02
3.313733554679873516e-01 -2.826171257180294938e-01 1.547760090500143737e-01
-1.728507138596323545e-01 9.932614056419478143e-02 3.517261633422357758e-01
1.762604854857551806e-01 5.336613468884979228e-02 1.488155036182489677e-01
-4.232199900109845370e-01 5.463245152280519212e-01 3.711368493276502312e-01
2.294978302123743819e-01 9.498621860117626922e-03 1.290994748622375232e-01
4.239638556174777362e-01 3.715668194668378388e-02 -1.501062687485124332e-04
-2.279771596017024782e-01 6.318410391202139431e-02 3.969855338279331125e-01
-4.472886468112028946e-01 2.475440636538346340e-01 4.770948243990769666e-01
1.379809270334480219e-02 1.248321689932874873e-01 2.279890406188707919e-01
6.126506359889047904e-01 -4.235127074172457262e-01 2.292766705312870856e-02
7.256249389518235615e-01 -1.361719931347489809e-01 -1.347846940275563843e-01
5.160942307812353969e-01 -3.229366225104237653e-01 5.228613084216524043e-02
4.544094025748311449e-01 -8.586412734443300832e-02 1.840364315151155408e-02
1.186504536613721267e-01 -1.820319671466584304e-03 2.014185926614262823e-01
2.396699251880403669e-01 -1.566731354230614312e-02 1.304444963782500910e-01
-2.176894858910707331e-01 1.308808569872741967e-01 3.699742790868886244e-01
-5.466162411547590416e-01 4.031205278511202361e-01 4.914228586668825671e-01
-7.269192866113859397e-01 4.414864921238438322e-01 5.917628706403341710e-01
-2.330025404700884761e-01 3.459468909194285402e-01 3.139829497505248201e-01
-2.789600023004062401e-01 3.297375003249405911e-01 3.474742988147480616e-01
2.528134574247675737e-01 -1.064018433939566272e-01 1.499144360078533411e-01
-2.092344556992728477e-01 2.483020812425347223e-01 3.289564146726996485e-01
4.627233508640365423e-01 8.069377008731784540e-02 -3.749279615192404463e-02
5.251535720221127690e-01 -3.660018503036852611e-01 5.977436053712169295e-02
4.447965173212301560e-01 -4.965090291946825524e-02 1.334634954150627946e-02
-1.225340652100014548e-02 1.291516052326249775e-01 2.428596952251236840e-01
6.875244877867131565e-01 -1.168291564194073873e-02 -1.490295186375547865e-01
4.563060231416253831e-01 -2.759648477946831033e-02 -5.221392790558565707e-04
9.480892013104302851e-01 -2.941839854964946044e-01 -2.248780253425605447e-01
-2.386226762369690613e-01 1.735699261402030846e-02 4.175579857846115628e-01
-4.559463456587649344e-02 -8.628077961380352379e-02 3.291924266321114012e-01
-4.979943753732277711e-01 3.155649389711066011e-01 4.878811910954619080e-01
4.809925209167956184e-01 6.313709761179742141e-02 -4.349629688023651936e-02
-4.007392602525994274e-01 1.484932537214341819e-01 4.783420844332700872e-01
2.032587593499305956e-01 5.724908025062706157e-02 1.308582880552202621e-01
5.033308995845392486e-01 -1.927722418184971698e-01 2.057027371958452394e-02
-1.563874439808258521e-01 1.474155812210542482e-01 3.268499635363416589e-01
3.642263744244709361e-02 5.479999991436453749e-02 2.352626470293264216e-01
-3.347314159396036493e-01 3.485345403135956532e-01 3.764008504701293334e-01
-5.546122852468338138e-02 2.033538120795587989e-01 2.471047389922104431e-01
1.537220233494896726e-01 -5.789897866668810948e-03 1.808370381749395683e-01
7.896661650921178444e-01 -1.710951251865048262e-01 -1.639376897173006331e-01
3.378162971965529282e-01 -1.118398416543238266e-01 9.875690462035408013e-02
-7.010527643955996036e-01 4.211115572737802459e-01 5.818973895406527319e-01
-4.310580561863321947e-01 4.493004271109108938e-01 4.055587464135228526e-01
1.765574096303347273e-01 -4.834341246854322732e-02 1.796100934159045037e-01
6.829770600462614638e-01 -2.667967355685796904e-01 -6.850059500278134206e-02
-5.994416026195842351e-01 2.283850823755493864e-01 5.774658212591385897e-01
3.191740777886644675e-01 5.651743245258469134e-02 5.906077656680843585e-02
1.455186851855137242e-01 -6.464640272140725896e-02 2.038606603107101511e-01
-3.824144722736400603e-01 1.354737405279333451e-01 4.709220822991378452e-01
-2.013978988127491376e-01 9.692262045822576388e-02 3.701951374509087067e-01
7.844703745625343227e-01 -4.299864175872552541e-01 -8.185536943545025645e-02
7.956935794116611893e-01 -4.996922689688231278e-01 -6.759728796374757376e-02
-6.271977444835370452e-01 2.439057749998156388e-01 5.899838817114170242e-01
4.311279392026028945e-01 4.086861442929428517e-02 -5.731879930293169376e-03
-2.060967715640121822e-01 1.642461179542667737e-01 3.526089924437444956e-01
-5.853176065645379067e-01 4.238382921340553833e-01 5.091584480871987894e-01
5.083473197030895507e-01 3.077420404608318533e-02 -5.063513479400696266e-02
6.984761591428856331e-01 -2.962014509274367713e-01 -6.917427751624291576e-02
5.153122212304476202e-01 -8.864889068411603568e-02 -1.858822571726358175e-02
3.326401768983864304e-01 -1.591432373828563784e-01 1.163807703745441541e-01
-1.248490332247415430e-01 1.250553615291610451e-02 3.483459641054190148e-01
-4.767153038715329361e-01 4.033851550810435560e-01 4.479114952904334479e-01
-8.389179209695739325e-02 3.198437419664153514e-01 2.292882423142033610e-01
-6.805931349148715281e-02 6.247214839029332362e-02 2.978424293758865637e-01
-6.208346377430150609e-01 6.171109970765527031e-01 4.723581216841965524e-01
-5.563633204639527596e-01 4.313508732391157507e-01 4.888803974965332810e-01
-2.060619435961919266e-01 3.895101737527961044e-02 3.907502035939084961e-01
-4.448404173345030244e-01 4.900832467743525545e-01 4.017002018986627898e-01
-2.759804665608541763e-01 3.830822809136163465e-01 3.293751046097652679e-01
1.696752468778719714e-01 7.323168689758857708e-02 1.468563115659521079e-01
5.222299646742722956e-01 -2.918737781207003668e-01 3.901264705600870214e-02
-3.464944585850533443e-01 1.894940314017760641e-01 4.321506024152195202e-01
4.075678451724609741e-01 4.258056907776808925e-02 8.385014438364380915e-03
-3.635025581399399797e-01 1.126157777342551430e-01 4.661339194641634931e-01
5.966525121924678432e-01 -2.863841093834244012e-01 -8.899540178341193430e-03
-2.066727513834724084e-01 4.401755927946321978e-01 2.689232278970741241e-01
7.467740862745603225e-01 -4.873144642191077902e-01 -4.097276823496223686e-02
2.602582740884674117e-01 7.518210790388164810e-02 8.998131277650324444e-02
-4.938228646540672728e-01 6.000647474401074044e-01 3.986353374375450342e-01
-5.498967336211624257e-01 5.601210045778290958e-01 4.456412976252652758e-01
-1.869061571024575596e-01 -2.507593899442986472e-03 3.914759733844965228e-01
8.009159634017494200e-01 -4.948388007775498809e-01 -7.232034049713850776e-02
-2.860474611378540089e-01 4.435874947537833957e-01 3.172010126281887277e-01
1.984783432098685407e-01 -1.028002626355334070e-01 1.825768777289594746e-01
-1.473399165721360760e-01 -2.417088910822774023e-02 3.734910141909737469e-01
5.166246590659206994e-01 -1.134334941735196806e-01 -1.185468069725642906e-02
-2.291475701355831507e-02 1.321307931466382257e-01 2.485763798728690410e-01
6.259477530785682031e-01 -3.521701105248481456e-02 -1.036026366489338213e-01
-2.645810236671183313e-01 1.312812643764060816e-01 3.989869126388129184e-01
-3.094111223584529169e-01 2.155604103876722355e-01 4.011706354872232594e-01
-1.096010467916474634e-01 -7.189931705741677871e-03 3.448710236729821688e-01
1.769027385283458154e-01 7.481269394745668211e-02 1.418841865245336897e-01
3.016224165756005160e-01 7.610792712109157136e-03 8.486211985805089397e-02
-1.324574625073168255e-01 2.040932767271410875e-01 2.947187131085019507e-01
4.199075921323956462e-01 -8.135439820039733205e-02 3.846667434528748541e-02
9.257964908485788458e-01 -4.064761822773161337e-01 -1.768247692429529005e-01
1.786830836241620063e-02 1.315836249657379164e-01 2.234037556422104054e-01
1.926257908762164794e-01 -5.137824952770260467e-02 1.705508690622358214e-01
3.362809430917411135e-01 -1.742651196701970606e-01 1.187245735861195417e-01
-1.302521284355810010e-03 1.799302492297584766e-01 2.205893556825892499e-01
-6.792780439395509351e-01 5.242348423588476525e-01 5.369586717603566095e-01
5.810959512071370847e-01 -2.510342776060034420e-01 -1.000094131398819586e-02
1.682510372372030827e-01 3.864713705150701201e-02 1.582750912650617570e-01
4.543206787298466054e-01 -3.210679138565123991e-01 9.009801804945090364e-02
7.826074524687127720e-01 -1.172948551121894556e-01 -1.759386667965411877e-01
7.960043773195328853e-01 -4.111152541930648274e-01 -9.476951102386386994e-02
6.022247465196971516e-01 -1.538110564895163457e-01 -5.274127014487217657e-02
4.035564044645238435e-01 7.316508091423067073e-02 1.561852700533232626e-03
1.973858354002233362e-01 -2.113160264495824725e-01 2.163078105656264238e-01
4.608491480009380692e-01 9.249522031208093353e-02 -3.992284864646371972e-02
2.717234270724826900e-02 1.384743543977149383e-01 2.155241806069988775e-01
3.275865091916952965e-01 -9.690467318163431543e-02 1.005638541256588386e-01
-5.585538010488937388e-01 6.309910590046950984e-01 4.294342295677600063e-01
-6.455931593495451981e-01 6.145173958801906089e-01 4.885310238684816286e-01
8.801545770142393810e-01 -4.172969091213343251e-01 -1.451707754239748849e-01
9.651623233005687252e-01 -1.725178014846958929e-01 -2.725434174091419526e-01
6.562961373048635805e-01 -7.528220027641799317e-02 -1.102554512709517098e-01
5.280021345882689454e-01 -1.751542540160782591e-01 -1.245795361107135900e-04
8.838133332506880047e-01 -1.608236545092647241e-01 -2.255616125019329898e-01
1.548567556742999896e-01 1.690417831178086527e-01 1.268811203394702158e-01
-7.171182931689719098e-01 4.355053098709419923e-01 5.874951006154282007e-01
6.880236447983902881e-01 -3.763082145301471226e-01 -3.828071677245529353e-02
-3.686363470014691890e-01 3.245899048533682496e-01 4.047597661286175819e-01
3.150175662067037363e-01 9.375412752501648128e-02 5.030160322803920586e-02
-6.260844975422895642e-01 2.588569373162452614e-01 5.847383195800383016e-01
5.982032707299468344e-01 -4.091333625617230019e-01 2.752437117707807329e-02
-5.734653356350525311e-01 3.036696375614801879e-01 5.383958283744540996e-01
2.674344335239512913e-02 4.439838893740262471e-02 2.444446732783972787e-01
7.060589473998787335e-01 -4.297524563707955103e-01 -3.320814115079703116e-02
-4.437188198074419887e-01 3.761726608796127636e-01 4.356986446884383857e-01
-6.768486413633935106e-01 6.479717450213907659e-01 4.977609897454590149e-01
1.774759771919832696e-01 1.265520668363571133e-01 1.257690508674706442e-01
-3.376146365599719257e-01 3.515284593939574376e-01 3.772803503982485873e-01
-1.309363243073645433e-01 1.028935091435737720e-01 3.245974052032050694e-01
5.540686224524682402e-01 -1.137713127035427513e-01 -3.501642278940032826e-02
6.526967529175160543e-01 -1.828235619319994176e-01 -7.526373609390472896e-02
2.239343854470589867e-01 -1.204824617356787114e-01 1.721462720047778616e-01
4.478343312606394844e-01 8.618299261469383743e-02 -2.991389719397988603e-02
4.584178739621265763e-01 -4.360362981436958357e-02 3.041244343502092894e-03
6.630402626761998652e-01 -1.883577726625213777e-01 -8.000472193070508331e-02
-4.605351020431288078e-01 5.388509671126391343e-01 3.965977489311664494e-01
3.599470338323493834e-01 -7.353295144457104582e-02 7.333900732254999832e-02
5.493570803834803007e-01 -2.892316552345168823e-01 2.135331405227554671e-02
-1.624912753104215124e-01 3.545314168240934483e-01 2.675582723671937058e-01
3.520632714507649919e-01 1.420367544898615275e-01 1.257830922207799941e-02
5.639589348856346301e-02 1.674938299873821035e-01 1.885281804525345550e-01
1.628698737176319244e-01 4.104666116924828717e-02 1.608876529671579014e-01
7.629312337364221319e-01 -3.219796759789664287e-01 -1.013697949872014864e-01
-1.103423587082480728e-01 1.508580460664883105e-01 2.971927703866676929e-01
-6.989575535895514724e-01 4.729724637021586187e-01 5.647996069308320877e-01
8.938436917087456690e-01 -2.258166073244033401e-01 -2.119978654890756764e-01
5.474897168529769820e-01 -2.802531057508161338e-01 1.977882181942143200e-02
3.009478756690990298e-01 -1.356275585573870901e-01 1.289092975975692223e-01
4.314150299975620939e-01 -2.163847319846478462e-02 1.312838774561160375e-02
4.041000492159586011e-01 -2.037725274253943675e-01 8.557476870317971829e-02
-4.805305250460423228e-01 5.918084621657564437e-01 3.928912880033851862e-01
6.093375380105274797e-01 -1.189551631679623411e-01 -6.777711915797790532e-02
9.340999931092228148e-02 -9.046652072899112607e-02 2.441011514487665957e-01
1.719481041969262158e-01 2.365133831967786704e-01 9.571119288382794188e-02
9.356199240121387817e-02 1.895910308766371455e-01 1.587057386287583916e-01
-3.338542768592896448e-01 2.962549737845287523e-01 3.917793734554871343e-01
8.246066836179791748e-01 -4.168286331293010183e-01 -1.108004575845849687e-01
3.370809977589212525e-01 -1.805383281378392449e-02 7.064806654680921838e-02
2.221226646827138482e-02 2.710524445713178854e-01 1.782248382893113769e-01
-2.966276928174989558e-01 1.757858342737224078e-01 4.053427403370832294e-01
8.024286103634502565e-01 -1.017819042479778252e-01 -1.929789162327931740e-01
-5.440442771730881200e-01 5.704289464883486316e-01 4.388654252579706760e-01
7.040347346003932305e-01 -1.538220488280805653e-01 -1.159943754941551719e-01
-5.220681444762480528e-01 2.601421565994428975e-01 5.197195533353177188e-01
7.203540620296016161e-01 -3.668898071528112204e-01 -6.123690459576346112e-02
5.495715038825856880e-01 1.752169553039542235e-02 -7.221199431815109038e-02
-6.126419812708121526e-01 5.797023931029394728e-01 4.786619232245217792e-01
-2.097570225366170438e-01 1.193502775898019480e-01 3.685577179611109200e-01
-2.242579584168920559e-01 2.109051621640654559e-02 4.074957468344136968e-01
-5.910426678538889256e-01 3.117283483028918667e-01 5.468624020055383728e-01
5.030370549679454850e-01 -2.616639354644987869e-01 4.173613463657868672e-02
6.213029914919653285e-01 -3.236575764138953648e-01 -1.286245288343609676e-02
9.076702476829736632e-01 -3.060864143913854529e-01 -1.961396857175300157e-01
1.119930706838086487e-01 1.071318737654296666e-01 1.723698828309005449e-01
4.730417949269989930e-01 -4.898502905944597530e-02 -4.405785081230043261e-03
-4.957002742986918453e-01 3.657928542164148866e-01 4.711572167977611247e-01
-5.699001241312839916e-01 1.944034905278739511e-01 5.694613874474843129e-01
-2.897995319911711096e-02 1.609227327293137610e-01 2.435752432615523599e-01
-1.033464724100175564e-01 2.269278199911693994e-01 2.696764788397171264e-01
-5.103456974444158245e-01 3.936271888703069544e-01 4.717788068750450869e-01
6.282376208787391336e-01 -2.419657324125535913e-01 -4.205307549752506507e-02
7.844399341592273034e-01 -5.038934162484686174e-01 -5.932558613014329157e-02
-3.421929000074652033e-02 1.314042193883993848e-01 2.558214006093672555e-01
2.370644613588358818e-01 1.128064986630821082e-01 9.293228558292955521e-02
6.592771063607804072e-01 -1.537926369016442973e-01 -8.819458073928090891e-02
6.552098249654776385e-01 -1.643453413175890998e-01 -8.245332040563377318e-02
-5.600924220775658213e-01 2.001735139195301161e-01 5.616102230643170712e-01
6.374406479362632050e-01 -6.991201530992809110e-02 -1.001758534136643619e-01
4.258493902460128155e-01 -1.739697230605026512e-01 6.298404591970903355e-02
5.347142926520468409e-01 -2.902540163509305660e-01 3.076254703773725202e-02
-4.708357844499724276e-01 2.680740041852231470e-01 4.854720161873016249e-01
4.666254533005395611e-01 -2.308354762473595889e-01 5.496949765170305868e-02
-1.558495827997726790e-01 2.331260144301149084e-01 3.004097759460607753e-01
4.967514333756155032e-01 -7.948930767442882739e-02 -9.845920463765806332e-03
-3.501077753367088374e-01 1.696254565601248432e-01 4.404472686704678508e-01
-5.127679374429044284e-02 3.294218077335397260e-02 2.964094833631811254e-01
8.016921639849192704e-01 -1.095051865783828460e-01 -1.901689620750868503e-01
-8.326377450797152469e-02 1.292216517128703668e-01 2.869584325171641859e-01
4.331521734976518934e-01 -9.160887128007158542e-02 3.336091351857593118e-02
-4.384801508387901059e-01 3.362237086612325232e-01 4.446115627911560453e-01
2.176202785679585971e-01 1.027040221741468140e-01 1.080903707990222007e-01
-5.241053569426256109e-01 5.346962478821584153e-01 4.373605994833887345e-01
2.620840013693616632e-01 -1.040048376756993048e-01 1.434243843640580218e-01
-2.968324473483509585e-01 2.838574286994158258e-01 3.725531076760710825e-01
6.759661883409161243e-02 1.928516564877892359e-01 1.738453782520195667e-01
1.297293170129413808e-01 1.349274707335477164e-01 1.528839337246442331e-01
-3.219917926051679147e-01 3.576762501942344907e-01 3.657010675701530267e-01
-2.655415252117110381e-01 4.786724778363536381e-01 2.937739749836492664e-01
4.086549992526777864e-02 8.728909940743519169e-02 2.226065618589740114e-01
1.645038843072410550e-01 -8.204250005710628235e-02 1.973633687272614012e-01
4.310963160370482883e-01 -2.181219542111287324e-01 7.317208432412365682e-02
1.010116231355516897e-01 2.423762780327571031e-01 1.379996154232138450e-01
8.566573879900661603e-02 2.996874072805623748e-02 2.122301831859051136e-01
8.813258852576490998e-01 -3.229105178553920430e-01 -1.746470913030882532e-01
-7.137646635772953996e-01 4.913649928696663949e-01 5.683974765064666590e-01
3.471265425537450322e-01 -2.328749756618807010e-01 1.298376085788173762e-01
-4.626702813688957638e-01 3.689457333629955760e-01 4.496747475090609458e-01
2.331516698116440633e-01 -1.879853049198662307e-01 1.869796689855260652e-01
2.965494960663030422e-01 -2.222475275834308039e-01 1.580251274478707557e-01
3.492627079900211262e-01 -2.477679422727814551e-02 6.512704643972473673e-02
5.093881409133464988e-01 -6.655525714803738058e-02 -2.163684515038005393e-02
-8.740102781798173015e-02 3.015170159987068943e-01 2.370506189771811600e-01
6.358208430998794070e-01 -8.180880427742245886e-02 -9.554586982947912976e-02
-6.159357787027185116e-02 2.601548757702742409e-01 2.336142021045177208e-01
-6.291492075165248943e-02 1.688540675542454968e-03 3.131598203724315632e-01
-4.800239777194215129e-01 2.482103826081780706e-01 4.972309490081717742e-01
1.721268804136278363e-01 1.417605374903925242e-01 1.244602920525576945e-01
-2.266903006990904912e-01 2.163300845241251102e-01 3.495402086369285843e-01
1.410591394751858907e-01 6.625000143106779538e-02 1.667625432149192899e-01
-6.882302232553432209e-01 5.312173292868171970e-01 5.403940765387958978e-01
-4.245011979307223848e-01 1.177990014531671709e-01 5.024547917657312679e-01
3.849381991072848841e-01 1.188356078550334705e-01 -7.808073528930883477e-04
-2.456941864051879754e-01 2.546123327714303747e-02 4.194832276306040830e-01
3.560685146605810925e-01 -5.280657555274978487e-02 6.943588686528358311e-02
-3.394308777113742570e-01 6.774097327752709452e-02 4.648458691310499158e-01
5.952463872865408900e-01 -1.336044906006140509e-01 -5.456007620821943377e-02
8.228036561624282874e-02 2.315805510290188107e-01 1.529258996434043061e-01
4.939397241103856695e-01 1.068765334886265586e-02 -3.556538891671550545e-02
4.170932499873939436e-01 -1.086163858687449746e-01 4.851883604015114204e-02
-3.185252034574753144e-01 3.957884966814000371e-01 3.519388401718659409e-01
7.113862221797891960e-01 -1.859662134749351936e-01 -1.107714025804177466e-01
2.865916883815207705e-01 -4.338694673990051154e-02 1.097340751964232808e-01
5.777395103205804627e-01 -7.294966856897037999e-02 -6.215719806634488476e-02
6.260390827245874146e-01 -2.518949120679134790e-01 -3.766281586240880636e-02
-6.606386859106910293e-03 2.295022557637123595e-01 2.087859195730795148e-01
2.687230916939798570e-02 3.230984949794506456e-01 1.594770857141523113e-01
-6.968737828497736375e-01 2.631801122996612619e-01 6.274042602714382522e-01
-1.469098504192553611e-01 1.007856679987017001e-01 3.351640704489446398e-01
-2.172025487081535311e-01 2.308462333481483275e-01 3.392239076230224581e-01
1.941821123888895773e-01 -1.602742432415504847e-01 2.027518464490708217e-01
2.745976704493656162e-01 1.051378819228256101e-01 7.194793540331330395e-02
-4.649167638987795892e-02 1.003078422299161394e-02 3.004148391461766154e-01
5.245639717887981002e-01 -1.420996421044412317e-01 -8.056281901939002857e-03
8.298800945166142640e-01 -3.309172502679934569e-01 -1.402441369517907488e-01
7.701592650012025754e-01 -2.724969417571757035e-01 -1.209323425466266172e-01
3.724710629631922121e-01 -6.454515975741695333e-02 6.282005812046403959e-02
8.796640913596182054e-01 -1.675653612765156675e-01 -2.209301964958280406e-01
2.048490743897402599e-01 -1.752871183717822634e-01 2.006969407321722298e-01
-7.222529205683874132e-01 4.569825803642431628e-01 5.841437134519680274e-01
-2.689313665080644289e-01 4.417517057663131741e-01 3.071256137688480603e-01
-5.359687459633264428e-01 3.665736207969262916e-01 4.959389640381035580e-01
-9.600402177669539738e-02 -5.186425052740035319e-02 3.500300083708087762e-01
-2.946162748699972522e-01 4.968985958591342622e-01 3.062872825803384380e-01
1.932171478174279922e-02 -1.190693144880110299e-01 2.988455369013933161e-01
7.050004401263234577e-01 -2.776801490634712294e-02 -1.549883956096651805e-01
3.474756490328558267e-01 1.346515230091009374e-01 1.767810642886869302e-02
-9.017835460526642255e-02 1.681486414259415405e-02 3.254918705380108745e-01
-6.120156033220099934e-01 5.238182923016209136e-01 4.952941313318986460e-01
3.911881964007785095e-01 -4.718552722856206999e-02 4.590329055882203663e-02
-1.233878228335707483e-01 3.923666555182456217e-01 2.317385660443602446e-01
1.449196360284085543e-02 -8.932016828543938580e-02 2.927852455832726242e-01
7.331757097876941964e-01 -7.224951679376054314e-02 -1.589458763990541368e-01
7.501309164214841063e-01 -9.145786991446622216e-02 -1.636299119632119436e-01
9.261995635383338255e-02 3.141568421913781828e-02 2.074686820412823818e-01
8.834578536209333199e-01 -5.307305088219936851e-01 -1.126731329686252031e-01
-5.398429615008559779e-01 5.677690685563960837e-01 4.370652246715090450e-01
-3.076029167954577592e-01 2.316346396213337377e-01 3.951512146185039986e-01
4.871382157209142583e-01 4.299419292759075473e-02 -4.117953097148555064e-02
-3.314306065507994226e-01 1.468535898183410127e-01 4.357787340614853733e-01
-2.443470972788236439e-01 2.995524329008280584e-01 3.351625330528690827e-01
2.493099826948787789e-01 -1.130024682265491770e-01 1.541016535121311481e-01
-5.151544615177530151e-01 4.868761648415397825e-01 4.463644601935016776e-01
8.523755430147461620e-01 -4.893483365226534154e-01 -1.059654477650316257e-01
-2.266334034555393673e-01 1.869984788155536759e-01 3.584387874992289724e-01
-1.404275667620084600e-01 2.645396173078345403e-01 2.812597157131278003e-01
6.877476023578561470e-01 -2.846898033940190031e-01 -6.601468480739657030e-02
3.560625129908323028e-01 1.210325512299800094e-01 1.649104430869226603e-02
-3.583158035859936724e-02 -5.104954112632167917e-02 3.123955956946815049e-01
2.445079590644665818e-02 1.924233238974347171e-01 2.007831496997383447e-01
-4.479868620036043247e-01 3.069601924569071438e-01 4.594314518164759886e-01
6.330218226448901531e-01 -1.665168649868890155e-02 -1.136525846321548988e-01
3.483498094661798272e-01 5.426700739632853848e-02 4.161879062605680635e-02
8.868424790083485609e-01 -5.054192975871797389e-01 -1.224854475453841518e-01
-4.198101743313922829e-01 5.392860579607864357e-01 3.711620665914020512e-01
-7.394711151791157899e-01 3.665871270173451379e-01 6.223746857375606067e-01
-6.677092705052668498e-01 3.035308473466815649e-01 5.969936244123246194e-01
5.075029731522709975e-01 -3.127472481783983849e-01 5.452052245181395612e-02
-4.587298364284153052e-01 2.553897919085276191e-01 4.818137686475878478e-01
5.855883327042781250e-01 2.981485859625860810e-02 -9.833422258425732199e-02
9.971510627746786593e-02 -1.349568194979146041e-01 2.537346919590931504e-01
-6.009917815964093135e-01 2.548262684698250902e-01 5.703754211388586404e-01
5.142193732683634222e-01 -8.647874075755893064e-02 -1.857021118167235044e-02
-5.273305688626963583e-01 1.689096302200156496e-01 5.507771403738966898e-01
-6.054428215422219539e-01 5.722117065589933382e-01 4.764704917059052192e-01
3.562592159395308600e-01 -1.166027057320592406e-02 5.678490510255946450e-02
9.248052747522739203e-01 -4.217530367062978236e-01 -1.715558266403623411e-01
7.916079499962936916e-01 -1.286554345277936828e-01 -1.780705967986248028e-01
-4.044593666622807171e-01 2.623036150524941101e-01 4.459886706788722677e-01
8.575398225348724868e-01 -3.990359271806411257e-01 -1.366818028699143539e-01
5.376407473647308866e-01 -3.029944430740280636e-02 -5.023365006638474961e-02
-5.564266648986424535e-01 1.903181519374870234e-01 5.623344024534600027e-01
-5.363066557973881210e-01 5.286986743562638313e-01 4.467682584843141180e-01
5.775456754896478584e-01 -8.175011969846669724e-02 -5.935629052915569054e-02
-3.336980351941403744e-01 3.430005105600113513e-01 3.774443671314018922e-01
-3.467214975860913317e-01 1.931891457637170406e-01 4.311661942466216701e-01
3.781120473139149563e-01 4.332725789848375884e-03 3.833612480765646174e-02
-5.580354992680649495e-01 4.682851844878693770e-01 4.786697628444926411e-01
-3.191412187186811744e-01 2.394137969393188570e-01 3.999507729874716699e-01
-4.104045106519977476e-02 -8.517397166297129008e-02 3.260257113753355362e-01
-1.093116105878148281e-01 -4.563759414277666904e-02 3.564017243799701973e-01
-5.533681478524042907e-01 3.587407014180338249e-01 5.091353183680659145e-01
-3.824543757845940695e-01 3.258905802891436942e-01 4.129490017614070863e-01
-5.691762134643724158e-01 2.711330547620644515e-01 5.456410304918487553e-01
-5.017887382597719936e-01 2.537700518740991229e-01 5.090604177252988638e-01
-5.475346955325846032e-01 3.557306010452112588e-01 5.064277127585481431e-01
3.490681302583487633e-01 -2.310167230813882089e-01 1.280652702320234648e-01
-3.686208360464583444e-01 4.194770407045214089e-01 3.758490501046825583e-01
2.549552915126925348e-02 2.207070988840076631e-01 1.915192593721595782e-01
-8.393680763875180362e-02 2.871823487620546178e-01 2.392643406308382348e-01
-2.470216102791864821e-01 3.082747798475389822e-01 3.341675730380906373e-01
9.331522960211527939e-01 -2.466443141000698169e-01 -2.300772571231014529e-01
6.312866108471792970e-01 -3.685070260041986567e-01 -5.405049552102740573e-03
-1.225794980284813790e-01 5.151621469881056264e-02 3.350538409618789015e-01
-5.789970433000878325e-01 3.175229596232237439e-01 5.376132853527998412e-01
-5.727579356780996278e-01 3.468954298456044527e-01 5.247904340186840821e-01
-2.409435909939885712e-01 4.683731914551785280e-01 2.816278126794379277e-01
1.487385465448638200e-01 -6.765942726104545897e-03 1.842306530945753418e-01
3.150053522462549771e-01 -2.629700018323291588e-01 1.589615616896226657e-01
6.462225079188408383e-01 -2.342255678745141234e-01 -5.558495110697838498e-02
8.877781297845820374e-01 -1.272141450999259848e-01 -2.382619249829782959e-01
8.986822984302416106e-01 -3.722874975275431986e-01 -1.703915308828585773e-01
-6.632368348238638633e-01 2.758928414825390640e-01 6.454200782666907887e-02
-5.355267253166241803e-02 -2.683455424317410243e-01 -1.485000244497173272e-01
2.655316082840916692e-01 -4.113573872875573301e-01 -3.031939848560062933e-01
3.244550400733998696e-01 -4.619796492258065324e-01 -3.243854993061312531e-01
1.761063432897160552e-01 -1.919896449068347610e-01 -3.144482395048567858e-01
-2.130275865759080345e-01 2.073124799586685274e-01 -1.942929716434084464e-01
-2.167425361686242391e-01 4.686305126951240130e-02 -1.431145166711176031e-01
2.668343752767582400e-01 -2.887884538748514696e-01 -3.413359226275030633e-01
1.217303783142978935e-01 3.145685531067698992e-02 -3.487216043720442471e-01
-9.489617077511828258e-01 3.056111922659875413e-01 2.330164991973929511e-01
1.447490243779042396e-01 -3.019968711263010808e-01 -2.614589371922153016e-01
-4.428244848054536109e-01 2.861708859862574852e-02 2.911858184070517750e-03
-2.074029287631953544e-01 2.093146272312345901e-01 -1.983974984498959593e-01
-5.761704144485390033e-01 1.998670325092470612e-01 3.360223457134597913e-02
-3.996749104893299043e-01 1.764244462366829913e-01 -6.891749881369904629e-02
1.773375057050718406e-01 -3.255952193115906890e-01 -2.745190981609409997e-01
-2.005208907137468188e-01 -4.708641358593944337e-02 -1.245778495360716637e-01
3.374075933292236540e-01 -2.159754466981818610e-01 -4.073620435860501598e-01
-1.808593226154233957e-01 1.212810489734208602e-01 -1.880759417882575113e-01
-7.490192741568824086e-01 4.512813755253745063e-01 6.441974911690691308e-02
-3.638857578170348051e-01 2.253998356292876148e-01 -1.060710773316023980e-01
1.438293418770824339e-01 -1.259594907737257574e-01 -3.145056450219682054e-01
-1.326812575482815837e-01 1.260074962286237832e-01 -2.194494754200194409e-01
-5.204185526947351370e-01 2.864308423855453922e-01 -2.740337090097693523e-02
5.104509850848764074e-01 -5.135573684778503845e-01 -4.242385307015256735e-01
4.179235698370628582e-01 -4.619439626875871951e-01 -3.824701179173076726e-01
1.513154629344171109e-01 -1.941294394419803004e-01 -2.983934543539873974e-01
4.481289877301177782e-01 -4.958986438924878337e-01 -3.908952662670988065e-01
-8.003656880613440050e-01 2.154440535790837219e-01 1.681544519716141883e-01
-6.527184883489158818e-01 2.935673941722140023e-01 5.262338068340655789e-02
3.072628362481619746e-01 -2.945525622974544122e-01 -3.646992293230278404e-01
-9.217536808091991718e-01 2.763723835832488929e-01 2.250173079211273686e-01
2.601415049598752027e-01 -3.224906996392676306e-01 -3.269123607971192724e-01
-5.879420369928579637e-01 4.166525907631906112e-01 -2.511319200200590185e-02
-4.795957887078276527e-01 2.492065471480408578e-01 -4.142940406740609760e-02
4.128281994618702155e-01 -2.005167086233948515e-01 -4.589307597700226227e-01
1.255751773543589411e-01 -7.570699398054306362e-02 -3.184700839849038956e-01
-5.019712160275596746e-01 -7.048461181934906339e-02 6.984559727536095164e-02
1.209440696191291936e-01 -1.730457830408121261e-02 -3.333811161951602542e-01
-3.579223837323632362e-01 2.503232459317302205e-01 -1.173674989391628176e-01
-5.447060855628637066e-01 3.587804303759202784e-01 -3.434957974442445772e-02
-7.134893997538043209e-01 4.107043547577741149e-01 5.470347311699010756e-02
-6.646327902836922652e-01 2.178883163223013508e-01 8.307657636083094765e-02
-6.772796794926294606e-01 2.616816926454956227e-01 7.759557524337745704e-02
-6.537710092567059483e-01 4.014697215920280393e-01 2.041203713670729919e-02
-6.491148941904048564e-02 -2.387414729638773214e-01 -1.504594968788593168e-01
-7.593147515871205844e-01 2.885894831314991249e-01 1.203698273322266199e-01
-2.083196599938361149e-01 -9.872209786813742477e-03 -1.310671694376775720e-01
3.799806535520965367e-01 -1.941758371829864216e-01 -4.404532903003464117e-01
-3.168114714972005697e-01 -6.827539543879998507e-02 -4.587051314431992571e-02
-3.951755742962853590e-02 -1.726840426737413781e-01 -1.863572419023696025e-01
-8.385712491875566554e-01 3.003696115099216413e-01 1.660253389315168304e-01
3.776126482728961453e-01 -4.496321396560683525e-01 -3.611741680663784759e-01
-5.737483438104411526e-01 4.842374424815039380e-02 7.822451993072440657e-02
-4.898094721635784521e-01 3.438472387718227163e-01 -6.390946701191728418e-02
-7.908755352198317823e-01 1.475402063361886951e-01 1.829404499705144516e-01
-7.196000930197967715e-01 1.131108136313115353e-01 1.491423153019263703e-01
-5.573606685930444504e-01 1.057927645794389804e-01 5.056887941567188988e-02
1.432795255592483885e-01 -1.865186856863500220e-01 -2.957186877234340705e-01
-4.477854317296394160e-01 2.004579549299490560e-01 -4.634574639092588905e-02
-1.913196373113399962e-01 -7.976460450500476307e-02 -1.203415150717921933e-01
-4.407271400568668063e-01 -6.190500024463974765e-02 2.918029502027194577e-02
-5.444900786774194978e-01 3.989335615634923005e-01 -4.671377976599918463e-02
-7.278980500763475581e-01 2.538210661699126791e-01 1.114399364528766700e-01
8.152676376764508848e-02 -1.204377402634445871e-01 -2.774777211646248243e-01
2.717136768457604212e-01 -9.839090544825568330e-02 -4.023595216367426008e-01
6.017681853637277811e-01 -5.236418976335681652e-01 -4.779040348372731728e-01
1.146856652041690211e-01 -3.610779601101321012e-01 -2.247848696886551867e-01
7.605030636860721227e-02 6.756424868269216011e-02 -3.313374446004099805e-01
6.488107978247134033e-01 -5.750159010206149501e-01 -4.914848053786480264e-01
2.356250935255868872e-01 -2.342073378239071524e-01 -3.385695315326541222e-01
-7.424761659241823075e-01 9.503217041188079250e-02 1.688621088553793337e-01
-2.998039229925850702e-01 1.426938847941536803e-01 -1.206954342740396008e-01
6.210219240616612346e-01 -3.552192250750353386e-01 -5.411655511086507220e-01
5.685603760188152611e-01 -2.107290617453085324e-01 -5.525795626536255112e-01
3.924560214254333573e-02 -1.340440212566056388e-01 -2.470633911686827278e-01
4.733035864982611529e-01 -4.880712827795861686e-01 -4.089208031618996042e-01
-9.109109742375235408e-01 3.609739735185208409e-01 1.925122624167497909e-01
-1.096371929269171763e-01 1.672548751595155092e-01 -2.463304655643520358e-01
3.351651451516225455e-01 -6.448697525722747736e-02 -4.521096938080600425e-01
-8.669179517176855976e-01 3.387761880758000110e-01 1.719396576533787913e-01
-4.025325987923487059e-01 8.409759205055340053e-03 -1.596742166020798104e-02
-5.719777659117983998e-02 -2.357155097288429202e-01 -1.561738304091565555e-01
-7.473482280206317219e-01 6.002768617096825715e-02 1.825510090842227817e-01
-2.847422204122241340e-01 2.674017683113625865e-01 -1.680375459821295825e-01
2.933410002143972406e-01 -1.811341895339863839e-01 -3.905947239450597852e-01
-2.522771279894410468e-02 -2.658002404029091159e-01 -1.668741103330456388e-01
6.506632594603328767e-01 -6.061400695934212601e-01 -4.831558588181259495e-01
