-2.734448112170656531e-01 7.768378421130878175e-01 3.074591515836047617e-01
-3.128820668996518117e-01 4.506052929876337432e-01 2.447340092370731413e-01
-1.517783507102022644e-01 -4.315371309138477662e-01 -4.546741839933682860e-01
-8.623778379685662077e-02 4.731407890003960781e-01 -1.940153930552327988e-01
-2.572238457495585884e-01 8.230397868399986772e-01 2.952969335841892917e-01
-2.285972507654326358e-01 -4.214664051864708272e-01 -2.983233110998059767e-01
-3.347246871731971440e-01 4.415844648102062453e-01 2.840628724203624889e-01
-3.471384639998758015e-01 -3.229987102594355508e-01 -2.127308318796322303e-02
-9.082971747712799415e-02 -1.960097968365947518e-01 -4.736519113602027931e-01
-1.527841819381456634e-01 -1.172962262967762875e-01 -3.170962963576527960e-01
-1.212320949342007986e-01 5.311965124725691600e-01 -9.972062638260691114e-02
-2.979584980853807741e-01 -5.634770199366481158e-01 -2.223488266476585651e-01
-2.486804165432135727e-01 7.121845887498778893e-01 2.305601779174858978e-01
-3.112586248497685171e-01 -2.476938402558064578e-01 -5.977811540407138025e-02
-1.292646707210333701e-01 -5.900950171704681946e-01 -5.676372019221237464e-01
-8.800541241812191717e-02 8.150914232855782648e-01 -4.297399702630750468e-02
-8.386106669241263911e-02 6.683201857710289184e-01 -1.145029857810715562e-01
-2.614727552261596477e-01 8.134292872390198603e-01 2.995577681507017864e-01
-2.510430354277489173e-01 6.561854774110570387e-01 2.110729098682029292e-01
-1.438207223028782622e-01 6.563866386647831952e-01 -1.006713745883852954e-03
-1.890520368370036675e-01 -3.845837262484231855e-01 -3.606594891177175022e-01
-2.643800689371334500e-01 -5.036372340563883832e-01 -2.629727599630247159e-01
-2.960404154280300570e-01 -2.607173814968852255e-01 -9.551053859248857802e-02
-1.941369672419741010e-01 8.525182806514007561e-02 -1.478746236245296053e-01
-2.344035946805687887e-01 -2.975809158128904230e-01 -2.333803040333684020e-01
-2.684950651234205843e-01 -5.927263056915136330e-01 -2.932700505557356840e-01
-1.330701469835047501e-01 3.544896460756907092e-02 -2.901995168963654725e-01
-1.083886276900806328e-01 -1.279727913373842341e-01 -4.095507982125405899e-01
-2.854067069681274771e-01 -4.274877271965390468e-01 -1.885095172403619401e-01
-1.079792509609401735e-01 -4.075982829847258904e-01 -5.310127093805514509e-01
-2.099927193829350669e-01 1.883706658805911482e-01 -7.200664909610761388e-02
-2.305641473237831363e-01 -1.701610583236840002e-01 -1.859989334141881612e-01
-1.031618445675127338e-01 -5.695605411106071658e-01 -6.104280885117263633e-01
-2.999896191340625795e-01 2.720055543046121654e-02 3.653381013145463180e-02
-3.167612752352740313e-01 -7.843491055628065700e-01 -2.804439205562091475e-01
-1.238315060281683228e-01 -1.053819514598144380e-01 -3.692457453736863182e-01
-1.769572312867903896e-01 8.800135231676349257e-01 1.610520036170770275e-01
-3.179710837417226155e-01 4.853343276328380557e-02 8.131931549417208138e-02
-1.885614554471854720e-01 6.128539806815710422e-01 6.874080056392035953e-02
-3.484603529720086690e-01 4.617955555141237123e-01 3.199629681033781536e-01
-2.681893005861122892e-01 -3.799079592064856237e-01 -2.020489466942571033e-01
-1.112906730424667590e-01 5.047935302979653788e-02 -3.268104445045499906e-01
-3.017562954486692206e-01 5.844906662817591636e-01 2.804872666161563055e-01
-2.787604263827866413e-01 2.751315129314510499e-01 1.015028980976481754e-01
-1.481737515034283748e-01 -7.380082176791511461e-01 -5.940418956838119380e-01
-2.103304713259527836e-01 -6.081341035739060707e-01 -4.150114900730165757e-01
-1.426237600997899146e-01 2.134627525903947387e-01 -1.944864973783956008e-01
-2.833515461885240949e-01 4.795448514470947443e-01 1.987871598400785533e-01
-2.547733319063066326e-01 1.542202268632580364e-01 1.867984558844279280e-03
-1.696795269141801732e-01 -5.246216482489293176e-01 -4.594159777511478970e-01
-2.091766910643258481e-01 -9.084739895194507420e-02 -1.940974279766657928e-01
-1.168421818589235744e-01 5.304177083693518979e-02 -3.147197592447834036e-01
-3.169260229894662051e-01 4.233922909277959556e-01 2.409942238943640902e-01
-1.569668526053470126e-01 -6.428614968067158930e-01 -5.355889414447790875e-01
-2.413006657116242293e-01 7.135080932191375548e-03 -8.825488576617436520e-02
-9.988553365888319657e-02 4.102744712193582832e-01 -1.941352188629638653e-01
-1.959945234790219926e-01 5.455383550778817314e-01 5.440388535326348696e-02
-2.827727022337584439e-01 -5.914049669878841398e-01 -2.644480137223238492e-01
-2.352682295457244888e-01 -6.428680431730264822e-01 -3.806527207942403956e-01
-3.484926088443167647e-01 -4.153986848818674305e-01 -5.846199242962039910e-02
-3.192252199910624588e-01 -2.242060984250108038e-02 5.318593178965379253e-02
-2.682752141014770886e-01 -3.765457166135383615e-01 -2.004282161143107477e-01
-1.614067860482688299e-01 8.973137409230770301e-01 1.377461603565231507e-01
-1.461389119130763470e-01 -5.739860139454648902e-01 -5.272965970895701071e-01
-2.565344400138780401e-01 2.032519923716580648e-03 -6.031265247117197081e-02
-2.391656441960892943e-01 -7.984941157991541916e-01 -4.400897102454702781e-01
-2.580135862614653108e-01 1.859003671366267763e-01 2.194888511956970614e-02
-2.585989568244870251e-01 2.773574080633955941e-01 6.256876149610920979e-02
-2.477654435438263192e-01 7.090459275992874177e-01 2.273954139723479428e-01
-2.570210735381469602e-01 4.086209985486813356e-02 -4.259567010590128988e-02
-1.117307901432572637e-01 4.730146397590846014e-02 -3.273107464505838893e-01
-2.442119397757635257e-01 3.111698405320605376e-01 4.868968890826803203e-02
-2.698529636927952668e-01 3.562859053086334798e-02 -1.946267220275060827e-02
-8.301453754921572781e-02 4.569208403805870011e-01 -2.073919278765020691e-01
-9.716867065244397250e-02 6.483079987827230495e-01 -9.680532156337387506e-02
-2.022499950017283832e-01 -5.414848240336428420e-01 -4.022431483712100020e-01
-1.761768716812339153e-01 -6.727351621903192302e-02 -2.492243242989818641e-01
-1.474975664820007970e-01 8.382678655776342191e-01 8.474634394852227637e-02
-2.292534879503062284e-01 -3.639713757528459381e-01 -2.722170204097323909e-01
-1.003009989883600628e-01 -4.848827269954112396e-01 -5.795524986607483164e-01
-8.268844447809356457e-02 7.152418265177707957e-01 -9.657772497994020211e-02
-1.965473713169124392e-01 8.849611644841836045e-01 2.019508335920787989e-01
-2.616562508035259471e-01 -4.255391098784079285e-01 -2.346650089439926423e-01
-2.911622388396092331e-01 3.328128184502384679e-01 1.509311489746334167e-01
-1.861988525390009530e-01 -1.254331834309288518e-01 -2.544878400056643231e-01
-3.573643621587775931e-01 -4.620297794931063629e-01 -6.102721447209415173e-02
-2.391334708316192881e-01 1.178400333106197490e-01 -4.477663177910264081e-02
-2.963237207518461536e-01 -5.545555500536125670e-01 -2.217342409035944761e-01
-2.942068351329689135e-01 -9.558288387652594253e-02 -2.788706888228441663e-02
-1.404504913530387755e-01 -1.552628637095799791e-01 -3.578833329792011075e-01
-2.779402245079383160e-01 7.812374261039102263e-01 3.182527793990020393e-01
-3.342072570108703955e-01 -1.135749722401193859e-02 8.760514917433716298e-02
-1.478147772568763341e-01 4.827325223089882766e-01 -6.803115493787173507e-02
-1.753873435225077604e-01 -7.510139064568432943e-01 -5.458045828364579410e-01
-2.894773177578358614e-01 1.672250516054401559e-01 7.614986081105935833e-02
-2.509351153520127387e-01 -1.673962776834286154e-02 -7.949207256510446018e-02
-1.553229111587646760e-01 9.558687050216521652e-02 -2.202187051206053181e-01
-2.706980726219212485e-01 7.069719551221913534e-01 2.718785404676639095e-01
-3.473282351954206093e-01 -5.016943875991787261e-01 -9.800057595550712430e-02
-2.145848540539598559e-01 7.687578678941245913e-01 1.875035444966834663e-01
-1.007616983449945158e-01 9.469705691216632193e-01 3.917030085873638573e-02
-1.705821677460876151e-01 7.328356178793674625e-01 8.493350878485891875e-02
-2.470590589900290013e-01 -1.380847469937274419e-01 -1.395194080429331129e-01
-1.466674083119954008e-01 -1.619756970256620299e-01 -3.484780234982665648e-01
-3.280993121359926379e-01 5.345147627576528337e-02 1.034825934196132863e-01
-1.551258201636320500e-01 8.441364884617084119e-01 1.023729434189155074e-01
-3.072370550288528457e-01 -1.946045950625870102e-01 -4.482903981109041813e-02
-1.074934115926516887e-01 7.480520190127565305e-01 -3.333800407924845943e-02
-2.023910501818304564e-01 -1.508411201435464200e-01 -2.334104185675465459e-01
-3.238667459227295153e-01 3.745527299258512022e-01 2.336550690946860853e-01
-1.707613959548990312e-01 2.736909259931371574e-01 -1.128220327456044697e-01
-1.873662999819526997e-01 4.368823141496542273e-01 -9.551772376659311420e-03
-1.424416559323615494e-01 -3.236863968954063475e-01 -4.266141242707776615e-01
-3.471479701477708235e-01 7.513815505746271328e-02 1.505324674427249709e-01
-2.277176110098040052e-01 -7.306981565838612802e-01 -4.334901646526501118e-01
-1.310023077816962200e-01 6.167800907933668197e-01 -4.346048205325732383e-02
-2.356256474724684746e-01 -2.452138591349543595e-01 -2.083670045381732783e-01
-1.823253461039211210e-01 -3.230100289042303063e-01 -3.474023357355524588e-01
-1.221939604742696417e-01 4.543048883491077605e-01 -1.309942689588801945e-01
-9.581008291196521642e-02 2.325678784555781364e-01 -2.788757633573873962e-01
-3.035867347767349789e-01 8.188280989465213100e-01 3.852203713174911504e-01
-1.293354029078534750e-01 -4.588483336999361062e-01 -5.108673679047437410e-01
-3.373829959938193790e-01 -5.317441234667297234e-01 -1.306455006864089274e-01
-2.499633027395122276e-01 -9.899107980530888473e-02 -1.169046259327651688e-01
-2.739355522867831794e-01 -3.781142435406904811e-02 -4.307188762604325510e-02
-2.554758786427410722e-01 1.180913518263062706e-01 -1.233061343358546509e-02
-1.909322616945218487e-01 -7.747462636107846912e-01 -5.252849939002151025e-01
-8.495670860479434539e-02 5.403390063461462889e-01 -1.675558655580551559e-01
-1.932431620649481818e-01 7.768104385031673331e-01 1.487481139260550811e-01
-3.012078741605508370e-01 -6.398600607019587772e-01 -2.488766102199818642e-01
-2.444237264143585275e-01 7.731298715580895431e-01 2.484337050001619029e-01
-1.437252893274225951e-01 7.339059762535091735e-01 3.225222810309182758e-02
-1.292758761829042591e-01 3.298499449207204642e-02 -2.987705851667469825e-01
-1.237850889847802588e-01 5.770384876982445066e-01 -7.488914349533164205e-02
-1.123796120874099580e-01 -2.199673776115932192e-02 -3.559274407634406834e-01
-2.638773984388746441e-01 -5.134603093250798000e-01 -2.682058475694381050e-01
-3.402868750563604605e-01 -7.174616065419814337e-01 -2.050321905839101178e-01
-1.932651809953203070e-01 2.986454389756343919e-01 -5.752532349716601295e-02
-3.275747763142974889e-01 -4.713850369791405259e-01 -1.240100065668202634e-01
-2.759040720029675708e-01 4.100235115711742262e-01 1.540536204470974724e-01
-2.415849210266231839e-01 4.407874130082620884e-02 -7.175208994569150234e-02
-1.899658539178651906e-01 5.259175155622854980e-01 3.400870730610243420e-02
-9.856312894183594242e-02 1.145465272002287455e-01 -3.243516178173715958e-01
-1.481156585865646969e-01 6.292917000743469824e-01 -4.198929778737698140e-03
-9.346554174548669935e-02 8.471332628802470399e-01 -1.834444852526562197e-02
-2.435139462837076774e-01 -9.038176112028026288e-02 -1.259515865930546097e-01
-2.747546657632320422e-01 7.071853170444674097e-01 2.799975949577455103e-01
-1.511014517781955335e-01 8.937715257718898965e-01 1.158260714780601081e-01
-3.327165630599884794e-01 -6.150266094888916513e-01 -1.758136602824948991e-01
-2.317519612990296407e-01 -3.734376488783806153e-02 -1.263409895718268505e-01
-2.262986657171937865e-01 -1.767960224728914453e-01 -1.973020975615470962e-01
-2.367230001973057718e-01 -7.755815920208901648e-01 -4.350368803419301655e-01
-2.649414088846894222e-01 -1.485838884829849826e-01 -1.086647973655333194e-01
-2.709774655342846450e-01 1.705246190893124902e-01 4.096691815628565603e-02
-3.224269894698723604e-01 -5.324397423105367011e-01 -1.605398792152613885e-01
-1.256460368560696483e-01 9.427970247676060733e-01 8.660946113942834257e-02
-2.559692398631485122e-01 1.779567155525274558e-01 1.447612981233481304e-02
-2.671128094252804841e-01 1.650106694618549141e-01 3.094057999624720903e-02
-2.650520107271197578e-01 -3.479413849313874318e-01 -1.944640381126732931e-01
-2.753314209016241576e-01 -6.588695458111039072e-01 -3.082818547285255950e-01
-2.513230688817533753e-01 -5.868740016610209942e-01 -3.247240487871791981e-01
-3.216983181617253384e-01 -7.972282832014654375e-01 -2.762317982872594668e-01
-2.022476566891382443e-01 1.922791850476287534e-01 -8.564577669756230638e-02
-1.073809391678278574e-01 6.045188452625598341e-01 -9.549176472815208705e-02
-2.915014428422738058e-01 -6.174358977505634005e-01 -2.584077338915785060e-01
-3.120359352028369559e-01 3.948916352978664168e-01 2.190205845274514063e-01
-1.495773920406749391e-01 -7.487124105865176071e-01 -5.958830472073225470e-01
-1.138017914339345682e-01 9.406298020280793315e-01 6.223752502241289980e-02
-2.820966728084843833e-01 4.054409207148763628e-01 1.643299640488260493e-01
-1.648554573444854232e-01 6.364396536224401491e-01 3.200916351933495024e-02
-3.191707109817792931e-01 2.678454337053307044e-01 1.783210770321341510e-01
-1.918579680212564864e-01 6.133089187173917933e-01 7.546007817224785474e-02
-2.305481092909157648e-01 4.750972439672331293e-01 9.238318860501928964e-02
-1.688316250413839648e-01 -4.402142159335459271e-01 -4.246739339311711436e-01
-8.761076845765468357e-02 2.498011935103950643e-01 -2.876644051617895381e-01
-1.957348544768242327e-01 -3.663271122306930305e-01 -3.395585453027058498e-01
-1.898513827841437074e-01 7.611073082469504980e-01 1.352610889738160294e-01
-3.296582738335553375e-01 -4.387142417109026193e-01 -1.057905970379507676e-01
-2.179482444998425139e-01 -5.854297134703981831e-01 -3.901413893633813301e-01
-1.779955917129318888e-01 5.935584722559923421e-01 3.950801096275281810e-02
-1.691828219859788929e-01 6.096871550952294161e-01 2.902887005412557384e-02
-2.917038020877315008e-01 -7.449972754112910156e-01 -3.130470643404071884e-01
-3.471615930123297944e-01 5.032856135131023034e-01 3.352950326781736212e-01
-2.750573008314082801e-01 2.484108738438952357e-01 8.264599870200257936e-02
-1.002774450147287805e-01 -3.541215734968219397e-01 -5.231787284396137716e-01
-2.363217209309818045e-01 2.521930763325391789e-01 7.629805058349194320e-03
-1.230318266130455557e-01 6.399123641310071331e-02 -2.977475460625857440e-01
-3.017887724819591222e-01 4.676938494347983588e-01 2.301564373979979317e-01
-1.608976561093175828e-01 -5.257761128384361715e-01 -4.772912510014827303e-01
-2.105652544997028419e-01 9.595765032507745651e-02 -1.107477973966718293e-01
-2.222746674076971352e-01 -7.341333670272912615e-01 -4.457426158210295308e-01
-2.244195764968567874e-01 -7.994730997878162215e-01 -4.696909372291805940e-01
-3.441913720609913740e-01 2.563490177761265643e-01 2.228703382178714998e-01
-2.263747604163793004e-01 4.480909896065067843e-01 7.247259732733693505e-02
-1.408570348560364838e-01 7.970361918342335761e-01 5.381587307221320782e-02
-3.578495447378676753e-01 -7.193076942148354247e-01 -1.710765577011283123e-01
-1.844566969921718758e-01 4.183475198400576911e-01 -2.330648656169852923e-02
-2.804759125492323757e-01 -7.163671613244803060e-01 -3.229110545812733379e-01
-3.402054750171872866e-01 3.483752684941724964e-01 2.546904081007060894e-01
-1.557037742706338379e-01 5.843634395577669283e-01 -8.569419926794927256e-03
-1.527943445281915169e-01 6.236692510117216592e-01 2.633076521985799456e-03
-3.164148992163685059e-01 -7.259174354285535813e-01 -2.559174147047477699e-01
-1.823616937568355301e-01 -2.110205909394155532e-01 -2.990095909845636446e-01
-3.343411052366770386e-01 7.571634850247714876e-01 4.194688208516681449e-01
-2.534355266362969261e-01 4.060646775887952198e-01 1.078857859457425239e-01
-1.016084741028301791e-01 -4.731635347559013938e-01 -5.719087718086217631e-01
-2.067615601724897001e-01 2.445272064198465434e-01 -5.417008037085977584e-02
-9.160264693508317346e-02 6.494378231048958394e-01 -1.073316121454024469e-01
-1.299574913745454863e-01 -5.907216033879475470e-01 -5.665366386126737819e-01
-2.669835842048884911e-01 4.916507114686746172e-01 1.716224094720721627e-01
-1.137841837385304561e-01 4.807454627709249056e-02 -3.229140218220508118e-01
-2.860077645740506935e-01 2.373701694656315531e-01 9.955045062385775578e-02
-8.926575299997341340e-02 3.705414950633214022e-01 -2.322929857683262989e-01
-1.978656546993470822e-01 1.313423922110854292e-01 -1.206094741694263422e-01
-2.645574258368575404e-01 -5.157554445441607793e-01 -2.678505387936884197e-01
-1.559474838673951536e-01 1.025915081489918446e-01 -2.159604930885380969e-01
-3.437230928673707386e-01 -1.877625946176187388e-01 3.031996179891304280e-02
-3.468613993542030149e-01 -7.958702772180310525e-01 -2.258543407061989194e-01
-1.309843382372115062e-01 9.292986492302190982e-01 9.134840517509253133e-02
-9.320308482880135248e-02 -2.986956848530228914e-01 -5.132621624411379813e-01
-1.922370875053467654e-01 7.770219422259424524e-01 1.468486002844339167e-01
-1.192218587637359356e-01 8.983808661632408654e-01 5.473306966310055588e-02
-1.255471464691293726e-01 5.132656871410981037e-01 -9.891893889611697022e-02
-1.388326423749632610e-01 1.133223537267440302e-02 -2.892027690362187209e-01
-3.011153014800685424e-01 -6.105697457429037217e-02 6.801980626204083384e-04
-1.377012212126596524e-01 6.459994933629208402e-01 -1.759750193875246616e-02
-2.339649451294410765e-01 -6.659736547595817013e-01 -3.932011287788840792e-01
-1.375443712223741455e-01 3.017126835017144293e-01 -1.664595708177896427e-01
-2.507787583274450061e-01 5.533460956577964662e-01 1.661771842824089906e-01
-1.496495458907396714e-01 -6.258536407901200693e-01 -5.427295885294481925e-01
-3.102229922960769715e-01 1.827792656620670919e-01 1.239116955069009818e-01
-1.714856471099742152e-01 -4.120615656092831980e-01 -4.072750713360610564e-01
-2.048924519606827588e-01 7.987561399624903968e-02 -1.289118919234701344e-01
-2.982668210723577462e-01 7.407025555590281141e-02 5.334799793737989709e-02
-3.593738656708536094e-01 -1.307480989356133438e-01 8.588938823917414978e-02
-2.173383986305526816e-01 2.722945335021369484e-01 -2.126018301186580195e-02
-1.316963212920045923e-01 4.176121237010775866e-01 -1.280235180230878400e-01
-2.121977195372203306e-01 -5.495598948749275126e-02 -1.726332570729783022e-01
-2.205748579453720160e-01 8.044183695735694639e-02 -9.763597994209154141e-02
-1.230861948330304739e-01 2.543258037178159903e-01 -2.155150531661613467e-01
-1.159373378028219631e-01 -6.687794015926712410e-01 -6.279591657641738767e-01
-2.702327178052484902e-01 5.944935689512321764e-01 2.224259270107799280e-01
-3.258892143844274170e-01 5.474973398852067685e-01 3.122785856211557909e-01
-3.478769493044988059e-01 -7.336301589754418151e-01 -1.969896642057473168e-01
-2.023112104315375470e-01 3.301341817577378435e-01 -2.603881452770176463e-02
-2.344402072520589408e-01 -7.982084734545584759e-01 -4.493169324176469748e-01
-2.015333479818648688e-01 6.604345263231641006e-02 -1.415269812470404398e-01
-3.291616074993621299e-01 -7.844786213317269663e-01 -2.559626151301916952e-01
-1.553189402823979548e-01 2.867500006267156842e-01 -1.377441453898398116e-01
-2.323788905756576373e-01 -5.914250643406759878e-01 -3.641735659856307761e-01
-2.232558546532924515e-01 5.751216993071863737e-01 1.211118332612588083e-01
-1.238640369849717954e-01 9.609950044994091112e-01 9.093532683338093059e-02
-3.319367740415784529e-01 -3.296074343110172444e-01 -5.420497494698836571e-02
-1.531929440764941697e-01 4.425847019969746388e-01 -7.471193884496531157e-02
-2.782192566936189104e-01 -7.263315948907463904e-01 -3.316758378932153084e-01
-9.762568706389594675e-02 -5.709281223589967036e-01 -6.219728533089261546e-01
-2.626821440679171227e-01 2.535735063222537833e-01 6.038618143747904315e-02
-1.230347713742293153e-01 -3.470321746995589929e-01 -4.750887023700076095e-01
-2.075705113078415431e-01 -4.004351860381104578e-01 -3.308555454393182216e-01
-2.716876085843614730e-01 3.146871456708780213e-01 1.045748720669991277e-01
-1.238241617553989260e-01 5.428569018027945559e-01 -8.956038256054855984e-02
-3.069145128675601630e-01 1.124452009244240186e-01 8.701753057185163120e-02
-2.234646552106211159e-01 2.805717517589301213e-01 -5.566411520709853983e-03
-1.622354533768415874e-01 9.331512115666320550e-01 1.548489178293769586e-01
-1.133381111523875523e-01 -3.492945401969236308e-01 -4.952521507797733591e-01
-2.942119816329314408e-01 6.989825441063955980e-01 3.149595027842368444e-01
-1.881786365094325897e-01 8.699225773307373011e-01 1.789023802540845587e-01
-1.227082051018387049e-01 8.325289994692424145e-01 3.321814675533156513e-02
-1.173392281886633942e-01 7.932395371467331202e-01 5.641786721019181189e-03
-1.516348077150169171e-01 1.940756705989744590e-01 -1.850209365851409049e-01
-2.793498185888878549e-01 3.467361458316538941e-02 -1.082796622901102028e-03
-1.528420514408813380e-01 8.401621844965750929e-01 9.613911119723905774e-02
-2.147650367558742168e-01 -6.799500003628221600e-01 -4.372234615014465309e-01
-3.129344703346086387e-01 5.938725826625416504e-04 5.066830577883735948e-02
-3.555341092823860460e-01 -7.454767516762507429e-02 1.025406283641062399e-01
-2.197566530691544007e-01 -4.762930832995180275e-01 -3.394730944492470592e-01
-2.824865867124505825e-01 -4.532085979171844303e-01 -2.053856662967503410e-01
-2.972966970048790958e-01 -3.129622009946723959e-02 5.965194021208213189e-03
-2.594658489922478939e-01 8.320879947949292310e-01 3.036373930916161923e-01
-2.185507289009033516e-01 5.263435103286698835e-01 9.075490686994518164e-02
-2.116718248381836420e-01 -1.167417371803187304e-01 -2.003329767624187907e-01
-1.483839268425191371e-01 6.633279631136946852e-01 1.101775769908247722e-02
-1.363892510076624431e-01 5.136020096797779821e-01 -7.731998214689130011e-02
-3.104892889538091172e-01 -6.647857763719065005e-01 -2.412658505167014911e-01
-3.356781802379393276e-01 7.557191730290820919e-01 4.214913745242299115e-01
-8.942974087618928147e-02 9.019215456595808256e-02 -3.529326741304668613e-01
-1.782857497791984491e-01 3.926675443956161721e-02 -1.990817429247158377e-01
-2.485998649661124160e-01 3.045186993378468099e-01 5.450249506427663759e-02
-1.827358596672296054e-01 -6.360782507409127318e-01 -4.816716423998806951e-01
-9.819404189154287699e-02 1.831694670806408853e-01 -2.954727570732728625e-01
-3.619276267205092656e-01 -6.579652683081632647e-01 -1.365392215254769837e-01
-1.620331053857544112e-01 -6.377691750693599282e-01 -5.233668634368304762e-01
-2.252617177272533966e-01 -2.279310517026588156e-01 -2.214175294550012330e-01
-3.502632765217040256e-01 -4.257815084022451707e-02 1.059050564769115632e-01
-2.310961396118455247e-01 -1.948497026995725800e-01 -1.955988246377107220e-01
-3.117138515074985294e-01 -3.713246074304958899e-01 -1.122211173872077472e-01
-1.714522367096965039e-01 -4.632653263518480835e-01 -4.294344067560015854e-01
-1.814076953802244152e-01 -7.169055558319524790e-01 -5.191748414540510170e-01
-1.696953576179725531e-01 1.561754915849273562e-01 -1.656366186580142674e-01
-1.527525558187453891e-01 3.885442956723236807e-01 -9.890052890362553695e-02
-9.258454264389970323e-02 2.964726934189210183e-01 -2.576848770444324366e-01
-2.241409772254238930e-01 -3.024941040459644959e-01 -2.558074097093400168e-01
-1.926725817740138347e-01 -2.118844272575764465e-01 -2.789796207152027696e-01
-9.909585630070648354e-02 7.681749064222909151e-01 -4.127213258617635355e-02
-3.436206176754554309e-01 6.263235520092912401e-01 3.813763100512109205e-01
-1.218363396277526989e-01 4.744363474952243420e-01 -1.230156585906404393e-01
-2.773693340541279473e-01 -3.534659218896828436e-01 -1.724748122190090938e-01
-2.128295789338421062e-01 4.804888932514191358e-01 5.964897288427502275e-02
-1.120689708663431539e-01 -6.794821531535699677e-01 -6.402316933409997191e-01
-2.783006818081215639e-01 3.232976448142472758e-01 1.213757361113851074e-01
-3.402698531833462936e-01 -7.344095261851833756e-02 7.281396835163080061e-02
-1.623344559394557240e-01 -7.110047347921381045e-01 -5.543699954617723469e-01
-3.381310905763202923e-01 6.914827804666338062e-01 3.986285768329745904e-01
-3.594418545650805985e-01 -4.316579894619456126e-01 -4.381165453472501276e-02
-3.518570900400161960e-01 3.718644520313302837e-01 2.878811034485053710e-01
-8.396970051201367580e-02 5.749919283947464432e-01 -1.545569853599227939e-01
-3.263790900786819327e-01 7.594444579881316493e-01 4.046981499200438814e-01
-1.440896681156111359e-01 -4.864028864514261530e-01 -4.935614734515290092e-01
-3.232933300641367413e-01 -3.036868165385660512e-01 -6.012407132966086920e-02
-2.565512023104519757e-01 8.803105494288793187e-01 3.186769325241050610e-01
-2.286304037239994535e-01 -5.226636449677312113e-01 -3.419219503814354688e-01
-2.496117547696437566e-01 -7.894332703058865031e-01 -4.155099000573257984e-01
-1.996472936866596215e-01 6.445630461383138332e-01 1.043586503774185242e-01
-1.955029662346597363e-01 6.171567277947350716e-01 8.433286706565396029e-02
-3.459393847498171692e-01 6.199109879563232672e-01 3.831977048688247622e-01
-1.332849232517762106e-01 -3.650015100783193800e-01 -4.625595364360980954e-01
-1.081362708785635479e-01 1.540892928191762434e-01 -2.883469612940324778e-01
-3.306351949455652584e-01 5.669017274263156159e-01 3.300422456431157947e-01
-3.219950730859964527e-01 -3.898755897334978959e-01 -9.988143924121554995e-02
-2.210699943346882690e-01 3.035270163046490111e-01 -4.001932519931064710e-04
-1.821453896137810169e-01 8.807526263100816655e-01 1.716369905787852312e-01
-3.410794340518776280e-01 -5.188177990531991357e-01 -1.177537581567238839e-01
-2.635195074111543745e-01 -3.996614375693856025e-01 -2.198124752557563122e-01
-1.003617026165399273e-01 -3.350773815803991806e-01 -5.147948803534689866e-01
-2.011616288342103487e-01 -6.947600344985795928e-01 -4.705314220641951262e-01
-1.658033203294191071e-01 -3.839612989455143954e-01 -4.063943821779520960e-01
-1.938952678368475457e-01 -6.057712097855493250e-01 -4.465131566659290563e-01
-2.270096563623026920e-01 -1.254959141376416898e-01 -1.737604268076841652e-01
-1.355227895002107386e-01 7.477332993277897577e-01 2.198767740040080340e-02
-2.442441810127146395e-01 3.176964537069607020e-01 5.156956718776187915e-02
-3.015363172414108339e-01 3.921505522452869985e-01 1.970617260620323441e-01
-2.213025120981376437e-01 -4.328090065556244870e-01 -3.176518605183790700e-01
-2.195546564894521047e-01 1.838852554001109696e-01 -5.502129181260721758e-02
-1.962139349663540311e-01 -3.363809390252678888e-01 -3.256894906393962841e-01
-2.921252824579624319e-01 4.125179474179796468e-02 2.703501522519222502e-02
-3.169781038214437574e-01 2.135692534435350842e-01 1.505635485057400247e-01
-1.629248715527872315e-01 -5.632821575836264305e-01 -4.894628739812558749e-01
-3.342363271453879237e-01 4.196839729371757421e-01 2.736469790600485896e-01
-3.507203551392024665e-01 -6.147086537273228207e-02 9.865773773357326693e-02
-2.750538188371796644e-01 -1.649289926822993246e-01 -9.570737086576423802e-02
-2.374427008940992456e-01 -7.236218963890733713e-01 -4.111933780685099737e-01
-2.364873749651971446e-01 7.902063720146098591e-01 2.400977400697621444e-01
-3.159701864255035075e-01 -6.836436576038498192e-01 -2.385572453964030781e-01
-3.057006523271756371e-01 -4.485039283291665235e-01 -1.574208211318633144e-01
-2.745452878792766782e-01 8.648075452015595577e-01 3.475935907731955155e-01
-1.451740045948852476e-01 4.331124141946094963e-01 -9.466650589864726573e-02
-2.264398811909100750e-01 -7.812734994348273510e-02 -1.544494439053613333e-01
-2.552542428705527056e-01 2.689425978702894571e-01 5.231960672537859514e-02
-3.375216625505054191e-01 -1.247378012942388092e-01 4.524258949896564630e-02
-9.810691708049996962e-02 -4.171774011775304936e-01 -5.546807800450360704e-01
-2.115478167841422230e-01 1.461462924181512746e-01 -8.714832525630301918e-02
-2.983721884168973881e-01 4.195240070272229782e-01 2.026117033989013327e-01
-1.856663111174532144e-01 -3.903009880300882251e-01 -3.698258670097278600e-01
-1.179691031437360149e-01 2.628066634524390821e-01 -2.219812186220415096e-01
-1.003264226737860254e-01 -2.261157930880642597e-01 -4.678503150770099706e-01
-3.368818669941524013e-01 -8.578809867405163062e-03 9.409647892964086158e-02
-1.821173489579477611e-01 -2.721587067706683905e-01 -3.258727551130385369e-01
-1.293127738851617969e-01 6.762366848135771269e-01 -2.114952253613351305e-02
-1.102115697214914314e-01 4.761946035940972655e-01 -1.452595547262577058e-01
1.242878378970193737e-01 -3.507050935533507219e-01 -4.084001166372404623e-01
2.330409470571590258e-01 -5.343713623483448139e-01 -4.167513248145827687e-01
2.914512133818681905e-01 2.100081662755201584e-01 -8.755371523386400179e-02
3.305524641153602672e-01 5.451647222399944592e-01 6.824206491512228856e-02
1.995845619634792067e-01 8.259395670939939649e-01 1.018864077173397553e-01
-8.543478911279883334e-03 -6.726074034927908944e-03 -3.508410775253861247e-01
3.357983908494772129e-01 7.574971833910900676e-01 1.553906039305416598e-01
1.627608070718826461e-01 -7.568665186772209619e-02 -2.767797195506677133e-01
-4.920990898531563129e-02 8.563688317619366774e-01 -3.327555148464420715e-02
1.445326248540749758e-01 -3.045966753149519923e-01 -3.781712492947095772e-01
1.613787357745214979e-01 9.227652603421990785e-01 1.176060211046482534e-01
4.201991742520001794e-02 8.859236147573480435e-01 3.240144469273975592e-02
1.724317431609077855e-01 -4.402939680959689350e-01 -4.153751312502537152e-01
1.971840857017374132e-02 4.676678887982363975e-01 -1.463462893249613539e-01
5.130318240735618623e-02 7.553167192032682609e-01 -1.380217680936813955e-02
1.146138952559415530e-01 3.627594732134337696e-01 -1.317231183272139228e-01
1.918269789038203332e-01 -6.546151222606200193e-01 -4.887311795244934087e-01
-6.957861840839686673e-02 2.953596645676790367e-01 -2.673838199886240385e-01
2.630225819065130644e-01 -6.978421730704230663e-01 -4.637162358322322597e-01
-1.130828155006822697e-02 8.183461505060349861e-01 -2.589996559394550785e-02
6.155808825449621269e-02 1.705052425374638525e-01 -2.392124491360257399e-01
2.036802841720917745e-01 1.832908178672157107e-01 -1.500610533757308629e-01
2.786255050139482270e-01 5.449054982584918827e-01 3.741539103912611131e-02
2.638525858283072290e-01 2.274936325523009908e-02 -1.780033071591541893e-01
6.494871115227016101e-02 2.512966894540523133e-01 -2.052277234181174581e-01
-1.433859879297975405e-02 8.420796749122631819e-02 -3.182767552719941162e-01
7.436523111471468606e-02 -5.740763132902033661e-01 -5.263522096649478899e-01
2.796080663994126581e-01 6.948724115928948952e-02 -1.501815158327774735e-01
2.428399167752338939e-01 -3.644294984296319595e-01 -3.436877346917997511e-01
1.886665729807919523e-01 -5.018634911662032128e-01 -4.301395475632034393e-01
6.385940904769982218e-02 -7.547379511251475770e-02 -3.352133049696675027e-01
3.718670380869328572e-03 1.060850967678422380e-01 -2.989333330287173296e-01
3.282297627001390383e-01 7.791295918154886868e-01 1.594748674480202522e-01
2.626674601305272264e-02 2.190565602612069840e-01 -2.408761799119374380e-01
-7.407621336879122165e-02 -8.063495022522583489e-02 -4.188697255655670637e-01
1.656077110934054894e-02 -2.199433962896066574e-01 -4.203823098085371357e-01
-5.737943154866406714e-03 7.189153266138199605e-01 -6.196045069141169898e-02
3.005795936002800817e-01 -7.995556366490306210e-01 -4.817543977297253921e-01
1.962805961043852243e-01 -2.599286663307919312e-02 -2.372771715000368264e-01
1.149689178071110207e-01 6.778305553004476680e-01 -6.802807760873128516e-03
1.624094643185841347e-01 9.278669928198615136e-01 1.202352296652854369e-01
3.161000619159495817e-01 -5.079335032560831076e-01 -3.571424926521620247e-01
-5.011167482325881717e-02 4.916258818661798369e-01 -1.781802903312021402e-01
2.750451536728431567e-01 8.506093719841963940e-01 1.562995320139967115e-01
1.366284342199750867e-01 5.293068506817150132e-01 -5.277543054940284084e-02
2.985396956947130032e-01 8.336874934603277776e-01 1.635027946524301445e-01
2.461637128744583250e-02 5.018497066091616166e-01 -1.299185511236829460e-01
2.471038745122670910e-01 -3.593918464672096746e-01 -3.391708578201380608e-01
-3.744876927478764383e-02 -5.806609737345170830e-01 -5.951164728691332728e-01
1.178058835643579390e-02 -4.212587384768080589e-01 -5.028945234780249907e-01
2.633798504532829377e-01 3.481633982676965444e-01 -4.947885447055516001e-02
4.134810343301206087e-02 6.017947358599970986e-01 -8.045887802780353482e-02
1.779883899583960261e-01 1.093570105009912391e-01 -1.945265982673833882e-01
5.803182655604050694e-02 -2.111582431203350430e-01 -3.923674687952173334e-01
1.811002511873447685e-01 -4.433646088564757726e-01 -4.114615703154238524e-01
-4.789102779019945022e-02 4.232425388654841858e-01 -2.039336188416103479e-01
1.360471512180675968e-01 -7.634830021574068315e-01 -5.648265830829106715e-01
1.196364150102664781e-01 7.003092895836257048e-01 4.856298405959395652e-03
-2.920944808651930805e-02 8.220100237905977325e-01 -3.504148162935394328e-02
-2.679406680802024279e-02 -5.435449598032283669e-01 -5.741211926566948121e-01
2.349189407624903136e-01 7.586832350026083693e-01 9.617185382882081912e-02
2.539450346684767323e-01 1.565115937535945245e-01 -1.309201295923603792e-01
7.355959587571783698e-02 -2.137157685252271400e-01 -3.841923305680183809e-01
7.596984935918467408e-02 3.416877735831759244e-01 -1.629284930115988683e-01
3.146899864515107503e-01 5.002700610211715526e-01 4.108654080164055034e-02
-9.500888919734996885e-02 -6.977028842640707884e-01 -6.755006512674280872e-01
4.262265276324615770e-02 -4.488333961298699437e-01 -4.955604323049491167e-01
-4.842160767200549831e-02 -3.290795414485352954e-01 -5.020288493709614830e-01
2.144868482995022918e-01 4.680039713462326723e-01 -3.097295083715279063e-02
1.549337779410339955e-01 1.671274043471837611e-01 -1.853010579689302328e-01
2.963570117073734411e-01 -5.129783021240089669e-01 -3.708208456562825384e-01
2.957580035974466393e-01 5.985406790197049798e-01 6.878199890085977264e-02
2.768043585320956179e-01 8.627744966425909823e-01 1.621555697388612771e-01
2.073230990391535314e-02 6.833235892084643659e-01 -6.038635696798442393e-02
1.977855421845804706e-01 2.552313962845242368e-01 -1.250735965569030883e-01
1.435370984608476397e-01 4.694677741164235418e-01 -7.237300032860921606e-02
2.509820307436715359e-01 7.410146848816203669e-01 9.868254081912215814e-02
5.645211503263580094e-02 -6.072204464381940614e-01 -5.500700027319808116e-01
-4.150946879968485381e-02 -6.401481053068216465e-01 -6.210650745516219651e-01
1.009168263777485003e-01 7.610243718508029609e-01 1.781233463548547238e-02
2.745144619654112939e-01 -4.400278960725768629e-01 -3.548696587180381057e-01
3.219626789451311422e-01 -3.021197703401397039e-01 -2.722092897114734567e-01
-8.140233843635730909e-03 8.423493694223129769e-01 -1.452463578167851634e-02
4.417724371305877668e-02 6.817110673764531503e-01 -4.715275442928683336e-02
3.030319685403917718e-01 -3.459122417794278093e-01 -3.007439567647997580e-01
-5.576906912754311246e-02 -4.886612891083195742e-01 -5.695412323219281037e-01
1.143498640864916288e-01 4.435110960368730537e-01 -9.991653611805441371e-02
1.069680187741397920e-01 -1.496356940835854854e-01 -3.390613485575719177e-01
3.436895827672530046e-02 -6.446354787502758255e-01 -5.779456107468434745e-01
1.961860522698955223e-01 4.043032452795596310e-01 -6.701492156460671368e-02
1.591067789342320571e-01 6.318832689041269379e-01 1.125936534443857783e-03
-4.308138620491469561e-02 -2.927046929900959868e-02 -3.801998548498752850e-01
7.679564806349785389e-02 5.377569389974489189e-01 -8.483252560366265349e-02
2.134582499209985162e-01 6.237579483897777166e-01 3.006840324734032927e-02
1.223356228391396516e-01 5.880714455508198046e-01 -3.797219968354220709e-02
2.587093578350970757e-01 -2.245798408957341841e-01 -2.789433607889447719e-01
-8.712542578879800548e-02 -1.527016735549137916e-01 -4.551158444100317224e-01
-8.230792494290443961e-02 1.081883368841513038e-01 -3.490009291837177785e-01
2.616165503775878531e-01 3.067157068261308073e-01 -6.692783075557325045e-02
2.206310847684786192e-01 7.197219576535910379e-01 7.229652930969643343e-02
2.743174500464714560e-01 3.670091848945823410e-01 -3.554784278362288497e-02
-1.457676663306790160e-02 -6.813077465019895529e-01 -6.214212263500277222e-01
-3.730031404795449562e-02 -5.184765047649274594e-01 -5.704150123424579499e-01
2.717116971656778901e-01 -7.857222468078715050e-01 -4.933594329942079248e-01
2.410144482998418658e-01 1.784227976996387854e-01 -1.298980700416673406e-01
1.210752768334798363e-01 1.793822620495684472e-01 -2.004837357182750190e-01
2.627464784140204901e-01 -1.488859913424177839e-01 -2.465938280746950984e-01
3.068200544680815822e-01 2.343678398444267452e-01 -6.881834692262014941e-02
2.334235532236305921e-01 -3.893094088683379805e-01 -3.591070678200834476e-01
1.615656456913938943e-01 8.038920752036671225e-01 7.066467440995286009e-02
1.986037563581521392e-01 -6.755614729112557892e-02 -2.523540288773141738e-01
3.171641466409803878e-02 1.463888080335975783e-01 -2.664148042893289547e-01
2.112908209856925040e-02 2.856164522717571375e-01 -2.175705392898623081e-01
3.878301439069393314e-02 9.149584337447213001e-01 4.197869144688282095e-02
-8.422033537351097943e-02 -6.131709015427889709e-01 -6.356581635500527794e-01
2.817232614836672200e-01 7.837231673058396852e-01 1.337761791774266518e-01
5.668137010186821007e-02 1.394818886101908129e-01 -2.543774460822310624e-01
2.773753191200565849e-01 -7.260565144435048301e-01 -4.663917233695091258e-01
2.671976182177819847e-01 9.147944525258288051e-01 1.770618107743333058e-01
2.472369157849504118e-01 -6.392705825323630187e-01 -4.498726893707463148e-01
1.562331866223103938e-01 4.077391531788991386e-01 -8.929418775914614581e-02
-1.121503879183004954e-02 9.403398829406141024e-01 2.244230473475503432e-02
3.177804314451582179e-01 2.036316803621780747e-01 -7.449919787179050401e-02
-9.117920410135171849e-02 -4.130075320730657307e-01 -5.605476645638309829e-01
-5.521366220894607241e-02 5.614927686352609582e-02 -3.535677397197486416e-01
3.502052879211702691e-02 8.560653432690433495e-02 -2.885184418653991001e-01
1.395995850906326108e-01 2.264179204799638689e-01 -1.709058220223687308e-01
-4.304842825306267468e-02 3.640847904370234644e-01 -2.244839540846629289e-01
2.439009953555697496e-01 2.181741524093492590e-01 -1.124559302202485234e-01
-2.263691706833128453e-03 1.280159029529184533e-01 -2.937923991991175932e-01
1.307619119101138261e-01 -1.021576499230274354e-01 -3.061904309686095393e-01
1.505128063320557430e-01 3.786086573628962282e-01 -1.042091375288375088e-01
3.548694623376077439e-01 3.839179025176014393e-01 1.880580156567331074e-02
2.301304264801063704e-01 4.720860659973918905e-01 -2.010122153726517924e-02
2.167435141735551407e-01 -6.999595818190830487e-02 -2.425868397202342874e-01
1.206428791300541703e-01 -1.785943511877807754e-01 -3.424325335581532292e-01
1.941810444589217310e-01 -4.521088090955691641e-01 -4.071830417494927135e-01
1.347676767664387487e-01 6.309927401392908530e-01 -1.362747433651867283e-02
2.585053549346236768e-01 4.211264656660145267e-01 -2.348302193695053774e-02
1.886335593560561075e-01 3.124524881715366464e-01 -1.078395911618606623e-01
3.904837866969549948e-03 -1.178404630295517563e-01 -3.874565550400770331e-01
2.151480537217065891e-01 -7.122888955646305975e-01 -4.977608155148423585e-01
2.853223719339851860e-01 -3.388944863081907455e-01 -3.084446039386927740e-01
1.113113187486917816e-01 -3.539904676578494169e-01 -4.173784493356681446e-01
4.716970487831312342e-02 -6.058479935463336741e-01 -5.550189667374053615e-01
3.153883925900794472e-01 -1.431882179719710657e-01 -2.131914644286342919e-01
4.583669273534023841e-02 2.345537381802564325e-01 -2.231630271461442772e-01
6.682815285893298207e-02 6.917305684038836944e-01 -2.978481570407833304e-02
2.903876396741279509e-01 9.634715366672644277e-02 -1.331718837514727638e-01
2.167190829604470625e-01 -2.225015123549873852e-01 -3.029654703163262019e-01
1.236657154668945324e-01 -5.595385619762316409e-01 -4.914278915936022285e-01
2.514170044646235058e-01 -7.965184079314899246e-02 -2.258932337868592433e-01
3.004140380944142485e-01 -5.071272540401320361e-01 -3.661044502343418494e-01
3.027771504040986383e-01 1.385272403458655266e-01 -1.091457124309383186e-01
1.793919132405971117e-01 4.564028558814133343e-03 -2.351749278075317140e-01
6.472261680245198481e-04 4.537038608583021659e-01 -1.631574882704400764e-01
3.193580113961512201e-01 -3.423804780236108791e-01 -2.896862576492948982e-01
-2.035729829785720701e-02 -3.734889487852357526e-01 -5.030017636549897198e-01
4.273702568726662349e-02 1.261866734403686019e-01 -2.678904779111094259e-01
1.375375066557658343e-01 -4.919527179550509111e-01 -4.564686753247836903e-01
-2.980330749543626603e-02 3.960471115331001823e-01 -2.039958942115966956e-01
2.619265336243483122e-01 7.170157755990641535e-01 9.565901055544381859e-02
1.344551153411532862e-01 -4.146883517572918509e-01 -4.277099692197636194e-01
1.321355439317677960e-01 -6.081394371942087096e-01 -5.056534913480675852e-01
1.241312160060238506e-01 8.131874869440004483e-01 5.219479958368441336e-02
1.407756009912440320e-01 -1.085822251717852016e-01 -3.028084969747202870e-01
1.435773824748377003e-01 5.478459971792181138e-01 -4.132579151885725638e-02
-7.414312351598643935e-02 -1.093288245176419343e-01 -4.302668163252688083e-01
1.618591987363247886e-01 7.319044013857294306e-01 4.234447301270658631e-02
2.150979087861161765e-01 6.361320749498514671e-01 3.593643451662256738e-02
2.619643186568186219e-02 2.547714624789036431e-01 -2.267812449456534096e-01
8.186635362102782920e-02 7.459719744831918575e-01 5.825948477766975568e-04
6.125068748570484944e-02 6.387607201134412049e-01 -5.405120866247842271e-02
9.161594293855173168e-03 2.402415600532337506e-02 -3.281939246991270043e-01
4.783768762189014034e-02 6.074200787579745464e-01 -7.439252806675214491e-02
3.708448390150183988e-02 -6.788607003089415226e-01 -5.898857909748730366e-01
8.858448951221412071e-02 9.543144006420493097e-01 8.702288781766531756e-02
-5.161652212247962862e-02 -5.007838916729017154e-01 -5.718825822326064623e-01
3.311423885006741230e-01 3.066953079421458894e-01 -2.579895660892684434e-02
3.350750441215637476e-01 9.006011955516811662e-01 2.116055073269762221e-01
-7.422972550489803645e-02 3.817663352496248330e-01 -2.359346167972059816e-01
1.035425190714853172e-01 -2.345817944762328688e-01 -3.747111894546397703e-01
1.316768127479905071e-01 4.778910450445931213e-01 -7.605640976312122437e-02
3.601659504413631807e-02 5.743357303152123450e-01 -9.448213763178543723e-02
2.273524656595068694e-01 6.042121979144068900e-02 -1.846885133588330175e-01
-7.139646093209148225e-03 -1.701482771816295869e-01 -4.146956218645327930e-01
1.527640679222297959e-01 4.080411968529720768e-01 -9.122723715299534131e-02
2.426187897144837513e-01 6.393680269865230636e-01 5.350079231189631968e-02
1.592323650372101107e-01 8.579597640459208918e-01 9.068499160549640947e-02
1.283289320107602882e-01 5.455778908359282253e-01 -5.124572618408104047e-02
-5.155062640052734263e-02 5.113638002256153392e-01 -1.712190984917563441e-01
3.272430132023195215e-01 2.298714562281766738e-01 -5.851426160023946721e-02
-1.227177027816320730e-02 5.835833190557465633e-01 -1.193929826754707296e-01
1.239558398672821193e-01 7.559767900172832400e-01 2.944611028355537813e-02
2.558656402686756634e-03 -2.019246476430207327e-01 -4.215349476352570068e-01
1.394631741587325571e-02 4.665343420911174238e-02 -3.164058707397133796e-01
2.028993087476174406e-01 9.805971919711335694e-02 -1.842589928810625111e-01
2.337479690910067298e-01 -6.072399381303128507e-01 -4.451755607764699141e-01
-4.350510359020350049e-02 -5.446057742025551818e-01 -5.844286425415980979e-01
1.965831666220347607e-01 7.120674942373423910e-01 5.503813059608716335e-02
1.896992894642752225e-01 -6.333890655944838244e-01 -4.815884698067761094e-01
2.341998992699065030e-01 -4.815431232014832919e-01 -3.951553225956081494e-01
5.095732878231887253e-02 -6.653653983877879652e-01 -5.763358663020058392e-01
-2.869711469608047377e-02 8.298901562211262739e-01 -3.161926054590258328e-02
3.872398444105386306e-02 8.876116026701633688e-01 3.111944481402571794e-02
-1.567773512245616147e-02 1.368219748609838526e-01 -2.982436149217115862e-01
3.345669339530648462e-02 -2.614075947593315873e-03 -3.243628800837063397e-01
1.283186372022426247e-01 4.705944918594406889e-01 -8.093146451527889751e-02
2.870644251341814557e-01 2.985582774640708342e-02 -1.614565052514127519e-01
-1.064936358262725917e-02 3.968386974556968316e-01 -1.923495935369117227e-01
-5.663586877874105668e-02 9.733168861572207842e-01 8.620606529632498724e-03
3.837546400300258925e-02 2.407163836710959071e-01 -2.251384011075373281e-01
1.396493930767156999e-01 -4.309945581324726160e-01 -4.310908877171045761e-01
5.961883582107958129e-02 6.209198904742291303e-01 -6.207843044151471756e-02
2.317036621065471924e-01 -6.240266117003421265e-01 -4.530295714359699466e-01
-2.592927745479596188e-02 6.516023584759501608e-01 -1.005507964737327731e-01
4.386779054326098853e-02 -6.751517512935689691e-01 -5.844041915561598577e-01
3.197403887245123255e-01 3.285003534592897401e-01 -2.391448436203974862e-02
3.204371880768658309e-01 2.946221955208811472e-01 -3.691172824307391992e-02
-5.920234424084458436e-03 -3.486432285512572338e-01 -4.846253227868434488e-01
2.043169630278851845e-01 -7.556785871224728224e-01 -5.213436843557506251e-01
2.641879709050631297e-01 -7.461820765190010363e-01 -4.821604190071663298e-01
-8.498787797013977741e-02 -2.715388381991856170e-01 -5.008887829672136194e-01
-1.652225400682659148e-02 6.044867794110991843e-01 -1.136339737024694291e-01
3.328711505778423341e-01 7.837804712162856069e-02 -1.151477650514510648e-01
7.693270548212016724e-02 3.131878325737552093e-01 -1.736395311959069709e-01
1.821417876268807343e-02 3.729379645458448800e-01 -1.847319523831599530e-01
5.864938310207902517e-02 1.701379819546544256e-02 -3.016878741475477743e-01
3.167753072425115168e-01 5.812853386566450009e-01 7.438754307164462121e-02
5.608391931428825111e-02 -3.945425775025461768e-01 -4.661065016402861638e-01
-2.239730226036965033e-02 9.029553672323908931e-01 1.028600620105398411e-03
5.975661816479396760e-02 8.960512735185037769e-01 4.690456221168512463e-02
2.670209589294731400e-01 -1.160975680501165896e-01 -2.310865191103793903e-01
4.234138453928714546e-02 1.105365205009406840e-02 -3.136960900305535982e-01
2.512958559232993938e-01 9.339037373530726382e-01 1.752168441142956945e-01
3.979957147829057268e-02 6.645809265668688459e-01 -5.652331721090316646e-02
2.970164907132946674e-01 8.562282844552477901e-01 1.715235580686703953e-01
-6.465173057663559097e-02 3.696502562582852924e-01 -2.350632633123973525e-01
1.703884723121402989e-01 5.839865061631573928e-01 -1.115724386037001553e-02
3.336760479304790028e-01 -4.085479470966800752e-01 -3.074047411718068834e-01
3.013051062068033970e-01 8.904798072530354380e-01 1.876183489429053830e-01
8.744383320783553903e-02 8.243352121746824190e-01 3.490011215276977996e-02
3.326647783688732596e-01 1.583011791707001625e-01 -8.363499737504814791e-02
1.146351179636410367e-01 1.420340053445990069e-01 -2.190772862711628244e-01
-3.195041452747551802e-02 -6.567721503061971777e-01 -6.219892540065253828e-01
1.868527094666345631e-02 -6.589932773504988406e-01 -5.929083622806924359e-01
1.331708501364939901e-01 3.411564941493303027e-01 -1.292941757982702944e-01
3.014845137962402291e-02 -3.606637987432889103e-01 -4.680421913192957528e-01
9.872129138824874139e-02 -2.883766588227832939e-01 -3.988566875333980910e-01
2.259097582495106782e-01 6.495844514454373053e-01 4.765824322293792104e-02
3.392354735100310270e-01 -3.168070179259582786e-01 -2.678027984825959718e-01
1.881117680278637239e-01 -4.838694243877463830e-01 -4.233454698924457027e-01
2.595124387752212880e-01 -2.309351001277983595e-01 -2.809837098273659239e-01
-7.465895721201600346e-03 7.438602861105149122e-01 -5.310922309417503984e-02
2.655904869902069865e-01 -1.092665838483202617e-02 -1.903045445823626503e-01
