-3.048358237576921370e-01 1.289203590732281579e-01 -6.435723312523043971e-01
-2.416701637340695485e-01 1.645992420991101435e-01 -6.819051000765988801e-01
2.999266019994363541e-02 1.197690441970996646e-02 -2.039636460314187272e-01
-5.740881795484987782e-01 7.284795316521826269e-02 -6.818200433934579197e-01
-3.980841650649550312e-01 1.620900660754209521e-01 -7.672646588267102441e-01
-4.720781860782504585e-02 -8.920786484694402663e-02 -3.618859887273646186e-02
-3.696932480534635967e-01 -3.763402654499217043e-02 -3.313573493006898296e-01
2.222737395058727305e-01 -2.568909059522022087e-01 4.721192150736139292e-01
7.450022222841643504e-01 -2.136281425969792092e-01 6.841384683326248162e-01
9.831327935933743822e-02 -2.758258861409557672e-01 4.400610516685690699e-01
-2.939667693466141429e-01 1.195104527557229457e-01 -6.175120701101083354e-01
6.855978583934875525e-02 -4.073050026180904254e-02 -7.092193575814276230e-02
2.626137799276458962e-01 -6.035252435972152107e-02 8.272652166714614119e-02
2.249169932717098308e-01 -8.230845931476925281e-02 1.069957496992813700e-01
-3.756360589433008212e-02 -1.579024317707571623e-01 1.136705783273027903e-01
5.758954792100814402e-01 -2.383061613118084288e-01 6.379831082077939142e-01
6.362345878977175850e-01 -2.758718967869085437e-01 7.518396547458182644e-01
7.158873912182323052e-01 -2.456232313991879301e-01 7.344643030918370785e-01
-2.218263254528439476e-01 -8.368576091742216394e-02 -1.489633533849567815e-01
-8.497866041533677639e-02 -4.097595631268476785e-02 -1.593695677921773413e-01
-5.271332533041737101e-01 -5.291745861976279892e-03 -4.905058176236602452e-01
1.796008388789192833e-01 -2.069751109969392711e-01 3.425614298378243938e-01
-1.607110015318604923e-01 5.712511188652919653e-02 -4.092805026060351015e-01
-6.052284813959828425e-01 3.995894734657325781e-02 -6.307904164693181048e-01
5.032104157146184420e-01 -3.732332877735284882e-01 8.792395856423292910e-01
-2.084036802943730060e-01 5.218814124550483213e-02 -4.265460198941100067e-01
-1.723977061185880399e-01 -1.772562240900416031e-02 -2.588517943259475151e-01
-2.315022069356692525e-01 1.334440212153333583e-01 -6.105819370123385381e-01
-2.399056233888393064e-01 -4.020515740194365722e-02 -2.507560541633669371e-01
2.834050037573482284e-01 -3.291840453346864814e-01 6.593686414093850034e-01
-1.657005756044458433e-01 3.828497717492240077e-02 -3.726038347818261820e-01
-3.018378455238871633e-02 -1.075642260681789614e-02 -1.910868997947195724e-01
6.057060266834772833e-01 -1.187086320155101293e-01 4.040792632721111888e-01
1.627961405573885023e-01 -2.791152924966497362e-01 4.843320180889718052e-01
-1.092825776555355205e-01 1.353972672962712454e-02 -2.879446150142048744e-01
1.935762488221365873e-01 -2.830697411401776886e-01 5.104716702266055561e-01
9.460014112769325745e-02 1.338070028409653854e-02 -1.694770542018672610e-01
-1.659558879256091968e-01 1.302656774537374051e-01 -5.659280343701952321e-01
9.969633794264169679e-02 -1.576543874449724270e-01 1.926806965114781500e-01
3.549356592956779410e-01 -1.200774284970353850e-01 2.616528024324396573e-01
1.298429220353861657e-01 -1.172599611683875359e-01 1.253125368825384334e-01
-6.253944803209056102e-01 1.092650277830765765e-01 -7.880304094050596397e-01
-3.144004136107099168e-01 1.744142400573787388e-01 -7.446596964010347985e-01
-4.782664292544736573e-01 8.845894310750315737e-02 -6.590850042368563422e-01
3.454228486487013194e-01 -2.804551933820745857e-01 5.929634886441591535e-01
3.535525069347366656e-01 -1.815857283481228102e-01 3.900300387025608662e-01
-1.433558240966228692e-01 -1.850808618527531868e-01 1.094521944904761762e-01
3.097437829358703487e-01 -2.973522473035121738e-01 6.077772491268432775e-01
7.042800581656303294e-01 -1.980934952356586676e-01 6.279176655342881830e-01
6.900997038928099458e-01 -1.833384908939665880e-01 5.887130915492093663e-01
1.244448896830099988e-01 -4.902469318127942316e-02 -2.112170995184697517e-02
-7.370956442358589378e-01 9.610524089552002769e-02 -8.251142608385254595e-01
-2.397434979705108382e-02 6.984161025656289608e-03 -2.247474987821391768e-01
-2.131865230559677471e-01 -1.266582186035153101e-01 -5.370727725976787853e-02
6.354359934583035940e-01 -2.827199788673583902e-01 7.657591566001908934e-01
-6.583538621734125185e-01 1.214177582518164988e-01 -8.326506635348374097e-01
-3.497767755331812056e-01 -1.406600010261878538e-02 -3.693145204823116146e-01
2.907935034397476359e-01 -2.323131609432767253e-02 2.109308064393997442e-02
3.710145168030718477e-01 -1.692529275374321795e-01 3.742467299945042569e-01
7.603347835593892157e-01 -1.823983943997190271e-01 6.274342758871929160e-01
-4.374006581542911887e-01 1.650157086879569523e-01 -7.961897763042482534e-01
6.525986010215211186e-01 -2.822439711077726066e-01 7.747037989423258830e-01
4.881639796605311554e-01 -1.286683859784030493e-01 3.568904381242308244e-01
-1.170246068361024527e-03 2.977928773457007988e-02 -2.594082902192434981e-01
2.362380320740689876e-01 -1.323999863766800733e-01 2.187567315332299422e-01
-1.893343899020771270e-01 -1.886737254331417868e-02 -2.662673515216636977e-01
2.614521064997638033e-01 -1.076043254912007613e-02 -2.209902286309042493e-02
7.093938737007671191e-01 -1.578020366807637576e-01 5.462612884205797492e-01
4.659061688499920306e-01 -2.011334011622354367e-01 4.961835979664998564e-01
-1.507312902948501343e-01 7.897373574172950050e-02 -4.493841653597644425e-01
5.389409116701931318e-02 -1.981102556319942753e-01 2.511067027169672783e-01
-2.061391243847920107e-01 -1.650482193203049730e-01 3.100213304542069268e-02
7.916554116587778411e-01 -1.882387224796869540e-01 6.578478068205397822e-01
4.305888315460900673e-01 -1.889449529120122984e-01 4.501220851452373828e-01
-3.654649099108686627e-01 3.227928764620704993e-02 -4.757380950108261453e-01
-2.896469710112039575e-01 1.366935128136370636e-01 -6.510966595408651525e-01
6.242229438249592421e-01 -1.920511583207605844e-01 5.688410198425158937e-01
3.494720648519515638e-02 4.133728578461549896e-02 -2.627550486508317684e-01
2.259868512124768303e-01 -2.295666411701983989e-01 4.168847179648458301e-01
2.106074402741235085e-01 -9.394250333052711621e-02 1.231381358027328482e-01
-1.914821122504003492e-01 -1.597348607081571781e-01 2.833566499715969855e-02
5.744859287859496177e-01 -2.745729684847544316e-01 7.133333050877791459e-01
-3.258094616962230461e-01 5.952157807107948118e-02 -5.099747485918411094e-01
-4.238684199074840842e-02 7.235371331488740093e-03 -2.359436390963388364e-01
-3.967237104243672707e-01 1.946290205291711650e-01 -8.348141313154178178e-01
1.722041297103566737e-01 -2.096940387483421098e-01 3.439858787727576583e-01
1.878658986939827080e-01 1.640243050647324785e-02 -1.217832622156803379e-01
-2.244496833809010994e-01 -2.681803890973174370e-02 -2.699159780617651494e-01
-6.862008117255549156e-01 4.772696527610419820e-02 -6.940216011904547511e-01
-3.492211829464511030e-01 6.543030985670976463e-02 -5.359493667588882682e-01
4.665102190872149474e-02 -2.332229802903519889e-01 3.206530623463778040e-01
-1.932066594749224098e-01 3.407624633847796541e-02 -3.797022865482058696e-01
-1.804904671884343670e-01 3.356904296269423021e-02 -3.712690599797861535e-01
-1.592064336768191368e-01 2.803640864490372295e-02 -3.473171384503418446e-01
3.217886076750435809e-01 -2.512613281551509536e-01 5.179569060557275284e-01
-7.615057594291017862e-02 3.172326026284336825e-02 -3.069360355646431060e-01
1.262174143370777546e-01 -2.583683402867578693e-01 4.195652110818042235e-01
4.062689509875513916e-01 -2.909032470676074511e-01 6.501617134949718713e-01
-2.368842325063695575e-01 -4.234211699344971741e-02 -2.445173967001753879e-01
-2.361634867465850218e-01 3.581375500672868278e-02 -4.082413855609413611e-01
1.713416422453714616e-01 -1.273196711637124834e-01 1.704849230262645565e-01
-2.871341032954787820e-01 1.704405183268894175e-01 -7.205155295069259891e-01
-7.478620177921277978e-01 7.227386632687211876e-02 -7.813022668339762999e-01
5.062524874921794371e-01 -3.775076705292018109e-01 8.899792049633056257e-01
-5.710185535462113382e-01 1.499690569254137629e-01 -8.420098435193277275e-01
-6.849389831728878164e-01 1.057292944506604132e-01 -8.151059561850531043e-01
3.404238403599760265e-01 -1.610252694122873418e-01 3.392423180845691721e-01
-3.148039843640355606e-01 -9.932946319497042154e-02 -1.699817693090605597e-01
4.204622958099153429e-01 -1.609706431100960677e-01 3.855034163644109890e-01
-6.857932225011438288e-01 6.333340078586130462e-02 -7.265618005209110164e-01
1.040861776876364497e-01 7.956850513737555308e-02 -3.029871382233688126e-01
4.970761011884748393e-01 -1.069646838002256684e-01 3.164725553049566042e-01
-4.816468958123466537e-01 -2.306442034167746971e-02 -4.268242837519631294e-01
-6.232810744846101203e-01 1.314225531261785929e-01 -8.333407106291478295e-01
1.103967146139988725e-01 3.837330410150532195e-02 -2.128132468996984106e-01
-2.223974325806703234e-01 -3.322263149001984661e-02 -2.552760504712738299e-01
3.138245198416789172e-02 -1.480641095826432940e-01 1.329569797843692391e-01
2.863822131838347218e-01 -1.868335258931388965e-01 3.621316091986800934e-01
-4.423320579879361780e-01 5.835147434988452453e-02 -5.750327548809704981e-01
-2.817366951282925663e-02 -2.918363692455103880e-02 -1.512216854380226683e-01
2.599178960077310196e-01 -2.627417093352614197e-01 5.062187202718761991e-01
2.715664265240024799e-01 -1.918240566748203590e-01 3.640280828332814744e-01
-6.292762499877773141e-01 1.694951561025670461e-02 -5.964001487295745862e-01
-9.878034596580369253e-02 -2.063792055582595875e-01 1.800104964856339973e-01
4.467702658760838719e-01 -7.042879038583374496e-02 2.105923370910052772e-01
-5.580168845102497777e-01 9.153266885679557652e-02 -7.117493402146565229e-01
-1.339341480933625983e-01 1.316544967665009280e-02 -3.014421598242875144e-01
-5.469655663502369647e-01 1.225412057035612928e-01 -7.704695831935375328e-01
4.897056169886880306e-01 -7.814405983364697272e-02 2.516733816086380027e-01
-2.121718070968380554e-01 1.870817792352867659e-01 -7.120306171920337546e-01
-7.421744183714845677e-02 1.275153136509666052e-01 -5.069967446214186380e-01
5.256020083527729314e-01 -1.610705947986800779e-01 4.466333087314853234e-01
7.484229409756527618e-01 -1.993191854655018136e-01 6.560690758009439794e-01
1.996835918115959230e-01 -2.471230990896451304e-02 -2.858740046312940528e-02
-2.607423666694257403e-01 -7.553627945349987438e-02 -1.886274568167404797e-01
-3.784437019532934099e-01 -8.781335304938625574e-02 -2.310417822694654233e-01
-3.795307376108487118e-01 6.004031725308012213e-02 -5.421913381130339937e-01
-6.288438169378939291e-01 4.132329369289870075e-02 -6.473389734313110822e-01
-4.710696409713467925e-01 2.269726441573756137e-01 -9.458191118992914648e-01
-3.518813335210407844e-01 3.787098216535946804e-01 -8.009656746181794684e-01
-5.006583419051956474e-01 3.465678404523224176e-01 -8.196659105168124793e-01
2.622664184976879476e-01 7.393563884719647761e-02 1.949648051385152181e-01
-3.664474122643849863e-01 2.626999633871248685e-01 -5.657636550166686984e-01
-6.365157217103252218e-01 1.624930932834490471e-01 -5.117937124506113378e-01
5.921925280073011555e-01 -8.967339192303615258e-02 7.297391913383500794e-01
-2.090949105749322634e-01 1.212220944882408530e-01 -1.774612240000150998e-01
-6.916530413731988292e-01 2.775984965662701143e-01 -7.854837037025214075e-01
9.687748002650330148e-02 1.463275992363982821e-02 2.236821417519806732e-01
-3.229400957224985991e-01 2.726188673649282412e-01 -5.613861869868612686e-01
3.218207594916811520e-01 1.225009223605121184e-01 1.274757743324851644e-01
-5.179472111146297131e-01 2.452212607790479337e-01 -6.168370908133997688e-01
-3.144694317423444296e-01 2.654470980000464553e-01 -5.414160957743650027e-01
-2.892293402106715927e-01 1.170973300097069847e-01 -2.152298981752285567e-01
-2.801746974283661484e-01 2.033418428968228053e-01 -3.911126893884203648e-01
3.433903052795446165e-01 -2.062464251239209956e-01 8.304030454077941936e-01
-8.067626285609911241e-01 1.962691191183047745e-01 -6.813738729870213451e-01
-1.576733973972228170e-02 1.137072555937549412e-01 -4.966096996448091105e-02
-4.329979485404299167e-02 -7.696979354627440928e-02 3.348428167230089736e-01
2.490739457256895342e-02 1.890654254189244321e-01 -1.843591624726804712e-01
-3.503130127833931073e-01 2.523529778370325188e-02 -5.769591306343350295e-02
-5.015338937505130490e-01 3.200191577551640409e-01 -7.644161405457249314e-01
1.760514841668127106e-01 3.935316272848358998e-02 2.176397255378824114e-01
-4.440947467518633479e-02 2.306154507958394217e-01 -3.117853328320521755e-01
6.830329488971818852e-02 -1.266047731961315870e-01 5.037503184505373044e-01
-5.211617096030020102e-01 3.326377147903128439e-01 -8.022901492773567567e-01
-5.977464279226345212e-02 9.339947355525840544e-02 -3.250959882648700450e-02
-2.221251247709178922e-01 1.318660552261407271e-01 -2.073654423959530591e-01
-3.723188026691839347e-01 7.110243466698902559e-02 -1.667758548090479964e-01
-3.519254743902943683e-01 8.457413835319041451e-02 -1.832526051490843411e-01
1.700201261655119589e-01 -8.469269239414475847e-02 4.746639876179811202e-01
-3.100081043632023636e-01 2.319668596827477447e-02 -3.006101534575496975e-02
-2.553790787314448862e-01 -3.113327884557295401e-03 5.684792827570132184e-02
-6.836031489804408334e-01 2.805167256699655498e-01 -7.869482549232315050e-01
-3.795914746326422007e-01 1.958289228364150925e-01 -4.329381819146668198e-01
2.184869783058049075e-01 1.496765397021341815e-01 1.052843137549868899e-02
-3.540792585358551459e-01 2.670207038605656447e-01 -5.676716523851327301e-01
2.649649953860358509e-01 -7.757713893494962154e-02 5.147329129050044472e-01
5.258859996176471485e-01 2.526755206198475628e-02 4.499229398674642333e-01
6.309665148328584827e-01 -2.383294917963351203e-02 6.139286339625272815e-01
4.274735985896487844e-01 2.150914258806707960e-02 4.007942444292936224e-01
2.920477467597458743e-01 -1.569593200944136013e-01 6.971422569639323941e-01
4.477745777124574333e-01 -2.995893032239741946e-02 5.206493743811153596e-01
2.126579129045401695e-01 -1.442989774270501957e-01 6.245532258841756112e-01
2.800590518337044421e-01 -1.804800161855754093e-01 7.395935328776510609e-01
-3.205793555400236472e-01 8.096852310637306371e-02 -1.575176094025150519e-01
-3.402872509614681129e-01 1.679202982605468297e-02 -3.415438896685270287e-02
5.512491302609900945e-01 -1.172626697463478723e-01 7.639583190392648104e-01
3.108543010624397751e-01 -1.260015712918879094e-01 6.430222114224549701e-01
-7.320171356084270720e-01 1.702395641401910908e-01 -5.833980753903632577e-01
3.805002876593521211e-01 -1.193144125674930507e-02 4.438083353525454355e-01
-6.246109901145107113e-01 2.106030653341994519e-01 -6.059356079726022637e-01
2.810634197838718373e-01 -1.479120285206690366e-01 6.717767618534193907e-01
-5.724320529656625745e-01 3.336456914843551336e-01 -8.341141093590507261e-01
5.369345652284902570e-01 -1.319319816537656287e-01 7.864724179002894333e-01
4.975168677964326158e-01 1.381222150556881030e-02 4.575436041631855133e-01
-6.403642339943702577e-01 2.268009413941560748e-01 -6.490818385905356980e-01
-4.405161279743148861e-01 1.221441371044220542e-01 -3.134875948871552742e-01
2.161641517944617730e-01 1.074087325875265619e-01 9.795265418034043714e-02
-4.616508010585636534e-01 2.547629202064691234e-01 -6.042570931034439985e-01
-2.395111554328962777e-01 1.436615035848060329e-01 -2.422118390630320361e-01
3.790206467347229102e-01 -2.419428578793255957e-01 9.260169789994939782e-01
-1.331404509690853888e-01 1.014684165410482536e-01 -9.196541559739040972e-02
-3.495991208371233006e-01 3.227428961963422771e-01 -6.821025533157110132e-01
-7.230603071386101921e-02 -3.628936215419337891e-02 2.325997103253538978e-01
5.724655008345551632e-01 1.224397807097964141e-02 5.042638840440382131e-01
-6.817779296215887852e-01 2.127284838199035577e-01 -6.435230013050586839e-01
-4.923273661045544647e-01 1.089744240013272858e-01 -3.158492223314323666e-01
3.836233439624486263e-01 -5.466935692398551538e-02 5.353753214109997494e-01
2.750310067942166592e-01 -9.751730444279332888e-02 5.624433426324063623e-01
4.326345230681025722e-01 1.905610268032571428e-02 4.089364152703339195e-01
6.258658462744965956e-01 -1.327543036237796847e-01 8.397279422086479928e-01
-4.092145225087254201e-01 2.144651233148200942e-01 -4.892417707783185965e-01
-4.575510126379273568e-01 3.979105624370464778e-01 -9.025177848274560377e-01
-4.731484299558791351e-01 2.465440247052442246e-01 -5.936578594916575025e-01
3.423203768107744294e-01 -2.389406502260698062e-01 8.984469510739262477e-01
3.670124149117620083e-01 -1.413381550595866898e-01 7.077709312432930444e-01
-3.358644896778033573e-01 2.013406592598426248e-01 -4.191775771387655780e-01
-3.955049007802948768e-01 5.507702886878775711e-02 -1.465540483749502298e-01
-6.872967280133428225e-02 2.188721613082962938e-02 1.124904832938788957e-01
-5.967984883118537809e-01 2.295564243133637883e-01 -6.296260232920436462e-01
1.373427062775073315e-01 -5.057445234216709218e-02 3.840755265502129867e-01
-4.946983836062378015e-01 1.900077539598276632e-01 -4.874078255568326523e-01
-1.165109922464764754e-02 2.118988441021707470e-01 -2.534962070169989312e-01
-5.996679178977097902e-01 2.111985087233543834e-01 -5.927336511063455715e-01
6.745977376284115756e-01 -1.039366351406875028e-01 8.074417730985041786e-01
1.030143101248797224e-02 -1.138848628413457464e-01 4.434287863174953825e-01
4.252874026629392401e-01 -2.569535412584994516e-01 9.843500050999685058e-01
3.352665127328757211e-01 9.412969536338391952e-02 1.948512602885188183e-01
5.567084948085068152e-01 -3.537824667209807372e-02 5.951493391137531175e-01
-1.971265137104598886e-01 -2.646201137002501466e-02 1.396370859228149020e-01
-2.143204426414509478e-01 1.100411259677474968e-01 -1.570069223869736963e-01
-3.941885715010224334e-01 3.110839847241118616e-01 -6.834526972372175768e-01
6.664358774505160787e-02 2.213549386282065157e-01 -2.279902818223161487e-01
5.917540217754339027e-01 -8.911051545794336504e-03 5.598694499883004605e-01
-3.875372135305661381e-01 3.703149514890761163e-01 -8.039946183218924514e-01
-3.401438476440446501e-01 2.475384380287821706e-01 -5.186808909650890698e-01
6.971884760007590609e-02 1.673887723186322507e-01 -1.128696132647781097e-01
-1.861685303416794335e-01 5.225424657426982339e-02 -1.933216299980861780e-02
-4.828120134076931413e-01 3.388593209736364686e-01 -7.931361053546200912e-01
3.278600309605174123e-01 -1.160795302468971002e-01 6.320375610312156667e-01
4.507284533818957661e-01 7.180990307202865519e-03 4.443602916148359228e-01
-1.064665212752606560e-01 2.241400368516939523e-01 -3.341428297936844261e-01
-1.490843147146008185e-01 -3.500576719050219748e-02 1.854171091850813635e-01
6.335406502445257715e-01 -1.095819854950409317e-01 7.955087720796645279e-01
-7.215234163454458116e-01 2.231464693592424553e-01 -6.884319742460710545e-01
-4.307200304575639072e-01 3.640784532694427145e-01 -8.159177895388649571e-01
2.029379488622351790e-01 3.685646819575107841e-02 2.384617757323104215e-01
-6.908854290643827445e-02 2.672755996942253742e-01 -4.030778675579858583e-01
4.621342478429581457e-01 -1.180061523579878889e-02 4.908338664978264543e-01
3.957019541694516973e-01 -1.076535216854138804e-02 4.501674738573629431e-01
-2.957863468350398484e-01 1.266377593122309242e-01 -2.390657978360441194e-01
-3.781458324786111658e-01 8.896263527381410852e-02 -2.076618308058780504e-01
-5.414143594291673939e-02 1.307404910867320802e-01 -1.076685656895903370e-01
-5.348266194399899920e-01 3.013800538662701478e-01 -7.445610656284584739e-01
1.110053106588808763e-01 1.835083758984869598e-02 2.240594370362667120e-01
3.689820186928173262e-01 5.920831078022006921e-02 2.877279586046681548e-01
5.991845172891887561e-01 -7.361184725841955767e-02 7.000583079572282319e-01
-1.634186380794440951e-01 9.547111666873649150e-02 -9.691375582475142414e-02
-4.485241891868174124e-01 3.307216314590091244e-01 -7.561784452861890493e-01
-1.963879249182348130e-01 8.982344307541154094e-02 -1.041556501236338139e-01
-6.061358884649971079e-01 1.788563373990825212e-01 -5.285568522767383204e-01
1.131126036002223778e-01 -7.202505705322340135e-02 4.150863250046527009e-01
6.234226775482095695e-01 -2.661322605487575002e-02 6.153966783944411212e-01
6.244804003358281896e-01 -1.410640505693110947e-01 8.563771741190738807e-01
-1.405986662883028926e-01 1.174591286791588501e-01 -1.298702647507744834e-01
2.429228861180291743e-01 -5.401980785279967417e-02 4.524865930710285644e-01
5.205150439465300316e-01 -8.285378357770896429e-02 6.738854529751360234e-01
3.618086725889052557e-01 1.992637960769871180e-02 3.660708121705093521e-01
-4.224264243023245213e-01 8.551563824276744996e-02 -2.260795358255000831e-01
-1.618810289536679881e-01 6.544591195462695632e-02 -3.296442281811698405e-02
-7.513420287873325831e-01 2.546272488552669966e-01 -7.718248384075230284e-01
-5.099804082486609769e-01 2.656650942199298981e-01 -6.551567550759416214e-01
1.204307110284810606e-01 1.421809927031765508e-01 -3.054524208246374439e-02
2.277945238707256570e-01 4.498750550304197321e-03 3.208212700295903219e-01
-3.247992707174655880e-02 1.402223341838144122e-01 -1.150310719505284324e-01
1.944579814027506404e-01 7.683988282673895331e-02 1.495758472795294114e-01
-6.157406050143279970e-03 -8.640769934599086544e-02 3.761851581449839887e-01
-3.578876369314885619e-01 9.615636797091184351e-02 -2.110319941896097728e-01
-5.873730974638566860e-01 1.694967344570118550e-01 -4.980284543100192418e-01
-3.489331481324456363e-02 1.743735708187731659e-01 -1.881532684313409198e-01
7.551063220312979052e-01 -7.587758706347369486e-02 7.951608736820509060e-01
3.092457904282012726e-01 -6.823524978591828660e-02 5.207703857895309429e-01
-5.589102292263619098e-01 3.390362518762600197e-01 -8.376004652742801149e-01
-2.295621913189261620e-01 1.940784672539534739e-01 -3.423320476196680673e-01
-3.016545784345813774e-01 3.477289955655827880e-01 -7.067979327788195265e-01
-5.228573276725970720e-01 2.616861060547713835e-01 -6.542612886087263435e-01
2.362877477464751519e-01 -7.370004698254876974e-02 4.899741619143999083e-01
2.813846784060793360e-01 -1.157396002813374375e-01 6.043949311453176154e-01
-3.514675858324613489e-01 7.312801451540390518e-02 -1.589483455174968418e-01
-6.855589551608776144e-01 2.589941529622105665e-01 -7.428801539011463673e-01
7.350366943572429479e-01 -3.302969510460797287e-02 6.935437473033436717e-01
-2.755829579544309960e-01 8.147187847733358690e-02 -1.325029677208532652e-01
8.454316374249545851e-02 2.305540653685196964e-02 1.988463053013470594e-01
1.309690236161759891e-01 -1.406859123456129790e-01 5.696330127893057815e-01
3.104443139391739326e-01 -1.135021976625050638e-01 6.165336899142579430e-01
3.281379813155717584e-01 -1.015147988849639804e-01 6.016100153722966359e-01
1.173384916393422073e-01 1.755692870554877438e-01 -1.024584485909832837e-01
9.112758538144145881e-03 -7.016078522353023927e-02 3.509114993522722825e-01
4.228863013046225139e-01 -1.360465084635223421e-01 7.290319136193303962e-01
7.478207864609659472e-01 -7.669632963551623051e-02 7.926590028824724854e-01
3.610925059307087959e-01 -9.658165739577917464e-02 6.103440040500519581e-01
1.569704634665414211e-01 -1.642083143017007141e-01 6.341000875190461183e-01
-1.146470473909381449e-01 2.093920334937492966e-01 -3.079092841611191789e-01
-6.144685663103219841e-01 2.150679067959891666e-01 -6.094358745398092969e-01
-4.696864754001721376e-02 5.945081119557109328e-02 4.620883175036723939e-02
-6.013393000032485336e-01 2.925195022190192895e-01 -7.644910180575233971e-01
6.281364987797492805e-02 -6.012388378657028930e-03 2.473034834675323645e-01
5.555895600731325379e-01 -9.939940483998407905e-02 7.289571294932478684e-01
-5.981194960921161208e-01 2.222092110865615533e-01 -6.149609512435415537e-01
-5.539837336873133511e-01 2.751893429040572214e-01 -7.006557912234423480e-01
-2.268809036134424306e-01 2.774030680142952621e-01 -5.157753349273564991e-01
-4.981026113851788062e-01 7.809168140696788607e-02 -2.543361119530017089e-01
1.581082475363255191e-01 -1.523155702055470828e-03 2.930908013733791173e-01
-1.592023115359882668e-01 2.749324698945480039e-01 -4.713723472651288326e-01
-5.092453309292115371e-01 2.043565446708358047e-01 -5.259716878186728728e-01
5.223043665787158174e-01 -2.016132554295805290e-01 9.243387979368030694e-01
5.961364868374877668e-01 -2.861752269206443641e-02 6.037959226034717020e-01
6.848615076666536572e-02 6.398144973490534071e-02 1.035903985415726897e-01
4.886394054467357168e-02 -8.726046756977873242e-02 4.098565556547113520e-01
5.595448529772180102e-01 1.932509544359461984e-02 4.819057721557912788e-01
-1.706014718096701133e-01 1.172192294705670240e-01 -1.467506363018792059e-01
-1.511856456434225726e-01 6.532061143131745462e-02 -2.650415764057182169e-02
-2.965734351516065015e-01 2.480710420379617781e-02 -2.565888147309424924e-02
-3.648344637214912534e-01 2.748415365123816900e-01 -5.903286022216078788e-01
2.413459354665457579e-01 -4.140234875071509973e-02 4.250739093506533672e-01
-8.691618908794361553e-02 -6.548481075725061384e-02 2.854500763121184392e-01
-4.350968638364802188e-02 1.988004858915860540e-01 -2.444467422898358444e-01
-1.440681762223902374e-01 2.975859580486378553e-01 -5.101797993790291308e-01
3.406015638757869946e-02 -1.159308131785775908e-01 4.614919189571757840e-01
-2.333369455172911930e-02 -7.185883623673795795e-02 3.356776163643476196e-01
1.306182465550315419e-01 -9.631337358895343537e-02 4.762393317696359540e-01
-2.662532465087393829e-01 1.213529922984851184e-01 -2.108547746286644209e-01
4.411586858262744881e-01 -1.151329332332784727e-01 6.956969584296718301e-01
1.852771681174533724e-01 1.187181629417031169e-02 2.807011103445944400e-01
-2.795370237388095092e-01 1.277367275146301107e-01 -2.319586607992857874e-01
4.318125171432054543e-01 -2.101273685092986121e-01 8.897872687131845870e-01
1.400056113611419240e-01 3.903580144381280093e-02 1.974205688524777735e-01
6.781595964174570446e-01 -6.466280942086789774e-02 7.270233771170969694e-01
6.205222563199268293e-02 1.666915733412504264e-01 -1.158475566102778187e-01
-1.335141691457444602e-01 2.911345539312426567e-01 -4.905154775907480391e-01
1.032062178082021435e-02 7.166523731263421682e-02 5.375081314301835556e-02
5.104101703495064202e-01 4.547774307175945357e-02 3.985108545586788509e-01
-1.862796152315003839e-01 2.813500417136239329e-01 -5.005395315264334899e-01
3.122384343832936004e-02 9.476259806025398580e-02 1.735386733174150778e-02
-2.684277306898550375e-01 6.847203092032551341e-02 -1.010550374518947303e-01
-5.493809034857663476e-02 2.586106370825381195e-01 -3.766808189070778301e-01
-2.399352497253522953e-01 1.704151853981505371e-01 -2.986451846293409762e-01
5.708522766669369419e-01 8.455775240749687990e-03 5.112850685610385026e-01
3.595539771021467601e-01 -2.353503968942027846e-01 9.008922435926359773e-01
3.369304415941495878e-01 -2.854798188113038052e-02 4.534608964908266038e-01
3.266398333178449631e-01 9.846290400367398166e-02 1.807522665831768072e-01
-6.478182501292025774e-01 1.644853209230716096e-01 -5.225266570584876646e-01
6.024878024895762019e-02 1.910510666562003843e-02 1.930660224075700093e-01
1.655754751343563036e-01 -2.477080161497056954e-02 3.462417584933266679e-01
1.517650387623925567e-01 8.652586858591575225e-02 1.044963947858499054e-01
4.876758942938964198e-02 1.946864578317351879e-01 -1.823393002633777182e-01
2.700217717516327220e-01 1.274508823908990229e-01 8.706662267947175293e-02
5.721979526817170258e-01 -7.305338686475744414e-02 6.832489035678005473e-01
1.851892099914629608e-01 -4.822786032109814547e-02 4.068704410971378804e-01
-2.184983004099762816e-01 2.231271748873356331e-01 -3.969290064830623410e-01
2.319023781722167332e-01 -1.640914354256596264e-01 6.772716159120381052e-01
3.912242135919632435e-01 -4.211999346012933187e-02 5.134234568998715664e-01
5.898956212392016951e-01 -1.178509589508452693e-01 7.875863554131693478e-01
-3.279256412278924171e-01 6.576907595950906571e-02 -1.298525743970658508e-01
-7.345161761223255592e-01 2.422444179297887079e-01 -7.360694090177193338e-01
1.686991573197726413e-01 -1.515856733466294792e-01 6.143860677970662820e-01
3.944383344127836977e-01 -2.106246438833042633e-01 8.691763161006309524e-01
7.799140408382494727e-02 9.039691714330007344e-02 5.362062033633121366e-02
7.233059245408465232e-01 -2.744131750169690256e-02 6.750100997798019753e-01
3.468268005885793981e-01 -5.233772403489645592e-02 5.091578402482542787e-01
-7.079090598357355713e-02 5.557634157761755928e-02 4.054284982989919683e-02
4.042226584740764572e-01 2.936067128378989574e-02 3.708325576746669960e-01
-4.882740482312777353e-01 3.186415998470038535e-01 -7.538400073686732927e-01
-6.328686574915405594e-02 1.872376429500960948e-01 -2.316219395268921122e-01
2.144006016677992843e-01 -1.155609948231808709e-01 5.652079621728097747e-01
4.853683840327703558e-02 3.391372971789358148e-02 1.551790850676978695e-01
1.199120857423887883e-03 -8.754969100875151233e-02 3.828460626261224742e-01
-1.796301530856510564e-01 1.520098162080835424e-01 -2.250486133021122048e-01
-1.678139720123020540e-01 1.483343032517926985e-01 -2.104828419066569756e-01
-2.625050464284162666e-01 1.893789610231133846e-01 -3.515499514664313652e-01
-1.342602899852044784e-01 -2.428860039690534586e-02 1.714984275100863154e-01
-4.484064075400707172e-01 3.440088074333672030e-01 -7.840156961795295976e-01
1.635793794297107362e-01 8.248416274489547839e-02 1.198301717411210526e-01
-3.687148560821473797e-01 1.596228276677429392e-01 -3.505966482622653868e-01
2.874726284644756880e-01 -1.988400248239745316e-01 7.824484728104157405e-01
-1.218339980425134916e-01 2.690752663274987092e-02 7.117724510130715720e-02
-1.683864616603984177e-01 -4.577223150380458488e-02 1.968446143444287921e-01
2.076169147695385853e-01 -2.481746519569910311e-02 3.706993808289252845e-01
-2.855505535844217180e-01 1.944429070631452650e-01 -3.755381738023136351e-01
-1.253320513622847576e-01 -5.526676820085626302e-02 2.417314301747739980e-01
2.134798959889357417e-01 4.235411818344241019e-02 2.330239141770232558e-01
4.604016369655114516e-01 -2.298045170313114394e-01 9.476779607116592175e-01
1.424088231339876998e-01 -1.615090661489422541e-01 6.199938784798509905e-01
6.443204474993293740e-01 -8.201131164761568670e-02 7.438513447250358901e-01
3.209861096841654798e-02 1.634061080626256213e-01 -1.263031811481644673e-01
2.929301037691979248e-01 -9.031848084545925082e-02 5.576955802542363783e-01
-2.968171472980628556e-01 2.336722218199944190e-01 -4.644549797691540083e-01
7.689033144970583433e-02 1.836783415121727436e-01 -1.429253871834832990e-01
2.909753975642492742e-03 -2.541072918231300146e-02 2.533340697073844794e-01
-5.368789153448323415e-01 3.126477928447386478e-01 -7.694145148238307197e-01
1.087816665942700489e-01 1.353432009486307264e-01 -2.293431161494445536e-02
-3.954563800541027740e-01 3.888705870625563943e-01 -8.475533590677278850e-01
5.948251207543905350e-01 -1.155657081064227071e-01 7.856431583562434318e-01
1.695625049677695895e-01 1.487655164296443344e-01 -1.590603605877304039e-02
1.171248333447149209e-01 1.559409936080896342e-01 -6.135924586271788994e-02
-5.593014841547119809e-02 1.340339316803148273e-01 -1.156218068108538499e-01
-1.160692734361319089e-01 -5.315633287886190744e-02 2.426661626539891037e-01
1.039075155501163888e-01 -1.318550993658646475e-01 5.354067337130967719e-01
-4.700461685076587903e-01 1.329046497122730319e-01 -3.531969108369703569e-01
-5.942524759429038683e-01 2.022517431444073310e-01 -5.708059982392912346e-01
-4.281905712819627507e-01 3.625535718315510691e-01 -8.112496426775731573e-01
-2.743724246958715307e-01 7.190652350856244213e-02 -1.117125693081193333e-01
-3.472603750613205142e-01 2.034724445203605347e-01 -4.302577110587952336e-01
9.343013228052979291e-02 -1.158197147908034408e-01 4.956587001926103242e-01
6.275274681802951449e-01 -1.312714428257980293e-01 8.375764395082163638e-01
-1.597669535998552104e-01 1.366502881016264104e-01 -1.812816789929046490e-01
-7.729302731464504639e-02 7.097066063275170311e-02 4.444514336436219265e-03
-1.426238922239266294e-01 2.333706222260046037e-01 -3.744790221372236716e-01
-7.196723609597095450e-01 2.478854522847145636e-01 -7.393158186866116699e-01
1.114672013412354029e-01 1.233673286299177413e-01 3.773257691657647302e-03
-8.767551302917168943e-02 2.284725130509454583e-01 -3.323539486485969641e-01
2.291511349431977207e-01 -1.568838086109595742e-01 6.605401601079643470e-01
-3.559828722127209022e-01 1.588885145896609674e-01 -3.416772999002112288e-01
-1.389549972903394714e-01 2.994665797718998324e-01 -5.111667740004981475e-01
-1.997638405744916190e-01 2.302133270404529142e-01 -4.009561129145703950e-01
5.997458827122650535e-03 2.320291376242157033e-01 -2.855475846666432060e-01
-1.694381139951954829e-01 1.763688129381582037e-01 -2.703014906493877989e-01
-9.080120951771580851e-02 2.556320803457034496e-01 -3.912050882168780497e-01
-3.838945751480382640e-01 2.611085187063176827e-01 -5.725305529762811929e-01
-9.071587433177039084e-02 6.050621807005947955e-02 1.864429834610363892e-02
-5.669127958564686154e-02 8.730059799644444840e-02 -1.791428640793010091e-02
-3.413970303301008813e-01 3.662817861276462805e-02 -7.645695114881130572e-02
-5.063200572860624415e-01 2.990193211895270653e-01 -7.230858444709400423e-01
4.837726339819052868e-01 -4.272967634892193417e-02 5.683282405496294931e-01
2.725982872630070553e-01 4.388538191083771189e-02 2.640623158937392412e-01
-6.724085649873690063e-02 -1.166916594900664454e-02 1.838276620767025082e-01
-2.629434171612224369e-01 7.427883949749296277e-02 -1.100726788701043013e-01
-3.344899884980904181e-01 4.729575324802754582e-02 -9.485873269254942175e-02
-4.034933871683274442e-01 2.868416925148927765e-01 -6.379308463457104006e-01
-4.452598632264463396e-01 9.420217083425301563e-02 -2.575529750011159580e-01
1.966200265013364479e-01 -8.664832589984067246e-02 4.941836699429894009e-01
5.391977831388065912e-02 6.761023066374485802e-02 8.752925905374114857e-02
-6.283048378146710577e-01 1.956136926117806318e-01 -5.765954746637711459e-01
-1.051083117930138172e-01 2.187568892770834494e-01 -3.220502641502923646e-01
2.284042723656119767e-01 -5.201453452196870553e-02 4.398627883107498748e-01
1.643072368411204465e-01 -9.430786889004419415e-02 4.915474558711687703e-01
-1.506132560890079408e-01 4.724672169997799764e-02 1.178596471375369624e-02
-1.811483700187031254e-01 1.534917980914917435e-01 -2.290407300225829890e-01
8.170495852403335257e-02 -1.025481668034135679e-01 4.609922343422721558e-01
4.152564101806204173e-03 1.289329391623722787e-01 -7.009570958511618377e-02
-1.595588900195920312e-01 1.146090835214639073e-02 8.175943471949671804e-02
-4.352374733144390717e-01 3.304582699280473324e-01 -7.479267587585167743e-01
4.409059681688871080e-01 -1.834930267979941465e-01 8.391192083208939279e-01
3.706331616568495635e-01 -5.734718232352518930e-02 5.334724817754594728e-01
-3.573846345026340243e-01 1.030321275904748785e-01 -2.251808956373740900e-01
5.717968839447373774e-01 -1.680184894355801761e-01 8.824605731017322041e-01
-2.808697959451093573e-01 1.220551733961263707e-01 -2.207985935708327019e-01
3.704370048896223899e-01 -1.962422908259277635e-02 4.541337345634681721e-01
3.551236245253604484e-01 5.673585039176461120e-02 2.848907562613378075e-01
-3.350121842203685474e-01 1.288487034001496202e-02 -2.289216525548277634e-02
1.474292032673404362e-01 1.239816853732435969e-01 2.332007327719330669e-02
3.148069852462500595e-01 -4.503479160889492516e-02 4.752674505471300437e-01
-5.509457443837763035e-01 2.545166989257316992e-01 -6.554791943966421508e-01
5.576615572562034773e-01 -8.072653114999404911e-02 6.909412400834060719e-01
-1.202181946459781464e-01 2.344906854788346429e-01 -3.638490665457133066e-01
4.626238067300768031e-01 -2.296878159011574994e-01 9.487204350126281494e-01
3.299037592836966959e-01 6.718085413655562610e-02 2.483414651617522895e-01
-6.321701322635510101e-01 2.421004994464805715e-01 -6.764658838248467365e-01
-1.358305352241944708e-01 2.316953251871170516e-01 -3.670243904793705769e-01
-1.672563642003360718e-02 8.235955811643627666e-02 1.561966341646712532e-02
-1.054844468596309037e-01 1.326927749442525784e-01 -1.415178482308540875e-01
6.382051359190022977e-01 -1.694139579883087443e-02 6.036493099826585329e-01
-4.704229560760452289e-01 2.351027504640839927e-01 -5.680499022648879404e-01
6.487453188654017655e-01 -4.869979318121683831e-02 6.764549288401960903e-01
-9.909650710928326334e-02 1.689811503515247504e-01 -2.140287676284391982e-01
2.365501592046720392e-01 -1.416366724029818891e-01 6.328055271117810632e-01
-5.457143130182880997e-01 1.963930889087138199e-01 -5.303778075597763708e-01
-3.018019517474558253e-02 -1.172892125344116541e-02 2.054268204858142044e-01
-4.677135724342507128e-01 3.545784583262251988e-01 -8.174008365276772548e-01
-3.431795678224118240e-01 3.327223014058949824e-01 -6.993415138173909584e-01
-4.623682886998879971e-01 3.898058069747348253e-01 -8.882875409716410875e-01
1.994853807282334635e-01 6.139985170977280832e-02 1.849157041010344449e-01
-3.540272540889705666e-01 5.897278403466641589e-02 -1.307028978084827375e-01
2.703296808125311146e-01 -5.926730541014330056e-02 4.793873211557921898e-01
-1.853840000925693066e-01 7.761213216128101666e-02 -7.213378126113210997e-02
-4.181857186901788981e-01 4.017694343479883412e-01 -8.878131105768275466e-01
2.373753594670667544e-01 -1.213892143523920449e-02 3.613147400936717601e-01
-6.573375502178094298e-02 1.918012065492245011e-01 -2.426240312119775366e-01
-2.090270982877814876e-01 2.263292680719560523e-01 -3.981661898617260276e-01
5.871686759574860082e-01 -2.415130753904345257e-02 5.892199327890912386e-01
9.492791917861273521e-02 1.902933334066863047e-01 -1.463667521635707569e-01
3.977995651320873627e-01 -8.713458238220068985e-03 4.470735181321678908e-01
2.558227427227734996e-01 8.525692777525080424e-02 1.674544411485885675e-01
-4.689132323451062345e-01 2.310894264258724906e-01 -5.587464259088972263e-01
-2.067794449802229650e-01 3.073577636050772721e-01 -5.670384930388742140e-01
-5.079474203620192307e-01 1.285657266606566040e-01 -3.660450958303942959e-01
-4.049432782371022443e-01 7.517733602335517629e-02 -1.942371415967082959e-01
3.371752677051109148e-01 -2.340262719784117207e-01 8.851446839984596915e-01
6.002990566260724137e-01 -7.605157456968462959e-02 7.058279663867853548e-01
7.164273481763024087e-02 1.097017892736828898e-01 9.398322382333356567e-03
5.975086282860710973e-01 -1.637087200923666441e-01 8.883071506523035898e-01
-9.783129080077078432e-02 2.101547647207578084e-01 -2.997677855955405146e-01
-6.420968427109361443e-01 3.100865179983690600e-01 -8.250006646904219920e-01
1.199540969767108750e-01 3.755341224447969039e-03 2.598977438547941943e-01
-6.358875543633422112e-01 1.730611585743689618e-01 -5.336246070756393012e-01
-1.027094697522072247e-01 2.670955762157072311e-01 -4.221803982951474188e-01
4.869476696072799204e-01 -1.396031342325847746e-01 7.736198684972943607e-01
-3.585747258902173273e-01 2.029136777495157140e-01 -4.356399517128766719e-01
3.766846895771630566e-01 7.658691091167264299e-03 4.004546491100383077e-01
4.521452450030506026e-02 -1.299325194459561017e-01 4.973611147360902374e-01
3.799582914044515314e-01 6.627914351812483340e-02 2.792377826167937171e-01
3.268000649151862613e-01 -1.577758948042639886e-01 7.189933758079443127e-01
-1.817094285656726815e-01 1.472617100552565117e-01 -2.162814956362046903e-01
5.893098513478984835e-01 -9.892372714464382766e-02 7.474963060521717662e-01
-3.794520501472188334e-01 1.238935804207786789e-01 -2.817800418642348315e-01
3.691422721277348717e-01 -5.750291496607181502e-02 5.329356986386049044e-01
2.766375594837415242e-01 1.350358519696224190e-02 3.302100690214834766e-01
4.421102998057429567e-01 -1.784766463310208107e-01 8.292817062835201591e-01
6.788485786895279706e-01 -9.511258802943781121e-02 7.913726820786390892e-01
2.457504472080848934e-01 -1.083520798602263975e-02 3.634293910173332365e-01
-5.066131373195677939e-02 -8.692737902826218332e-02 3.514901586388775034e-01
3.634877542933441230e-01 -1.132097290672023221e-01 6.466538439864885079e-01
3.568841988573894231e-01 1.051465948089143065e-01 1.842394636431629040e-01
4.207986674934445226e-01 -1.290317123481023454e-01 7.130899455805238540e-01
5.585560041878593340e-01 -8.462973891399057369e-02 6.996569489214218285e-01
-2.243054089377042870e-01 3.786607863929077056e-02 -1.121162537193157345e-02
1.383377183220177165e-01 -1.521247101009213232e-01 5.979261405685463160e-01
-6.717985169855157368e-01 1.408467517792523216e-01 -4.867759740730855933e-01
-1.073425801565981719e-01 2.283023704426702105e-01 -3.433920957952896202e-01
7.518936114961606576e-02 2.088531236220924348e-01 -1.967826016230160568e-01
1.519904299129668790e-01 1.672193496602190355e-01 -6.484405451679173260e-02
-3.277204952498384838e-01 2.537538448928753909e-01 -5.245360505586220690e-01
1.740222863905519987e-02 8.832130146545633109e-02 2.287325642524486863e-02
4.299076245483107739e-01 -2.137137993342541620e-01 8.962156968671216584e-01
1.666912319685490418e-01 -8.782462095013926495e-02 4.793127840429418640e-01
6.905109577039070246e-01 -8.114747851035246373e-02 7.688008091353623064e-01
4.115104768302802474e-01 -2.149670149178386225e-01 8.881880165210940259e-01
-2.590938562680145663e-01 -3.261454595249557546e-03 5.500660772554324951e-02
-2.905044934369042653e-01 2.310256477347408591e-02 -1.856257562960393626e-02
2.471372376671404913e-01 5.155747322040694913e-02 2.331969003928064665e-01
4.153081045332720489e-01 -2.036939413339707294e-01 8.667129221511046255e-01
2.905966751098805756e-01 -5.559356131156905495e-02 4.834148747614637753e-01
-2.440892888857421616e-01 6.943908515813242144e-02 -8.898386573855668336e-02
3.101985214207650943e-01 -1.741877189947577120e-02 4.145985335885507550e-01
-3.800691592850127809e-01 1.622409229813411569e-01 -3.626740285795584939e-01
-8.209932180436124716e-02 -3.552189380128090157e-02 2.253134650587907961e-01
-4.237954756666497680e-01 3.850826981113974479e-01 -8.560183186971092040e-01
-1.316117536122786424e-01 1.312349023745213727e-01 -1.535947146452991685e-01
-6.706596713533184706e-02 2.400014942977834187e-01 -3.446253464626098384e-01
4.226623497045665645e-01 3.948417740981487178e-02 3.602556586542736694e-01
4.367193598842370461e-01 -2.313310051759805697e-01 9.371618968432932073e-01
-2.789448858135040732e-01 2.340016786860996678e-01 -4.547913666322082049e-01
4.367270570860606882e-02 6.133041682405856315e-02 9.478066350531706707e-02
4.792731646374731591e-01 3.929859978636231210e-02 3.934468026563937570e-01
3.152522114456886571e-01 -1.624491889954240709e-01 7.221170981395367283e-01
1.374172242301045874e-03 9.972041402396443488e-02 -1.035392623019072179e-02
-1.802362799128166271e-01 -2.200393739068145713e-02 1.400608434501470767e-01
-4.317965371697762289e-01 3.634106358389385116e-01 -8.151389997222477923e-01
2.106603596996174388e-01 2.936228592337512128e-02 2.586754406343840240e-01
2.508273285901294614e-01 1.796714103088021749e-02 3.058808415407227588e-01
9.345756305417445009e-02 -2.143598845479766524e-03 2.569339928137988061e-01
-6.940192401565324909e-01 2.404355531863639206e-01 -7.088057576437443164e-01
-3.935163502655963930e-01 1.144101503820644378e-01 -2.700122335807402241e-01
-4.494826645015705946e-01 1.341218013964746714e-01 -3.438382611361648356e-01
-4.189186594458501056e-01 2.308709486154885415e-01 -5.293197636407888096e-01
-7.119417119150973916e-02 -7.928093837078442618e-02 3.235341036850533647e-01
4.838854230596882355e-01 -8.903052749558915124e-02 6.656338348837822494e-01
4.473561505161026131e-01 -1.688035224230036435e-01 8.120059267102470724e-01
-2.458177879709587399e-01 2.099717736063885093e-02 1.175146068504285581e-02
2.479155221368170570e-01 1.213249261533968643e-01 8.712346237664443660e-02
-4.710111842450774855e-01 1.592625060127945691e-01 -4.091123708558623839e-01
-2.463739961335634776e-01 2.590199374035597191e-01 -4.884620772484616902e-01
7.831594169851076037e-01 -5.520891829060985828e-02 7.680073988801074947e-01
4.227486094724143273e-01 1.163653544530478950e-02 4.187907724665969056e-01
-2.699777113928647151e-02 -8.899303305586488133e-02 3.695395218879475863e-01
-2.094134838094765805e-01 3.842551080954902110e-03 6.887266376042994187e-02
1.196382446876712580e-01 -1.296771663398543495e-01 5.399473642626835268e-01
1.168461729987547576e-01 -8.820586927722115500e-02 4.512322874284029894e-01
4.797137243607820789e-01 -1.885197968731131268e-01 8.721623051838419682e-01
4.353407623659198422e-01 -1.174102038160653172e-01 6.971086255254956843e-01
6.147347541266566795e-01 -7.987808451038135027e-02 7.222286573202872928e-01
-1.237636303890972678e-01 -6.417214499584004972e-02 2.613431209459484705e-01
3.099222979036489467e-01 -1.532129453033629352e-01 6.996310451853833268e-01
-4.663969093406521438e-01 3.671212885149774952e-01 -8.429801703364181442e-01
3.656599574613023651e-01 4.762814405222373648e-02 3.101235570321316803e-01
3.181975539537259534e-01 -1.840705423701373411e-01 7.692324765990214974e-01
-4.741177733010126794e-01 3.827395102589127851e-01 -8.802549053275904312e-01
-2.309425603074807820e-01 2.214627376033032613e-01 -4.006438282471850298e-01
-2.585699466908397345e-02 6.562076941024259924e-02 4.548329134612402042e-02
5.145228029099869760e-01 -1.559177553322510512e-01 8.238611155652093565e-01
-5.963613903818525408e-01 1.229958957493810928e-01 -4.055761918722513015e-01
2.542607129208847572e-01 1.056936176768878549e-01 1.236285903473126196e-01
-2.803595764049213734e-01 3.247352612653901793e-02 -3.236514522564869212e-02
4.211517279799594227e-01 3.972141207787362183e-02 3.588821391930799853e-01
3.430568712848299784e-01 -6.986450817860462292e-02 5.437829177382087487e-01
2.386842593216823571e-01 -1.633813851050861521e-01 6.797099332101834701e-01
2.763455553932170350e-01 -2.026338536648152056e-01 7.839689655831776349e-01
-3.831967322481992788e-01 1.029717117316451269e-01 -2.400100381540943018e-01
-5.877380210425420248e-02 1.901478663037460271e-01 -2.351189839445007590e-01
-6.427574316709372404e-01 1.817030037715161306e-01 -5.557545993324459754e-01
2.654912898146992717e-01 5.512471881446869004e-02 2.363397247596643602e-01
-2.645768691775916559e-01 3.125276930929715702e-01 -6.113852303979417924e-01
-3.202727558919031825e-01 3.652109550590876275e-01 -7.543009708113197487e-01
-2.429124703607777325e-01 3.053665666893703445e-01 -5.837927871299476434e-01
-3.706393587550713686e-01 5.861298093120777958e-02 -1.395726191608228917e-01
6.463078539250578791e-02 -1.035942728526527551e-01 4.532961431250538964e-01
-3.916335694863297134e-01 3.706473356743774095e-01 -8.070661933866538629e-01
1.701370665586462300e-02 7.120069432753634020e-02 5.860454059696144219e-02
1.720055775387272987e-02 2.245994897640107568e-01 -2.634526760599460449e-01
-2.709464535775532590e-01 2.279784019554920160e-01 -4.375069398448924174e-01
6.629049732529620487e-01 -8.870726454011104711e-02 7.686823008724605888e-01
5.917803795723881599e-01 -1.460982879519461264e-01 8.480029697143226519e-01
1.903643577616915827e-01 1.078725502573620182e-01 8.202965453412272567e-02
-3.464814186474773350e-01 5.981922385489779614e-02 -1.281083735262261714e-01
7.362167201338987166e-01 -5.869864165093818809e-02 7.481369520002977280e-01
-3.104348935160007872e-01 1.895323920178904886e-01 -3.796436616197840230e-01
-3.408259951001623711e-01 2.482221717830338514e-01 -5.205121060837053504e-01
5.114700680209620202e-03 6.784849010810264924e-03 1.869950650440438678e-01
3.117819665478031577e-01 1.482015353611555036e-02 3.478083818097822411e-01
1.005136391224632775e-01 -6.311863521361346652e-02 3.890811299754399211e-01
2.650570079042049443e-01 -8.245144207896555610e-02 5.250231534051130744e-01
4.137309787920265824e-01 -2.055380160378540710e-01 8.696719987193957113e-01
6.632811939706579436e-04 1.633511998672518978e-02 1.643585138360639519e-01
2.515413939799008292e-01 9.298551555658547685e-02 1.487422995635508394e-01
-1.596880008318606048e-01 2.592994108047147472e-01 -4.388214862413695738e-01
4.913622936769102556e-01 4.405733026952828729e-02 3.904572740065198055e-01
-6.326250103461390495e-01 1.319280425984770133e-01 -4.453471715436609912e-01
3.030299316729036935e-02 1.650929932387765475e-01 -1.308863636084217352e-01
