3.732879598725541981e-01 -5.483534665492328930e-01 -3.503437396050619601e-02
5.769658562176215311e-01 -2.954215113326384423e-01 5.318647358386825452e-01
6.412852235702671821e-01 8.514201159282128173e-02 -1.486703625174803090e-01
4.472920133095995010e-01 -5.771846760919382424e-01 5.160652461343582242e-01
5.603085190104339919e-01 -2.450637983357415728e-01 2.824174561688308494e-01
5.187479416239930696e-01 -2.391100919263498270e-01 2.186697240442769027e-03
4.459335311108780231e-01 -5.391106564704709753e-02 -9.883732013972920116e-01
4.747069236561675676e-01 -3.530812788733344032e-01 4.906525088397793721e-02
3.831542848881392960e-01 -5.161302329738438610e-01 -6.466260836402257239e-02
7.182068983958623809e-01 1.615793611503592853e-01 1.199854345597784339e-01
5.356051744833019157e-01 -1.195781665842454572e-01 -2.327481763310524643e-01
5.298004035549789270e-01 -1.879860269871555245e-01 -7.395959107302507718e-02
3.403829776381289141e-01 -6.271366281758409267e-01 -1.821790496789809505e-02
7.378105271558108580e-01 1.474225308159969345e-03 7.018171914805174660e-01
5.737029059031379941e-01 1.496816247992227844e-01 -7.611762289675194637e-01
3.650320549223427524e-01 -3.432529512368299174e-01 -6.736229483052382783e-01
4.909687146928665147e-01 -1.967219968395738927e-01 -2.949157059883806831e-01
4.374087561215908582e-01 -1.680018630959034254e-01 -7.162212677614544498e-01
5.097651788369552683e-01 -1.111298842869272441e-01 -4.205483696065784316e-01
3.777751819379134290e-01 -5.665175578417143143e-01 4.530814332890879814e-02
4.780115083415101274e-01 -8.561974248152588729e-02 -6.945742403111454522e-01
7.054538111101613662e-01 2.556770842998536478e-02 4.280217868193414432e-01
5.824989094075158080e-01 -9.522949457738548451e-02 -5.364132045614229162e-03
3.970401989082993910e-01 -2.286173320918049312e-01 -7.986074483322080919e-01
5.071891495551020812e-01 -5.277041731311080675e-01 7.539603376416560421e-01
6.780613067441380037e-01 -1.410353439292906796e-01 7.307926521528322894e-01
4.445382456520146075e-01 -5.992974591682366237e-01 5.618368971037608350e-01
4.351554808569577659e-01 -5.667919705045760814e-01 4.094934753247375103e-01
7.143731513448505765e-01 1.010211327811312426e-01 2.688178750753383306e-01
4.997876517069982927e-01 2.444568379924356993e-02 -8.712956471665014302e-01
5.341079038386996602e-01 1.422711503650381792e-01 -9.907556326270952063e-01
4.531437093160670670e-01 -5.214091292543875794e-02 -9.477698781364991554e-01
5.021126947479792602e-01 -5.089506393052367628e-01 6.682011056944586747e-01
5.262941118139506935e-01 -2.441289513101605191e-01 6.432505927604197093e-02
4.767345729553339462e-01 -7.864431813232405921e-02 -7.226013413863457968e-01
3.193654690534267204e-01 -6.074725232214299719e-01 -2.075379815897540614e-01
7.608801132145267543e-01 1.754675686279413005e-01 3.505424652403765773e-01
2.245210370872884331e-01 -6.278085173192970991e-01 -7.500740463598368768e-01
4.978236376509626027e-01 -2.754272246811170777e-01 -2.651459860870000046e-02
5.476478562375243220e-01 -4.105569462372299361e-01 6.753152332179912509e-01
7.307118733042402559e-01 6.827434916817103072e-02 4.659045308888012382e-01
4.168191091935934955e-01 -3.102053128921271052e-01 -4.401154829977203531e-01
6.220777826993493242e-01 7.374705039316885313e-02 -2.377411775472904332e-01
5.129572677630430677e-01 -1.160535835346020866e-02 -6.848339871720534600e-01
6.549665012568427480e-01 -2.124969885061311625e-01 7.888095717095532367e-01
6.404189893748651885e-01 -1.823545671575573235e-01 6.105118617495493005e-01
5.070875898244010527e-01 -1.639376362483170591e-01 -2.865493347273213032e-01
6.075370536680708700e-01 -1.300800329536402344e-01 2.528315160261807581e-01
2.879730991163761411e-01 -5.171297528625123929e-01 -6.646068309120635176e-01
3.674012684243316285e-01 -3.327181950927741716e-01 -6.887329998885741711e-01
5.726236862257522153e-01 -3.673705171456573271e-01 7.100390168189113504e-01
6.428253066560188911e-01 -1.321413281097496006e-01 4.822115080509959961e-01
7.389737698891367668e-01 1.089951427108516724e-01 4.018239252282900242e-01
6.953827978974842505e-01 4.095168803503882599e-02 3.202632586210688026e-01
5.593242392223721771e-01 -2.399283914542749974e-01 2.615036928414141704e-01
4.384232085696431747e-01 -4.320926817990265456e-01 4.513598264915862079e-02
5.469795213953718704e-01 -3.714990017433334457e-01 5.594311244070442335e-01
3.962046700032657021e-01 -3.756995979488363946e-01 -3.834482588420620730e-01
4.867202386789837298e-01 -3.132660208518259770e-01 1.133169987805390973e-02
6.599264360147749642e-01 -2.456566789340914117e-02 2.829995726707801862e-01
3.323772298678017156e-01 -4.273014069021512373e-01 -6.401707644254102103e-01
4.597567291563422476e-01 -6.871606089045526056e-02 -8.585064274371022597e-01
3.557045100863461817e-01 -5.302962832735474974e-01 -1.980123087832018625e-01
5.475069602785832545e-01 -2.230747053211600273e-01 1.384843979665473790e-01
4.930296384017358036e-01 -2.991515004865891725e-01 1.094248661283776097e-02
7.625858215729307554e-01 1.305367977153938652e-01 4.897845850502956511e-01
6.409867631444440272e-01 4.682931864153604129e-02 -4.103954436393401212e-02
4.866182500659645416e-01 -4.897637608703309109e-01 5.152239001214268255e-01
5.097139148166333067e-01 -3.584251610260596466e-01 2.860475899190035309e-01
4.227248695708793469e-01 -1.701367541019863927e-01 -8.031144343421445786e-01
6.883756931371187715e-01 -5.128395808469007888e-02 5.395515579490781644e-01
4.482776133667510932e-01 -4.016763384537259673e-01 2.059744867954513281e-02
5.124139719207858601e-01 2.065713599644587381e-02 -7.805006607558976350e-01
6.666087846107578985e-01 1.351541523811207179e-01 -1.312563729410075319e-01
5.380346187148512538e-01 -3.963321445838787205e-01 5.737695269867206793e-01
4.955349176290471669e-01 -4.983954527468858475e-01 5.963695729919524791e-01
5.105426436799377354e-01 -5.391635266348404620e-01 8.079565023817445457e-01
3.691197823866809169e-01 -4.075328469154061994e-01 -4.639834340774026122e-01
6.450803405328109363e-01 1.418362381692763741e-01 -2.867017829062922241e-01
5.264378687053252737e-01 -2.540698904651541024e-01 9.365276338441884396e-02
4.384251088764383741e-01 -2.002665710973498547e-01 -6.175523023034255043e-01
2.964566239939244174e-01 -4.215773594788404521e-01 -8.840259519625659479e-01
2.426482722363267341e-01 -5.954582339041559758e-01 -7.277474728527123515e-01
3.611332608377329501e-01 -5.360067674397260840e-01 -1.473069017882997767e-01
4.358764953406579212e-01 -5.628012696934381331e-01 4.026519488462337870e-01
6.823991435962452057e-01 1.391917681247760163e-01 -4.279484243111172231e-02
4.761318415042257723e-01 -2.635765875518701618e-02 -8.758857007188058930e-01
3.645273604426546576e-01 -3.364778007914556168e-01 -6.961867886015876694e-01
3.170810474657440592e-01 -3.666710516062418601e-01 -9.103630516158862651e-01
4.172607552403766462e-01 -2.389197395572090765e-01 -6.410960667780631894e-01
2.436037489440627535e-01 -5.692051445346733018e-01 -7.967435784310702429e-01
3.019464166696530505e-01 -4.695381967568106885e-01 -7.121566939273872299e-01
5.430567180710832442e-01 3.349825274236938044e-02 -6.231417674395229866e-01
6.208757443693865286e-01 6.865402067116990747e-02 -2.307949432746352059e-01
6.422270452020822917e-01 -1.167275808491461536e-01 4.343607145867085517e-01
3.168283369053156440e-01 -4.994154243019406914e-01 -5.324991945967678664e-01
5.927918513268614076e-01 -1.087265718047022711e-01 9.840599793394023964e-02
5.254748145804376547e-01 -2.563247272894410567e-01 9.399924720846919435e-02
2.030683240781703258e-01 -6.471270306124444760e-01 -8.307142770732670600e-01
3.454693235638542914e-01 -2.913088212665978505e-01 -9.460056160304413098e-01
5.560763992214633467e-01 -2.558389967621788608e-01 2.864166807572333107e-01
2.877746429215112256e-01 -4.710979777541758895e-01 -7.974505627759529425e-01
5.091132238471598459e-01 8.183178102108118468e-02 -9.762793783358737487e-01
5.493097566134932386e-01 -3.801413687395747143e-01 5.988941217579629717e-01
2.562664128679305042e-01 -5.500182073974009267e-01 -7.713963593222454840e-01
4.826227555849563200e-01 -1.385173670652911464e-02 -8.705269928892972464e-01
8.248292144781798063e-01 1.938676552825286947e-01 7.029462334795834044e-01
7.988246072092585193e-01 1.604098720906903808e-01 6.338965983977855601e-01
5.595680395995189516e-01 1.514602226014757358e-01 -8.557794769148397984e-01
5.186511697248282760e-01 -1.062271201904066154e-01 -3.782867025274649908e-01
4.032013364356843987e-01 -1.962335260638599643e-01 -8.521603890549427351e-01
6.943483968303216791e-01 1.375416894232330822e-01 3.759909550361616865e-02
4.746637808322863861e-01 -3.267451617614314796e-01 -2.649265553010975507e-02
4.984253259935866320e-01 4.280341018429968669e-02 -9.324010988512042575e-01
6.093672630478792485e-01 5.900277092701435716e-02 -2.760912999144579660e-01
7.706881149432907030e-01 6.913955687146780549e-02 7.166087625060862942e-01
3.763821934395663593e-01 -5.788343661707696652e-01 7.169501412407090768e-02
4.246979556855891569e-01 -2.744641350779297162e-01 -4.923872446256736812e-01
5.545024046073574464e-01 -1.789952359991856812e-01 5.678195477043374712e-02
4.234436928917849619e-01 -2.732369794189829504e-01 -5.038387002187005859e-01
3.929803887550059605e-01 -4.306168633275455071e-01 -2.468812600067562257e-01
6.743454820068592870e-01 -1.085375333781912581e-02 3.351212617190626464e-01
4.245259160159428613e-01 -5.673678227389805651e-01 3.438204548550341522e-01
4.720001532428484969e-01 -2.040115246436393914e-01 -3.942094807986607496e-01
5.831802139249351313e-01 -1.153844043434209682e-01 5.656572185499457450e-02
5.389365634859846210e-01 -4.643020962930098361e-01 7.737812723228549849e-01
7.204452246728586529e-01 1.564282507435990899e-01 1.488862150128957285e-01
3.610367521464051821e-01 -5.766225404238525254e-01 -3.181347652826609779e-02
4.160601843187404225e-01 -5.334457067858439094e-01 1.932352026266271061e-01
4.322390155911458032e-01 -2.882020808697792202e-01 -4.053567838956959046e-01
6.035269535115205253e-01 -3.066451586913099270e-01 7.321654947717483042e-01
7.727123958277565263e-01 1.605265021228321765e-01 4.681893487319264691e-01
4.302417255729439338e-01 -4.804440973900397371e-01 1.315388322228136508e-01
5.802031627237896894e-01 -5.539447939899377893e-02 -1.337763067173640408e-01
5.748468877535767296e-01 -9.677313473262094679e-02 -4.941324908640573610e-02
4.690023210251947905e-01 -2.778783319240664684e-01 -2.020389947222246407e-01
3.331612309636387548e-01 -5.877884956211654188e-01 -1.764356141397061539e-01
2.214513067163000337e-01 -6.449433044999484110e-01 -7.205335966663679592e-01
6.003736091897690086e-01 -1.416562741499906020e-01 2.405559443608431824e-01
4.619493288173447398e-01 -5.502264529503382295e-01 5.318299201884300054e-01
2.810190171433384343e-01 -5.834317988425912205e-01 -5.191167631390634085e-01
3.812403145537937021e-01 -5.164299193228688578e-01 -7.592747851859005248e-02
7.485160757015676403e-01 4.888650431689185033e-02 6.340843778949641907e-01
2.858386473550105222e-01 -4.665061932694719582e-01 -8.228377280678635941e-01
6.077222648125982785e-01 -2.120888670792046293e-01 4.884357266533138064e-01
4.606787260036002141e-01 -1.732619506227339456e-01 -5.538113647761518932e-01
2.893829200275840341e-01 -5.473382875478509657e-01 -5.693237495878108456e-01
5.558597169331674914e-01 -1.685350232319383912e-01 3.547642134038283407e-02
2.805941876537477175e-01 -5.752010597567915884e-01 -5.453357620024519292e-01
5.055299309426871668e-01 -3.601793129958137385e-01 2.645640198645572982e-01
6.010746630313203998e-01 -2.784254812822928860e-01 6.359656117429182132e-01
4.074988541054180846e-01 -4.269422406117363566e-01 -1.654372306031354767e-01
8.153528491849597604e-01 1.830843494934410454e-01 6.737557796646909125e-01
6.090200763292195063e-01 -1.079224526054322481e-02 -7.877340714933651900e-02
5.568686819792965093e-01 9.116083085069290326e-02 -7.005026343815103917e-01
2.831868723297620849e-01 -6.029647175524498470e-01 -4.495503164854161016e-01
5.517215609111661978e-01 2.603405624715036948e-02 -5.469283642116123945e-01
5.669774323131586691e-01 1.243926358543125527e-01 -7.314786526815203471e-01
6.106571715900829256e-01 1.490599300115435198e-02 -1.418665836522479684e-01
5.761297429959200134e-01 -3.551302233230704264e-01 6.972533545167376445e-01
5.941513179653701293e-01 -3.271990681144772983e-01 7.315433228302491431e-01
4.200587390544432975e-01 -6.063712482894128009e-01 4.270244933524916520e-01
2.784568630082961960e-01 -5.389652658015748887e-01 -6.624558503213898719e-01
6.777752919510580121e-01 1.753894608993836896e-02 2.756792930977561285e-01
4.860428987957554070e-01 -2.791903968329316754e-01 -9.036693106678835019e-02
5.556833249400714436e-01 1.405709528897713251e-02 -4.876002671010199463e-01
5.784447112372860245e-01 -1.366792254336466339e-01 8.744841518083779075e-02
6.919778489108848740e-01 1.524362722534604586e-01 -1.999185374988717359e-02
3.708572985639850272e-01 -2.708484364341414152e-01 -8.437067499745146693e-01
6.186591850659290959e-01 -1.197891131956755617e-01 2.938524746640175933e-01
5.634228723599827848e-01 -3.620933315427390387e-01 6.366830121287957445e-01
3.825141475388935119e-01 -4.682422742234605972e-01 -2.056096993670077644e-01
4.124250231703000535e-01 -3.264324807277423357e-01 -4.215569714302849214e-01
6.084163523785225403e-01 -6.307293492459223327e-02 6.685316408529953791e-02
6.668599452437996566e-01 -8.155552782693462066e-02 4.898226258292011637e-01
4.480950242903971037e-01 -5.114075828028966653e-01 3.331198519869472130e-01
6.866773753656731927e-01 -3.911992624333815970e-03 3.933778223022725284e-01
6.347580165063597679e-01 -1.984753433028463576e-01 6.207427936012825942e-01
3.935904667668093104e-01 -2.361039194679667996e-01 -7.990540612654025709e-01
3.951532904326969797e-01 -2.326389333032923834e-01 -7.990614291853199713e-01
3.662962052843142802e-01 -4.745804147064386358e-01 -2.902028982685236347e-01
4.330015333607981631e-01 -5.657929151841455395e-01 3.929961866141148397e-01
5.350854245644408591e-01 -2.035535851947021802e-01 4.013072153553637160e-03
4.655869069885505418e-01 -4.593424142933546506e-01 2.950654539105845298e-01
2.863642206875224860e-01 -4.952171057822613021e-01 -7.374358802203322405e-01
4.801907090759676144e-01 -4.261254994108016891e-01 2.926000611829366882e-01
6.083244447876628991e-01 1.094096144069259674e-01 -4.267891573430873664e-01
6.242401419630632109e-01 -2.412199352470055791e-01 6.763210895906769382e-01
2.904214657872513650e-01 -5.344190937403150432e-01 -5.996773618833722841e-01
5.867721361661326629e-01 -2.285940071505453697e-01 4.029361276979174233e-01
4.373135887459557725e-01 -2.287848769143592531e-01 -5.430690816543836119e-01
4.872994892149553059e-01 -3.829860332912413678e-01 2.143024983835569164e-01
3.512745594884898459e-01 -3.774846554808939381e-01 -6.628968400129882088e-01
4.702679362251211970e-01 -4.366574566786042833e-01 2.598639118785707747e-01
5.511883446828040878e-01 -1.689112487016897757e-01 6.967169585482893557e-03
6.000448010062264803e-01 -2.002517507700382338e-01 4.059751219733556682e-01
7.323286932572009578e-01 1.407894160183370547e-01 2.688519163382657728e-01
4.653201532608437496e-01 -3.702737863692944220e-01 3.876362427147772571e-02
7.339312922193854671e-01 1.476880719481464821e-01 2.592809323393675536e-01
5.787756267576358304e-01 -1.417363915769051796e-01 1.040006323907270436e-01
4.290274413941445042e-01 -5.830827785705151589e-01 4.172524360115818509e-01
4.856404168866921833e-01 -4.378070155463657104e-02 -7.658603182350695038e-01
4.253042212795415389e-01 -4.974808770377959766e-01 1.489701313602827537e-01
3.781019003290329583e-01 -2.492023853868513550e-01 -8.597028470008127865e-01
6.769390851606347237e-01 -1.049466655783377195e-01 6.205219603294199748e-01
4.783276323506138739e-01 -2.043928705580076166e-01 -3.530461728016890399e-01
5.612205475303329028e-01 -1.742195013287824168e-01 8.567733523663972894e-02
4.714801471661503873e-01 -2.621941342823759791e-01 -2.311814231012606080e-01
6.381532958471566319e-01 -2.119840482484398880e-01 6.808618879387274836e-01
2.688759652317344040e-01 -4.629958266609301987e-01 -9.403005491308815689e-01
5.650785727497754651e-01 -4.010724319847694952e-01 7.585949198000043747e-01
5.403406522893089425e-01 -6.553083172809937018e-02 -3.572576738948669561e-01
5.883961589063101405e-01 -6.735184898979232337e-02 -4.770697536235707359e-02
4.533479505849212776e-01 -2.738280559347807674e-01 -3.127594066730838840e-01
6.786217637617392162e-01 -1.529890863107112864e-01 7.685132197898166817e-01
6.365577281308065771e-01 1.170264974636380378e-01 -2.697558292156271853e-01
4.921686381454498105e-01 -3.932326084881246908e-01 2.744307481458793663e-01
7.089333803382990018e-01 6.307610767107274530e-02 3.428367276912238637e-01
6.632910386322917740e-01 -1.583594464214200526e-01 6.867724379855388861e-01
2.523599355140597189e-01 -5.623390568859173433e-01 -7.609163633597348930e-01
6.465918385447896322e-01 -1.700492207737160089e-01 6.144295684721174933e-01
4.502114176604615214e-01 -3.503281794113683456e-01 -1.139397172075897191e-01
4.795576170541390182e-01 -4.121707558260816889e-02 -8.117123099951343290e-01
2.855659239384230608e-01 -6.171495347708473300e-01 -3.939344543829805256e-01
4.233721225382711673e-01 -2.818757648735493171e-01 -4.795970554833892119e-01
2.471019118466382392e-01 -5.677793113981929318e-01 -7.786649142317463301e-01
5.905515556992529946e-01 -9.869908364595635086e-02 5.555308547365609556e-02
2.452448753826435290e-01 -5.581078574576726625e-01 -8.180728070674787578e-01
2.930420158032204236e-01 -4.262513230968293376e-01 -8.922903108659087090e-01
5.156495884263122553e-01 4.544101047550631184e-02 -8.308562739652297635e-01
3.855132710906860605e-01 -2.518963971725329265e-01 -8.050640280732735965e-01
4.741033377562192674e-01 -3.273256888068921122e-01 -2.838255334443544331e-02
4.651820203657267006e-01 -4.177310117316472282e-01 1.735504758261424418e-01
6.577037973705774920e-01 1.558856820128911858e-01 -2.469167830226950688e-01
5.224482853328096255e-01 -3.767655055649584556e-02 -5.501981198708306708e-01
5.846773630083543782e-01 -3.274545203778166380e-01 6.722731121627497641e-01
4.347468689578103951e-01 -1.244504878202860737e-01 -8.575759054613962817e-01
3.116873835090412381e-01 -6.287129164783478164e-01 -1.954468411247576864e-01
5.054952792154611130e-01 -4.742892792753337083e-01 5.905403960129786967e-01
4.120179091054356757e-01 -4.464287891639645012e-01 -8.111272010846247438e-02
6.216225216180052415e-01 -2.342900243956496098e-01 6.399332682189701194e-01
3.499936008174394098e-01 -3.972895442902789620e-01 -6.143949640268498991e-01
3.624171413694615151e-01 -4.958588763662919452e-01 -2.539429723649470616e-01
4.414548900227335260e-01 -2.130013028801740205e-01 -5.619604680587516610e-01
4.782435830937366017e-01 -5.797455398684225880e-01 7.194082288828145266e-01
6.886466913421526170e-01 -9.233714317270590166e-02 6.586228681752253067e-01
5.498756178034365227e-01 -3.065026671301707140e-01 3.919735424726127349e-01
3.406876474305887137e-01 -6.155364425612748214e-01 -4.944877100020243776e-02
7.587781131641508914e-01 1.520756580900809729e-01 4.040984165406902862e-01
5.229220164854817554e-01 2.166382019078585616e-02 -7.168288327958702855e-01
4.297176889695501489e-01 -3.875826579921189952e-01 -1.372345881251425537e-01
4.559717973439690875e-01 -5.539535983244363582e-01 5.046274726383616072e-01
5.981373399567381233e-01 -1.056696322258346768e-02 -1.483399435259599997e-01
5.237472602722577086e-01 -2.759443292124831859e-01 1.391430809766167898e-01
6.293074196003133336e-01 -4.783499935339090119e-03 3.253373327606923909e-02
3.615330392610601185e-01 -6.212788309802189657e-01 9.898450484205588429e-02
4.440452325592593175e-01 -9.172477538390497176e-02 -8.922375437772454010e-01
4.131295730223143448e-01 -5.440765407226978434e-01 2.050644587426575516e-01
5.005352869780297365e-01 -2.566130332690967353e-01 -6.312360794374512196e-02
5.597580666294834639e-01 -7.386231321797954996e-02 -2.104668586800590158e-01
5.671289580320864054e-01 -1.674908036312096615e-01 1.038617599129809388e-01
5.478131615587528147e-01 -4.007825632920153369e-01 6.484210009913996542e-01
5.505105128926164326e-01 -1.432867080382106972e-01 -7.057622962769238839e-02
4.096337916614634089e-01 -1.836990432737233003e-01 -8.472535568361759806e-01
5.918261851146611185e-01 2.878899582848066033e-02 -3.008130656516831980e-01
3.466662653516137116e-01 -6.196913756583053434e-01 2.923415546915975570e-04
3.315136296323157317e-01 -4.575134489784687952e-01 -5.592756870218336118e-01
5.337181308094932630e-01 -8.724504228452895083e-02 -3.371269767573716880e-01
6.572577119747070595e-01 5.863976800122956690e-02 2.824616168346782974e-02
3.445537648093717209e-01 -5.216774372916848090e-01 -2.932701206212551814e-01
4.151862074019143090e-01 -1.562934484572106597e-01 -8.904308924027900529e-01
3.356766184376692164e-01 -6.266033731592427491e-01 -4.954858561436902009e-02
5.383251726954607630e-01 -2.329375279079067274e-01 1.085282616071609196e-01
2.963122346669201934e-01 -4.107844429368969763e-01 -9.157931320553072130e-01
5.595166407369317474e-01 -1.151626193918706825e-01 -9.393440992684726210e-02
3.823421412399087838e-01 -3.757376114802379319e-01 -4.711337563570047182e-01
4.134579157462483501e-01 -3.683179424706838900e-01 -2.952812780398348935e-01
6.600396786693981666e-01 -2.005375674925737872e-01 7.867517031065599520e-01
8.157649927608328078e-01 1.630770244985951800e-01 7.335590963367939477e-01
3.901725435961693189e-01 -2.994381716742207655e-01 -6.396525569811718492e-01
5.636150966908217708e-01 -5.887062744261360725e-02 -2.288948921766523203e-01
6.272056815851013711e-01 -1.605197450834901784e-01 4.644121149012987448e-01
5.340056067142617824e-01 -1.651231636436444883e-01 -1.126831976915040334e-01
6.341047701820636817e-01 8.503427459814767025e-03 2.493417592412316627e-02
5.118864727932115333e-01 -3.192566403304755163e-01 1.878393285478863473e-01
4.539568332951475216e-01 -3.357134416453321224e-01 -1.319970800038672565e-01
5.153181718855648352e-01 -3.295374362194515849e-01 2.389617449852644016e-01
4.100850727830131492e-01 -4.241123669993665524e-01 -1.571476947470547836e-01
4.901795184826714391e-01 -1.700010713563351317e-01 -3.762985343657120341e-01
3.000057975668993793e-01 -4.453715669327735216e-01 -7.935299796411290352e-01
6.392375774075704786e-01 2.957967480789342463e-01 7.127316789520163898e-01
3.192643368275590032e-01 3.547640218916453536e-01 9.406442248483861193e-03
-2.465447956877060420e-01 5.238790790594286539e-01 -6.622901480595269064e-01
3.320975588436410053e-01 2.447538132122645815e-01 -9.119451215305808267e-01
5.013372730322526172e-01 3.341862349286187084e-01 5.240811974386410110e-01
-3.159892848478394467e-01 5.684189909963189846e-01 -5.349307630003440339e-01
6.438464928261046216e-01 2.711051536887705282e-01 5.125453494257111720e-01
9.011074520315971725e-02 3.869783397951959136e-01 -5.826432794174642993e-01
-3.710943152866187644e-02 5.737001568161158582e-01 5.780133642055689247e-01
2.533421496388708199e-02 4.178597306186888627e-01 -5.579194989222786560e-01
-3.837824505924350982e-01 6.212698575318131855e-01 -3.279445802526216869e-01
1.914691820618136531e-01 4.602843894547635206e-01 4.515702083937719880e-01
6.655312063576550585e-01 1.912336235070215551e-01 -1.091012603423123783e-01
-1.743203445499912907e-01 5.579998264917299666e-01 -8.513823954340180022e-02
5.004960930667620156e-01 2.419485588387916553e-01 -2.927823367869159532e-01
3.339988190884231600e-01 3.686066413783532503e-01 1.878554782175323179e-01
-2.842971845662980446e-01 6.360141055545399658e-01 1.825209955703373521e-01
2.767753387618798744e-02 4.292393049826886964e-01 -4.485777932654151368e-01
-2.535293465577446725e-01 5.614070195699145671e-01 -3.579555866111780449e-01
-2.836236614906088027e-01 5.940543232707744536e-01 -1.850393241180908754e-01
1.413152508452259204e-01 3.458605751511446558e-01 -7.495597670386702216e-01
-1.606629863156153193e-02 5.017620863726803826e-01 2.389617563764953947e-02
4.136815392693888316e-01 2.479500200280523314e-01 -5.717966077668605873e-01
7.508499691574949120e-02 3.826595997173389274e-01 -6.781939780210091140e-01
-1.993639507684061563e-01 4.833598932236909396e-01 -8.393117953055047042e-01
5.406874455334992335e-02 4.273737032818916148e-01 -3.641220952546024847e-01
5.118271675416554700e-01 2.047362517769664436e-01 -5.777127517518969579e-01
3.051080458436082332e-01 4.025572003197245285e-01 3.768700213618402795e-01
1.895995748350139121e-01 3.515979789282168144e-01 -5.143233376130190715e-01
-3.762872796359373329e-01 6.288630931331382623e-01 -2.323037015091658219e-01
-2.058033955008339022e-01 5.377921096737046103e-01 -3.837768824794111633e-01
-1.744498549516467767e-01 5.192134936739103424e-01 -4.277754965063883530e-01
4.992696887600472366e-01 3.130075322312025343e-01 3.293537406305982462e-01
-1.472060096151029361e-02 5.450712244288403729e-01 4.110803646986272430e-01
6.489975650840497101e-01 2.017328618807253671e-01 -7.970534707918713879e-02
2.445167847005335349e-01 4.524383781444280550e-01 5.851980343774235704e-01
-1.578599791614070103e-02 5.471182534248629770e-01 4.250638418821901521e-01
-4.369187842995950893e-02 4.293772262639714010e-01 -7.202576647815576161e-01
5.028036546411651653e-01 3.219506550743608253e-01 4.217557153868949360e-01
4.886129362858622205e-01 2.671314353590867330e-01 -1.160769560103592363e-01
3.702792483155065706e-01 3.272324129887633770e-01 -3.838878657376706277e-02
-1.413812406170945613e-01 5.914429795417840419e-01 3.358203853289056795e-01
1.346054674426084286e-01 3.304465195599855520e-01 -9.111865719983267553e-01
7.466042308901988944e-01 2.511486065646938437e-01 7.294212394230958907e-01
1.838584579943602082e-01 3.751515025034865003e-01 -3.285053786285832000e-01
5.191093529154516828e-01 1.885419398863457663e-01 -6.927210123582402401e-01
-4.415874508293626821e-01 6.107645512359285433e-01 -6.416440177720438287e-01
-1.763503463655108350e-01 6.254638483077871181e-01 5.022133164850920428e-01
-2.259138496023983256e-01 5.669413551962606546e-01 -2.035422271301090824e-01
9.764546772168145039e-02 4.197537808698043049e-01 -2.647138654392903190e-01
-4.950594129506100810e-02 4.828090605113966038e-01 -2.711560407730154165e-01
4.285959308785984856e-01 2.240986306147303431e-01 -7.251660858509966223e-01
3.003772563736778218e-03 4.951859968932745271e-01 3.880574074027664383e-02
5.413469596951474561e-01 3.038613009004280108e-01 4.095646099573210241e-01
-2.670600441640289535e-01 5.370373292448800129e-01 -6.246630995329658376e-01
-2.894476266526888608e-01 6.196253642700978448e-01 1.825877338090363747e-02
3.209318182014039289e-01 4.318707562890387597e-01 6.959564389399658380e-01
-2.476627933142885041e-01 5.462407974153055124e-01 -4.693078387881780000e-01
6.206265498310746809e-01 1.797079966984314048e-01 -3.824738745944730733e-01
4.554799130775203930e-01 3.826430225341914126e-01 7.761826601813006654e-01
1.663190450875273729e-01 4.788309916553639689e-01 5.190064878548421579e-01
-1.284518239317908317e-01 4.734623411326031039e-01 -6.554721214883562075e-01
3.937480824259252388e-01 4.110813993180184589e-01 7.909981947552400250e-01
3.980140872684844733e-01 3.239255002737700950e-01 3.849047254045732946e-02
-9.074609204793404604e-02 5.144494069705424222e-01 -1.497408832004191448e-01
-1.284021261732697268e-02 5.481526663658956577e-01 4.454524586848939705e-01
3.869804552261454922e-01 4.122990985032329858e-01 7.758622666727372774e-01
-1.652535592371224549e-01 5.255882938995101172e-01 -3.363780600933498621e-01
5.447148057420739820e-01 1.664231157278891482e-01 -7.899275810542891740e-01
4.466176403065700851e-01 2.751942266439387219e-01 -2.055316188636933661e-01
1.184304549746798135e-01 3.458231250862127681e-01 -8.373951263399964651e-01
1.102221636816742428e-01 4.851676771782069131e-01 3.604050134634568248e-01
6.423463974716431268e-01 2.094200485887217356e-01 -3.732731542778824907e-02
-2.280704546605217820e-01 5.761259323389006370e-01 -1.307694736606744568e-01
8.670659927940392586e-02 4.133024734335536410e-01 -3.634492939685863289e-01
-2.009555865085448367e-01 5.010534160847093244e-01 -6.893196363060282161e-01
2.420888228253930408e-01 3.217253621808612851e-01 -5.771316207012339161e-01
4.755710395719099648e-02 5.340405279397709704e-01 5.519087497169593570e-01
3.726517393694953051e-01 2.346943827533993499e-01 -8.456136335879418375e-01
3.587652256772970172e-01 3.370713540116149765e-01 4.376116780018443272e-03
3.184605188152181410e-01 3.735012820306182757e-01 1.716180105667556854e-01
2.280329766152620063e-01 3.754642970192337281e-01 -1.568352555035932572e-01
-3.419838140624684719e-01 6.264350559912281735e-01 -1.225551286192110290e-01
2.627260300346777600e-01 4.611946055571105596e-01 7.320654963977173413e-01
3.676302841944264488e-01 4.048473298302252554e-01 6.361391195872325710e-01
5.183092100028769966e-01 1.932656063499140209e-01 -6.541121208839446588e-01
2.037248610046164254e-01 3.479775368710890660e-01 -4.922488751728626988e-01
4.649296500405252219e-01 1.988746648732219180e-01 -8.087418686606291374e-01
-1.418672169479048492e-02 5.323751940760953483e-01 3.011275302117695229e-01
4.171256038984299530e-01 3.793804128108512752e-01 6.007464629114110943e-01
4.523866936270227734e-01 3.751003632363179019e-01 6.978197461735283769e-01
4.257370774565218813e-02 5.198018854178247938e-01 4.072517176280717743e-01
-2.931752800082680910e-01 5.991677298939915852e-01 -1.764556306353967097e-01
5.071429218153087337e-01 1.600619023174537081e-01 -9.897054114150957149e-01
3.458954097755586043e-01 3.691094059419168794e-01 2.377796729401328857e-01
2.800183689091671480e-01 3.749983067452943297e-01 3.783162816331662320e-02
1.802141154958560032e-01 4.563697168400125403e-01 3.740018935625071816e-01
6.591703963808379640e-01 2.885978916767994451e-01 7.254465958912424961e-01
3.238061175893803822e-01 3.212698853529136200e-01 -2.686855866608228727e-01
-2.247089724550550491e-02 5.030989075435257085e-01 1.119916547798949918e-02
-1.225160637321091317e-01 6.228338011963459042e-01 6.848602545515060092e-01
4.187804204493492666e-01 2.265965009841789946e-01 -7.406636121558425323e-01
1.839954658287231426e-01 4.350742061951577977e-01 2.006087265835335698e-01
4.105276136530925934e-01 3.252682102195983971e-01 9.818298257979518606e-02
1.685081620227568966e-01 3.362512317169173426e-01 -7.303476963296364755e-01
3.778674090946309433e-02 3.889077198193973683e-01 -7.656960644403494332e-01
-2.592486834307171084e-01 5.876397561128307023e-01 -1.484204705198728103e-01
-4.196167178911978102e-01 6.101991887320822316e-01 -5.626213082692779199e-01
2.036961770544976902e-01 4.029424954961466909e-01 -7.501595357335607075e-03
5.496554569187381833e-01 1.717949443619911087e-01 -7.236499432574231561e-01
-2.695855402031548942e-01 5.422931339682459662e-01 -5.879573731205576248e-01
-1.624254024776023708e-01 5.516086463648705029e-01 -9.603322185570954683e-02
-1.205109215921668919e-01 6.305140008656149320e-01 7.602759391059649152e-01
2.443723341671165394e-01 3.552841960522422626e-01 -2.723708916756326093e-01
4.365741561147034600e-01 2.930908974830186420e-01 -8.606493530803971392e-02
1.833118308484627257e-01 4.350434712968281326e-01 1.977235805164047899e-01
3.682510353751283771e-01 3.704669882159875582e-01 3.352367862093994511e-01
6.273322599275951150e-01 1.696448656419659307e-01 -4.456020343155094876e-01
6.744801327144049619e-02 5.076865736901928772e-01 3.954924437638013268e-01
-1.165941833982469047e-02 5.084573436188449813e-01 9.980705418575090693e-02
-1.910871067569494888e-02 5.282619400288210976e-01 2.460233910472957863e-01
2.547451004146124021e-01 3.350906086050015609e-01 -4.108400570719662470e-01
3.199849739048438169e-01 3.680403482057231224e-01 1.292751008302481519e-01
1.412293333342119483e-01 4.800211652997539713e-01 4.335692678567754088e-01
1.066488224231705723e-01 3.491807471834013077e-01 -8.528265061197767283e-01
4.157383551834331059e-01 3.716050329539552499e-01 5.268538249512612071e-01
3.563242324643732251e-01 2.278423768772446234e-01 -9.684883372917576505e-01
2.546362442697321371e-01 4.116452329833228396e-01 2.640474524001208412e-01
-4.398963894155623611e-01 5.938758351237061195e-01 -7.841566387777636482e-01
4.958687711922686869e-01 3.405389186173085614e-01 5.592094897930300901e-01
3.578976215687402762e-01 4.271959569210092011e-01 7.960658989881983505e-01
-3.031721452901611213e-01 5.332401724301611967e-01 -7.962410730695580474e-01
-2.181279521059256710e-01 4.945268405880279827e-01 -8.125541545013942324e-01
3.345663835280396903e-01 3.311351641675825408e-01 -1.405177552998832791e-01
3.957232339357473483e-02 3.827094463271303315e-01 -8.135447182323221060e-01
6.364018900218762487e-02 3.807383787186635060e-01 -7.389031724548905666e-01
5.054498002722785932e-01 3.238253288819631370e-01 4.484107047808791879e-01
6.964824139245334722e-01 2.175432176258063899e-01 2.413296508865392653e-01
2.105132822864645981e-01 4.022812987438704191e-01 1.273254269590351831e-02
5.694248481585639787e-01 1.903261471917860603e-01 -4.845898984240707419e-01
5.739586997944081670e-01 3.121741670595457596e-01 6.075921709068899945e-01
1.752337154272210207e-01 4.783616811896919119e-01 5.489537908032300351e-01
-3.032304758295139568e-01 5.800324941819621216e-01 -3.836996276681177154e-01
3.259396374702132060e-01 3.925292523050111226e-01 3.680656050917611166e-01
4.651124818657844107e-01 2.498110252254705232e-01 -3.587228881089810639e-01
1.135996237767511186e-01 4.045033660610914406e-01 -3.382366500186026470e-01
-8.944330179002056569e-02 5.174152916116396828e-01 -1.185967155424145492e-01
-8.735984968010639118e-02 4.834468187259850502e-01 -4.102729161982128225e-01
3.107475958888479273e-01 4.455474944182384323e-01 7.776601041200434938e-01
-4.372935599014158847e-01 6.018707424777992587e-01 -7.036794664743135641e-01
1.352925484121384470e-01 5.003036244667483645e-01 5.897843299924977467e-01
2.218414509598994402e-02 4.009094652039130735e-01 -7.194861792880019591e-01
-2.482802854938221948e-01 5.802356961395049861e-01 -1.717931131944025747e-01
-4.858007781783686002e-02 5.857720975649933770e-01 6.406418663534382274e-01
2.154805548033146001e-01 4.482407290834122260e-01 4.371433739831360743e-01
1.556834764594100251e-01 5.019798150555818683e-01 6.825395020149719327e-01
-1.216937802254181994e-01 4.661669935554597077e-01 -6.939849972883793683e-01
-6.521602440947707642e-03 5.283600207758007983e-01 2.950181327415074550e-01
2.508805294995647417e-01 4.683547971359841022e-01 7.499331339492507631e-01
-4.202083575292683837e-01 6.143416113162734060e-01 -5.283424282897519753e-01
-1.980221430414998429e-01 6.585911982318535252e-01 7.115694975396390509e-01
-8.773560104616891231e-02 5.740238571977359650e-01 3.872885972969844492e-01
7.620800312925963826e-01 2.436289909765866901e-01 7.222642931339187111e-01
7.275164868719308231e-01 1.894167152617416694e-01 1.118856561729293930e-01
3.928210876027830589e-01 3.619197086633565985e-01 3.537884632625648007e-01
6.231645973575271613e-01 2.709832803688691505e-01 4.323885454143041041e-01
-2.253644988174264563e-01 6.531167218968093602e-01 5.587285837415453260e-01
-5.810578358647361386e-02 5.985635610695021480e-01 7.170543274782393839e-01
6.773416946824271090e-01 2.809352843851580794e-01 7.273351147151074780e-01
2.273297442518872613e-01 4.233190581438588951e-01 2.626122586913491874e-01
6.580418479272025500e-01 2.645217690280809442e-01 5.087510228377488675e-01
7.941374643127701027e-01 2.230433019919859927e-01 6.632523707546135183e-01
8.931695622917164290e-02 4.022288432970995142e-01 -4.511507447269802462e-01
3.010370009780007350e-01 4.453617425978961264e-01 7.388909738769151581e-01
-3.648569571800547862e-01 5.971340159758984356e-01 -4.684859459566975137e-01
-1.654461914017257840e-01 5.279988039062150085e-01 -3.158510373876423638e-01
-2.004075772842629430e-02 4.247195987766860248e-01 -6.709083192209112090e-01
4.336223772929238551e-01 2.390473920403370089e-01 -5.740803402016806389e-01
5.087670715689996959e-01 2.380614571435131499e-01 -2.954453539779016702e-01
1.750901872466708309e-01 3.295150490730721637e-01 -7.646011107781720550e-01
3.559447662073189633e-01 2.414082843095573805e-01 -8.502717102673743588e-01
5.507132959583489473e-01 1.604048539651358740e-01 -8.200793442457596782e-01
2.166895351583725260e-01 4.667822291446567795e-01 6.053244765146150730e-01
6.997112530422087140e-01 1.901854423952967221e-01 1.234738120031959527e-02
5.097507488486259231e-01 1.973541559466089612e-01 -6.507713437993341010e-01
-2.022630838792686264e-02 4.516131149676185785e-01 -4.343846952297688024e-01
1.943619267875857648e-01 4.492211229822872798e-01 3.650399488083883592e-01
2.136329070681946829e-01 4.901654436195903575e-01 7.999048324790056785e-01
3.864459581996201876e-01 3.940350447418075608e-01 6.127076077850381886e-01
1.735550669598288909e-02 3.792334575956310405e-01 -9.291579550024059442e-01
9.504623106975770494e-03 4.286770384222208796e-01 -5.230257448300612566e-01
1.716192627804706272e-01 4.818351731644297531e-01 5.657735149262532737e-01
3.478176820650297207e-01 2.756715938594499482e-01 -5.791038403573531834e-01
6.442334339562287848e-01 2.073921269214448748e-01 -4.800052520122840422e-02
6.660263520414823057e-01 2.815421337345087593e-01 6.894215761634574502e-01
1.071343419909045469e-01 4.078228159230519734e-01 -3.336765289165842252e-01
1.392119058098165441e-01 4.925355019474709217e-01 5.362466755122545781e-01
3.302861613418528464e-01 3.264125402123234099e-01 -1.985433338173625550e-01
-4.303251185679085600e-01 6.113616128981669284e-01 -5.933132346961409453e-01
4.871410370335928219e-02 4.548611932433624938e-01 -1.421240520687485909e-01
6.628101238490401170e-02 3.959161164933302501e-01 -5.949195299667484615e-01
5.703144808079996242e-01 3.092655361967990291e-01 5.680000872904612530e-01
-1.894118706067833557e-01 6.221907898537992754e-01 4.233974246223388138e-01
6.036295561483783212e-01 2.985288127727477869e-01 6.006767412769083991e-01
6.913346581542056946e-01 2.331207306665751267e-01 3.590584615234849175e-01
2.472531674777472266e-01 3.966435302337564250e-01 1.034836108045327496e-01
3.995897953457225871e-01 3.004890214255083181e-01 -1.622223596134392543e-01
-1.925002007654683933e-01 6.633224145195947274e-01 7.744188581466830978e-01
3.537477221160287288e-01 2.547290207888606717e-01 -7.411676905382293956e-01
4.267943644293158978e-01 3.722133673306461943e-01 5.744951258913973957e-01
1.891953711773120689e-02 4.868483708350018757e-01 2.611525833119388712e-02
4.481099685309671288e-01 3.683981097105873403e-01 6.223448287936642620e-01
2.993988030144078064e-02 4.724525606690812007e-01 -5.873439558122737353e-02
7.812199233649256280e-01 2.224418660132017889e-01 6.085539497878227344e-01
-2.003705794272406526e-01 6.590815102769637113e-01 7.069148803801607039e-01
6.484915634262702899e-02 3.634487346193477908e-01 -8.867958516644187661e-01
-2.087150147472859318e-01 5.892911646626796118e-01 5.937343257158269466e-02
-1.821927624230878506e-01 6.380028454314481401e-01 5.904825818492358547e-01
6.578334609572948910e-01 2.797595383901571031e-01 6.423696392694101531e-01
2.609475143729257374e-01 4.030028991063374089e-01 2.119442031855125197e-01
3.577885985283830728e-01 4.016590590172377517e-01 5.703829111202475266e-01
6.963378052980600912e-03 5.048560474190911807e-01 1.392476166550477013e-01
2.005309367186724201e-01 4.581174264845216948e-01 4.671045859700932446e-01
2.092798932680154100e-01 4.233626818830981131e-01 1.939795332774930103e-01
-2.136904333277431234e-01 6.408654694401730856e-01 4.952961545897484053e-01
4.677366574099898339e-02 3.811951879441464186e-01 -7.993663941068975820e-01
-1.709702106007919276e-01 5.355810679308773414e-01 -2.700886522167301185e-01
-2.414449417411211607e-02 5.838986515978923375e-01 7.175506023223857666e-01
5.219909398676452206e-01 2.336296032284119750e-01 -2.839752864887737371e-01
-8.774063044524932353e-02 5.377370422327990562e-01 6.717607046889483013e-02
-7.756789569847911958e-02 4.796016042963242021e-01 -4.067506561498714368e-01
-6.859926435924738886e-02 5.254467697396938419e-01 3.195228904977086282e-02
-2.634873935549417734e-01 5.858709705885758456e-01 -1.802309154996309948e-01
1.476390892434149837e-01 3.345292543084603110e-01 -8.253350536949919380e-01
4.414889809538324883e-02 5.582193426540380532e-01 7.521629212336602421e-01
3.489566946276658616e-02 4.165600961088558596e-01 -5.328235312321812911e-01
9.360661615217402698e-02 4.203132417173944257e-01 -2.752221779796113488e-01
-2.748081831042518131e-01 5.514653250817819208e-01 -5.270175432403352289e-01
-2.176300565288821764e-02 5.683484329854691097e-01 5.894851355957678729e-01
-7.203662088545492725e-02 4.229291869720391284e-01 -8.855194172453463297e-01
8.308225114589230798e-02 4.172680378659469058e-01 -3.423267372404411035e-01
1.634432493045773552e-02 4.443683968555723895e-01 -3.584560243073952601e-01
-2.461755580864675302e-02 4.433062202026032406e-01 -5.244523769085693843e-01
-1.288428211835766501e-01 6.017963692626694394e-01 4.750930986384582222e-01
1.740996824209910254e-01 3.100770240192775029e-01 -9.398552518492878649e-01
1.491795181670808323e-01 4.384450998474225258e-01 9.721769371764338308e-02
2.250855040684317521e-01 3.268321127500247170e-01 -5.970998415707392537e-01
-3.002165468596744713e-01 6.119008228593996179e-01 -9.105827409779629344e-02
3.432677503731952351e-01 3.113436693447877990e-01 -2.818309406494118874e-01
5.265693025258353366e-01 3.236824856752208990e-01 5.279056759675826438e-01
2.579797448370713675e-01 3.769667056781360603e-01 -2.907421125146347762e-02
2.343795860943961584e-01 3.864425506496481089e-01 -3.572622678672706525e-02
2.613577683533900853e-01 3.016284442769441854e-01 -6.807315642078520801e-01
4.445817548694983579e-01 3.265700860409452844e-01 2.398805221692283107e-01
-1.723958813628984621e-01 5.457887182052389985e-01 -1.854962782192453585e-01
-3.084649377796474523e-01 6.347592041765215409e-01 7.904058626105631147e-02
6.199232298153182531e-03 4.003259330850262310e-01 -7.857554315052881488e-01
6.083617481957642736e-01 1.752273741980503174e-01 -4.688954893467799923e-01
4.872672309068478147e-01 2.213620259638724719e-01 -5.249637230442000257e-01
5.738921789771374016e-01 3.113039682677357645e-01 5.996616154346388061e-01
4.924813647875999068e-01 2.476402562378513250e-01 -2.732207892251004022e-01
2.218242053998839836e-01 3.440123521107777416e-01 -4.580197797104882951e-01
3.232052620663599662e-01 4.374235866415974172e-01 7.536320808403177418e-01
3.433199058317599195e-01 4.093325006354363027e-01 5.827476835828967472e-01
2.597702588468220330e-01 3.420165066689211386e-01 -3.305305282412259182e-01
9.680148662459615860e-02 3.876655517837896969e-01 -5.509977361275291141e-01
3.121590242466837362e-01 4.004083651980167580e-01 3.848756670832071958e-01
5.072010557037171657e-02 4.324230357658145341e-01 -3.323851684586788258e-01
-3.554941361340852035e-02 4.212151034340934630e-01 -7.611229036349844712e-01
4.833119870890830172e-01 1.863058561420721237e-01 -8.493249872326460448e-01
-2.766535125924873273e-01 5.285725866863405509e-01 -7.360150142030609244e-01
5.828773584443671663e-01 2.387974760918552264e-01 -5.575948568804237927e-03
6.664385571525480723e-01 2.897262033893484023e-01 7.631910573309037549e-01
3.577371496172024323e-01 2.585361678527385854e-01 -6.923296347331292511e-01
4.882710327224999702e-02 4.655438193609366393e-01 -4.745837922851028901e-02
-1.607873373470809220e-01 5.562297362292740743e-01 -4.900615934209099495e-02
-4.538831250365255726e-02 5.554382221778225714e-01 3.852650586169309999e-01
-3.397567365228384428e-01 5.939234664157555521e-01 -4.008306853328615915e-01
5.409742257535421484e-01 3.114918434603936026e-01 4.754499317044763029e-01
2.270874093638026170e-01 3.817249767303795838e-01 -1.052241225755245618e-01
4.870294874857981210e-02 4.653841375514859990e-01 -4.934169647883001469e-02
2.566471581219855191e-01 4.714425930717938140e-01 7.992211645453891622e-01
3.866470098433765767e-01 2.428679307251498942e-01 -7.199991554654213699e-01
4.820909165108881456e-01 1.740742063449664256e-01 -9.618918606260880022e-01
6.637138645999923758e-01 2.581141713413487859e-01 4.739165063769746333e-01
2.562130369646068995e-01 3.431147465400898877e-01 -3.344445465301951192e-01
2.091138591107379319e-01 4.047637098081660056e-01 2.927939064666700009e-02
1.957706523406460009e-01 4.086103535874047177e-01 1.219075014766692576e-02
2.683358741883469789e-01 3.429748273220660226e-01 -2.893244918118796916e-01
-1.954267639920428123e-01 5.883939946627164685e-01 1.022698384203580974e-01
2.372661785472097162e-01 4.125761870358699568e-01 2.058413533192498257e-01
5.880665235017333847e-01 2.104564784891516660e-01 -2.357356871448202384e-01
3.108011101412702093e-01 2.932815636426477912e-01 -5.653036842177606713e-01
4.902565099481441813e-01 2.957427935407930808e-01 1.425941533177728648e-01
7.959998211753140096e-02 3.863965366786972777e-01 -6.279656752433486755e-01
2.121739431082218241e-01 4.959308674496811231e-01 8.451841294236636104e-01
4.574929935772872880e-01 2.603704647804870320e-01 -2.947107213380570911e-01
-2.503078750293448729e-01 5.219182399636649317e-01 -6.939760582745703177e-01
5.131509907507472018e-02 4.672983767137999789e-01 -2.246768158673516022e-02
-2.898622133976649917e-01 5.672752622443560933e-01 -4.451172723682355059e-01
-1.058844621864777485e-02 5.890450146008332499e-01 8.147822097285585263e-01
-7.607454409259505057e-02 4.434566478843668946e-01 -7.198824337957054897e-01
4.235714021249857297e-01 2.353566061411094812e-01 -6.450695993770324543e-01
-3.945142483785887833e-01 6.180070935606599702e-01 -3.977614455468768684e-01
4.264106215822665580e-01 3.177051382924657164e-01 9.219974590987843610e-02
6.563143474129358446e-02 4.237697913325542132e-01 -3.517004616603995326e-01
3.126002081782101594e-01 2.644112696843687327e-01 -8.130951125587677630e-01
5.545812873486334338e-01 2.351595783438378273e-01 -1.458627715126404878e-01
1.984972337474339432e-01 3.471428062169498174e-01 -5.196011744005889499e-01
2.369466055839151986e-02 5.221733582391411277e-01 3.559828049309665121e-01
3.547952052455743410e-01 2.884507047105508426e-01 -4.396966517140541986e-01
-2.149685769963378401e-01 6.039943773419128581e-01 1.651615717260019323e-01
-4.102112466668865753e-01 6.089988419244742879e-01 -5.372459398276704379e-01
3.301794678751820977e-01 2.490208065107508140e-01 -8.816393539775422283e-01
7.336958053961345483e-01 2.475968795144510015e-01 6.487325622315636142e-01
1.161073347113458637e-01 4.718545996599518566e-01 2.654709121454740250e-01
7.649013939239324156e-01 2.186982525145868828e-01 5.131333279551298920e-01
2.070213206111616577e-01 3.488806314909490003e-01 -4.716777640579324360e-01
2.045751657631778575e-01 3.124234717436347175e-01 -8.026271116815030249e-01
-1.626346034136484930e-01 5.014379928515643181e-01 -5.393985763607059836e-01
9.856594608471003216e-02 4.281477006529454954e-01 -1.871497605107644846e-01
-5.654766597448506599e-02 6.030368079589795149e-01 7.624715406019335617e-01
-6.753781183067406046e-02 4.247214836634239932e-01 -8.525070305803725823e-01
-1.062924206489168633e-01 4.535168858769839106e-01 -7.466836872996587271e-01
-5.881658773022345466e-02 4.800744739287607366e-01 -3.308796651223362972e-01
3.899825885702728478e-01 2.745304062019041091e-01 -4.279437764470769290e-01
2.888633755368719691e-01 3.684684873060301569e-01 1.405158767662360170e-02
-2.065433120828187585e-01 6.579783405468977442e-01 6.735808095767927828e-01
3.678868371671743520e-01 3.725096769979689415e-01 3.518631637255548728e-01
2.173466487979375597e-02 4.524498283447679348e-01 -2.665569515135096101e-01
2.152536756995570844e-01 3.728112019497637486e-01 -2.291031832171986360e-01
-3.019756164364996165e-01 6.433344335805457614e-01 1.794977446971177115e-01
4.234445457073924834e-01 3.629958399118861090e-01 4.803766999606552401e-01
1.031846585094025465e-01 4.472529028678307039e-01 -9.582741453716133546e-04
4.888526634852027319e-01 1.829018908506162833e-01 -8.581660661680164948e-01
-5.266133825559961290e-02 6.048516948099461610e-01 7.933412437319196098e-01
4.127408185027025000e-01 2.572835863051595728e-01 -4.930603925753936356e-01
8.307904968235808874e-02 4.568595963742339006e-01 6.906124810991544349e-03
5.497092496764668379e-01 2.305951070679183590e-01 -2.047561889214595254e-01
-3.255513089018050588e-01 6.013559654476611227e-01 -2.809495673542356520e-01
