2.452706536636654611e-01 -3.763858145545235234e-01 -7.443331623994864366e-01
-6.057491927917795643e-02 -5.394766072313933458e-01 -7.345913395830252490e-01
-4.925927689522353048e-01 6.933065113242594668e-01 7.610749213808520874e-01
-4.401045291649929303e-01 6.457113035918218280e-01 6.828500913736762490e-01
-9.970276453871405875e-02 -1.218664060331190596e-01 -2.892508660130881926e-01
-3.787953076554066989e-01 -4.575447886116201096e-03 -1.083499402152741237e-02
-2.241319686968926694e-01 4.066801513423470293e-01 3.172341791803776068e-01
4.221508033808312743e-01 -1.334383946668004917e-01 -5.994355916853414401e-01
-3.802874652670924782e-02 -1.877155940023733371e-01 -3.912172427026789912e-01
1.100030964903510322e-01 -6.461877482462514699e-01 -9.402289454493280019e-01
1.345055172162399892e-01 3.662806486769392689e-01 7.120090525151596961e-02
2.575054206846160709e-01 -2.599683078233008815e-01 -6.334211695528590980e-01
-5.239893759234205417e-01 3.093122879255231217e-01 3.901163749737849296e-01
5.310205374930282440e-02 1.073504197271793609e-01 -1.444904142476343689e-01
4.669324781416187009e-01 -2.362505877087267836e-01 -7.291774066471644611e-01
-1.044281217581593257e-01 -2.054949501094536501e-01 -3.712485607118006237e-01
-2.890214924787452566e-01 5.621812511513832877e-01 5.118404388463905219e-01
4.538400374891269351e-01 -2.101879265975703792e-01 -6.952927650719290531e-01
2.574306864253845042e-02 -8.154236341127223120e-02 -3.201564658946263742e-01
2.960870592413464841e-01 -1.555439922574022027e-01 -5.497246679792652246e-01
-2.026195234522193411e-01 1.742507708214934836e-01 6.952248732720944790e-02
-5.213737317060055387e-01 4.814166488345023032e-01 5.629303479514247144e-01
-3.722836710154660000e-01 3.515269977083169683e-01 3.461068268524746805e-01
-1.041290057428948812e-01 5.576075755819200896e-01 4.014623325513058671e-01
-6.789658830594784700e-01 5.538495291181166902e-01 7.264233809666889030e-01
6.492143789327183001e-02 -4.437079013734765986e-01 -7.093706285969800795e-01
-3.055217508085707467e-01 5.536882512676579715e-01 5.126756137457982865e-01
3.108627257713391656e-01 -1.902086121380075490e-01 -5.932841953303280569e-01
5.814298282772180360e-02 1.740198240194580914e-01 -7.984968244125090209e-02
-1.081748299750340814e-01 2.000567142255765818e-01 4.164325840737224949e-02
-1.975459177542760181e-01 1.772421211097741367e-01 6.965041850578214400e-02
-4.749555973703613321e-02 -3.341060975903158980e-01 -5.340694271354170519e-01
-4.814456925552704214e-02 -1.758105539444677901e-01 -3.733740785701264997e-01
2.322421063322486490e-01 -3.326217644635883208e-01 -6.925568245867187445e-01
7.747031677742413636e-02 -3.966300622556908073e-01 -6.688665673130413936e-01
-2.568094920654289126e-01 -2.391368079911503353e-01 -3.181698621655073000e-01
4.024523178393522027e-01 -1.789586352573741546e-01 -6.342730087497231439e-01
1.780621433631515427e-01 -1.283285849905170806e-01 -4.546583307176010891e-01
-1.301279981869908897e-01 7.618479339693807750e-01 6.231897467020099946e-01
1.555810199223929824e-01 -3.506630618843343816e-01 -6.669844460219410687e-01
2.992499384527638195e-01 -5.197841582692548368e-01 -9.204416564923711963e-01
1.308376032190395888e-01 -3.771526469860244646e-01 -6.796619681972337901e-01
-6.537650584578026496e-03 -5.314637600045747368e-01 -7.573814150771924769e-01
3.459971521612131284e-01 1.132636160884555564e-02 -4.092609576808591831e-01
-2.427768902084828373e-01 1.760225048963636463e-01 9.428418551354139643e-02
-1.015566118290676112e-01 3.459893403068519443e-03 -1.612581901846445731e-01
-3.921723499505174182e-01 4.110872926360736312e-01 4.178053688483079342e-01
-1.981458839854360054e-01 -8.394160027693967074e-02 -1.945373294536478226e-01
-2.128775016810078857e-01 4.521494826412590928e-01 3.568494338043161629e-01
2.307225924092891622e-01 -5.117886830531347409e-01 -8.731507758621035453e-01
-7.066402685786678586e-03 3.276407504113174607e-01 1.130352476546521157e-01
2.254348663542587727e-01 -4.565371932284848500e-01 -8.141670012129103018e-01
2.789019496326317418e-02 6.060975533659492820e-01 3.750678020733921869e-01
-1.997494343740471856e-02 4.379238516847214768e-01 2.321144673896605171e-01
8.963571140330631182e-02 -3.423097451612887032e-01 -6.208078863298485128e-01
2.753072692668075416e-01 -2.906990689108352455e-01 -6.747271927685934978e-01
3.063214387855925369e-02 4.342039604589568724e-01 1.994031224675166525e-01
4.491448917517598116e-01 -3.094957430577819912e-01 -7.931879467304900899e-01
3.745568802451738066e-01 -5.201745599484494109e-01 -9.639074653889797561e-01
2.354022047206139334e-01 -1.926698335220678737e-01 -5.526187173033143551e-01
5.574359326959796301e-02 3.854482028108418001e-01 1.356605155180367617e-01
8.138338300286748761e-02 -3.036826513881862311e-01 -5.769660063756352208e-01
-3.249363921332504845e-01 4.975711930762913293e-01 4.669432375213893316e-01
-3.416669135958672054e-02 1.655506981199975081e-01 -3.563254283661161648e-02
-2.687062985828242989e-01 3.664591465031583062e-01 3.019911858282092743e-01
-3.007882714311617689e-01 2.804392458527598664e-01 2.332175957030049873e-01
-3.268544871059235191e-01 7.861561188708598991e-01 7.603235047190605167e-01
-1.653204560723083583e-01 -1.635983598830227370e-01 -2.939888126194424300e-01
-5.236460291929527777e-01 4.178964663663207180e-01 4.998957290917330765e-01
-2.910696074815307677e-01 -5.985923884991908861e-02 -1.170003490838556204e-01
5.431715934934754353e-01 -2.900119302942878452e-01 -8.272312641406176503e-01
-1.971382461784481899e-01 3.408710991511086918e-01 2.351432023135017202e-01
-4.018769596346558615e-01 2.234678315611462462e-01 2.333318658414475222e-01
-3.289836942270378817e-01 7.557358930317248369e-01 7.307311928159421210e-01
5.577666983293872761e-03 -4.687452181002763618e-01 -7.007882422821481994e-01
3.962753801841825130e-01 -1.667738206397051115e-01 -6.183992566674385571e-01
-6.483337325492161130e-01 6.406076155885933598e-01 7.967738159450956648e-01
1.076481937717858606e-01 -2.576261391209624385e-01 -5.453409326446697625e-01
-1.445610974272232979e-02 -6.331972080352984422e-01 -8.558897995401206771e-01
-1.495049202231679697e-01 -2.523979225709374608e-01 -3.929717760213297106e-01
6.690771538699548382e-02 -8.083647399799356870e-02 -3.429848839766171387e-01
2.350910980790481830e-01 -5.700859602168288909e-01 -9.346936397479611580e-01
1.944952782666715951e-01 -4.697911183003138369e-01 -8.098954585472417644e-01
-2.232097873772633800e-01 3.168196711955933997e-01 2.256946792629028198e-01
2.992496005225234734e-01 -5.253371218193638725e-01 -9.260655900534859875e-01
-1.130307260326900674e-02 -3.217354070918853615e-01 -5.422398212180884469e-01
-1.736904231930042342e-01 1.087323263227683995e-01 -1.338106088803773380e-02
-2.007705878739385608e-01 -2.386286496257400691e-01 -3.497056000642829177e-01
-4.225723109392476307e-01 1.130546423858349581e-01 1.333400118530577994e-01
-3.164849404131408420e-03 -6.076021238797282287e-01 -8.364245311515318138e-01
7.279889885052862053e-02 5.015198341861837328e-01 2.434651831573954317e-01
-6.728577653912737322e-01 6.387795382408791856e-01 8.089483753594864934e-01
-1.713164871288341135e-02 -7.305730305705090966e-02 -2.870412695552509996e-01
4.250447394887094665e-01 -2.250701882897176154e-01 -6.938968135784967517e-01
4.558331260414686392e-01 -4.729780789587451073e-01 -9.625905804464004456e-01
-2.605787249468236588e-01 -2.858415481596578850e-02 -1.027631561712108454e-01
-8.487510950052022662e-02 -6.021608257066979331e-02 -2.352908722207514292e-01
-5.282142550312847185e-01 6.569674987077201989e-01 7.446432569947548652e-01
-3.695567795903963448e-01 6.990659894970255861e-01 6.965400646901042103e-01
-1.509812410943509597e-01 -1.734691007335509988e-02 -1.540641435178379259e-01
4.586573997231913058e-01 -2.544017587691921323e-01 -7.428284145634491686e-01
4.686505514090652524e-01 -2.483709501011029108e-01 -7.424357160073130624e-01
-1.044333206974037004e-01 -1.533959288077935135e-01 -3.184788977255686993e-01
-1.071913208477047325e-01 8.812513451182865110e-01 7.310051509674745374e-01
1.790841658927532498e-01 2.917475600548491976e-01 -2.978328110572388623e-02
-1.845764181206503429e-01 4.742521226397437839e-02 -6.924780607645698860e-02
-1.746656812256645527e-02 3.196588628317132974e-01 1.108992503296234305e-01
1.534395023530347457e-01 -4.364562615727156092e-01 -7.526523162046131477e-01
3.318615986236292392e-01 -4.033222686846501537e-01 -8.211388968813081446e-01
-4.229682747807190224e-01 7.341381321372719704e-01 7.626093806373871464e-01
3.700328869592626191e-01 2.084279152211201969e-02 -4.133693624646962994e-01
-1.848956841703649767e-01 2.371123482466059307e-01 1.230528390631453195e-01
-2.925812524348569421e-01 -1.627079317805690539e-01 -2.203025288919230329e-01
1.235226254490350284e-01 -3.390491472791160588e-01 -6.368864926122513870e-01
1.375897840358748236e-01 4.313790868804907586e-01 1.353696150271711252e-01
-4.266923049639635424e-01 7.023446307378129472e-01 7.325383235137007398e-01
-7.057468876546457714e-02 6.970427871267438347e-01 5.234936907296260378e-01
-4.597949889830521553e-01 1.798500049984042282e-01 2.222801998507326904e-01
-3.537867638709402129e-01 -3.150694807115292460e-03 -2.369515347238462105e-02
1.936885232230219078e-01 2.374350877347121413e-01 -9.314447829096089704e-02
2.024408471381952401e-01 2.139021078941577003e-01 -1.219847707848051854e-01
-2.229521995158519898e-01 8.156274318019359759e-01 7.307475234242689632e-01
-1.782200504680482578e-01 4.293623405376200686e-01 3.139485817088874531e-01
-3.018102969197275498e-01 6.513152283390809538e-01 6.094310196850614147e-01
-8.867554276290331994e-02 -2.577998572406538513e-01 -4.332331690325085249e-01
8.782266722773209022e-02 -5.952151788409161259e-01 -8.759174599023148433e-01
-2.341479400411328460e-01 -5.794496781298835025e-02 -1.476168344706931812e-01
-5.242764766229213169e-01 3.365597354820434872e-01 4.178772105621210708e-01
1.556906095820972113e-01 1.997346939186964848e-02 -2.916607481333083340e-01
8.805110655365591676e-02 3.842402065122200172e-01 1.159593572426350777e-01
4.096708877050172504e-01 -4.623835171784399650e-02 -5.039803923502879091e-01
-4.857793269440843220e-01 3.393576782022362792e-01 3.986932815356843962e-01
-5.928661588594668075e-01 6.199373715767371174e-01 7.441150284505072543e-01
6.312140480035170753e-02 4.433991498860490044e-02 -2.140388033319055860e-01
-5.030817039277587499e-01 7.243030170347444230e-01 7.984676099738448052e-01
-7.120495648680363887e-02 -1.502368942405877816e-01 -3.342837235702665888e-01
-2.926935264918878801e-02 -6.019832634656551162e-01 -8.158036780724495785e-01
-1.909011332544009454e-01 8.546202699420423210e-01 7.519090582682819157e-01
-2.076204394317161528e-01 -8.864790772657062459e-03 -1.130795871492603633e-01
4.998088875477938592e-02 5.160283818320282601e-01 2.712099994986567064e-01
-2.557074864517142609e-01 8.036822093684923285e-01 7.373829954076299709e-01
-4.706239298350552991e-01 5.715461114420883337e-01 6.251894481462442199e-01
-8.639560660822762084e-02 8.625466909955055161e-01 7.001670679760224614e-01
1.775538210675272344e-01 -9.412971966485174369e-02 -4.197304687921011301e-01
4.006438705699089664e-01 -4.809522362335181267e-01 -9.391024617727752322e-01
-6.379344240249670284e-01 5.074686515629031058e-01 6.559809357956944975e-01
-5.073148784768727326e-02 -2.791585733120223733e-01 -4.765670011188167798e-01
2.751154092383195082e-01 -1.950318442295745358e-01 -5.777242264083422008e-01
3.360553873992161433e-01 8.634420443786229582e-02 -3.275957260570422358e-01
1.133788065407838885e-01 3.270256429737653514e-01 4.352586116887365020e-02
-1.440731189747465439e-02 -4.725680795212789942e-01 -6.932300582897041874e-01
-1.039135426227675019e-01 6.686676833161588895e-01 5.138224865646457973e-01
-1.461918867867369742e-01 3.084991503377553235e-01 1.732185727264793917e-01
1.921133218465246872e-01 2.749398967062955945e-01 -5.425812418944486737e-02
-6.700303285279120280e-02 5.631164352910505641e-03 -1.788213701293272506e-01
-1.118384411952353941e-01 3.521677994742036105e-02 -1.232138263953915236e-01
-5.271788667301878784e-01 3.878378507358976601e-01 4.714724418643213011e-01
-7.207775137870249538e-02 -2.202538238128257664e-01 -4.046987672214472642e-01
2.657367098646949422e-01 -5.334151769247652553e-01 -9.150800942093499923e-01
-1.270911254992147243e-01 2.342456817105703915e-01 8.708919340724224911e-02
1.260007783350982902e-01 4.741070278704030416e-01 1.852732465679560736e-01
8.177877708363717746e-02 5.583580047453546857e-01 2.958958816557350491e-01
1.268655277737256726e-01 -3.230385993312760440e-01 -6.225826743455981083e-01
-3.090173320477321850e-01 3.080918839038570001e-01 2.659310706457402862e-01
-5.082064758068790544e-01 6.403605073385472135e-01 7.163803638520488404e-01
1.611426313277409539e-01 9.111954220689202910e-02 -2.227210944411079918e-01
-3.102228718893733084e-01 9.314519721163093402e-02 4.891924865822825513e-02
1.934856329038099343e-01 2.735649486297253019e-01 -5.643556050847466782e-02
5.459465319396065164e-01 -3.772093219709384271e-01 -9.171331970863231264e-01
-2.214680751419549898e-01 1.598283921342215363e-01 6.569535892936299859e-02
2.943675276200687918e-01 -5.808851196527466954e-01 -9.795332452933311895e-01
-2.122655770774720951e-01 6.073735175732297709e-01 5.137127433262006493e-01
5.351545953925701538e-01 -3.952878512390551879e-01 -9.292711621048714843e-01
-2.570971671728010111e-01 3.417811121629258514e-02 -4.118778064693184165e-02
5.015968848217743081e-02 -4.499021226015550434e-01 -7.072015231688723036e-01
-7.601097120587856082e-02 -5.636308311337376864e-01 -7.502267461366347590e-01
6.231317461986144585e-02 4.050698634790892982e-01 1.517762852237845850e-01
-6.687217849796887881e-02 1.867571506317797225e-01 4.550973013526676131e-03
1.577777346362207456e-01 1.548481838227962759e-01 -1.562512566369149425e-01
4.674344408851155985e-01 -3.109596054315045266e-01 -8.051309363444122402e-01
3.562810351284984023e-01 -4.429798322273751920e-01 -8.752709291057337859e-01
-8.087356508511452102e-03 2.008097873193906979e-01 -1.483718564796774469e-02
-3.426261002394354049e-01 4.076198377204175993e-01 3.859564216295039429e-01
1.666768281628288328e-01 1.145368491400561295e-02 -3.065730800936548039e-01
5.232902391527273211e-01 -3.674482319156908150e-01 -8.942891699680961537e-01
-1.738172916080767821e-02 -2.285220862128987396e-01 -4.443553626103844967e-01
-7.064893073417837822e-03 5.684306011463003960e-01 3.569100460862402180e-01
-5.798431417893570861e-02 4.473254514427509876e-01 2.633753044613565963e-01
-2.760313098167309631e-01 2.532725180739628379e-01 1.915434327217666877e-01
-2.324292584984699317e-01 -4.533956239488735884e-02 -1.358328540426750330e-01
2.265596302175965082e-01 2.564789238847700048e-01 -9.265660632206261516e-02
2.760313568514737720e-02 -6.500159233445078621e-01 -8.969790557133539011e-01
7.787120721718079897e-02 4.234610518717594752e-01 1.615050362590681465e-01
-3.148870120081376234e-01 3.251981485814241929e-02 -9.815502264706980548e-03
-2.269248714739159067e-01 5.472232511871654159e-01 4.611757396608310300e-01
9.223799658451148353e-02 -1.193551838086344546e-01 -3.964844083100224070e-01
-2.445949710690539514e-01 4.236577875693390283e-01 3.461328235407298282e-01
-2.280821462488201168e-01 5.772901233367331297e-01 4.922898116828462456e-01
1.668250119963893274e-02 4.105577309354296878e-01 1.834320963180453290e-01
5.370923299323027145e-01 -3.191006541638460314e-01 -8.532158491036719861e-01
6.737307240275096365e-03 -1.898668360754351137e-01 -4.189991652018081325e-01
1.274971204133807101e-01 -2.389255277028179969e-01 -5.377528902185794157e-01
3.650329574241787389e-01 -3.762044076332239362e-01 -8.126452518259220659e-01
4.301322087464277688e-01 -4.867398767145752481e-01 -9.618295793218327727e-01
-8.830296125000225080e-04 -3.681016487122957259e-01 -5.951598130886808224e-01
-4.409028842824201655e-02 -1.739317662639958961e-01 -3.737899840085507353e-01
8.512733149521020323e-03 6.491921898372837729e-01 4.297972909831579980e-01
2.773826140831633369e-01 -3.042218727978803772e-01 -6.896102512448551991e-01
2.382099829710946914e-01 -3.100659765745074625e-01 -6.731251919200176292e-01
2.662158236495315577e-01 -1.722474828168944760e-01 -5.495579225906720433e-01
-3.413695059006514043e-01 3.144629318204952284e-01 2.908869897386329173e-01
-2.663241767090727685e-01 1.772839644632603628e-01 1.090292435069470794e-01
-2.989445776646151853e-01 -9.600761656209293171e-02 -1.491080389788263239e-01
-1.833829634108208317e-01 -3.296199562051745358e-01 -4.518075221971080135e-01
1.800259238694210118e-01 3.265648834385546651e-01 4.941618217621039297e-03
1.789652091599857331e-01 -1.498014317495395820e-01 -4.769228516369091175e-01
3.455395713184141182e-01 -3.552230855835964429e-01 -7.802461669080409390e-01
1.510363667408113897e-01 3.303683623673174252e-01 2.537387791021741487e-02
-2.175654877394806730e-01 6.778656584124218565e-01 5.881394523348808523e-01
3.860816059964879421e-01 -5.067195796260051122e-01 -9.568714069576691461e-01
-2.290817371275289879e-02 -5.566287148607275137e-01 -7.735060520606136247e-01
-1.756261922912128459e-01 1.804959869205316758e-01 6.040940470695539688e-02
-2.451598705970924330e-01 8.626826382187666731e-01 7.911070239769036894e-01
2.336215523021828999e-01 -3.186169725761828220e-01 -6.791615045602029666e-01
3.650017534775886197e-01 -3.709740954229107102e-01 -8.073300647114528550e-01
-3.008871115429095563e-02 1.789029092206818328e-01 -2.444154310384183057e-02
1.232253511029354626e-01 -4.502894432537792868e-01 -7.493823536366500671e-01
2.436144626753217191e-01 -4.336738139959722682e-01 -8.014081011470496341e-01
-2.099258792303227150e-01 4.863737392562028083e-01 3.898241614015470202e-01
-3.661589221881660361e-01 6.703604161621367075e-01 6.655232774893153902e-01
1.278152126381169040e-01 -5.529761134705978298e-01 -8.560100774514166622e-01
3.823195949281436024e-01 2.534197972626039790e-03 -4.389397414158350830e-01
6.273320529889959973e-02 -6.715080097338399501e-01 -9.388385607760234564e-01
-6.760562639428284448e-02 8.674868246938116645e-02 -9.631965882063528439e-02
1.851164635796990199e-01 7.994917892363578860e-02 -2.477459973263343163e-01
-4.073849938545578281e-02 6.715547170921438713e-01 4.806147283049202468e-01
-2.678968988898122738e-01 -2.068911331383704866e-01 -2.791697110273279048e-01
-2.793586115417565074e-01 4.724245789785041505e-01 4.154069967378638539e-01
2.998204252847527784e-01 -1.004256724186745747e-01 -4.960352157033339204e-01
-8.594638445875137306e-04 -4.779424235087034178e-01 -7.064217160858806688e-01
1.282665984318236418e-01 -5.130076674608909926e-01 -8.157875827129924540e-01
-6.482775669554686759e-01 6.350743676683001659e-01 7.911375345377442692e-01
-6.601841674165019880e-01 5.724318099762659706e-01 7.345019478552498038e-01
-4.341909573116634613e-01 6.195233819266544595e-01 6.529444044120826796e-01
-2.542168908646288625e-02 5.095397889370978373e-01 3.077633542172470982e-01
-4.809183039474717591e-01 3.426160684299666692e-01 3.992132575897727187e-01
2.417516120313591317e-03 -6.524865543094340303e-01 -8.850769022631509442e-01
-1.695827318398824002e-01 2.673737550072854408e-01 1.449440988081136528e-01
4.121384567123539261e-02 -7.190858430143451940e-01 -9.747185242910326730e-01
-1.136790994520872483e-01 -1.060214381503453290e-01 -2.652093343127861491e-01
1.709219422902318597e-01 6.512565642083733078e-03 -3.140054356722358220e-01
6.847833936504074681e-02 -3.951953451617906121e-01 -6.622706696266388304e-01
-3.834430244983192959e-01 9.286803972436698598e-03 5.863082892552560002e-03
3.439153169902751661e-01 -4.635872668128840357e-01 -8.890701132029094067e-01
3.504512092503909299e-02 -4.720709031328347571e-02 -2.907013092729485715e-01
-5.347931652978431538e-01 6.153352850333128066e-01 7.062401963965968532e-01
-4.658176013591150411e-02 5.984896077624607402e-02 -1.355883195094780280e-01
-3.350474129794259737e-01 4.221112030282193617e-01 3.962990099922122367e-01
8.547026397619721105e-02 9.055330859116136845e-04 -2.708118270671535099e-01
-5.830027624256489682e-02 1.078075397660321622e-01 -8.031294633940924688e-02
2.616230126793938141e-02 -3.539339906086281240e-01 -5.962786649486148116e-01
3.078062685594927239e-01 -3.239296165864325450e-01 -7.269708001329778790e-01
1.349727089640188893e-01 1.253150453930618469e-01 -1.731199630844747483e-01
-3.828909654120076778e-01 2.005328538883106859e-01 1.992442818263859550e-01
-5.576657646705952820e-02 -3.937556760838588632e-01 -5.897529829482166530e-01
1.127636916850960763e-01 -4.133580534066604306e-01 -7.059943229170640988e-01
-2.216919449448231591e-02 3.415555278942515160e-03 -2.067072526520099540e-01
-1.698239761081557497e-02 -3.610400223897038408e-01 -5.787999554544047687e-01
-1.984756565395853212e-01 -1.616933483631735891e-01 -2.730968877036759612e-01
-8.252216052562907911e-02 -3.537063681645273849e-01 -5.338880698747550113e-01
1.510691834044330106e-01 2.242370439442674945e-01 -8.213632153441147166e-02
1.802516872679966187e-01 -3.244513737060383124e-02 -3.587983701090950439e-01
3.265126877971081809e-01 -1.534191503765221232e-01 -5.649739675669314121e-01
7.599730497022076647e-02 -2.478823910505582317e-01 -5.173701779326520533e-01
3.017408528789302657e-01 -4.486722737362095481e-01 -8.498430789854194423e-01
6.936084039158217640e-02 -6.870200903634863243e-01 -9.583399870291523515e-01
-4.969274079600694005e-01 5.760218938708987491e-01 6.447663742525927555e-01
-1.279286551647537407e-01 4.212953845857976831e-01 2.770150169890598923e-01
5.050860206586945678e-01 -3.232592481832005094e-01 -8.391223240172770437e-01
2.799333275882570637e-01 -2.273070130599036953e-01 -6.131685322276023697e-01
-3.608363908094072009e-02 -5.423363698485327011e-02 -2.571371329931340655e-01
-2.105917857335232179e-01 8.572590780616536899e-01 7.658433859802734611e-01
-8.867206564923697104e-03 -6.499465032021665145e-01 -8.760502123024622723e-01
2.479259491718695252e-01 -4.016383213099194299e-02 -4.053210176398293618e-01
-5.170455812448535721e-02 3.942914303584597047e-01 2.060700431366101482e-01
1.680379982237274472e-01 2.283784306543829024e-01 -8.764685930689579407e-02
2.260249660010863748e-01 1.778037126784401956e-01 -1.720342782402480286e-01
-3.177094708419667679e-01 6.206009193131916124e-01 5.874163320958821766e-01
2.238778843331882054e-03 4.988915146995647198e-01 2.811587284657424690e-01
-2.096323579886409660e-01 -4.060719633047294580e-02 -1.440781040055283957e-01
-3.468153415088864877e-01 2.360497341244928993e-01 2.145835422232169887e-01
5.365691383071690551e-02 2.070851745865627536e-01 -4.379486347617188996e-02
2.759855013421434466e-01 -5.300350489419990430e-01 -9.175182542148959675e-01
1.933584987729267402e-01 -1.499836672599293430e-01 -4.853393967321219526e-01
-1.124533380742308818e-02 5.540878442883392374e-01 3.447744067784064281e-01
2.796041184560208240e-02 -1.310352072022654968e-01 -3.715517469893920843e-01
-4.906930120387123506e-01 4.718773480299760514e-01 5.357215307565051932e-01
-5.301722891461113640e-01 6.852544142311626230e-01 7.744125409916841063e-01
6.646601423445507029e-02 -6.086742586367026586e-01 -8.773344825059442575e-01
-5.853299460485371641e-01 4.591104099273902728e-01 5.769168130540668349e-01
-2.656998145113310117e-01 2.515807552600571873e-01 1.839210828456105951e-01
1.259391858253526286e-01 -8.248030015836882445e-02 -3.784117274600287129e-01
2.720660027850003715e-01 -9.403251862121733695e-02 -4.736865057678166235e-01
4.394713732063263920e-03 -6.616760772607892527e-01 -8.955150137367154928e-01
-5.172307127864692600e-01 4.983927669366931545e-01 5.777544987133080845e-01
1.683512775570185360e-01 -2.850810815779991972e-02 -3.480046685133029727e-01
-6.662677885264022271e-01 6.380798190949280579e-01 8.044706744095142525e-01
-6.065088796405821991e-01 5.065414410218110897e-01 6.370685873520958165e-01
-9.108964891461190927e-02 8.005910762311411188e-01 6.401021392211388994e-01
-1.554930675980066290e-01 3.984604081180083135e-01 2.696523546261604953e-01
2.704612271476410368e-01 -5.838153190832086059e-01 -9.688282325985290155e-01
-1.135746369968540087e-01 4.446303728222619767e-01 2.924395381426783125e-01
2.670828173556641719e-02 2.489325880118174045e-02 -2.129088674432207118e-01
-1.298210747533930232e-01 4.047024828210981084e-01 2.612918052149078574e-01
1.533248890654947127e-01 -2.648603505255515134e-01 -5.787917890856552061e-01
-7.379102182648343555e-02 3.895863383433578742e-01 2.139365955631145344e-01
-1.153467195101849502e-01 -3.913614801507284691e-01 -5.532523503387754005e-01
-3.442182510561698772e-01 2.294058774267427325e-01 2.063691844831867517e-01
-3.174573030362741743e-01 8.231995677086444835e-03 -3.294454871475602231e-02
-3.015397040132504203e-01 -1.156789244516867599e-01 -1.675472077364842105e-01
1.815414326422648827e-01 1.388715341832603145e-01 -1.860238578457855396e-01
-9.002738989933421754e-02 7.761927131265358160e-01 6.147835627820040783e-01
3.821962217578817600e-01 -3.783225823782566249e-02 -4.797529477195384140e-01
-2.182195912621676948e-01 2.772090528229692596e-01 1.827223863373579060e-01
9.395501776895430479e-02 2.850821482100254212e-01 1.215391954746356494e-02
1.819912418258361197e-01 -4.820067351181773208e-01 -8.151161720455448734e-01
-4.082704476248603109e-01 4.804985040541137620e-01 4.973131180582453514e-01
3.912954484115289122e-01 -5.037493319748115317e-01 -9.568450546351638941e-01
5.513573268710521974e-02 -6.735004390634498073e-01 -9.365112907357575622e-01
5.005738749000621796e-02 -6.557200099360581680e-01 -9.155985337861969331e-01
3.282056222150206426e-01 -8.823731273391401120e-02 -4.999250428797459289e-01
-7.187183293997310984e-02 6.625424853616601606e-01 4.892931322972891017e-01
-5.250269092783907965e-01 6.136841881977903590e-01 6.989823117402345076e-01
-6.408271573942463384e-01 5.571264853875030898e-01 7.079295981706009711e-01
2.263978167604814296e-01 -4.327418283099201401e-01 -7.906174314491379862e-01
8.365555898912711841e-02 -1.320506622261277685e-01 -4.044340185000684373e-01
-5.014191793268275577e-01 4.942887482797024279e-01 5.645547731904223543e-01
1.117577603408752979e-01 -6.824521168712461838e-01 -9.779616027245826571e-01
-4.127391761165355999e-01 7.456495959045130739e-01 7.684180254331890447e-01
-2.925278320498891360e-01 3.625111651631040544e-01 3.116168924500017368e-01
-5.562027327341345639e-01 4.141088992408387126e-01 5.146798236788332481e-01
2.457883994655082893e-02 1.924435152673966143e-01 -4.199349779633964469e-02
3.930689981263935096e-01 -4.423624054223836144e-02 -4.924574815558003804e-01
-2.234303819856824636e-01 6.613214679520433847e-01 5.747375590805514634e-01
-3.494745807856294850e-01 7.299119698107308096e-01 7.162957077379735749e-01
3.578100729729665752e-01 -5.931301529382709131e-02 -4.875617846012287870e-01
2.566430785117207458e-02 4.740990818926030248e-01 2.426507760300528616e-01
-3.683421481762597649e-01 4.898418500655450925e-01 4.839399546091785465e-01
2.750942686023276074e-01 1.598579767874949015e-02 -3.639902242948143685e-01
-2.084755032106337114e-01 -8.888433271811804759e-02 -1.936355713349006136e-01
2.260686462222866455e-01 -1.641975773386082083e-01 -5.184434235069850239e-01
3.678396027793986445e-01 -8.661572243919949537e-03 -4.419974275017101717e-01
6.184687700271145061e-02 -7.110609968560629435e-01 -9.783915150964442864e-01
-3.286495441625006952e-01 6.551466982249849469e-01 6.286617993222197720e-01
-2.158018371992141415e-01 -5.553411519436243088e-02 -1.556677980262821115e-01
3.582925770097067364e-02 -1.878014014147952881e-01 -4.335458609653377038e-01
-5.267910025210456038e-01 3.634066618944009619e-01 4.465063265748109855e-01
2.623097269625709327e-01 -2.966162809439185089e-01 -6.732865335971671694e-01
-1.821938421684309722e-02 2.744620962433296230e-01 6.555382959999508929e-02
1.553393447811808326e-01 3.030689270288471349e-01 -4.736418021940476397e-03
-5.784577091472105081e-01 4.229776516621588378e-01 5.363905520935048354e-01
-5.996045219856778186e-01 6.782802242238833434e-01 8.070594477613269868e-01
-2.130047800448089945e-01 1.697915588543105481e-01 7.094578317085416252e-02
4.512892331787881628e-01 -3.275693469956114656e-01 -8.127195867727644574e-01
-1.950051148082952990e-01 3.971348026347388260e-01 2.909079411946428051e-01
-8.746939987265459071e-02 -4.321070440042468763e-01 -6.104639979155734864e-01
3.086613108981024478e-01 -3.911811239870948143e-01 -7.955731860565909974e-01
1.682632716525898353e-01 -2.834117493039453595e-01 -6.061246608611493558e-01
8.280993678603143504e-02 3.845435436411099306e-01 1.192641712720511338e-01
1.279610555583159670e-01 3.265904308797702993e-01 3.474502568609884323e-02
2.444495383586137854e-02 2.979079021458293508e-01 6.489902791858048747e-02
4.011530812436268079e-01 -4.025859771447550250e-01 -8.600231436277647745e-01
-4.319462395129083920e-01 1.032584378534243674e-01 1.287795093536716617e-01
3.185758062414032477e-01 -3.193228216105398198e-01 -7.284644040554936195e-01
-3.399925391182058720e-01 3.369863209135897097e-01 3.129114938732515672e-01
-5.818890799480385539e-02 4.070472497026769720e-01 2.226979362786774830e-01
2.910767238105052557e-01 -4.147134677723210983e-01 -8.093499281629731312e-01
-1.908242410172281134e-02 -4.807895349355993386e-01 -6.988830312666942657e-01
-3.187812457827978174e-01 -3.235860551052387180e-02 -7.329812906708889353e-02
-3.528832681744767941e-01 7.221231138102528480e-01 7.103565699884683005e-01
4.102184448583980902e-01 -4.293497007021704892e-01 -8.923146202466688548e-01
2.196328652774246493e-01 -7.638093223160234702e-02 -4.258205504213417592e-01
1.620794253308599220e-01 3.104973441238319531e-01 -1.067666665002914815e-03
-5.195291022420004401e-01 4.116160074455279538e-01 4.911801840010939224e-01
2.878341454581042833e-02 6.532803803410148769e-01 4.223444341263687951e-01
-5.484379363114057909e-02 -1.953496154347844627e-01 -3.893320436428943654e-01
-3.392408483397174046e-01 1.834574828892410192e-02 -1.024249122209977374e-02
-5.871551871843481291e-02 1.352201282581128039e-01 -5.231156516869807371e-02
3.410148157387177803e-01 -3.439641987813375490e-01 -7.662551435438459402e-01
1.200500288453277137e-01 4.014629567565137225e-01 1.151016352271622134e-01
-2.691108829261569801e-01 1.495784166058425901e-01 8.256244356245787119e-02
-2.881524614988400512e-01 6.952318977580661530e-01 6.460991526539182628e-01
-1.792153446353347834e-01 -1.392825356807471382e-01 -2.614144491640680301e-01
1.060201990639180747e-01 1.829231688253354082e-01 -9.821472092049095270e-02
-2.303642240258976792e-01 4.801073857181581972e-01 3.951668332196627276e-01
-1.369844377364703158e-01 5.619592829301416348e-01 4.246608616078355047e-01
-2.301526872927076861e-01 -2.522082352830575802e-01 -3.466546681080600600e-01
1.566952797933492125e-01 -1.071423412661723640e-01 -4.209801974032643668e-01
-2.245607293685464578e-01 3.449095088479103149e-02 -5.947954199878068005e-02
-4.661081718102769861e-02 -4.724839299721018127e-01 -6.747266347165010725e-01
-5.531405030307139786e-02 5.133099999254192580e-01 3.286782616275247815e-01
-2.810701577356259362e-01 5.404031297244032972e-02 -7.360131549007248308e-03
-2.076118342006057493e-01 6.375833560677991452e-01 5.416481104431307703e-01
1.802533246985947579e-02 5.649772143459135254e-01 3.390625152252261798e-01
2.396880255696338113e-01 1.430190368733381123e-01 -2.150790652282984494e-01
-1.894336910273945740e-01 1.312108364117527126e-01 1.838958872372584846e-02
-3.784275292402131674e-01 4.025447711482518787e-02 3.435909904580731339e-02
-2.020278175860510117e-01 8.591958593832365043e-01 7.629069856447024955e-01
-6.510766693655818393e-01 4.935144881229424074e-01 6.493644072613039553e-01
-3.746610970443836064e-01 2.205575835584319133e-01 2.148187157469131636e-01
3.864926525602681573e-01 -2.039042922156739102e-01 -6.504105199532355108e-01
-2.419018892945266064e-01 3.570678531605241401e-01 2.771492564579697282e-01
3.263283220356397729e-01 -2.561954928609172510e-02 -4.354311227031594234e-01
-2.817172636499770122e-01 2.765655707652104889e-01 2.183869700005365844e-01
-3.773535903463097196e-01 8.883875690106148720e-03 1.972252381720942041e-03
-5.360780528072665169e-02 -2.978480421075851425e-01 -4.938509261424921526e-01
-2.031308624769129212e-01 -1.243004879507333266e-01 -2.325623655265203760e-01
2.038417377494931015e-01 1.566223244746589582e-01 -1.807998291549626768e-01
-1.161815846864900498e-01 2.216554007270538640e-01 6.809805444401426100e-02
1.108460667962258839e-01 4.096049454374759979e-01 1.286120013378715954e-01
6.312678861528829566e-02 1.656646768410755715e-03 -2.572721526108955881e-01
-2.046270385567264816e-01 2.195096813891030951e-01 1.165095685001219655e-01
-2.918143167335696120e-01 7.344822941546722550e-01 6.879468873761822589e-01
1.520682061828806664e-01 -9.313137346113982418e-02 -4.041433052054623776e-01
-1.318479939532335721e-01 6.821872445436739651e-01 5.434918956198586670e-01
-1.839168796622103474e-01 -3.447945990105967806e-01 -4.668712702035277551e-01
-3.599360543395394574e-01 5.492063212698670288e-02 3.863735127756209170e-02
-2.588707068149950219e-01 5.706172342807318554e-01 5.031403513969509023e-01
1.389249426694530998e-01 -3.756680320989618793e-01 -6.827837307332433880e-01
1.070060041444645116e-01 4.830261612056893084e-01 2.051703895501325314e-01
-9.571367485469302328e-02 7.427703268803342862e-01 5.841850211531811610e-01
-1.038846882263239763e-01 -3.423183723282745561e-01 -5.101362324427222150e-01
-3.715754932118481846e-01 8.729585439056528973e-04 -9.446002773236377922e-03
1.370186314537923805e-02 -4.627108233092405709e-01 -6.993229973105522523e-01
-2.266468498855669922e-01 2.936686099351654144e-01 2.042126925266559700e-01
1.823100800344243932e-01 -2.644040253116160949e-02 -3.538939418103616008e-01
2.536108129025799740e-01 -3.407627806355986722e-01 -7.130236049974091328e-01
1.170500104598766189e-01 4.884452078528025987e-01 2.049144007694038427e-01
5.215590379849373015e-01 -3.421683712239542707e-01 -8.676952102071611161e-01
2.298184030136325440e-01 -6.955559624074279801e-02 -4.247331740022569635e-01
-1.188441438547050560e-01 8.496787773940472910e-01 7.056925843854554570e-01
-4.776409964054481039e-01 4.408992661014096703e-01 4.968815957636494862e-01
-1.675136447256119765e-01 8.900877051776989735e-01 7.744549829399686169e-01
-4.111494494178539738e-01 6.854019368846875349e-01 7.064890557516203540e-01
2.300810675344218126e-01 1.337362297337632740e-02 -3.408914122238849154e-01
-8.322574890998636621e-02 4.474690282578583922e-01 2.779570901779532810e-01
-2.168525109129940814e-02 6.101809547758012958e-02 -1.486432969973963680e-01
-1.485895436725890029e-01 -3.701855127655380717e-01 -5.127923903810863715e-01
-4.221335458826612763e-01 2.396638100238736857e-01 2.613207793425733061e-01
-1.682515297541350707e-01 5.074980255192842460e-01 3.873842944919853037e-01
-1.762354074774722668e-01 -3.868971947286469204e-01 -5.139067013566468445e-01
2.422760969363324246e-01 -6.124982768481249673e-01 -9.817588123210547746e-01
-1.902518728834151074e-01 -1.862730077806867002e-01 -3.026949845945367534e-01
2.748376156430171191e-01 -1.343702093852432444e-01 -5.161263113753267184e-01
-3.333235590343404109e-01 4.808798374729519320e-01 4.548348600597799662e-01
-6.358558651671711304e-02 6.208432582181550030e-01 4.423203496640357724e-01
-2.768475394409592449e-01 1.190358436232476086e-01 5.605329293137827767e-02
-4.127990552636381927e-01 5.997190976613788749e-01 6.206516205872502079e-01
3.181821130571154677e-01 -7.546243558101868587e-02 -4.812536913969156505e-01
3.198603347975880196e-01 -1.879102228402439179e-01 -5.961023663812079487e-01
3.435942770366139376e-01 -4.712365085295069922e-02 -4.670857489781511385e-01
-3.766698348890313297e-01 9.908059488994157976e-03 2.618500264473132798e-03
-1.858914031293827374e-01 1.407267713246400376e-02 -1.022756850876835322e-01
1.764024279169365272e-01 -3.956162302944341014e-01 -7.244221227951122000e-01
2.317281091423707973e-01 -4.361197107100516779e-01 -7.970871642066876817e-01
3.403716520317792010e-02 -5.881309940775149014e-01 -8.379808716253452916e-01
-9.026117617510617808e-02 7.109496975072501224e-01 5.488381434710926099e-01
-7.482230482519347525e-02 5.076891135323030602e-01 3.341427246658832395e-01
2.303043296420681785e-01 -1.717544010347794303e-01 -5.285196110127539093e-01
2.381442958733218096e-01 5.177633675968065091e-02 -3.066081668524927584e-01
-1.225344478911774213e-02 -1.368422039940466600e-02 -2.296972968224859635e-01
2.249214740905432219e-02 -6.890599783392007405e-01 -9.336003400879474556e-01
2.085359156580311457e-01 1.467460546897392804e-01 -1.934874147012526080e-01
5.175137740241726458e-01 -3.822685964320766128e-01 -9.059957211990850023e-01
-1.280777101431504750e-01 -2.986364925105066681e-01 -4.520578044507522764e-01
-1.870737771682593753e-01 6.241537673435068045e-01 5.163000570116107468e-01
-5.313450235631221874e-01 6.193696642044587142e-01 7.083541771271094634e-01
2.788100948038275129e-01 -4.319718780004613845e-01 -8.198138411006152815e-01
7.637725072088699663e-02 -4.344292319022866056e-01 -7.065249885223867654e-01
4.484658656064725024e-01 -1.749192170780230204e-01 -6.564984163736548028e-01
1.276235620955991530e-02 1.604843540901530197e-01 -6.760400946042061099e-02
-3.624009855052400808e-01 -4.754498765973205233e-03 -2.039276699920474639e-02
-2.765935203122756314e-01 -1.047742443146076757e-01 -1.707702856646236556e-01
-1.182408727412242733e-01 5.833953703643167676e-01 4.356516272134126622e-01
3.491210248621813284e-01 -5.058796622305536950e-01 -9.348818090784261070e-01
6.456704271226285097e-02 2.843444095552856085e-02 -2.309749176076689448e-01
-1.989155816877646032e-01 1.821627862673218523e-01 7.541749760981004969e-02
3.916360611715920259e-02 1.489543996473612353e-01 -9.438142815871609914e-02
-5.364121752592637682e-01 5.162794616226475952e-01 6.068408985543218837e-01
2.503698068410992739e-01 -1.748930130886091894e-01 -5.431745218553932775e-01
-4.579499648610534795e-02 -8.564734963257842476e-03 -2.053287369202460300e-01
1.202457742449047906e-01 4.136683987409351393e-01 1.273515415308324739e-01
-7.532805127584217553e-02 -4.923775384145364642e-01 -6.784508994356738265e-01
-2.368882387946455448e-01 -9.559261679818228941e-02 -1.841796891353013887e-01
-1.552328174667512439e-01 9.300488929340694488e-01 8.079044974795884793e-01
-1.686754585566785647e-01 9.222798876977669202e-01 8.077241980005041011e-01
-2.832888256301581142e-01 3.914909824437277641e-01 3.356840190131974433e-01
1.478312265945640192e-01 -1.152607233426738015e-01 -4.241329892638370791e-01
3.270113996716636495e-01 3.981866964560670796e-02 -3.695449623103651549e-01
-4.531773488711138831e-01 4.073044331650474414e-01 4.488647046074352165e-01
2.544268341359520180e-01 1.284816967637684715e-01 -2.382322940393076516e-01
-1.082067765116036112e-01 1.909248264209230661e-01 3.241261330649818084e-02
-3.312612163952514122e-01 7.568160237286325476e-01 7.331277522125035917e-01
-1.349336290581527875e-01 2.887089966942552599e-01 1.467358499180919096e-01
-3.089894901654155479e-01 3.312423161116874737e-01 2.893622605674051051e-01
-2.502738293624397481e-01 6.244640187329055792e-01 5.527603782374554964e-01
-8.568962119559871138e-02 1.690839863495824102e-01 -2.586393209441074058e-03
-3.384265459377672758e-01 5.634493003323671756e-01 5.413810395626471594e-01
-2.322780543502109829e-01 7.276367871927517106e-01 6.469629952658266792e-01
5.024606365569421751e-01 -3.192616480053214190e-01 -8.335719535281264081e-01
2.750178692701396033e-01 -5.593979508614600471e-01 -9.467040334360219411e-01
1.464767867425545086e-02 -3.313442783094739386e-01 -5.668138829895903452e-01
7.196818225812399994e-02 -5.341298896583825950e-01 -8.049816624574844814e-01
1.329194318142196685e-01 2.449978206693010641e-01 -5.072907507044862457e-02
5.178655032107587486e-01 -4.208813842245706649e-01 -9.453045111272221357e-01
1.699427815196321856e-01 -5.482514175361898057e-02 -3.755691957160384731e-01
-4.877913655630715106e-01 4.463976451172165794e-01 5.082557533078660983e-01
7.776215936875406631e-02 -3.272406148245546875e-01 -5.987547823607585196e-01
4.200212780052536843e-01 -2.828938910557694530e-01 -7.495884731843203141e-01
1.956370393327936108e-01 -3.965735049499298226e-01 -7.363925433687492639e-01
-7.088872126220584213e-02 8.221357908489320687e-01 6.503694126541952336e-01
-1.399207278576292957e-01 5.625981752633674171e-01 4.269872980802971729e-01
-6.407251328491238018e-01 5.579456390824880652e-01 7.087008985833355146e-01
-6.598512570984196302e-01 6.084631163428905198e-01 7.708046068920488825e-01
1.218094503981495824e-01 -2.992762796920604984e-01 -5.956241024086363911e-01
-1.198991397495321881e-01 7.469240980906199923e-01 6.022244510921955785e-01
-2.199170745097631385e-01 5.552852716910438025e-01 4.653330988672498836e-01
7.574526066283338022e-03 -2.821197864918507658e-01 -5.129132030640028983e-01
-2.233443422509215071e-01 -6.841192649721493380e-02 -1.643968478328115546e-01
-2.084781398228136018e-01 8.937597206820125928e-01 8.016029374017185072e-01
-3.217759048844719971e-01 1.032597495692960804e-01 6.577096499646060968e-02
2.293253897743827985e-01 6.133300072121423280e-02 -2.918852214594196415e-01
3.511322031623506090e-01 -2.959486960910331366e-01 -7.234107558849508512e-01
-1.600364371900742655e-01 3.380247376623466971e-01 2.110406743737726076e-01
-2.989704401087793784e-01 -6.558505766267266890e-02 -1.182808121792417455e-01
1.352972752571875992e-01 -2.245928425717036436e-01 -5.276976798413439695e-01
-5.072058999633275445e-01 6.716615212723541228e-01 7.475102511334527078e-01
6.489415053367251487e-04 -5.600782009702192088e-01 -7.904727983189748786e-01
1.286547927296348703e-01 1.030425737367798994e-01 -1.920644500826890477e-01
-4.717445729891093370e-02 8.003122386726462256e-01 6.147032515686100540e-01
2.233673886150882859e-01 -1.824488139356499616e-01 -5.353836224342001238e-01
-1.487575036970029685e-01 7.172977333400231137e-01 5.887234177822862069e-01
1.501365333976844019e-01 2.180167153281546699e-01 -8.790295414789568718e-02
1.155071001011185039e-01 -5.794866989469288354e-01 -8.758210099554812889e-01
3.245950210051923857e-01 -1.966123010891112910e-01 -6.076238806600463560e-01
1.849305399824954232e-01 -2.533909448176416834e-01 -5.852516626330624971e-01
1.820014351838577515e-01 -1.706932803123836773e-01 -4.998189499518591594e-01
-2.551758390893978448e-02 3.835712044261830878e-01 1.802352809144096568e-01
2.335677029715304068e-02 -5.263602868973922266e-01 -7.693100968318795640e-01
-2.788463444510789757e-01 3.503667481433797581e-01 2.914919679773720906e-01
-3.507030528137118908e-01 1.064538901424165879e-01 8.555038365648236220e-02
-2.348979478371220342e-01 3.807666495342824087e-01 2.971459876920103382e-01
8.636897810451038549e-02 -9.013942260261816053e-02 -3.635375603956280677e-01
-1.252461156623786431e-01 -3.871081018518945926e-01 -5.432826879971357492e-01
-4.761966170193673853e-01 5.505177739525013436e-01 6.070788194664696880e-01
-3.835440493749618929e-01 6.453538890659296090e-01 6.501393824882057970e-01
1.696482972442089898e-02 3.860718452376570853e-01 1.584709423826963226e-01
-2.871659846302993327e-02 3.494925691357895214e-01 1.475495321430849716e-01
3.143904583912055517e-01 -4.024736315681716192e-01 -8.102870906063407430e-01
-1.575705850556772536e-01 3.003704309164610398e-01 1.714935155005326284e-01
-5.564165941732783782e-01 5.168092925702733043e-01 6.188186746449956255e-01
2.649030303626743188e-01 -2.346355937043857198e-01 -6.119947325263627169e-01
-5.012185575845995444e-01 5.680466754691134712e-01 6.391431936537838032e-01
-5.450279027936193454e-01 4.824512357717272715e-01 5.775067565090887811e-01
-2.816810285202346886e-01 -7.664916354064385540e-02 -1.393750659139002535e-01
3.484723496417980737e-01 -4.478742919846634418e-01 -8.757620808139400248e-01
9.240604150708058018e-02 4.289394630213547166e-01 1.587407272625051269e-01
-2.981952751893229281e-01 6.426315193214191535e-01 5.985684813093732348e-01
1.766242206355316327e-02 6.182065498633316780e-01 3.931815642398255872e-01
-2.451922625794232813e-01 1.377619267764408906e-01 5.691471120199536465e-02
-4.275651094650007034e-02 -2.127959175023644012e-01 -4.139150229470250908e-01
-3.482606645319967220e-01 3.243485907968706172e-01 3.048406070461744943e-01
-4.358747778448205934e-01 6.236255491145769048e-01 6.580621722134241125e-01
3.735285043681467188e-01 -3.895587500348243748e-01 -8.310296050626468922e-01
-4.605895296386827154e-01 7.005933605346620352e-01 7.501514970405662730e-01
-7.146919916752471347e-02 -1.542721520511441402e-01 -3.382195660194363129e-01
1.888475377925042872e-02 3.225392008475422723e-03 -2.303798947341625103e-01
1.321111323384537017e-01 5.359208108370121237e-02 -2.441254582335265488e-01
1.157546660119462140e-02 5.595850401289645393e-02 -1.727905775815345435e-01
-2.562868402327820871e-01 7.345575174166851795e-01 6.677037955492438615e-01
-6.221348026725556091e-01 5.506421428755737812e-01 6.906714119456371925e-01
-2.662053740568144644e-02 -4.172604248308966479e-01 -6.302284884560341860e-01
-3.749060855095645017e-01 3.972896839688799253e-01 3.939558200544360789e-01
1.085731741799725036e-01 2.615223856106882461e-01 -2.006835268296055727e-02
-3.927663352841561650e-01 5.733457556161521973e-01 5.824829529677386653e-01
-3.076665806991127350e-01 8.164500831673209003e-02 3.580965740483629117e-02
1.135291054304350955e-01 -3.466190644825093425e-01 -6.388378132883886229e-01
5.539122731595413907e-01 -4.061950676308430097e-01 -9.510462632763061475e-01
1.046280362542415937e-01 9.510820825561600023e-02 -1.863588411098594244e-01
3.008360540555306550e-01 -5.038454689241054218e-01 -9.052058562470204350e-01
-1.655537863754297581e-02 7.157936631532141325e-01 5.115895269180545935e-01
-8.262744040816168145e-02 -2.655411553059861540e-01 -4.445327742998330112e-01
-3.934056556120538173e-01 1.869392257003205937e-01 1.914901276666054475e-01
4.362599027190278145e-01 -1.249746920880375478e-01 -5.989328604540335999e-01
4.967398097987277827e-01 -4.255398371964972393e-01 -9.379402166506358718e-01
-2.230615908847980167e-01 3.704947906645384426e-01 2.799729070351520965e-01
1.158934565025860342e-01 -1.796660807645077407e-01 -4.710975118692957708e-01
-6.113565332779806738e-01 4.432081098827634347e-01 5.756961414195106430e-01
-5.197406729007989640e-02 -5.418072176222582005e-03 -1.986077439159781577e-01
-4.189373118984426880e-01 1.173339499070295416e-01 1.355951902218663352e-01
9.044970309034258693e-02 -3.342082441431074025e-01 -6.130681089754350666e-01
-4.331284499412083044e-01 1.383071957878579950e-01 1.649535733544306992e-01
-5.984707850808279432e-03 -1.080019665835043885e-01 -3.288090472913479667e-01
-2.736916802683775352e-01 -3.576688951039883047e-02 -1.025382294749149353e-01
1.949865261956362505e-01 7.514273300602720973e-02 -2.582590382828258146e-01
2.719400254522729155e-01 -2.466579411110959574e-01 -6.281958291662266269e-01
3.416137635816980378e-01 -4.058972472438420742e-01 -8.293244440273451756e-01
-1.387129545308687928e-01 5.817144402513968471e-01 4.456577816016246696e-01
-6.151128947844572981e-01 4.578169345732240880e-01 5.926405646740883215e-01
-1.082646190028564021e-01 6.599608754214095208e-02 -9.408405168020106402e-02
-1.110628236044971240e-01 -3.264765612795359471e-04 -1.596561829450185710e-01
-1.465314693702101101e-01 5.674942072562491058e-01 4.357269651339244487e-01
-3.473474624926605192e-01 1.351747647179923351e-01 1.127201594292687042e-01
-7.579786366968860323e-02 2.257238478286523187e-01 4.912192241089467087e-02
1.251753611705025970e-01 -7.406061140114523766e-01 -6.004251250759916614e-01
2.698711015778397226e-01 -3.062939458996145059e-01 -2.433031220055370814e-01
4.637905469693217597e-01 -4.136489737267984856e-01 -4.629425626759336443e-01
-5.035514958365959470e-02 6.849063937678844249e-01 9.437472627177081463e-01
2.378541166066091561e-01 1.565639166546468064e-01 2.437979542282070478e-01
8.241343861191754994e-02 4.694245593014943069e-02 2.216730572946769007e-01
3.967782634505064021e-02 4.919571893991653289e-01 6.968326575710183102e-01
-2.599775625249779454e-01 1.153671584540345851e-01 4.867988097353476706e-01
1.225119367061927589e-01 -8.901891210910507779e-02 6.103570413586738297e-02
2.731223769554877445e-01 9.867914922606686734e-02 1.650003468245695715e-01
5.142113459474751958e-01 -3.663551975643517533e-01 -4.438799370256878429e-01
-3.234776382090325577e-05 2.583331700904332728e-01 4.829261551237136185e-01
