-6.065432774673525929e-01 -2.148339801940742366e-01 -3.092168195118001339e-01
-6.804857136974912235e-01 -1.891474407137336000e-01 -2.713811355220335786e-01
-5.837131698734638885e-01 -2.899310807044553906e-01 -2.684467977892606161e-01
1.024320906669000039e-02 -5.162986532701956399e-01 -5.567225653428489185e-01
-1.446716238197270910e-01 -5.405494035074013270e-01 -4.164901781624979482e-01
-1.233185166091793905e-01 -3.965770461828202476e-01 -5.456411086820150969e-01
9.221937214172978847e-02 -6.439981436500764600e-01 -5.211837115964718103e-01
6.490127343812568395e-02 -6.128470410498410015e-01 -5.241211058677157641e-01
-8.714002324863499016e-01 1.277775793139483869e-02 -2.795889869181983345e-01
-5.750570433643679147e-01 -2.281704166901080411e-01 -3.234549334054614977e-01
-5.848946826596876924e-01 -8.512208823669026314e-02 -4.274627169170605590e-01
-9.388496925716005581e-01 -2.408741320107432929e-02 -1.979887724301828411e-01
-7.496568561878224068e-01 -1.230371615130632229e-01 -2.688492686645818641e-01
1.322598809763698979e-01 -4.951980458444039668e-01 -6.687365101599955786e-01
-5.406991227117494692e-01 -2.319414135165384638e-01 -3.474114202365572446e-01
-6.674200146658935129e-01 -8.950440527916170286e-02 -3.594252450468822246e-01
-2.723301700324513575e-01 -3.721900686893870325e-01 -4.480133065312472129e-01
1.178787474422861581e-01 -6.578995700909732181e-01 -5.304183295590496616e-01
-8.951930440498422348e-01 -1.138192425957567089e-01 -1.620967282512106589e-01
-7.796665542787740710e-01 9.784885503207748150e-03 -3.490768658809404457e-01
-6.307178752701591007e-01 -2.020055682977775768e-01 -3.003067971349779874e-01
-1.096833780063021929e-01 -3.985295437276901720e-01 -5.547923099274912895e-01
-6.888283591242911896e-01 -1.962861482507838040e-01 -2.592742456904708059e-01
-2.733089192880566731e-01 -3.381587277635217381e-01 -4.738229875987717832e-01
-6.796493546031301403e-01 -9.783831803014358952e-02 -3.433418051588666975e-01
-1.507708212696570182e-01 -3.348864928729440305e-01 -5.723225258114981173e-01
-4.787056075827941792e-01 -1.589266129100520841e-01 -4.529700176105360132e-01
-5.599862663542719554e-01 -1.606893001063325055e-01 -3.879528341505792399e-01
-4.017117839994512885e-01 -2.904623841716580945e-01 -4.105342630271117677e-01
1.002704944136551812e-01 -4.858614757373848070e-01 -6.509808344990029028e-01
-4.042770679678985291e-01 -2.961840324237542399e-01 -4.040575185273986847e-01
-1.122359627403553550e-01 -5.232167758363858168e-01 -4.554219901937096027e-01
-3.193067308227995893e-01 -4.293470317117139556e-01 -3.665964202043279219e-01
1.256024638437732988e-01 -5.371636695853514443e-01 -6.307518073011388893e-01
-2.229426989380913285e-02 -6.209024423250939506e-01 -4.495585662181874054e-01
-3.418094548311948477e-01 -3.054286607128029463e-01 -4.457486567110858777e-01
-5.443164388321622971e-01 -1.527755681575171387e-01 -4.064019559529515324e-01
-4.521254398307025246e-01 -2.333412075215960391e-01 -4.156691836918299243e-01
-1.070943418071402670e-01 -4.687590849739605714e-01 -5.019752649593376415e-01
-7.712910416742475572e-01 -9.325698886903818763e-02 -2.751664227198184487e-01
-1.368128351614038840e-01 -5.010421606187704935e-01 -4.534957061574072523e-01
-3.302528885229597533e-01 -4.004047285299702219e-01 -3.806277079407724417e-01
-7.867339206989182321e-01 1.071982085667714038e-02 -3.442734177863913669e-01
-7.063672275863054351e-01 -1.589114823445436364e-01 -2.747286770545723233e-01
-5.164426601003040407e-01 -3.189306696042663036e-01 -2.984712840121042099e-01
-3.761662086983570963e-01 -3.417385397376573319e-01 -3.904928177133124012e-01
1.761670900723336097e-02 -5.669361726115267341e-01 -5.229515840374322488e-01
-1.051491813504648876e-01 -5.336381990986955870e-01 -4.528323786329627176e-01
1.444757906389990409e-01 -5.513985555003418915e-01 -6.344127171750505445e-01
-6.427738242067043695e-01 -6.710410415866513434e-02 -3.962155896917130549e-01
-4.891609651198781661e-01 -2.056657524841719875e-01 -4.082838550227409491e-01
-1.372431309372486585e-01 -3.450366501407736153e-01 -5.749878183838981194e-01
-7.407899966393159952e-01 -4.696796308833031675e-02 -3.351963334989077059e-01
-3.710733168100979751e-01 -3.740043201003787066e-01 -3.692831789798867725e-01
4.034485297072317248e-03 -4.578610001723937839e-01 -5.974968766689652266e-01
-4.154115841769375206e-01 -1.934804948314771122e-01 -4.755435167114785977e-01
-9.006258470831962626e-01 6.638500695905867610e-02 -2.985694721337816548e-01
-3.872529749651049125e-01 -2.120531382801518205e-01 -4.830870874446834828e-01
1.785507519084152672e-01 -5.526230585642061266e-01 -6.601362816199164429e-01
2.272853410768099491e-01 -6.507682579834077607e-01 -6.216498999415880355e-01
-7.221375983155944311e-01 -3.373824687277492823e-02 -3.601321303533384643e-01
-6.952178574334304528e-01 -1.529328126063351501e-01 -2.881272540700485219e-01
-1.212081654557537781e-02 -4.832645422904788268e-01 -5.650093640111270021e-01
-8.593706186262793922e-01 -6.711408097578738796e-02 -2.266181141528836873e-01
-1.809119906988707893e-01 -4.678417351525592238e-01 -4.448943402008961323e-01
-1.167519684279799685e-01 -3.862778698366368113e-01 -5.588254579383389320e-01
-3.935166976156678764e-01 -3.111628325821136909e-01 -4.007852502445019005e-01
-9.338910680673222497e-01 2.443771865180153005e-02 -2.397658661341131869e-01
-8.015287847028385038e-01 -8.100228452307135785e-02 -2.610610904381834851e-01
-8.335313173611575976e-01 -1.766293291985152752e-02 -2.854673890481227994e-01
-2.773599417828885583e-02 -6.131602362977021103e-01 -4.513439399952214326e-01
3.341687133873622040e-02 -4.806091173310408360e-01 -6.027378899552942038e-01
4.210345250488597979e-02 -5.839832638013460198e-01 -5.288115249457956413e-01
-3.836860204835907950e-01 -3.761486422263738416e-01 -3.577331979072898571e-01
1.593668773005053052e-01 -5.294585600689311056e-01 -6.632056025569031954e-01
-6.804642583831272962e-01 -2.170492053312948200e-01 -2.496086739315063474e-01
-1.998952293428370164e-01 -4.820451948048418700e-01 -4.189390807268897898e-01
1.298670021026998578e-01 -6.129783505042700753e-01 -5.748850468684920667e-01
-4.343628155075024977e-01 -3.790707642270051969e-01 -3.157726129723208985e-01
-7.285798180256385370e-01 -2.135314039408018894e-01 -2.146825845013633771e-01
2.559204518909845016e-01 -5.767734206361100346e-01 -7.018550679006602122e-01
-2.775894510499585799e-01 -4.302476517263494893e-01 -3.985566514902157964e-01
-8.431590118877169138e-01 -8.470062199635011724e-02 -2.255775658353885438e-01
-5.491496176918660987e-01 -2.775430946257935738e-01 -3.051832859534062692e-01
-4.914550799410261073e-01 -2.235584837948333403e-01 -3.925146931885040713e-01
-6.797808032481393592e-02 -4.333030180598050340e-01 -5.602909097226880242e-01
-6.092885675928207956e-01 -7.966634749791517978e-02 -4.126234753477583950e-01
-3.123284528455682052e-01 -3.637367351964276296e-01 -4.232971284542091928e-01
-8.808724185543440610e-01 1.221566630147636993e-02 -2.717335574559823219e-01
2.054311128832590483e-01 -5.515432120104414304e-01 -6.820261906552876896e-01
3.176425109280244241e-01 -6.979908188416504844e-01 -6.555198201397872682e-01
-4.976422539367606878e-04 -4.460149750265198221e-01 -6.031992271253603377e-01
5.732047020015000605e-02 -5.134869358087675861e-01 -5.957785904382536524e-01
1.865830560541469896e-01 -6.631534594982357866e-01 -5.801091173802428447e-01
-8.781767340085685492e-01 -3.446368919827779570e-02 -2.373910075006342435e-01
-6.763432999806093804e-01 -1.628076333917124474e-01 -2.951940231001561887e-01
-8.479823495940619349e-01 4.483923416476089628e-03 -2.914476981368788744e-01
-4.407151361652727473e-01 -1.727719655530724485e-01 -4.719033542773524714e-01
-3.438844985406213639e-01 -3.573552737666056967e-01 -4.035730212890603630e-01
2.590540950723352887e-01 -6.226602664573095414e-01 -6.684743209736622171e-01
1.201904427249527729e-01 -6.816289070374359493e-01 -5.136974308872243045e-01
-3.198010483785624497e-02 -4.498113388225924991e-01 -5.755845881047710888e-01
-5.178055742980050002e-01 -2.709762215861693524e-01 -3.348531137099465260e-01
-5.219262431956376291e-01 -2.079388076153053377e-01 -3.808543985866345016e-01
-4.397781932565181795e-01 -2.695202055996157586e-01 -3.970835768653163678e-01
-7.800784666841757975e-01 -1.492405116488966788e-01 -2.245670133256392753e-01
4.837596062149682186e-02 -6.373003454738923601e-01 -4.920859511192500757e-01
-7.276644350657338611e-01 -4.349835491438727719e-02 -3.481828216041375490e-01
-7.443764728421878862e-01 -9.843976104533341820e-02 -2.921924632535748967e-01
2.822299708293747877e-01 -6.072531813893615737e-01 -6.986522512126704942e-01
-4.069317101508158063e-01 -2.713350442214360614e-01 -4.213842653191167686e-01
-2.197743691111870845e-01 -3.011659792946829728e-01 -5.446278164297377877e-01
-1.662949737470801048e-01 -3.401881881480963710e-01 -5.560272755606551209e-01
-5.882374527910374379e-02 -4.457729571071140651e-01 -5.577203964681012316e-01
-8.798210823761853927e-01 -9.749860940419188826e-02 -1.868778107577105663e-01
1.593961974246993207e-01 -5.931233582518264935e-01 -6.135109557748819054e-01
-8.729584826094458627e-01 3.496025624657133485e-02 -2.956918445335902645e-01
-3.543985524175571195e-02 -6.030497475506239047e-01 -4.532075767697385515e-01
-6.768086621735968089e-01 -1.418477029745043860e-01 -3.111978465576496489e-01
2.939418527089734390e-01 -6.654691562333671095e-01 -6.623598849477122519e-01
-5.922554076355596164e-01 -2.919171769614846146e-01 -2.602074491411145996e-01
-7.126848448392024693e-01 -2.059522920027573312e-01 -2.330466755004690360e-01
-6.286316884449468789e-01 -2.351028361733935035e-01 -2.760936545312310808e-01
-7.262656490078664984e-01 -1.084973374410898167e-01 -2.985185297099507973e-01
-5.956555229012228114e-01 -1.338665157254876614e-01 -3.809713844218886036e-01
-2.414813629603705936e-01 -4.730595329066990540e-01 -3.933953665555489088e-01
-8.477343283177672939e-01 -1.117048433150239634e-01 -2.009068673500775393e-01
-5.031217673754541098e-01 -2.144234455366736958e-01 -3.905137831795495451e-01
8.667313426064969170e-03 4.520948722006646325e-01 5.856462015626680007e-01
8.979410959855582686e-01 -6.161370080728328230e-02 2.905370932511044946e-01
7.026698764051036994e-01 1.292842186121910542e-01 2.943519334960936207e-01
7.378579619432359404e-01 1.781378659944787002e-01 2.286494072875588091e-01
-3.179570709584541438e-02 5.254183204743131386e-01 5.600673884529765445e-01
7.110509267909806419e-02 4.629348399407785530e-01 5.282938053873202922e-01
-1.109725080354090065e-01 4.971024235511592448e-01 6.441734423726067638e-01
1.986566585348520653e-01 3.574354712744475249e-01 5.108116085441380960e-01
-3.066407479483875265e-01 6.322502215550329652e-01 6.918359527105697460e-01
6.629248937423294352e-01 1.828401015417710773e-01 2.836479544363578187e-01
9.497575791919339316e-01 -3.387571887853492447e-02 2.283047698346299392e-01
6.232946524957666545e-01 8.536680542785832215e-02 3.907970034958599959e-01
8.079482112504696723e-01 7.529519246441197800e-02 2.540832473743438458e-01
1.058032033724471133e-01 4.097967470542441260e-01 5.426230907702497275e-01
1.446350608513592428e-01 3.731052028535966070e-01 5.408721941559023749e-01
8.162116294137515549e-02 5.111267345330742229e-01 4.824256096887590273e-01
2.531240037542147880e-01 4.386310193583948247e-01 4.047572352099036430e-01
9.489284146274082343e-02 4.665466600758362281e-01 5.068480433828166376e-01
5.955167151634767064e-01 1.288160976494050203e-01 3.786156541768981310e-01
-3.213393787425171400e-02 4.777208162411551995e-01 5.975805161243507024e-01
3.217181656936316525e-01 2.432779034359525694e-01 5.036064389207137726e-01
2.816016868143647600e-01 3.939374662877779820e-01 4.173623794825107591e-01
-2.263901333843412744e-01 7.574817664209442247e-01 5.312050175916334105e-01
-2.152694719772255683e-01 6.922577563227516606e-01 5.734330629569901472e-01
9.017674047394141912e-01 8.044888912609409956e-03 2.331428710737036003e-01
-4.132056480766321815e-02 6.320282071107069521e-01 4.842704931952794278e-01
7.400601100518138242e-01 1.787667042423980446e-01 2.264341051121975812e-01
4.090498419069903413e-01 2.560184556565519021e-01 4.252785466504603318e-01
1.204984758063790823e-01 4.130452451716819517e-01 5.285802306518121441e-01
2.411709942447850530e-01 4.604914165566326711e-01 3.970447428516458155e-01
-4.875615610463700927e-02 5.861157600209105922e-01 5.259466699197222761e-01
-1.319868338578642775e-01 6.961207226705515838e-01 5.052082153372640105e-01
-3.393918198698675504e-02 5.675367292226404237e-01 5.288542422333148973e-01
2.028724529681331101e-01 4.510362742525126367e-01 4.344152919038670180e-01
5.787463467980727971e-01 2.187327864366902797e-01 3.215279866515806106e-01
3.854886041477703085e-01 3.498484402629479795e-01 3.704519530502013436e-01
8.872574575373767258e-01 1.037603510171366400e-01 1.697569296361599311e-01
6.818852958772066986e-01 1.772849745896540874e-01 2.731406027219069887e-01
3.151467142725048465e-01 4.085223123683751623e-01 3.797077810136031961e-01
-3.337221013751225790e-02 4.918598884034486862e-01 5.875084583187091258e-01
4.920742185382778744e-01 2.630089938546160133e-01 3.548135036364422068e-01
9.600138407653614481e-01 -1.130302005440470686e-01 2.820883088585901532e-01
2.566304665528956197e-01 4.463401691440952446e-01 3.959914770660082350e-01
5.612867444697766661e-01 3.071412617843139459e-01 2.661577771165093975e-01
3.247887433594421336e-01 3.519637309924276147e-01 4.163264839962346198e-01
5.602154069496817490e-01 1.280546983501721914e-01 4.068502626824603285e-01
8.849489237579368783e-01 3.503497709439987867e-02 2.252339992342906605e-01
3.128538156062830033e-01 3.197699849530931115e-01 4.508122112203088450e-01
-2.166536395558387729e-01 6.382209885745749878e-01 6.167156384766515620e-01
2.953256240639700603e-01 4.176893713042098555e-01 3.880683715196924788e-01
9.232907091316908677e-01 -9.338513594827597963e-02 2.955001956252980566e-01
4.180001083701966880e-01 2.605749664835262935e-01 4.147124141809309106e-01
7.137586529477716324e-01 2.011614941998940420e-01 2.295387537712529347e-01
6.622926546022753769e-01 2.261059757523799230e-01 2.503554621843155359e-01
-1.683885826398792140e-01 6.870783435633733838e-01 5.407712867471307083e-01
8.231641783119589828e-01 1.275312016264532333e-01 2.013769930755850979e-01
3.888214285613251220e-01 2.150544230501897358e-01 4.731068180685329416e-01
3.683772309640812592e-01 3.201162744227147861e-01 4.070683869418291745e-01
3.974231711788436816e-01 2.923359876647158573e-01 4.060205626036267890e-01
1.699530157864052871e-01 4.211723669290419192e-01 4.835119113550668812e-01
3.074237270299027269e-01 3.951770965419486581e-01 3.961763286958441266e-01
7.318667273594221534e-01 2.029970646378439006e-02 3.566005779807823184e-01
-1.249516732535780744e-01 5.731466020338200629e-01 5.957337624262917242e-01
-2.156038455800152465e-01 7.018866336404927520e-01 5.661754119280828501e-01
4.617302233839214454e-01 1.597839725389395837e-01 4.591833438061702077e-01
6.957495220167912997e-01 1.762937806786080697e-01 2.630593232394634051e-01
-3.165858080399637231e-01 6.224454725559345203e-01 7.072794773493920051e-01
4.386321933571611931e-01 2.828132803187418109e-01 3.811915105894713163e-01
5.479249015375921017e-01 1.958920180491539320e-01 3.634973690709407124e-01
-2.910517281614733998e-01 7.383128635732985057e-01 5.968028998093274362e-01
9.038653708421144906e-01 -9.569810986955816501e-02 3.125159981435663425e-01
2.783147307417140337e-01 2.986135330880514971e-01 4.943770798262387967e-01
-2.513679719220585085e-01 5.807819446521249596e-01 6.887518020871297164e-01
6.060951486679173605e-01 1.267236513512416674e-01 3.719670637704131089e-01
1.617765407234943165e-01 3.667926572541482799e-01 5.323805006917473603e-01
7.191156957637531155e-01 1.703950868227531723e-01 2.493706672849179962e-01
5.959054873301823374e-01 1.741765784282100216e-01 3.428880002305845776e-01
-2.648072406544816348e-01 7.487574493687296773e-01 5.680976790735622339e-01
1.063879665016123494e-01 5.506201501113672236e-01 4.321923417454575644e-01
4.352703224350426003e-01 3.716254985313559023e-01 3.144678482394404617e-01
2.695283877587084098e-01 4.361339395009891096e-01 3.938630658913127580e-01
-2.633943659386203673e-01 5.952851415708055871e-01 6.868422093064775469e-01
2.133723194122689182e-01 3.176278312224851685e-01 5.303765152562214258e-01
-2.035976822663211339e-01 5.306508875845941109e-01 6.904976321277001006e-01
-1.004009683872606334e-01 5.114497708518557229e-01 6.246919596634704641e-01
3.865922599058655984e-01 3.717405141349318098e-01 3.524916925107648979e-01
6.170438573086974854e-01 1.336179236317034114e-01 3.580105801487998285e-01
-1.540757264108130464e-01 6.949914100391642036e-01 5.233851580342319121e-01
-7.714590846685491499e-02 6.236140160343790484e-01 5.188916848848690311e-01
-1.302471916128962459e-01 6.335454205424048135e-01 5.527129065273488351e-01
7.253720013864414229e-01 8.394686773845705385e-02 3.119819497994666957e-01
9.490876625371465203e-02 4.835742954072205224e-01 4.935382227845640513e-01
5.207815859777564088e-02 4.212298373281510577e-01 5.757599936306706523e-01
9.735972781000341580e-01 -6.618219358424852483e-02 2.348679231901560638e-01
-2.638052987031252461e-01 7.345519779747440303e-01 5.784066303955643917e-01
2.588005691613511350e-01 4.609486718827335294e-01 3.828841586118767459e-01
8.997476777123661895e-01 2.727333755338230345e-02 2.197082371145776536e-01
1.845298506159480934e-01 4.897848455954553204e-01 4.185172425777893834e-01
4.207738128370981934e-01 2.300043605846395778e-01 4.364141079676590596e-01
-4.329291396597560737e-02 5.297284778319624188e-01 5.657034826550219053e-01
8.292912476523501830e-01 1.417235117374372466e-01 1.854964884258564484e-01
-3.736714438229131463e-02 5.685454339529636414e-01 5.307505226175881496e-01
1.106680995203511951e-02 5.617925321995013155e-01 4.981015178323625614e-01
6.830738335972706965e-01 7.391259792825970176e-02 3.529363596027192407e-01
8.090649282615363092e-01 -2.331507331152715343e-02 3.302163737656258480e-01
3.889722351133955147e-01 3.850355983420503669e-01 3.402457341409798053e-01
6.786063457532212073e-01 6.337510433663513798e-02 3.646633074756864823e-01
-7.491123899081847393e-02 6.476516263525851080e-01 4.983703610582195798e-01
9.450323294796103557e-01 -8.375588153622379184e-02 2.709573181905272632e-01
1.185645312931564790e-02 5.269423511418986905e-01 5.246987189963140397e-01
6.828962021734333865e-01 2.003595447921234785e-01 2.543295184847341739e-01
-8.579568261523154438e-02 6.469302964496831398e-01 5.074559052134105519e-01
2.717797733887164502e-01 3.917584530271419618e-01 4.267543352860778683e-01
7.856816072719499111e-01 1.044311892998172620e-01 2.487643153561989728e-01
9.136522082735684669e-02 4.797402957828952874e-01 4.993068036082987660e-01
6.838423493635081840e-01 1.969890185739997246e-01 2.562208469701746649e-01
6.287084109196848791e-01 2.524673547697452447e-01 2.560647250256260499e-01
-1.423088058297291569e-01 5.976625644114584857e-01 5.901787541900229694e-01
-3.004129302784837655e-02 5.068734091014127641e-01 5.731759624140019271e-01
2.194900399360656951e-01 3.466442994663939126e-01 5.029267349440084134e-01
4.544284279139884641e-01 2.430530846366727726e-01 3.998733054544079124e-01
3.783153200101189162e-01 3.954656214473937226e-01 3.404447290249150160e-01
5.982721532654603491e-01 7.277281221126041810e-02 4.202239708057668999e-01
-1.980838801994898035e-01 5.996719475715677206e-01 6.322800109802971802e-01
2.931407399451764206e-01 2.978904775916296765e-01 4.833333523840271373e-01
3.405251672286743747e-01 2.318614502601185900e-01 4.977964678449508518e-01
8.403128196642244419e-01 3.145371082752979053e-02 2.629796235160693496e-01
1.986766517837895152e-01 4.392107919936358851e-01 4.469353421663740389e-01
3.425071508974276285e-02 6.031911736854375095e-01 4.476197747234458846e-01
-5.251581023811125598e-02 5.425053155627336254e-01 5.629469853868539486e-01
-6.265351506531732784e-02 4.912110468145089448e-01 6.109416606203842415e-01
6.370979236025966497e-01 9.979814151514633525e-02 3.687195695248974836e-01
1.205591953179937365e-01 4.453110361911443160e-01 5.033354392489208795e-01
4.332548644601738053e-01 3.328771722441656866e-01 3.463055405510760965e-01
3.316045466530477825e-01 2.966299632963373401e-01 4.542015577147126004e-01
2.976589618825464800e-01 3.865153655158523049e-01 4.105860726759808510e-01
3.546956282825839968e-01 2.665907659814817365e-01 4.595802793327455338e-01
7.304238825467649354e-01 1.404267749757927286e-01 2.639197341942901009e-01
9.925473814818304152e-01 6.108975884792616079e-02 1.206402910660292482e-01
-5.255638975086627390e-02 5.751238829367143479e-01 5.375060156752871077e-01
8.984790174697671050e-01 -5.001024024348586089e-02 2.810544510146457675e-01
-2.975177906661778324e-02 4.338428035469227839e-01 6.299809024567509796e-01
9.318906414354040102e-01 -4.036531912170883418e-02 2.473620282069952103e-01
7.802480542384728768e-01 7.440806622960353944e-02 2.764645348567573158e-01
3.332461910467485744e-01 3.735099750747651326e-01 3.928784627553184583e-01
-2.151564362432236699e-01 5.493911607091366278e-01 6.849130391716004018e-01
8.135472170980529993e-01 8.130379860687474147e-02 2.450070837959361369e-01
4.477214677471439974e-01 3.414734433459203911e-01 3.282654984616206195e-01
6.134552775947552661e-01 1.015764105332594286e-01 3.858424499483903980e-01
3.294235094131998109e-01 2.951002080415108253e-01 4.571038816619081846e-01
7.747228417670366518e-01 1.553153691844774698e-01 2.176078801507706217e-01
4.296562011427513261e-01 3.161543142350285995e-01 3.621825436422055344e-01
-2.623741249385199148e-01 7.039023213613317953e-01 6.012212238683961596e-01
4.218246544254380948e-01 2.508594124742818399e-01 4.193050387358157050e-01
8.650553118479074044e-01 6.960694346066746696e-02 2.138119767208727651e-01
6.551457672531525445e-01 4.386288587584857845e-02 3.982699649254342056e-01
-5.517986615727523553e-02 4.504734839470767721e-02 2.285721880347592327e-01
-4.120929918779995815e-01 -1.208470755437061478e-01 -3.144056506531207884e-02
8.046130914413304192e-01 -2.760450394314777345e-01 1.124283457149466148e-01
2.823831412355023440e-01 -7.636972351568167561e-01 -5.203375649768536837e-01
4.141643065785410860e-01 8.274703119478027391e-02 3.845852570308219698e-01
3.811454006343500955e-01 -5.390882879874304978e-03 2.855405645121156244e-01
5.530577786348916600e-03 -6.047222188880878591e-01 -4.256761160547195555e-01
-2.856380229090239031e-01 -4.622230815039183316e-01 -3.515625019294695841e-01
-8.108586742404908509e-01 -8.489278038267374094e-02 -9.395362856814575003e-02
5.678373695495251422e-02 -1.131213204645162423e-01 9.357609350415124760e-02
7.375440452299242278e-01 -8.199377442661776039e-02 2.955995260071519470e-01
-1.572722035230523785e-01 -2.132704709207909610e-01 -6.303961146131918658e-02
6.963623125068483244e-01 -8.333527140190012672e-03 3.612044872670679418e-01
2.837392640383010201e-01 -5.522382490670522254e-02 2.098837864181039292e-01
-4.892119107576475279e-01 2.797031747382194844e-02 1.026208182010221598e-01
-1.085672657677155539e-01 2.332217150560384200e-01 4.091045678590892742e-01
3.029232065421226250e-01 -4.537017129236388668e-01 -1.958463483554147844e-01
7.989290163037375547e-02 -2.307281812622842543e-01 -2.181541294394823485e-02
3.230861009792605487e-01 1.443815161827912696e-01 4.253441431859837918e-01
-6.499537083270726656e-01 8.145369556873277572e-02 1.175904120634148481e-01
2.462307001184456390e-01 -3.230959544555935259e-01 -7.544738071719982175e-02
2.983376557231841586e-01 1.503539780354513911e-01 4.253185129341338633e-01
3.959578228155601898e-01 1.069656807748219363e-01 4.049904302360719521e-01
4.074845084283847396e-01 8.265628856285407722e-02 3.828241269677056802e-01
-5.059396776791407202e-01 2.347472115832278383e-01 3.114701378623280781e-01
3.234503189800340683e-01 -2.922281208486028903e-01 -2.436848409731261211e-02
5.127566547064351665e-01 -4.026927240717407264e-01 -9.090993943273982525e-02
-3.854235691763203131e-01 -1.885655372177086897e-01 -9.454725706800354290e-02
2.153344500922972915e-01 -7.457296294047994767e-01 -5.185660393283257896e-01
-2.280334535782920502e-01 1.724962460398111463e-01 3.167186982139317264e-01
-1.551375237773303661e-01 -3.755339348462884974e-01 -2.296735860869260626e-01
-6.334297042946113176e-01 -2.105829465979772858e-02 1.610590996378736400e-02
-2.905342101599207028e-01 -4.190163146057524490e-01 -3.082724263322851876e-01
4.048377833518842506e-01 5.597298255572288883e-02 3.546737091171272005e-01
-8.982256574855945752e-02 5.419158139080641756e-02 2.293440263035434190e-01
-1.011313797467652681e-01 1.497345058429435105e-01 3.249508627073793843e-01
-1.888768025717333654e-01 8.601959332581347872e-02 2.374044603464514902e-01
3.183801180866699942e-01 -3.378911642453388819e-01 -7.267722151758054805e-02
-1.180110607369047881e-01 -3.090632453807075075e-01 -1.519254083248114673e-01
2.087316700243151413e-01 -6.730835979104412559e-01 -4.453731326546292446e-01
-5.197346881569556709e-01 -5.443012538141564494e-02 1.011014878134594910e-02
9.309919877561021462e-01 -1.545570025981998774e-01 2.691387614731062805e-01
6.100942191221635502e-01 -1.490580731131895542e-01 1.946901178749325945e-01
-4.879490520729881098e-01 1.897714735497405599e-03 7.607560577061636686e-02
-5.955158595702042534e-02 -2.336891290645538247e-03 1.786646207716315604e-01
-3.435131657459812859e-01 4.519383954631256417e-01 5.757752257388116801e-01
6.245045627602726634e-01 -2.665723004838950749e-01 7.722233962862899703e-02
8.439903595419287474e-02 -3.928851884784280157e-01 -1.877476682533690544e-01
2.280948772421596826e-01 -1.620525230951946061e-01 8.593492710971352422e-02
-4.851054589772110098e-02 -5.683333208954038929e-01 -4.016792198288882676e-01
-3.743870713057181332e-01 5.090939135108055735e-01 6.269501018817974503e-01
1.667840777824546872e-01 -3.896596655637760698e-01 -1.638568322240031017e-01
-5.929337280822395417e-01 2.528226045090947727e-01 3.083732484366972226e-01
-5.602612971712755963e-01 -1.882012587650574165e-01 -1.378210905193189284e-01
-1.608643499438547897e-01 2.514221383568705781e-02 1.816808755763299477e-01
3.511503434558063685e-01 -6.054693372244427385e-01 -3.401600950223345188e-01
-1.711794542165549216e-01 -9.970547506160271078e-02 5.048519302285205124e-02
5.359166591359575404e-01 -3.331625208483789402e-01 -1.349658916773818600e-02
-1.028610244535930474e-01 2.888550421590220796e-01 4.678436719710817870e-01
8.544200044151875617e-02 3.028029126361937440e-01 5.292238328316835050e-01
-2.727022376513537627e-01 4.058422819421084182e-01 5.459644375584151721e-01
2.365739474046023305e-01 1.130705035852265783e-01 3.714887470077756215e-01
1.120829734161927355e-01 3.000197814630847226e-01 5.330076513221604362e-01
9.088166894435750764e-02 2.563856975170509395e-02 2.450418934004993110e-01
-1.870451888403435181e-01 2.327888242278516318e-01 3.890661864358599398e-01
-5.606060572589078861e-01 -2.398969687491939173e-01 -1.911650657359356409e-01
-5.207245462493377275e-01 1.998048479867542693e-01 2.717807330206220007e-01
8.929506946840013448e-01 -1.798549354997523442e-01 2.335791490549513627e-01
-9.969641673880612343e-02 3.482126578198732059e-01 5.297850773845046435e-01
-9.570269787674223760e-02 1.029958154129949691e-02 1.826576482309777982e-01
-5.453198555347198162e-02 2.414165801696695202e-01 4.310372539006003811e-01
1.121830481386122402e-01 -4.660438699144552332e-01 -2.561807152923667452e-01
-1.533655655793654928e-04 -2.404149427633699432e-01 -5.177885303812764656e-02
-4.594141735972757101e-01 9.335485054641201597e-02 1.774203636234139569e-01
-8.260641050611394753e-01 -1.219876531110813123e-01 -1.359655847624455793e-01
7.498944802595558512e-01 -1.790334998926682852e-01 1.987107026574195801e-01
-1.877890721942980234e-01 -3.268676193626561810e-01 -1.876882454624501928e-01
-6.279480378091588655e-01 2.566017845612640347e-01 3.035251327297378565e-01
-1.600877957485773162e-01 -2.762114328911451921e-01 -1.285855149528114527e-01
2.616641969432388914e-01 -1.472011840525624393e-01 1.096158090576958427e-01
-1.669322038835416022e-01 -3.509248016265818088e-02 1.181110773164909117e-01
3.778924394308300072e-02 -5.159240606583441746e-01 -3.261410251387604764e-01
-1.965045001874842628e-02 -1.916720611374159167e-01 -6.430554284643421464e-03
4.147150105059331238e-01 7.089488152232617524e-02 3.725124329195981798e-01
6.608613458975934885e-01 -1.793666856404570187e-01 1.761398776044607040e-01
-7.805366153442272470e-01 -1.510309649581705327e-01 -1.545203899967815264e-01
3.555192883354217903e-01 -3.224715928600783155e-01 -4.751970461487325936e-02
1.403016658644473114e-01 6.781257498692180863e-02 3.008283074337446683e-01
-7.057719269472528811e-01 -1.300933912484158461e-01 -1.142847218463482334e-01
3.801618425495340015e-01 -4.110776578359467276e-02 2.484988018687759870e-01
3.924347505107678713e-01 -4.824773512463009228e-01 -2.031445503905301708e-01
2.786678721386837698e-01 -6.257170661128288458e-01 -3.791153049137499509e-01
-2.205323897949408307e-01 3.310153540349813905e-01 4.819007780502129745e-01
-2.214481912165389144e-01 3.225674832127874980e-01 4.729689863370722391e-01
-5.864280264129975023e-02 7.534424226619304554e-02 2.589200850610535176e-01
2.420049696235899717e-01 -3.569997976614741608e-02 2.195784462355720446e-01
-5.526272622947220325e-01 4.699214906280580611e-02 1.063855089133752818e-01
-2.679990220875574924e-01 3.043268557785526185e-01 4.425554952991191948e-01
3.285414249223385652e-01 -1.554990659172671985e-01 1.177634103160934420e-01
6.681498279111839356e-01 -3.430347197506958268e-01 9.345560760885751259e-03
4.937348139135082081e-01 1.183361359219498032e-01 4.411150081547133839e-01
-5.721151923015412866e-01 1.572649277100296450e-02 6.930977490662509899e-02
-1.226240352008676621e-01 4.586579411070693113e-01 6.378439143335976613e-01
-5.700914896413987742e-01 3.310351168278055090e-01 3.946519468632359029e-01
-6.947280317203771149e-01 -1.534571128156854425e-01 -1.355973082750570324e-01
-3.442479476573370029e-02 -5.259048642893211500e-01 -3.544520377110362275e-01
-2.094602820496855589e-01 -1.095902422823017142e-01 3.074471611974599616e-02
1.477571461954757248e-01 -1.449930917715104850e-01 8.345315838697969779e-02
-3.353404767546060983e-01 -4.039872164428311985e-01 -3.039752737186329212e-01
-9.944287191291922845e-02 -2.412572483823249292e-01 -7.743473803250770782e-02
4.251390076116430272e-01 -1.342561367214597234e-01 1.637643536052140747e-01
-7.102016772613580775e-01 1.379599695310521346e-01 1.607630416171474674e-01
-5.097181088436941732e-01 2.192441086870549616e-01 2.945552418712246712e-01
-2.991232989824434418e-01 3.541054706864956159e-01 4.860680389895663533e-01
-2.955130530575195702e-01 2.408363355464632205e-01 3.702773367066518051e-01
-2.315051077666029633e-01 -4.028819841780140187e-01 -2.769136191693781779e-01
-2.097112474756870071e-01 4.214548821419396296e-02 1.870030982132721564e-01
4.746843860907078438e-01 -6.077725277489609557e-01 -3.116919893231698824e-01
1.058797094376476150e-01 -6.934809284828719056e-01 -4.920643611179877364e-01
1.531605029964994424e-01 2.238542048213387481e-01 4.647956372476503284e-01
-7.785039985912155236e-02 -5.698982349894967658e-01 -4.106162665326411054e-01
7.785513584105013818e-02 2.930753973139028079e-01 5.173082624572994392e-01
3.392558469997457027e-01 2.048866714400242039e-01 4.917145640567158749e-01
2.890734453340551013e-01 -1.103164398766111887e-01 1.544580313872407074e-01
-2.951313013463957025e-01 -2.435321513410194372e-01 -1.286329891036117890e-01
7.332832947569266624e-01 -3.384135920965348210e-01 3.036723270018986537e-02
-5.232884544569745833e-01 -1.093915788721585292e-01 -4.739940211390429592e-02
2.983142214343687676e-02 -3.991756426375666494e-02 1.622632148647139283e-01
2.106312840386315166e-02 -2.767720744750514772e-01 -8.393785729412057972e-02
-1.771713127339761273e-01 4.166333898447327488e-01 5.809314191785607262e-01
1.086679255214701295e-01 -4.278939440735379240e-01 -2.177555038300749979e-01
-4.595880893787940291e-01 2.265766033177471772e-01 3.146245294013771954e-01
4.543597967677520666e-01 3.740811434721100920e-02 3.479112488848577489e-01
5.428785884836677678e-01 -2.072206715583554126e-01 1.179891812213362812e-01
-9.288328807127955999e-02 -4.594353690965168879e-01 -3.005683564490588822e-01
-3.847914134260009833e-01 1.032024919112001088e-01 2.061955393491769484e-01
-3.526658244516032714e-01 -1.571657511559744480e-01 -5.402046389055177589e-02
2.372310736896036665e-01 -4.309675339648589287e-01 -1.888255366731732832e-01
5.176769953495669041e-02 -5.123368853748730967e-01 -3.189556570073467379e-01
-2.256178578045681116e-01 3.431590075771372428e-01 4.931417882847892176e-01
-2.146937606281077715e-01 2.350136916620988170e-01 3.844556818962432954e-01
2.999807369635874021e-01 -3.151726127279380063e-01 -5.386563567946782427e-02
2.332591682971727476e-01 -1.106877784494360722e-01 1.401411557352646720e-01
-3.810855857855244277e-01 3.169076087387948798e-02 1.334479718151704020e-01
2.726614263996687271e-01 -3.586705713226937542e-01 -1.054984639117171052e-01
2.042102471931704910e-01 1.740241474769898267e-01 4.262045899244332192e-01
-1.577603624979716790e-01 -2.658372339268320617e-01 -1.173167623310258229e-01
-4.662196447996044268e-01 -2.896758150275837718e-01 -2.188841367788844638e-01
4.724761819049220768e-01 -1.950792847876539615e-01 1.129211532479511698e-01
6.031734717085154157e-02 3.535013949126249166e-02 2.474164003568614101e-01
-4.126432559596946992e-01 5.067509925353008704e-01 6.149855307852069020e-01
-5.049811892634006316e-01 3.477311759695591586e-01 4.281076593647448747e-01
-4.476354540063197107e-01 -2.787692838223309044e-01 -2.030083838919511108e-01
-3.581768077288837726e-01 4.628784674211557371e-01 5.833850439127429288e-01
-9.139476379043693921e-01 -4.912190902915841012e-02 -8.283847561756195466e-02
4.958844571392215239e-01 1.374232275384751649e-03 3.211552986622571715e-01
-1.059601413963767585e-01 1.525041153895474733e-01 3.265986424794167231e-01
4.894271175424763087e-01 -1.276525802342722005e-01 1.866173138364226325e-01
-5.241648440058606084e-01 1.385148937262160040e-01 2.077797682035836258e-01
-8.000421732205563741e-01 9.253174513879042218e-02 9.153288776470859534e-02
-6.423400470926029504e-01 -6.547151914005516771e-02 -3.187395100872911224e-02
2.585041669178878010e-01 -7.600124952120624888e-01 -5.225029820681265091e-01
-6.051615502029886740e-01 1.508988094503319888e-01 2.003166778738226794e-01
-1.569607883214470812e-01 3.598297870554977296e-01 5.274569259802408538e-01
3.429908745374764534e-01 -7.491472218141330686e-01 -4.902168382590496587e-01
-7.166719419163077864e-01 -1.242535253650898508e-01 -1.109896245662251590e-01
3.647119582236776902e-01 -5.040312647089542075e-01 -2.322709370089704461e-01
-2.625231452706803803e-01 -3.551742523723303568e-01 -2.355080154574956952e-01
-2.975075441615944172e-01 1.649239650314298644e-01 2.915730333382371420e-01
-1.473264417292773423e-02 3.632674623605643416e-01 5.665064575662331903e-01
-7.857130495423542832e-03 9.907128505630953541e-02 2.960430350670142374e-01
-7.288339979062795349e-02 -5.197801853494893320e-01 -3.577436615140930920e-01
9.206168012947085755e-02 -4.710534538703544660e-01 -2.663650849522406494e-01
-5.064073202085631609e-01 3.717416242541621840e-01 4.524876392942086545e-01
2.335471709183397152e-02 -2.287204755504904652e-01 -3.386207906057878136e-02
-6.413320018393311450e-01 1.976935223537450159e-01 2.394953459807914464e-01
-3.544376441502805064e-01 5.131332272857841437e-02 1.603163013732611664e-01
-1.818143533254928390e-01 -4.761082816914208315e-01 -3.399471969549404116e-01
3.671525873432561204e-01 -1.508810016103461216e-01 1.321604993542622730e-01
-3.228582864710523581e-01 -2.029159368860104229e-01 -9.371157369336936827e-02
-5.105411474586967202e-01 -2.359480869079722265e-01 -1.745978954429021346e-01
-1.123470337357847793e-01 -5.354364422897742865e-02 1.127297998535598395e-01
6.308074361710875877e-01 -3.948494397864909383e-02 3.127455995723973370e-01
1.833828554471202965e-01 -1.881741520837981463e-01 4.786134626010774690e-02
-6.161119329056483629e-01 -6.908469051513822790e-02 -2.904832800615977234e-02
-4.395685385583158467e-01 -9.265885478578876622e-02 -9.259932374244612963e-03
3.379591265625804530e-02 -3.235059573186689907e-01 -1.289051889134535944e-01
5.745954810425085713e-01 -2.780904876783527047e-01 5.289603019357188435e-02
-2.698178075820106825e-01 4.200946850554621026e-01 5.613676469546466929e-01
1.785204899330845307e-01 -6.062359666849652662e-01 -3.840478043348540260e-01
6.415192845619136497e-01 -8.571835577566333519e-02 2.677893259243885882e-01
4.578875140557495116e-01 -3.792231230612585092e-03 3.063465812874276439e-01
4.304512666130654863e-01 -2.569757880302029340e-01 3.866246587849839211e-02
6.788929631564998290e-01 -2.690571479795152432e-01 8.824074075333090961e-02
-4.349228762108001689e-01 -1.786262495721153420e-01 -9.666536530187384846e-02
-4.801767396941846178e-01 3.591107258149173198e-01 4.460236440115656897e-01
3.811738450616007357e-01 -6.259709861566629119e-01 -3.537857653639715494e-01
1.563824988291399321e-01 -1.534265727660036049e-01 7.691818854922494175e-02
4.522250025441846288e-01 -3.023166898045338002e-01 -2.612670980215356896e-03
8.016125263858258077e-01 -7.624472930736626852e-02 3.175173209362743831e-01
-3.079912082649951532e-01 3.605290416005788590e-01 4.904718057267177800e-01
-7.895332471016952569e-01 -1.500267191292118385e-01 -1.557318512992081072e-01
4.523593456290955217e-01 -2.328624452236107700e-01 6.897395283287482970e-02
6.233056520960374991e-01 -3.760212602849236641e-01 -3.583337550995499554e-02
1.650218651564645256e-01 -6.616389815180347134e-02 1.689747177733511574e-01
-5.796935806494252219e-01 3.295029069777225539e-01 3.906762247013869649e-01
-4.518914567927795334e-02 -1.788136008481904238e-01 4.406120871701950012e-04
5.223688860290173208e-01 -5.037153873120966407e-01 -1.925856674244097455e-01
-5.589749241608595876e-01 5.908175796452487831e-04 5.699724848711946318e-02
2.426217910390398580e-01 -1.194624092895394951e-01 1.334387900336003741e-01
3.589176209389683958e-01 -5.902883795478034434e-01 -3.225812435775725073e-01
4.675863723156410412e-01 -3.295310888556191031e-01 -2.681441934395326770e-02
3.916270467976110670e-01 -6.519219456711072835e-01 -3.779112431647165260e-01
-2.167219743073234006e-01 1.802758882788598194e-01 3.275574014986631921e-01
4.042482949890807697e-02 -2.561280956733798519e-01 -5.783629123749937234e-02
-5.132944913965784561e-01 3.071592432637657577e-01 3.842342244840040166e-01
1.210655299198302726e-01 -3.188384753764561541e-01 -1.023093603778133520e-01
-5.529699625766525406e-01 4.136226081336686483e-02 1.004999340571432892e-01
-2.743507861719447494e-01 3.033920421847927096e-01 4.400066826275672582e-01
-1.105062440361459369e-01 7.292558443810440161e-02 2.434803681864729508e-01
2.665121692508145429e-02 2.086712650600423269e-01 4.175702028710109315e-01
6.444307773063041589e-01 -2.408868847892141063e-01 1.086586235323592359e-01
2.185399208368405954e-01 1.137993375881238139e-01 3.677373200350180782e-01
-6.692449843929509923e-01 -9.984069856764084261e-02 -7.399868686115251837e-02
-4.058671446267154703e-01 3.673779034584195857e-01 4.730924126909963334e-01
1.914769828521816764e-01 -7.323007801613083956e-01 -5.106875202529108648e-01
2.695136240505612291e-01 -3.026721126214383939e-01 -4.859365090763187456e-02
6.380896721035899111e-01 -3.848458131054586784e-01 -4.123369263245001831e-02
-6.343593673492934348e-01 1.774582688045030776e-01 2.203893560709344612e-01
-1.900449131594790786e-01 1.613980558620550509e-01 3.147691621024686359e-01
-3.378627641514554969e-01 3.784329163130158991e-01 5.014591336498072094e-01
-5.499445079724631924e-01 2.535205873050160874e-01 3.198247990777017269e-01
1.935956822910042674e-01 -2.761149036055290940e-01 -4.018720564934517153e-02
-3.408587649691622312e-01 2.757052869662069416e-01 3.948792084278603398e-01
-1.763402519679586888e-01 -8.874774422668527118e-02 6.048563666824785523e-02
6.821908330437720380e-01 -2.023873289650302276e-01 1.577485867757670024e-01
7.864035149689596604e-01 -1.111956466477370398e-01 2.777132144653217116e-01
-8.584972892817130941e-01 1.894017437361953521e-02 1.123836855866986676e-03
-6.762964047339366236e-02 1.746036968057243510e-01 3.589354545348580894e-01
-1.682850809838907502e-01 -4.952728213672564772e-01 -3.563132193705405015e-01
-5.321034455706918909e-01 -2.493854215983501692e-03 6.052796097912564732e-02
7.655190990805800511e-02 2.460798303241192864e-01 4.685671781613002240e-01
2.898093884064913417e-01 -2.924948059496229602e-01 -3.304185604425381034e-02
-9.922586256144673433e-02 6.987279751536482064e-02 2.431515331011076531e-01
-5.124861574423509314e-01 1.702368989136797128e-01 2.433760245390426957e-01
-2.094679792407574681e-01 -2.498210596829065003e-02 1.179077064828775723e-01
6.243273569635228171e-01 2.504880804029888802e-03 3.543865316350722772e-01
1.581550422954128843e-01 -2.837622635293541307e-01 -5.691359577116020946e-02
1.413184875393453943e-01 1.370599345257426938e-01 3.724221095677568982e-01
3.069281478665564222e-01 -6.468414217649673947e-01 -3.938226977952642427e-01
7.148593896404852321e-01 -8.179293552218774854e-02 2.901430954606784574e-01
-4.164010690373072809e-01 4.331380803693337667e-01 5.382099509449589370e-01
-4.622861956167387959e-02 -3.991766976091948305e-02 1.432743333952825049e-01
2.167066652278609729e-01 -6.842543281958297641e-01 -4.548904338083923915e-01
3.162276440283010026e-01 -4.264863395423060255e-02 2.309498752444454073e-01
-3.506919817517110127e-01 3.386048706058700231e-01 4.572246442518580478e-01
-3.419629418572575075e-01 1.549170861479407801e-01 2.701652421880647026e-01
1.149271428797793149e-01 1.390058828402174484e-01 3.678381303329829599e-01
-6.663133193974973834e-01 2.357262550176282279e-01 2.724406790369761633e-01
7.528312085766174500e-01 -1.319987002038996993e-01 2.479000173301351140e-01
7.529603574486171125e-02 3.078801274860896164e-01 5.319214849561945124e-01
-3.953633223290777821e-01 -2.684240654071928245e-01 -1.793005418802249007e-01
-6.095494468676597721e-01 6.736248750588770540e-02 1.131605089077428877e-01
3.018594738318488568e-01 -1.810003975978361768e-01 8.483016958666687868e-02
1.432699692249763679e-01 2.785775648527146764e-01 5.187034624530459936e-01
5.095810359807660950e-01 -3.578188655585948924e-02 2.862957779570650674e-01
2.831528636014019606e-01 -6.130016866682226340e-01 -3.648959783291656489e-01
-3.903452126371201869e-01 -4.584300869305747012e-02 5.125949453200502604e-02
-1.668522608894600079e-01 -2.040836228684708431e-01 -5.596685539368255469e-02
-3.631579025271640671e-01 3.126657508307631450e-01 4.273894895194813026e-01
8.496107497681487652e-02 -2.948204648812178252e-01 -8.657920809352942504e-02
-6.956635806517004195e-01 -1.464153242339566452e-01 -1.285762881889715714e-01
6.879150947485945800e-02 9.105786410911803630e-02 3.069231756308927750e-01
-2.438170296899349887e-01 5.249189143970514060e-01 6.758507879363465642e-01
5.666794580462330977e-02 -4.586663948012399405e-01 -2.624399251633171559e-01
4.045730006848218818e-01 -3.540873853698529583e-01 -6.784438912488026385e-02
4.234188994039649878e-01 -2.594319665123477892e-01 3.437639814888509421e-02
-8.956039061053010508e-01 -1.041942070080712282e-02 -3.838683058397897307e-02
1.090220466625292095e-01 8.528634587880612461e-02 3.110210041127262071e-01
-2.231375322825911445e-01 -1.109469612920426229e-01 2.593240392006513489e-02
6.134555430175463453e-01 -4.534984477472353004e-01 -1.181109776964641284e-01
-2.463315709017020183e-01 4.354111424994184798e-01 5.830104102313836689e-01
7.152014239294832154e-02 1.558933715401538411e-01 3.743991660771299190e-01
7.057572655678406859e-01 -2.536864237538766775e-01 1.107827618377119766e-01
5.089980601430343227e-02 -1.127851076647728434e-01 9.245351331144581464e-02
-4.272675693309707090e-01 2.281227527708626357e-01 3.242863827271365573e-01
-1.653519193203359036e-02 -6.096726389962422443e-01 -4.362849636801034992e-01
-6.380993638739170803e-01 7.364341525222752038e-02 1.125036095058905700e-01
-3.121417476757206572e-02 -1.490376613438723907e-01 3.460527348663792330e-02
6.760204481669472854e-01 -5.556507246143586225e-04 3.641389545890845181e-01
-2.872981326706262536e-02 -4.293861688989053516e-01 -2.535948602674023000e-01
1.688746202259995000e-01 -6.735505635189905638e-01 -4.558047228876398460e-01
-1.117785220047788075e-01 -8.596019733577246746e-02 7.947558182025492302e-02
5.981546364316069342e-01 -2.105721945337784562e-01 1.283363224604963659e-01
6.712352135560611943e-01 -3.085019584039589979e-01 4.569215068844489913e-02
3.178794155266670973e-01 -6.170777115954698688e-01 -3.604255180466517938e-01
3.477490683646146108e-01 -1.241076209390379603e-01 1.548987592675906966e-01
-3.794148944747365859e-01 -1.936176539320400014e-01 -9.825194791651434278e-02
6.693548360844107092e-01 -2.270728200408713149e-01 1.291125527995395927e-01
-5.127235428405292339e-01 1.733005951002138945e-01 2.464730381871102216e-01
-7.429823514720110267e-02 3.595574355460625648e-01 5.478134673245254049e-01
-4.009707324306461818e-01 4.479799006145001039e-01 5.573525378895223259e-01
4.574071189818753602e-01 1.078753254097392505e-01 4.212686899648087624e-01
1.731542928869425901e-01 -7.670659872622094533e-02 1.601437286022314999e-01
-3.978282213389491284e-01 5.143736275220626153e-01 6.265371624633735426e-01
-1.325410351819831557e-02 -1.850010064465543724e-01 2.038973342728837845e-03
-6.490154241100352939e-02 -1.499226818330706146e-01 2.528328740817558859e-02
-2.111115079096200220e-01 4.739266158978743815e-01 6.314826500712462654e-01
-7.260740798291779319e-01 -1.587441752697336950e-01 -1.488698395274417885e-01
-7.084064057555372607e-01 -1.437127360303062651e-01 -1.289733409111118168e-01
-2.610375052249327976e-01 -8.464442018766978049e-02 4.356786299066518764e-02
-5.263733000897803382e-01 -2.061080200089649705e-01 -1.478086674132698397e-01
-1.890967008951157657e-01 -1.266085798386784866e-01 1.829597160961482852e-02
-3.309251663196425275e-01 -2.232568581854190437e-01 -1.166811150898721533e-01
1.321260020775648081e-01 -2.072026859226722140e-01 1.546125681436743941e-02
1.555657322528915254e-01 2.868608904970773588e-01 5.303068013674251402e-01
1.584075049015044034e-01 -5.750633905959882108e-01 -3.569545313677865428e-01
-2.169313257317634080e-01 -3.301776086324902937e-01 -1.983737698767823188e-01
-6.524694266379944541e-01 -2.214717717685500686e-01 -1.951172303936922758e-01
-3.068980490981295106e-01 -1.185756408327798550e-01 -2.838042114940641462e-03
1.569396737142448803e-02 2.909919530932988385e-01 4.996430095509788449e-01
5.035801612788324277e-01 -3.292070341431063696e-01 -1.749454117527985200e-02
-2.685673720952743149e-01 -1.401338733022706728e-01 -1.547829671267482443e-02
-5.765772358314686930e-01 -5.390057244512796303e-02 -3.535324242805267057e-03
-1.250991004650700011e-01 -1.694182847993363356e-02 1.472540691853919947e-01
-2.322047698372131097e-01 -2.515045089862968375e-01 -1.211363378868685475e-01
3.821032607039405726e-01 -4.092152368091993009e-01 -1.302478345264875270e-01
-7.457232701275794129e-02 -3.947723897061997111e-01 -2.293799009120085775e-01
1.463690022004817959e-01 -4.614409117867216970e-01 -2.429039644990757252e-01
-5.090360644179796612e-01 3.111097098793381699e-01 3.893672081226002279e-01
-3.274518914448369400e-01 -2.328448935234441186e-01 -1.256917709628945778e-01
-1.683061825625743468e-01 -2.762353957702473606e-01 -1.306619636588633171e-01
-5.970196228747580713e-01 3.988412260732604464e-02 8.797990822931023303e-02
-2.146959896405271628e-01 4.380951397295085870e-01 5.936734975681924320e-01
3.448537963488785274e-01 -6.618825210143626236e-01 -3.998499951493427740e-01
-9.162474999609862003e-01 1.310352877531838515e-03 -3.145637190023631291e-02
2.094375941833214738e-01 1.121242933381308982e-01 3.637392158465541647e-01
-1.713917763753488865e-01 -3.844108135626741335e-02 1.135479298970367285e-01
1.542118332288609228e-01 -6.164493792937424388e-01 -4.006386350228453574e-01
6.088582163874396436e-01 3.845536345452438970e-02 3.875614540338418457e-01
4.101814643413813181e-03 1.319963804373960881e-01 3.329487057790183058e-01
-4.549608612314471334e-01 -2.852804455721569821e-01 -2.115451314616513534e-01
-6.351209026914287348e-01 -2.059725444927260063e-01 -1.748184850787783406e-01
