1.802035398757238782e-01 -1.930156682244148492e-01 -5.375760175154050691e-01
7.264647450726494649e-01 7.754337637664701077e-01 -1.273732235348197239e-01
2.794799975849912022e-01 -5.459287506193269968e-01 -5.332936535730019578e-01
3.952100712191827792e-01 -2.273903506094278326e-01 -4.313281836949465764e-01
5.807686796022316633e-01 -3.328090306771132600e-01 -3.496960884598492303e-01
-1.309733175222800583e-01 2.976196056593937711e-01 -6.327755082663060193e-01
3.645171658678940663e-01 -3.303350579607023385e-01 -4.608236235486736776e-01
2.074367600970309367e-01 -5.968712997201147674e-01 -5.771925570987307408e-01
-5.563642293619240620e-02 -1.258682907613934698e-01 -6.502075383629752903e-01
6.261144658574686606e-01 2.240971573168981934e-01 -2.523393741816564173e-01
7.117048775759944323e-01 5.822516218469524496e-01 -1.606448825678043479e-01
5.719084078066548615e-01 -2.257512309244427418e-01 -3.400399601701713515e-01
2.923890448278108067e-01 1.291941984421705880e-01 -4.369496637329573496e-01
6.371857810240921793e-01 6.276574135825085943e-02 -2.680662248890285371e-01
3.961415376829365842e-01 2.041338403909939980e-01 -3.735197502939511804e-01
1.276443579507260673e-01 -4.323102326202483137e-01 -5.964555481114505175e-01
1.063793423740830441e-01 3.643210154835248016e-01 -5.015824171877204529e-01
3.670360353402784548e-01 -4.950387578629528856e-02 -4.222167354125815897e-01
4.372366624588776285e-02 -5.854175765371459894e-01 -6.600487807703483423e-01
2.056008407235582203e-01 2.578674509090705391e-01 -4.645860233304476283e-01
3.090784318640615314e-01 -2.986844192292503752e-01 -4.851919775295420179e-01
-1.601957576813280715e-01 -2.589750204406724432e-01 -7.217808457102823372e-01
4.765969046953939525e-01 1.854179960434979013e-01 -3.345394050922632645e-01
2.858233680788980213e-01 5.164723836503374299e-01 -3.888833833891978120e-01
-1.419901231350925996e-01 -1.886433888647202559e-02 -6.804987392631027809e-01
8.703075958016986968e-01 -2.330329729759833546e-01 -1.872121637964611063e-01
1.348131301921012271e-01 2.548604792640444816e-01 -5.014695451223424305e-01
3.030232396924731342e-01 -1.124246354971498996e-01 -4.635680581825198932e-01
-3.277218025007242463e-01 2.832869760734773590e-01 -7.360839379890591339e-01
8.023627749896109496e-01 -4.116069686653753834e-01 -2.459546860130052970e-01
-2.162183186281383118e-01 7.484893538489685583e-02 -7.063061230595586437e-01
8.375008466230319248e-01 -4.332280176099485014e-01 -2.307168702675635175e-01
-1.420901352798042798e-02 5.595665952132283794e-01 -5.377952121125155749e-01
3.303227431227440114e-01 -4.555559960868244170e-03 -4.351673739230366156e-01
-4.278175626743997984e-01 1.880862731460881121e-01 -8.003208675953552564e-01
2.226787316476782630e-01 -1.575627261003578194e-01 -5.109743160082017566e-01
2.396842614580856345e-01 1.593781554974132708e-01 -4.601037872584916588e-01
-8.898554229304325713e-02 5.778917474833099588e-01 -5.739005832786416850e-01
-4.878180487108415425e-02 -3.003107406948800628e-01 -6.698494901404448143e-01
4.976158330258073637e-01 -2.319267068324941117e-01 -3.791508303000611368e-01
-1.645097918476187970e-01 -5.822900548231731976e-01 -7.669569789811453431e-01
3.024350432476674011e-01 -3.297725540063780048e-01 -4.927460704536543168e-01
5.015769258475103465e-01 -1.870160925066836899e-02 -3.487821447755261595e-01
6.898396299636966322e-01 1.441503487645476866e-01 -2.301163745778871117e-01
2.942669546539181669e-01 -1.754640899609263283e-01 -4.764558995500310923e-01
3.683343595851932273e-01 4.354098130096384356e-01 -3.571263831432539004e-01
5.960157591910536512e-01 -1.787326859847471194e-01 -3.213685582568405197e-01
4.673447382785703708e-01 6.882326634173625557e-01 -2.725086240235657931e-01
5.522940033881154065e-01 -3.051255843415956546e-03 -3.205633594102489381e-01
-3.000328146451299860e-01 -4.320080758446309122e-01 -8.168405657624497884e-01
-1.807483814442677195e-01 -5.849817769497931419e-01 -7.756839587143697923e-01
1.655682180704571571e-01 5.331981722499322673e-01 -4.486409494172315382e-01
3.271681915769765747e-01 2.050609819112499677e-01 -4.089454969273868534e-01
3.456029748537645108e-01 7.052908612844724923e-01 -3.329882309513335636e-01
8.456191519045173077e-01 2.593655549675930906e-03 -1.686334101974109601e-01
1.211930200125210660e-01 3.815093271626345262e-01 -4.916639540066863323e-01
-8.287146893599638131e-02 -3.615007690143213215e-01 -6.955484776430045368e-01
2.356565058506401300e-01 3.977844146276584558e-01 -4.305072219800153421e-01
-1.039651498120178902e-01 -3.262897817308560988e-01 -7.017423682366283888e-01
-8.708765751238321806e-02 5.783952673719831017e-01 -5.728555188887775040e-01
2.126870438122532014e-01 -1.259070823386294058e-01 -5.119185608440903756e-01
-1.610626214354100583e-01 3.456207379020295734e-01 -6.419065686154618033e-01
6.198167763958095655e-01 1.301309668559293142e-01 -2.680686965196423244e-01
1.046770435091389090e-01 6.320844181533769035e-01 -4.668871882071974899e-01
1.503057900378549638e-01 -3.826324950915548362e-01 -5.781760981780142972e-01
5.888743719192390813e-01 2.474167093174660381e-01 -2.684349263452621148e-01
3.689277063220227498e-02 9.133479719259834928e-02 -5.736623029382016403e-01
8.337498367624901485e-03 3.104744927470524662e-01 -5.592668188271436858e-01
-3.749115262038813512e-01 -9.555453514261080805e-02 -8.107349757524062728e-01
8.942950824253223518e-02 9.559476492617323407e-02 -5.460188857056372802e-01
-1.519661110042093699e-01 -4.267557592647557713e-03 -6.837011766735378027e-01
-2.179182560744385988e-01 3.972401577182495536e-01 -6.643523248190777997e-01
-2.403885973631663953e-01 -2.871583349000628727e-01 -7.668564771460780749e-01
3.351446630924829750e-01 -2.400196569562403626e-01 -4.639637575137000036e-01
1.705631051067922066e-01 7.365656506862620911e-02 -5.071170729547458400e-01
4.865170021205012518e-01 -2.767586969311683354e-01 -3.908271446089978673e-01
3.708028257338754838e-03 4.446783391583062905e-01 -5.438237566126353784e-01
4.374206565099532096e-01 1.606804176138471596e-01 -3.580172832596431043e-01
-1.864737010588465305e-01 -1.045092861849998417e-01 -7.148036150766997610e-01
8.930521879041468380e-02 8.420912435718458725e-03 -5.576640648420605473e-01
6.577393289611775939e-01 -2.214062881847092268e-01 -2.952254049044036877e-01
7.984790926321490012e-01 -4.681520088981342420e-01 -2.554683955919113125e-01
6.808348227894988058e-01 7.426458391870028874e-01 -1.552468258484705765e-01
1.006400727965639117e-03 5.857850346515042217e-01 -5.264700334220138167e-01
5.267831194394305694e-01 -3.328497091555625564e-01 -3.775256938468591339e-01
-1.774528035466628184e-01 1.992323544443504180e-01 -6.698019026080961336e-01
2.919736470181806265e-01 6.573230599455704981e-01 -3.670013928382192536e-01
5.351546573091547909e-01 3.817320325897979177e-02 -3.239202878301874478e-01
-2.491309444643441673e-01 5.361887634227749944e-01 -6.619799294330984685e-01
3.600428594585862729e-01 -1.701700282416726204e-02 -4.215051152665153511e-01
7.179933903077920787e-01 1.166943203815148516e-01 -2.192534604680412280e-01
-1.172631208068636299e-01 5.775882895372189685e-01 -5.885151846800528164e-01
6.914557550173292544e-01 -3.739040509775261034e-01 -2.981073888922379234e-01
8.413249124417242486e-01 -1.796405445675647028e-01 -1.950566327516167764e-01
-6.660248093078178534e-03 -6.186311739224821249e-01 -6.904291454143209883e-01
7.159737156537645530e-01 -2.133299959876057139e-01 -2.641384128005672127e-01
-2.031553603737049629e-01 2.982652814116966700e-01 -6.698924127543872675e-01
-1.048057712967849497e-02 -1.405335457899491436e-01 -6.288824706127500441e-01
5.743981600101425444e-01 2.548427024601873092e-01 -2.749094281416095686e-01
5.108010702813665649e-01 -7.526207041387616981e-02 -3.515421185458510456e-01
7.791771721514660631e-02 1.026725170863636433e-01 -5.510117867003676562e-01
-2.633798108809126681e-01 3.334768489717258033e-01 -6.962542564624608632e-01
3.098418030095116404e-01 -3.153389006595789384e-02 -4.493073610037425225e-01
6.473494131286443298e-02 3.216262332078231867e-01 -5.287180131004229899e-01
3.241369601852416293e-01 4.310745280901761211e-04 -4.376930528123477160e-01
6.319497603538999364e-01 -3.934627897647078321e-01 -3.313752215390884936e-01
6.534165789280096392e-01 -8.303930808711444678e-02 -2.790711830731507082e-01
6.722319875425644131e-01 1.931159944041818122e-01 -2.326862401117026080e-01
7.648591453643596161e-01 3.350942935371337139e-02 -2.061499958797352872e-01
-6.286036128636140856e-03 -4.928497068048767193e-01 -6.735261016597026140e-01
3.068956349539384010e-01 2.887596910515674020e-01 -4.082745444386035594e-01
-1.731597301945145273e-01 6.200572975952213517e-02 -6.858199226407185600e-01
3.256775049378821812e-02 2.319175140368980870e-01 -5.572148886146205404e-01
-1.336115091372098995e-01 -2.365837263696513315e-01 -7.051046001737343305e-01
8.205666558564431723e-01 3.639190956607806782e-01 -1.335430956213410902e-01
9.677731869787812302e-01 -2.289719812150098621e-01 -1.364388133527071612e-01
5.071833114969808154e-01 -1.285980381714622867e-01 -3.604924429003052433e-01
-3.786054270618889883e-01 2.379968444126313032e-01 -7.683262315072694193e-01
5.725861048354761174e-01 -3.094474748713049728e-01 -3.508097915829120339e-01
-2.316237748687591524e-01 -2.785723657111219831e-01 -7.611984272784042549e-01
-3.022667206094626913e-01 -2.964583223080685115e-01 -7.999840229531278712e-01
4.145896480113072657e-01 -4.620215037181515938e-01 -4.525108819249349379e-01
-3.343649570886151334e-01 3.891769030689680720e-01 -7.254402585901863487e-01
8.593155307529333209e-01 2.230661686111280184e-01 -1.322843251142961640e-01
1.760968696837014735e-01 1.459249202796456535e-01 -4.946640539371859879e-01
1.754260321469567653e-03 1.509521724666249842e-01 -5.838525005932641010e-01
6.841025093819962793e-03 -5.555821870376366212e-01 -6.750944669407868970e-01
6.530747331799641175e-02 4.793858470015529005e-01 -5.074644311241266470e-01
1.016555593744432051e-01 1.261369253454391604e-01 -5.356600171783668651e-01
8.958062419508047158e-01 -1.723415148158107257e-01 -1.660072293200850480e-01
-3.367542217020270262e-02 -3.442248595352410123e-01 -6.678976762618178409e-01
-4.776130895017663414e-01 3.627279648382246147e-01 -8.027842253647871074e-01
5.310684584041076572e-01 1.979448778066021930e-01 -3.048005155416426692e-01
6.928461829009815443e-01 5.342610490236477938e-01 -1.767402573119583598e-01
-3.428653550923934090e-01 -2.548110704583962938e-01 -8.153757191479529265e-01
2.132240451817747073e-01 -1.933025052581190950e-01 -5.205953290116092091e-01
6.080942193272408369e-01 -1.637938790321488702e-01 -3.131586769920320923e-01
8.567860586296770220e-02 2.500058926307745510e-01 -5.274384545130608171e-01
-4.701015452395493899e-01 4.890123259032601033e-01 -7.821357849041663535e-01
2.690658297839410573e-01 -4.243256343049017221e-01 -5.225060468929102475e-01
-3.380904222921958524e-02 -3.520700337162686600e-01 -6.690087821929073808e-01
4.950468265558319869e-01 3.299229894033448574e-01 -3.058326895450573235e-01
2.899970334850612841e-01 6.296202325731938831e-01 -3.717004851628390449e-01
-2.083859287886197231e-01 3.223569618473870468e-01 -6.693876517481506250e-01
-2.755048862150294986e-01 4.747078208931147618e-03 -7.461755589678196188e-01
4.131662965500959572e-01 -1.666186919179051262e-01 -4.139999642783276923e-01
-6.684275777549013309e-02 -1.583760757771847938e-01 -6.603019791862909660e-01
-3.541215961881327146e-01 -1.068577827998035273e-01 -8.015214751067669674e-01
4.624451761101981973e-01 3.453051411197618492e-01 -3.205920745553240137e-01
7.136927170122617792e-01 -5.440700192651686667e-02 -2.442009867638902099e-01
5.089836069519279027e-01 4.526817268208240819e-01 -2.823410592950789111e-01
1.383424703939900302e-01 3.578880334502572702e-01 -4.859632223663236106e-01
5.427219052843089697e-01 6.299036096316206201e-01 -2.414082356756475367e-01
5.133042799947774570e-01 7.062638918838013424e-01 -2.464255751851364973e-01
9.069513320577095028e-01 -1.493443108454934054e-01 -1.572078428408879847e-01
8.517729454048068582e-01 -4.485375341072653232e-01 -2.253949013067625684e-01
6.191340599691594893e-01 -1.994713476969679489e-01 -3.122085162050115548e-01
7.926027739046661580e-01 3.724497661699379680e-01 -1.468223961026164370e-01
-6.624074978887568854e-02 2.316362038159389403e-01 -6.081782415948041587e-01
-4.043312119501643598e-01 1.174598473820976929e-01 -7.975987640785620059e-01
3.055524201240210069e-01 -4.188831464060891463e-01 -5.029777896916928226e-01
-3.899873688097079127e-01 1.935545153165397769e-01 -7.800966945778643469e-01
4.472819874688187258e-02 7.913945305663251661e-02 -5.712440787867986147e-01
7.259880799151468764e-03 3.578207544090662995e-01 -5.535322327649545571e-01
5.926371226976085982e-01 1.298139291421455122e-01 -2.821192306698871999e-01
-1.906368041144827774e-01 1.238587389881006529e-01 -6.866103958787075356e-01
8.255238654721588354e-01 -3.187645123784767498e-01 -2.216832422363705368e-01
3.191075692656233365e-01 4.855395356383530037e-01 -3.758381343713502187e-01
-3.873179299651417495e-01 4.122898867395691225e-02 -7.989574390776685853e-01
-2.199714628384050463e-01 -5.235197428066868941e-01 -7.877342831021337810e-01
4.723839482929205191e-01 3.878986709495120255e-01 -3.098110367925410169e-01
-5.930264616370066466e-02 -5.162647518015708314e-01 -7.039616137903110804e-01
3.115475335322495098e-01 -5.913921493813949909e-02 -4.520956169443897110e-01
-1.547115454787802713e-01 4.297890264888789003e-01 -6.274513904104449535e-01
3.362033964077620896e-01 -5.073084407448729544e-02 -4.382709061453543553e-01
-3.217632123507925268e-01 2.762712869694885498e-01 -7.339449160724107468e-01
6.088168043690461717e-01 5.801964884543771017e-01 -2.139465046341028354e-01
-1.599533819291742709e-01 -3.756099459401668894e-01 -7.371509738458934535e-01
6.967287700860430588e-01 -1.373478926293090208e-01 -2.639629863697995349e-01
7.311229948723450001e-01 3.113926820223661407e-01 -1.866206091879613616e-01
-6.282647623702439232e-02 -3.752111078564812630e-01 -6.870387023966514350e-01
5.641485094165180625e-01 1.842288210853727792e-01 -2.895732203602472410e-01
5.171841842454566462e-01 -2.209275265522542553e-01 -3.676040358798818297e-01
-3.796795301419631508e-01 8.540179618487420132e-02 -7.891522067033008847e-01
2.263691708095708771e-02 4.167317011442246005e-02 -5.876073706328945878e-01
8.471028066345466234e-01 6.305977607960233655e-02 -1.598357579482271584e-01
7.854211371166373024e-01 -1.276873600873932590e-01 -2.169674589789552521e-01
6.655299069275442125e-01 -2.284302576594970657e-01 -2.921432750449906579e-01
3.436551090332350955e-01 3.450123475163853204e-01 -3.818554687421847338e-01
-3.933107040743547000e-02 5.605564317354717607e-01 -5.506116398532210354e-01
6.420355293369064964e-02 -3.155892356861067505e-01 -6.136465066895384624e-01
2.208702982299869666e-01 2.462345085330326366e-01 -4.582615788883190877e-01
3.692327334788216842e-01 -3.306548818991429939e-01 -4.584357050830984437e-01
-1.308396877342357378e-01 4.293411642723277688e-01 -6.152073145651826280e-01
5.792148137636957683e-01 1.106174083624462540e-01 -2.915873735818296786e-01
7.801176089522161572e-01 3.543641625829624386e-02 -1.980297696043278877e-01
-3.115419282562439940e-01 -2.478756612192164199e-01 -7.983102247113164074e-01
1.293320549174301060e-01 3.638495816361156376e-01 -4.898152010310798943e-01
-8.346682674624328335e-02 1.802196347373344054e-01 -6.238873103602811110e-01
6.290014412098894336e-01 2.349507912887951189e-01 -2.494095102780441997e-01
-2.491659819848964785e-01 4.665792267314890218e-02 -7.270325752603276070e-01
4.463630511371315390e-01 -2.599635379805533275e-01 -4.092912721933478770e-01
6.716509220764057542e-01 4.727755994094237080e-01 -1.958327059620432742e-01
8.247225388146669500e-01 -3.177150559035311628e-01 -2.219568254585105593e-01
6.306396558424841592e-01 8.056142436957577369e-01 -1.727520493920258193e-01
5.370079769546085569e-01 6.989558839749823171e-01 -2.351795457184973348e-01
8.803371113104708767e-01 -3.743064756414672400e-01 -2.008112480910553277e-01
-2.721336461748157243e-01 -2.493299021383139913e-02 -7.483810414015634738e-01
5.028966766810816225e-01 6.179629277393292597e-01 -2.635205203128380691e-01
4.119104101555179920e-01 2.263496244658598500e-01 -3.624410749530130316e-01
-3.899376069836918424e-01 4.768202367265654273e-01 -7.424389559099822122e-01
-3.657959612212468570e-01 3.156474334844953100e-01 -7.514082758605120649e-01
-1.127982731565746466e-01 -2.558218995845340515e-01 -6.969332492065182239e-01
1.477867576334712663e-01 2.006409003534716795e-01 -5.019860441357386627e-01
2.902309478075441596e-01 -1.895103144583216992e-01 -4.804021135712449042e-01
2.889593626371461110e-01 -3.035108014221528094e-01 -4.962025509922420863e-01
-1.880368164250939556e-01 1.534892741516116210e-01 -6.813339183962289214e-01
-1.393758547792209868e-01 1.704484921979661227e-01 -6.540009730425778711e-01
7.190240355603393363e-01 -4.473246256295118073e-01 -2.936526605071240192e-01
-4.300875505736143634e-01 2.512398984284781589e-01 -7.931008084963017124e-01
6.253634455181737994e-01 2.187962255489528940e-01 -2.534306839519343546e-01
-2.594550627376863150e-01 -8.685940314485886271e-02 -7.500734657698286956e-01
6.550697963229390464e-01 5.695553396744080787e-01 -1.915213609465323541e-01
6.244078934532183434e-01 1.768782700922639506e-01 -2.594920121976002081e-01
4.809241616430460220e-01 -2.998919150978903714e-01 -3.967829667558093187e-01
-2.533175408549924179e-01 -2.899165879215163111e-01 -7.738865012953412004e-01
5.856153869902098741e-01 2.394481705900436130e-01 -2.711732369338283322e-01
9.417490876836110969e-01 -1.796760333821331157e-01 -1.433026466159336154e-01
6.996598780267921924e-01 7.146898378303154775e-01 -1.492583557026550822e-01
3.154989549797299619e-01 -4.537877405358604899e-02 -4.482309649013310748e-01
-2.453496863677059048e-01 -6.213148321104366989e-01 -8.138064005355153396e-01
9.265468567429648861e-01 -2.751262908370531446e-01 -1.638185363677267248e-01
-3.646525164690173626e-01 -8.274572382234829382e-02 -8.037458124174181595e-01
4.654286766980028078e-01 -2.791974819848070943e-01 -4.020200791907151405e-01
7.151899260870683284e-01 7.238762093356958249e-02 -2.265845507936846692e-01
5.435869326854908534e-01 -2.439635979861694282e-01 -3.570563996864625778e-01
7.176969805029702609e-01 6.948125933737023807e-01 -1.426027273375992110e-01
8.116687305305697597e-01 2.675319102884472500e-01 -1.509342128470546607e-01
3.285483538212224386e-01 2.355664268034654910e-02 -4.323471656307101285e-01
4.979829186688374820e-01 -4.992955827759490983e-01 -4.144818160409732832e-01
2.362917642767565773e-01 4.046486064508172942e-01 -4.292678955686426434e-01
8.135393087435159251e-03 -3.821689683389650205e-01 -6.513892554237548094e-01
7.834080152563821509e-01 -3.962724690019193141e-01 -2.536867831672807716e-01
-3.117444601626358502e-01 2.730224442194114087e-01 -7.292128546355236551e-01
-4.148444067059575691e-02 -1.931101098892810120e-01 -6.518467280098816374e-01
3.573147309759477919e-01 -2.808323655530650109e-01 -4.579592896173447225e-01
3.045238896690366515e-01 -4.546405963447448517e-01 -5.082583026743890953e-01
7.330044672198940958e-01 5.185729064952541156e-01 -1.581268282522069468e-01
5.589686994995610725e-01 6.108025476321577996e-01 -2.355722171332755854e-01
6.878118581417514976e-01 -6.905962507280782869e-02 -2.594866156987378769e-01
2.444935725162232787e-01 3.951930856656101221e-01 -4.262968509493155200e-01
4.730641499436227249e-01 -3.521821355890959460e-01 -4.077808232702022639e-01
3.290733124652940322e-01 -2.812276612147200372e-01 -4.725674548423995369e-01
-8.217979394229472934e-02 -1.291434236394908008e-01 -6.643231173528324485e-01
2.827995729242649154e-03 -2.562435853560910970e-01 -6.373953983482332220e-01
7.038886220998410437e-01 -6.579955710237017641e-02 -2.507675358025703849e-01
4.736462295873289374e-01 7.510694145217058360e-01 -2.609129146360436580e-01
3.049943363916826078e-01 2.471707618983617349e-01 -4.147795997676564372e-01
3.347187693592258984e-01 6.313409175992991118e-01 -3.484222719852122507e-01
-1.588488538155300445e-01 8.215158549836221874e-03 -6.855902084369467353e-01
4.955576297503519467e-01 -2.021356843544272197e-01 -3.762538673191723748e-01
7.073448680321465787e-01 6.682713020281476624e-01 -1.514642475183106685e-01
-2.697986949703967685e-01 1.854413786545782705e-01 -7.192291923049780600e-01
5.455378447703042033e-01 7.905810716665344628e-01 -2.186107610616367380e-01
8.230711558730134936e-01 -1.604471809762190448e-01 -2.019147789636573376e-01
4.541908922299953827e-02 2.461834607400048835e-01 -5.486960551550091880e-01
1.493150611120194413e-02 2.659391636856401342e-01 -5.617848181667506324e-01
3.947595000519797392e-01 -7.512009153733531508e-02 -4.113311753495941248e-01
1.684855704774884944e-01 6.143202101083119482e-01 -4.363602120904291337e-01
7.214039083016956511e-01 -6.468670670965187552e-02 -2.415923000592913872e-01
5.413665777328491302e-01 3.388093425523959756e-01 -2.807788929037027259e-01
7.425874042688344057e-01 -3.037893737869910848e-02 -2.261164929065757057e-01
5.745096897717695272e-01 2.786275630889200050e-01 -2.716921067014397839e-01
7.730370063967162420e-01 2.164373896086163873e-01 -1.776329850158356038e-01
5.901395441077939008e-01 5.173370783304440668e-01 -2.319237055837521932e-01
5.259660390017825149e-01 -3.731313452516257789e-01 -3.832982672890687392e-01
5.527820850007871822e-01 4.219020875738384302e-02 -3.143014348033235650e-01
1.318067640001639174e-01 4.773131301507672064e-01 -4.734660053044844052e-01
1.527508249358716375e-01 2.545663991049413877e-01 -4.922635115934310135e-01
4.100889344967324768e-02 2.443249680342345909e-01 -5.512159759434173134e-01
-2.135589207955659596e-01 -2.069273222174690119e-01 -7.423696821256490219e-01
-5.071737963583409364e-02 5.649105578032126429e-01 -5.559017034644482269e-01
6.960724905403609108e-01 -7.135874119827161598e-03 -2.470024562591739692e-01
4.126002472487784178e-01 1.810308226899992323e-01 -3.681061736188894762e-01
2.797952491631506833e-01 7.264784122179338555e-01 -3.640908016940434533e-01
-3.805355298503798056e-01 4.679992959270002362e-01 -7.387649872460264611e-01
1.770446603922214701e-01 -3.090736272584411193e-01 -5.546225048562805071e-01
-7.191235095363833485e-02 -5.710478778352305884e-01 -7.177386505675266148e-01
4.426636007772228321e-01 1.786839009047396509e-01 -3.529232875313442763e-01
2.087572609596178852e-01 4.992142958199834446e-01 -4.308960687168155168e-01
-1.069025554353433688e-01 -4.671168030545090333e-01 -7.219652987081618400e-01
2.711964376323887094e-01 6.351507418132412708e-01 -3.806555945732709723e-01
2.672253599806417301e-01 6.739567339287438896e-01 -3.775468822238702837e-01
4.277926672456743851e-01 -3.879865957958278377e-01 -4.358704348497603465e-01
4.885069148960505259e-01 -2.930128681347626482e-02 -3.569266151093475337e-01
-8.932215271616705766e-04 -1.209344832679436210e-01 -6.213373877265836454e-01
-7.024731764566102821e-02 4.888118328425694048e-01 -5.760772294198356347e-01
-2.149296549423302949e-01 -3.176449443469477052e-02 -7.198056293486514434e-01
4.301313194900316939e-01 2.041605149568840039e-01 -3.559978456183884865e-01
-4.444539684785602240e-01 4.417562867539271965e-01 -7.751950080594521841e-01
5.467115999297794682e-01 2.977868066004844549e-01 -2.834739428561623975e-01
6.783932251784977607e-01 -3.426739524092900502e-01 -3.006908822115185176e-01
1.517237096907193914e-03 -4.649377671451396243e-01 -6.657961634889464353e-01
1.396355904072746623e-01 -1.311199008755357942e-01 -5.502618661682214807e-01
3.061911790168974634e-01 5.504035643264248989e-01 -3.738780110801454004e-01
4.818199610435456304e-01 5.274430939132648266e-01 -2.864091132502933346e-01
6.944673325657355623e-01 9.123150119911795086e-02 -2.347615667171208120e-01
-4.110585194270888199e-01 2.661899483009294576e-01 -7.813071036996319663e-01
-3.210349680802389027e-01 -7.826068401819001596e-02 -7.806694514824032982e-01
6.205876965634364861e-01 -9.767598808810622202e-02 -2.979357108561008216e-01
-1.521795338406616849e-01 -1.558320282666246287e-03 -6.834512505005821970e-01
-2.185567455632619616e-01 -1.679912498752346162e-01 -7.397728747988296938e-01
3.862339332848930828e-01 6.236342488413396667e-01 -3.228951524621991309e-01
1.895726631966792586e-01 -4.898816986543601260e-02 -5.136129884698845682e-01
1.479994694572726588e-01 1.102562639762810076e-01 -5.138840879060025957e-01
-7.083129350045877515e-02 -6.410371566658190634e-01 -7.264796077492038373e-01
2.909116775053260245e-02 4.136883135792082111e-01 -5.348583172476530923e-01
5.041326199109980033e-01 2.478741307631935620e-01 -3.120501247993717753e-01
-4.070865116680434936e-01 3.698233676046779883e-01 -7.654921400330764181e-01
2.114417988341652510e-01 -4.076831201334095434e-02 -5.012496032487431252e-01
7.958025859533802704e-01 1.366402285795993432e-01 -1.765007074991632730e-01
3.826696584950012303e-01 -5.629293909267635287e-01 -4.823681686624791132e-01
-1.846214764370020522e-01 3.099010183705988575e-01 -6.587942165108003900e-01
5.709156529536751901e-01 -3.098448071341432519e-01 -3.517235297572379182e-01
1.814123467425854397e-01 -2.659623475708957074e-01 -5.466440257136021552e-01
-3.213107399527537766e-01 3.535879225227304690e-01 -7.234401308131179764e-01
-9.316293840242965973e-02 -4.857298834504943374e-01 -7.173566525362083945e-01
-2.950933126899244474e-01 2.473074116713989967e-01 -7.240471036963588292e-01
-2.422371810530667413e-01 -2.639224057728469242e-01 -7.647223257741783131e-01
5.549904227049315963e-01 -4.763356996024002976e-01 -3.820498625601588261e-01
7.965274655011718163e-01 -3.487919439313180714e-01 -2.406171799045273840e-01
2.786873379174437670e-01 5.552829142391657591e-02 -4.537981127551232730e-01
1.396854711507008739e-01 -4.957116841228970117e-01 -5.986724852792134621e-01
7.922511438666862693e-01 -1.422825690058101278e-01 -2.153862538813303140e-01
5.070242476516076957e-01 5.753795601352765798e-01 -2.670504034176053310e-01
-3.332466880290982109e-03 2.808355187006884579e-01 -5.692190911658252528e-01
1.122916987894240354e-01 6.450792560079698923e-01 -4.612362135063797219e-01
9.101210949093634373e-01 -9.299948211150156976e-03 -1.369691321374112980e-01
5.986061693045248155e-01 1.646639657390645828e-01 -2.744129223129667117e-01
2.976119257367157434e-01 -2.402483960915436506e-02 -4.546130658835128013e-01
6.620286926204520528e-01 2.643076971128653918e-01 -2.284871484412065723e-01
5.242892443463371688e-01 5.810781060117180541e-01 -2.573949535529729826e-01
5.206729347801317687e-01 -3.644151444912358540e-01 -3.848683828058531708e-01
-2.755267943797664043e-01 -4.001978942829255148e-01 -7.999841335625373917e-01
-1.794585184526718280e-01 5.042513397646452011e-01 -6.303136187407784030e-01
1.976818896223420385e-01 4.382092130977062738e-01 -4.447089010201065173e-01
6.662185614436784142e-01 5.801234558462440294e-01 -1.843712952198233446e-01
-5.727723074681986826e-02 -2.909980047740625686e-01 -6.729908346164990007e-01
-5.270449825952984169e-01 -7.984830702286057624e-01 7.901752525513647263e-02
-3.386410126372501050e-01 -7.523296392304913427e-01 4.517045846713759610e-02
3.408359602857556903e-01 -5.845573658228082614e-01 -2.586332099371450033e-01
4.407491619020408868e-01 -5.665635372561509397e-01 6.155686078101232361e-01
-8.794749217734830482e-02 -6.918062191279290563e-01 1.225076187610529138e-01
-1.768797745950372868e-01 -7.152387561042473640e-01 3.651354837686003885e-01
5.561541454764779013e-01 -5.321650398888521094e-01 -2.485515868656892335e-01
3.475530690907434050e-01 -5.893782917332764937e-01 6.301716019133974944e-01
2.875412896225574277e-01 -5.994549714873779189e-01 4.463694390373689792e-03
2.352662732228640863e-01 -6.100589851728130952e-01 -2.891955646862189866e-01
7.714979714850703774e-01 -4.824695953509695046e-01 1.335776593305701421e-01
-2.764489686007771119e-01 -7.361401266799991738e-01 -9.734714954718640123e-02
-6.391510167544552090e-02 -6.834100863067248399e-01 -2.271251074683197924e-01
-2.285512143306116517e-01 -7.279170787535769183e-01 3.772178193661063217e-01
7.781164789221536315e-01 -4.780001088116211383e-01 -2.596186333536237845e-01
-3.007832284484086571e-01 -7.408639419144993354e-01 -2.632809894499482661e-01
1.987968640489355954e-01 -6.243896245726620053e-01 4.601368385721477661e-01
3.958164126015258355e-01 -5.762363996849203529e-01 4.399878229717519296e-01
6.888620486466938697e-01 -5.051059994525853858e-01 4.777906743526304512e-01
-6.644168331221772528e-02 -6.865304313873017428e-01 1.176121921273038523e-01
2.087223391218183954e-01 -6.199142886112865014e-01 1.770415469909588646e-01
-6.651292032891049921e-02 -6.877031345094045678e-01 2.766291618788055962e-01
4.061282671780229170e-01 -5.723769925099647660e-01 2.546244922738900018e-01
5.713687067828107091e-01 -5.336006988555905828e-01 4.592988360071125764e-01
5.396426525745409153e-01 -5.358720416103339712e-01 -2.920825849279965469e-01
1.806015385432061526e-01 -6.257785289793309502e-01 4.108156884778815104e-02
8.112661638645464190e-01 -4.719062831425125948e-01 1.339634316392270853e-02
3.543083876989328584e-01 -5.868037966925616633e-01 5.023824235394342974e-01
5.878910376879026289e-01 -5.278492532250728120e-01 2.218044269455357320e-01
4.625101937152403253e-01 -5.561901963132558357e-01 -8.237371717863051224e-02
5.586033788181491433e-01 -5.360351437658235074e-01 3.662538266160078049e-01
5.266503462003263580e-01 -5.440914323818968334e-01 4.034764527567598624e-01
2.083924489291101925e-02 -6.675721241380678794e-01 4.354173480337966695e-01
4.420068825138915442e-02 -6.572893265210345559e-01 -1.963898087148192584e-01
8.176593306350529167e-01 -4.701088966189040375e-01 -1.958032421679142474e-02
1.105412006986126877e-01 -6.416870385562361001e-01 -1.189566469938178883e-01
5.313887525682887691e-01 -5.439081120480900866e-01 5.371573831714564484e-01
-1.715239706950636434e-01 -7.077770877347631107e-01 -4.822398651191023289e-01
2.384948435854955875e-02 -6.632036348417934546e-01 -6.488892787244836258e-02
3.392203340955987079e-01 -5.864867406743994316e-01 -4.726537210553544144e-02
1.848825053966939858e-01 -6.263735899493076964e-01 2.665545194197012635e-01
-3.391105627379775722e-01 -7.528532631741773340e-01 1.014925655846694863e-01
-8.601574045831861595e-03 -6.704448219951711918e-01 -1.565558657693329470e-01
2.559273134629612700e-01 -6.052068057744889318e-01 -2.641183614791345335e-01
5.666239413808816794e-01 -5.293219447143481249e-01 -2.887370047847410137e-01
2.091314421599144852e-02 -6.618590536099046018e-01 -3.484279007453694454e-01
8.149711857569231777e-01 -4.711150249626821496e-01 2.874648503002611225e-02
-4.434269240025579678e-02 -6.770186778892419710e-01 -4.504106006239362858e-01
4.147983415366618964e-01 -5.669839390772735133e-01 -1.968841660645324065e-01
2.299320165442867991e-01 -6.165436558004198098e-01 4.244324496144342151e-01
-6.007068858120089283e-01 -8.150760102878655822e-01 -1.076045277256653526e-01
7.749086866826115916e-01 -4.809273885599376630e-01 3.570011953210470990e-02
-2.095403893074447577e-01 -7.167858825890200958e-01 -5.172665424891054187e-01
-3.876179555582367348e-02 -6.793331042862890135e-01 5.530463911797524335e-02
-2.538250373958514383e-01 -7.336020899509524407e-01 3.120688312018497501e-01
5.517953196224131274e-01 -5.388010699215173283e-01 5.186220330871935680e-01
1.915836387011142505e-01 -6.252233753737074240e-01 3.329802503560168603e-01
4.998984766375426103e-01 -5.456026845523340718e-01 -2.857010128904531321e-01
-5.306097103128419867e-01 -7.971540654302744500e-01 -2.234518656539566384e-01
-1.062692628763940716e-02 -6.734971381137410118e-01 1.956279846671959977e-01
-3.997244904705892776e-01 -7.666670519795539818e-01 -3.004926963091345340e-02
9.910096533536603969e-02 -6.425498491177641380e-01 -3.838752101870440137e-01
-2.743320425810920615e-01 -7.376693503094916560e-01 1.841244761075587488e-01
2.650362766408889126e-01 -6.081126684723784370e-01 4.413208470936976213e-01
5.777916193234966524e-01 -5.315826296675787432e-01 3.969458977271731470e-01
-1.005299009089818257e-01 -6.895227430400761026e-01 -6.137581246350017894e-01
1.184624940738669280e-01 -6.422638670552431872e-01 2.260928415783896028e-01
3.368349714331380640e-01 -5.837235154645558088e-01 -5.075825043058926900e-01
6.354779600416500251e-01 -5.190462030524333192e-01 6.061158634516069510e-01
-1.630217851235547799e-01 -7.092258385643794849e-01 2.298877669825954203e-03
2.451686537881120342e-01 -6.084982929644119354e-01 -1.719057559445858197e-01
3.525528630998835955e-01 -5.801644048013550048e-01 -4.703114679167116896e-01
-2.641891720272794286e-01 -7.288542805759791188e-01 -6.889831761270106547e-01
7.142977200348897826e-01 -4.984054683533631347e-01 4.085955872145691226e-01
-2.827731805646603314e-01 -7.405591728939781015e-01 2.987765590212076994e-01
9.837574998962693440e-02 -6.466005020140023207e-01 1.493184396169159600e-01
-4.977926255004833656e-01 -7.899912083278483044e-01 -1.087284376717208290e-01
4.750864354410643808e-01 -5.513756786022363521e-01 -3.232535788184367487e-01
7.734959955275464427e-01 -4.823876596344179313e-01 1.893082874779465907e-01
3.087978105704584642e-01 -5.947812942483940990e-01 7.407989713021158329e-02
5.872916745469453081e-02 -6.534957065727416969e-01 -2.312851095488103192e-01
-1.489719479560763782e-01 -7.064858936611330131e-01 9.637482849295447851e-02
1.212017015839275541e-01 -6.389424189917203289e-01 -1.391925941881298479e-01
6.095287578031519660e-01 -5.211169881374314583e-01 2.086934664397536651e-02
-2.905724134740644282e-01 -7.356132033176293605e-01 -6.435300507603094466e-01
1.030831777787982184e-01 -6.417696719490749713e-01 -3.577037571893574297e-01
6.556534193938614585e-01 -5.075069307440719379e-01 -3.054759732161976826e-01
4.444822057124162007e-01 -5.607337607385450839e-01 -6.162249462456310944e-02
-1.073523221964454433e-01 -6.985980257930080040e-01 4.065224076595534419e-01
-3.364709468279792892e-01 -7.492105101223254238e-01 -3.113559852559931729e-01
6.165978613208852530e-03 -6.699508412700901916e-01 2.707154848726304186e-01
5.184541339272442650e-01 -5.487717876211138934e-01 7.727842104417601554e-01
-1.662500845949165806e-01 -7.124843956735479322e-01 3.425255360478283162e-01
3.671153348484921253e-01 -5.816848684597337726e-01 2.273419350169034736e-01
-2.668382079389296502e-01 -7.315409584215940564e-01 -4.080408185375359320e-01
5.692431171444780613e-01 -5.312202441207199977e-01 6.037669642124968150e-02
3.244765653380219939e-01 -5.870983860246129504e-01 -4.575442028992590116e-01
-5.417994525694392882e-01 -8.005195517819189144e-01 -1.355115767154600748e-01
-3.722983029653608722e-01 -7.608639015139133654e-01 9.102356692330217103e-02
6.343838980722013021e-01 -5.167709351431862830e-01 2.562656501460637282e-01
-6.393374024147450152e-01 -8.261506103883523577e-01 1.211027007519295817e-01
8.399805219611963247e-01 -4.656432647740353925e-01 1.143763469254356346e-01
-2.598916920236160055e-01 -7.307548341204326281e-01 -2.832737739161983459e-01
2.804352861667417929e-01 -6.035320002674042783e-01 3.272945083704666969e-01
5.551436875992518116e-01 -5.338344044512192133e-01 -5.267491191803232164e-02
-5.177427003492309776e-01 -7.946963560875057730e-01 -1.301987584522340535e-01
6.617962672785738798e-01 -5.113164837240691263e-01 4.248685690088789824e-01
1.824303986328126501e-02 -6.681640694973839389e-01 4.298211040048853238e-01
3.376406953673966038e-01 -5.912649244482232058e-01 5.574077674071075128e-01
-3.883546401281260385e-01 -7.656073694888986259e-01 2.054121387344498839e-01
-3.621957973121230773e-02 -6.744687658517538598e-01 -5.289444342270634980e-01
2.778816900597669837e-01 -5.989922316862494878e-01 -3.831808350559929854e-01
-4.957125666780030915e-02 -6.821677920841909826e-01 8.294151544503063078e-02
3.575078772372647928e-01 -5.793985586203259652e-01 -4.095426125511190119e-01
-1.820941006543816670e-03 -6.716106760151439037e-01 2.313102465365720894e-01
-5.614127784355233547e-02 -6.809803667922439407e-01 -3.008302680257243233e-01
3.811729003651502246e-01 -5.759987164616027222e-01 -8.382679986225793911e-02
1.389431804615161026e-01 -6.317879019192229606e-01 -5.289133244846059290e-01
-1.324988939725331438e-01 -6.992645909819036332e-01 -3.450772866883939916e-01
-6.833364404908003065e-02 -6.886655675938363474e-01 3.480327214570103078e-01
3.111113088917427105e-01 -5.937043435168604111e-01 3.440827035271502767e-03
6.884144007132106946e-01 -4.995575428121746819e-01 -3.008889739346317094e-01
1.139714900571893799e-02 -6.675854578636131187e-01 1.205920697111872442e-01
-4.882720582118751373e-01 -7.897240117583315122e-01 1.737879019757733734e-01
5.515550608768827745e-01 -5.330388476267972075e-01 -2.825242127901745892e-01
-3.740742286001300099e-01 -7.597839051985486591e-01 -1.171820892817152099e-01
-2.388297427551633878e-01 -7.292616566784192456e-01 2.175680192646231859e-01
7.915660264279689162e-01 -4.768137169642482909e-01 2.815002210026599713e-02
-5.355370844477008729e-01 -7.984083623624278481e-01 -2.160653956998820069e-01
5.660263896500011827e-01 -5.326774388067608834e-01 1.530593026868661000e-01
5.296070584601960674e-01 -5.442423342005368037e-01 5.234055040963554450e-01
7.084758498150336425e-01 -4.974605119319059354e-01 8.328703607788864871e-02
1.210146860215313008e-01 -6.441369895475177465e-01 5.694948528178156444e-01
6.074536846597040629e-01 -5.228405910760508535e-01 1.885070648995425258e-01
3.795570393650790630e-01 -5.771238185463349879e-01 1.683635510338666111e-02
4.917652780081745445e-01 -5.534577903386890263e-01 5.226796957977607461e-01
-2.722439032015569471e-01 -7.334406110004716428e-01 -3.278717434477136372e-01
-5.345690163635767878e-01 -8.008590641291973844e-01 1.537053458461042910e-01
3.233865258062338377e-01 -5.903849140370714954e-01 -4.175671480954746412e-02
1.514273023430371956e-01 -6.325392339226681981e-01 -6.821870259432134473e-03
-4.065204227869824716e-01 -7.662353549332262537e-01 -3.173821177107077340e-01
2.142460217249546328e-01 -6.201006791328917966e-01 3.879438492155818374e-01
2.214475282659313093e-01 -6.172033148876608921e-01 2.306801241334578700e-01
-2.903054440580919437e-01 -7.353101351895970916e-01 -6.762897270697157959e-01
-2.696546840561369618e-01 -7.344970892171610588e-01 -9.562751930739052386e-02
1.107446300418699070e-02 -6.683381543598236885e-01 2.133681797214440068e-01
4.994992481450371002e-01 -5.515554577178030105e-01 5.202253290393591412e-01
-1.687207964585782372e-02 -6.711851491092446498e-01 -3.320290169257736901e-01
1.108514227729119790e-02 -6.624692171084196612e-01 -5.940501430563651653e-01
-2.019429873844309498e-01 -7.141117899342745989e-01 -6.305228992452254211e-01
3.560619562652943548e-01 -5.794355143110204720e-01 -4.529481733834271884e-01
5.378631208522924867e-01 -5.387775145486836115e-01 4.813447829234326208e-02
-2.676916378339196934e-01 -7.318935616550659162e-01 -3.881315147673695676e-01
5.717118880113613022e-01 -5.298486006868562415e-01 -4.561527939067214904e-02
-3.975075483661736908e-01 -7.631152883047597202e-01 -4.445496675134733011e-01
-3.795488374479825122e-01 -7.638098357052467424e-01 2.533280055724111968e-01
5.979935848583449731e-01 -5.230733660886777159e-01 -9.671901285757820987e-02
-1.768858582464172824e-01 -7.130457098221089085e-01 6.308955177222420885e-02
1.287826254906308532e-01 -6.394260993938524207e-01 1.816213684211678836e-01
-4.334394029812999594e-01 -7.754388914256761245e-01 4.657050531898190154e-02
1.483754489527786338e-02 -6.654755890185352074e-01 -5.442074491857923357e-02
1.428205611911399497e-01 -6.375478645033858527e-01 3.939004137978109887e-01
-2.587196581498687475e-01 -7.323026135287480365e-01 -3.093714565293365429e-02
-2.767110967878294581e-01 -7.354618281214403419e-01 -1.994964019489914309e-01
-9.895585785214675023e-02 -6.939657146016634526e-01 5.054310882484802647e-02
4.714348723660304330e-01 -5.597892270776033685e-01 7.122899358131504766e-01
4.595718772051889944e-01 -5.552753044535077009e-01 -3.068382872021256924e-01
5.389394434130095890e-01 -5.410273636332081360e-01 3.938912204634953951e-01
-3.672768074054187926e-01 -7.584429664945818717e-01 -7.377762962284084569e-02
3.386722615766728506e-01 -5.871269331926014523e-01 2.246734206480844459e-02
1.632775873661762855e-01 -6.327929419227256158e-01 4.255216075494646089e-01
-1.163842059796755118e-01 -6.981524496143243219e-01 4.229197333333262199e-02
4.081497921115829763e-01 -5.713728630466445857e-01 1.842163035629985068e-01
-3.375463284603150149e-01 -7.502595829979598063e-01 -2.030310705661580450e-01
6.536723557309104260e-01 -5.095496398874007626e-01 -9.076497953471462932e-02
9.585771124068388901e-04 -6.670490960288517623e-01 -3.033099647195438009e-01
7.643427978432393299e-01 -4.846494447593466814e-01 1.936394532677516711e-01
-4.028430788423909004e-01 -7.689512627521212229e-01 1.797517431771548102e-01
6.764712034820444808e-01 -5.055117540865243786e-01 1.180841138140663743e-01
-6.745592087744581300e-02 -6.813325644945011916e-01 -6.318154908438028405e-01
8.504775757382948553e-01 -4.612698897431832812e-01 -1.355163700128178550e-01
4.174830040026364930e-01 -5.684977241767319445e-01 1.015027953673237615e-01
5.856190480087031941e-02 -6.543553458427175951e-01 -1.185773866119704950e-01
8.807067302159814204e-02 -6.459223160560988442e-01 -2.896266538357981646e-01
6.306206230274262747e-01 -5.164212515056705310e-01 8.192731011737433566e-02
-5.820473821851873675e-01 -8.114937837774675033e-01 2.513806133001594140e-02
-4.834920700710805264e-01 -7.862142573563291048e-01 -1.489733903670732162e-01
9.744190216271977900e-02 -6.493183975740837166e-01 4.920799032284293162e-01
3.901353717905788887e-01 -5.769034687165331965e-01 3.412748591498936390e-01
-7.912559703378299614e-02 -6.914670759793030141e-01 3.716900911610854785e-01
3.426216655468520278e-01 -5.892207245673845017e-01 4.430997480221550155e-01
3.297360425889674929e-01 -5.905334764498214595e-01 1.916351618065211260e-01
-1.166085326800287980e-01 -6.945550990250742851e-01 -4.603558873017361552e-01
4.430027892995820893e-01 -5.656201782979229931e-01 5.613086650577483461e-01
-2.526186462168028002e-01 -7.324194463130258015e-01 1.897534638781165628e-01
5.959820105149190583e-01 -5.244296706613619241e-01 2.249482872320921617e-02
-5.368110119776364070e-02 -6.858254628574483869e-01 4.485360817356609520e-01
7.044717474057164974e-01 -4.959167514549307487e-01 -2.634757977377197857e-01
8.578882084245008643e-01 -4.589069781168337858e-01 -2.122067429768271229e-01
-2.717376967025084133e-02 -6.735536001389452743e-01 -3.515338911222327667e-01
-3.180919720287611607e-01 -7.441790882088265002e-01 -3.874828354911279416e-01
1.439815813866248129e-01 -6.346929812935587778e-01 3.990323296780534656e-02
-5.440800029277869099e-01 -8.016341100546440224e-01 -5.859137975141080062e-02
4.115415174520937192e-01 -5.695091031479079247e-01 4.144464696247750213e-02
-2.130379768480227323e-02 -6.728276208758117161e-01 -2.545928872090646999e-01
-3.125076187921762561e-01 -7.435071956332289789e-01 -2.926763849766078618e-01
6.381061562396965758e-01 -5.172092282505290628e-01 4.414242475561754864e-01
-1.786466495991004266e-01 -7.078347837465479575e-01 -7.131727897568969077e-01
2.460625222331807582e-01 -6.055036833258717888e-01 -5.540938038178926384e-01
-1.919489532454756175e-01 -7.128747821253268446e-01 -4.656087013853493772e-01
2.788700706234605309e-01 -6.045594277491528334e-01 4.162126327693755901e-01
-3.845937317429262148e-01 -7.647873554433426424e-01 2.186787117563684657e-01
2.035713020006520158e-01 -6.228966258655661559e-01 4.147673989454706001e-01
6.985783098587561302e-01 -5.024630611754419274e-01 4.398826661857032083e-01
8.239455782339683010e-02 -6.489191078735951912e-01 -6.752092898769723739e-02
5.003647251552313380e-01 -5.451288773197948689e-01 -3.352772775237104486e-01
-3.574897956926644318e-04 -6.702861678636311549e-01 9.809027587429795803e-02
-5.421905026970521568e-01 -8.001072640332151931e-01 -2.053718587780105076e-01
-1.044623459872946608e-01 -6.946628520481512581e-01 -3.817737171034122495e-02
-2.317575782468959122e-01 -7.223724088337494242e-01 -4.934599633951623487e-01
-5.084849228010895894e-01 -7.931936303029470947e-01 -2.654880202377387852e-02
3.891121916116601076e-01 -5.783566784493165969e-01 5.069742000195976983e-01
4.428933749967809419e-01 -5.619663823169214201e-01 5.474572012002807547e-02
-6.607734196689313277e-01 -8.305608493540045378e-01 9.208148658334105313e-03
4.706096949779037253e-01 -5.523870838496883762e-01 -3.341847802896508735e-01
7.136005898956027105e-01 -4.953267473863681158e-01 -3.852667175613780359e-02
7.134068051614312900e-01 -4.981171807240935001e-01 3.390381614393389587e-01
3.337248900541682772e-01 -5.861786603341705426e-01 -2.739695229672297616e-01
-5.139621689689287676e-01 -7.961869709449143073e-01 2.017514069595341963e-01
-5.197206985413569402e-01 -7.958721234577815773e-01 -3.470727102276890963e-02
4.232369892540887024e-01 -5.684548545096987926e-01 2.885743467109973537e-01
7.680173184979476320e-01 -4.828387596131094028e-01 6.765692176521345691e-02
-7.703076739223098379e-02 -6.889749564412150917e-01 9.893947282311951752e-02
3.567398219757279554e-01 -5.819643764104875938e-01 -8.215230882735076456e-02
-6.355105739084676575e-01 -8.253392633351421814e-01 1.377729325253384540e-01
9.240549940225596670e-02 -6.443184337821713514e-01 -3.650009487713260503e-01
5.823292801729417212e-01 -5.293626417196920508e-01 2.435758214802981325e-01
-2.226126193293976041e-01 -7.182961952385855664e-01 -7.477979332976451010e-01
-7.691133491752796814e-02 -6.866712539298808204e-01 -2.141272827427788128e-01
-3.362489502457212120e-01 -7.479593533604378397e-01 -4.761149544673889400e-01
2.366949209598327164e-01 -6.103851554872624652e-01 -1.963901226027922886e-01
9.218475581225406279e-02 -6.449134731758293659e-01 -2.905052638791849606e-01
3.849853375785638465e-01 -5.800221359303194824e-01 5.977982427626643558e-01
-2.413334253715607447e-01 -7.254206030065355471e-01 -3.950651135876417919e-01
-1.491658991726355354e-01 -7.022949494029789852e-01 -4.869541268858358918e-01
6.759222505069237830e-01 -5.057324503960852757e-01 1.300495608205848863e-01
1.012259018445650222e-01 -6.463539934970391476e-01 2.109758342556484756e-01
5.066072171917811451e-01 -5.491644622825770927e-01 4.295191561193180130e-01
-4.228299213739428186e-01 -7.738653467089470217e-01 1.858054631193652162e-01
3.349104523542617562e-01 -5.903524637597539204e-01 3.402559947097107407e-01
7.268804280102805770e-02 -6.540782706503006638e-01 3.170367676586315353e-01
-3.936010261258123810e-01 -7.651030329577171996e-01 -3.995122650481025550e-02
-2.401233806556252459e-01 -7.278846721528757779e-01 -1.533934712380033948e-02
-2.035662955097225502e-01 -7.197474949694286916e-01 9.071140810826497369e-02
5.090633434235944943e-01 -5.494702950768641792e-01 5.539840703415237488e-01
5.910680338697190672e-01 -5.240353627072986686e-01 -1.965766096001689833e-01
-2.806963742659906447e-01 -7.333324993074941123e-01 -6.262231287003117153e-01
5.821521929737771828e-01 -5.279362233679308902e-01 4.131045404341397026e-02
8.259600460402386490e-01 -4.698450016825767572e-01 2.224801487852759718e-01
-1.608828241516140345e-01 -7.109227797931187975e-01 3.075934547538784480e-01
-1.351200020575754335e-01 -7.017522540449209201e-01 -9.058989008161177914e-02
1.698253475812109559e-01 -6.268413680601421234e-01 -1.740357676571760437e-01
5.228781602511113347e-01 -5.423520802436703203e-01 3.757098876983518132e-02
-8.718516995020143823e-02 -6.900306521334329535e-01 -9.630807292330732794e-02
-3.273684464260999127e-01 -7.474164508965147613e-01 -2.530115144914580894e-01
5.358633602440664445e-01 -5.385057108049444707e-01 -5.634163905079395129e-02
3.908911845651630856e-01 -5.721606091004860506e-01 -2.861651382526476661e-01
-1.009456906031494933e-01 -6.950636098599511925e-01 1.349197011118856704e-01
-5.720380022324443592e-02 -6.867028018872239903e-01 4.511483348473857014e-01
-2.959286146614194535e-01 -7.411244376641291653e-01 -6.461777251656941612e-02
5.406765690136874358e-01 -5.395656676540745433e-01 2.509675236782736296e-01
6.966572264394997882e-01 -5.009634913168149462e-01 1.690604561645969728e-01
-2.254628674785146697e-02 -6.776174185245609216e-01 3.629857591977552755e-01
-3.640216648196005766e-01 -7.562942521275737295e-01 -2.603498405772246005e-01
7.416115978760843275e-01 -4.881293067270779384e-01 -8.974504366749655460e-02
5.354764642595047919e-01 -5.373625465414550995e-01 -2.266574518565656060e-01
