1.521832525273202341e-01 6.214016985918305869e-01 -1.896641670789278866e-01
-2.691809380826232778e-01 3.861836224420145958e-01 2.865684116948222782e-01
1.941966173018199460e-01 5.862544223527174081e-01 -3.922410084366063643e-01
-9.422801670542578778e-01 -2.986875641052332275e-01 2.291756428568940129e-01
-6.139936536898554093e-02 5.959451597763044672e-01 2.999077940918698504e-01
2.015791494445398901e-01 7.323862661977138533e-01 -2.473726408685998981e-02
1.669168024150246010e-01 4.924702007619323751e-01 -5.693159017615000428e-01
-5.112377133147457675e-01 2.575113049806366794e-01 5.772181910297751184e-01
4.769740734676516242e-02 4.209873217533408596e-01 -4.476228207349853827e-01
-4.619715008060972794e-01 2.752342246775273948e-01 4.956556083266415724e-01
7.635154487400598600e-02 6.411781534617836398e-01 6.041794218934788685e-02
-2.779500242196766835e-01 4.151701156238118418e-01 3.861510730078168696e-01
-3.243817480874038317e-01 1.301805704607373881e-01 -2.470294574506843310e-01
-2.315691900604438178e-02 6.627533250944886989e-01 3.770009114738597233e-01
-3.745765652757580000e-01 2.185572012179896051e-01 1.177592256900955869e-01
-6.619454085969489476e-01 2.303699165202897220e-02 3.496457426062759555e-01
-2.981263298245143134e-02 4.733729532041111576e-01 -1.068603030673954679e-01
-2.520720953375011897e-01 5.232396814753113023e-01 6.046893772173480563e-01
-2.972496713499918064e-01 2.565683681623013856e-01 1.671978938962496303e-02
-1.008492254506597602e-01 2.247533999337215649e-01 -5.796229471787388565e-01
-7.052152504975418568e-01 -2.291022552475873997e-01 -2.048377386924921384e-01
1.711697467493225877e-01 5.050815733983331501e-01 -5.470285851528764454e-01
-3.387319323390853339e-03 6.631492136934455939e-01 3.264967664759584332e-01
-3.992932510384754052e-01 -1.480929738217698355e-01 -7.881704382648681007e-01
-2.329388931789636852e-01 3.126405832020546227e-01 -2.577724866704682836e-03
-2.012021363982595401e-01 2.669994853824044639e-02 -8.421103266270141274e-01
-3.967828732127153257e-01 1.970736880747272490e-01 1.188065988901433612e-01
-1.892844786742468310e-01 3.683221416259544467e-01 3.095511014731808924e-02
-7.286595722380974360e-02 3.046755423247097250e-01 -4.410699873757533140e-01
-2.672336603116041154e-01 5.267654194695697845e-01 6.535564822895338910e-01
-3.628713768175719223e-01 2.310968111675253955e-01 1.204238779073109611e-01
-4.601594973114963572e-01 -8.068133240032229758e-02 -4.510408085388200594e-01
-9.208465975531100745e-02 5.659219696824846491e-01 3.004640380186387461e-01
-1.345277135803150670e-01 2.604941890077731581e-01 -3.972096260664901290e-01
-3.057216430656373163e-01 1.985531571872864998e-01 -1.147323111361870096e-01
-3.742388980858243896e-01 4.201210973219678402e-01 6.503406984174262551e-01
3.749002623995158212e-02 6.891149371223187492e-01 2.886248170300979576e-01
-1.414172288564584934e-01 5.288916119005022676e-01 3.311003036102876385e-01
-2.107642492979916737e-01 1.241756806783867323e-01 -5.591951087863357150e-01
1.950249646211369148e-01 5.998387211620425097e-01 -3.584486303524833661e-01
2.764232090872956737e-01 7.728928671074655199e-01 -1.126979212083402404e-01
-1.511505802147410649e-01 5.826961035144780920e-01 4.988810984825000072e-01
-1.469648847131470037e-01 4.248027191511842826e-01 7.008336633369333102e-02
-3.784891334122444939e-01 4.009973041506190161e-01 6.108104492904763427e-01
-5.946617981957917909e-01 -6.498414195251177305e-02 -5.876342005752221986e-02
-6.686862191688563994e-01 -1.893521630953580101e-02 2.561390536773286430e-01
-5.643930024810216439e-01 -4.992630317365027125e-03 2.108101532391845959e-02
-1.913299330263809606e-01 1.316375788588582951e-01 -5.901239515012446368e-01
-1.260851057883740634e-01 2.998944284064257171e-01 -3.149476139542465858e-01
-5.259123797664089217e-01 -1.264887133714471257e-01 -4.008157504659478065e-01
-2.562170880612434920e-01 1.090493975986707859e-01 -4.807041179328159219e-01
1.415787875487095060e-01 6.182278181805827000e-01 -1.704116267171545129e-01
-1.813671370594019117e-01 2.031556126274233071e-02 -9.107297884015417289e-01
1.049002609307157600e-02 6.907279262375942697e-01 3.632999362744678273e-01
-2.782021078543847614e-01 3.676555982979445858e-01 2.610557916241931231e-01
-5.343794600393616534e-01 -7.281780205471169443e-02 -2.366904645951139752e-01
-4.765627548047012829e-01 2.652206143841158784e-02 -1.245410061288372700e-01
-4.751879289164936959e-01 -2.162916707216210044e-02 -2.555638037410232766e-01
-1.640247500374970024e-01 2.744601558199306623e-01 -2.833295730412534463e-01
-2.919521644416062656e-01 4.022086724229844146e-01 3.883596035962974535e-01
-2.336958510869774908e-01 5.901462543921540682e-01 7.338467551409906253e-01
5.805007401640167874e-02 4.660964277618643847e-01 -3.552323752043832217e-01
-6.519751648517748688e-01 -2.107106221817117431e-01 -2.949929073091064335e-01
-2.590380611665033528e-01 2.064046491206252554e-01 -2.156862011990725303e-01
-9.903188195332938981e-02 3.486582883318485315e-01 -2.564334081528961140e-01
-9.821853273318573163e-02 1.780333100803238866e-01 -7.101329149804691543e-01
-1.784860117040868444e-01 5.894190114773287803e-01 5.879548871220670048e-01
-4.456877311692019061e-01 -1.510410859364936242e-01 -6.749930627526885552e-01
-2.091014273109151889e-01 2.366605632804149595e-01 -2.658269900658475349e-01
1.488328881435025119e-01 4.899515538965708017e-01 -5.288255332475906290e-01
2.684026361019831164e-01 6.920538512503053852e-01 -3.057329243186726053e-01
-3.787855475666326299e-01 3.588173882778480928e-01 4.999494007710911236e-01
-1.636953209244583207e-01 5.968871169403197063e-01 5.691513552945620669e-01
-3.569219410870111409e-01 1.362306444047968745e-01 -1.461642804731137779e-01
-4.820551664687773852e-01 -8.211453656252200653e-03 -2.021450328483691827e-01
-5.376146088302075077e-01 -1.942663168267274310e-01 -5.496818094964047718e-01
-8.009733990311886931e-01 -1.289292732971265287e-01 3.099839013463777104e-01
-3.017394730594043506e-01 1.465433401565523486e-01 -2.627663091771709203e-01
-5.130321781754986210e-01 1.688263851135233529e-01 3.471826819726934188e-01
-1.203016942783882298e-01 2.761150604562603861e-01 -3.929634695927031740e-01
-4.614255819982862050e-01 7.699030544605386939e-02 -3.044323475482242636e-02
-1.279413034724023179e-01 1.502440692724409388e-01 -7.061741786806557952e-01
-2.565104720290262708e-01 5.148018323220228121e-01 5.939313095201588233e-01
3.810290228743150043e-01 5.760144974376779636e-01 1.051482298190204862e-01
1.546874495887781351e-02 6.893898835896322685e-01 3.819620018497176250e-01
5.116163672158556830e-01 2.046064985045246698e-01 5.418328910449531355e-01
8.076524775294911807e-02 4.820120047022594112e-01 6.353796671315476985e-01
2.413111770011659163e-01 5.040480151062991521e-01 3.975565934339679863e-01
7.409037452052714690e-01 4.934665930982921611e-01 -2.144002272635766593e-01
2.437832628717033490e-01 2.335787141935846689e-01 8.321948972317682047e-01
6.635313344620139553e-01 5.272996979111879146e-01 -1.717319959616471492e-01
6.480230120166458052e-01 4.554970317287858617e-01 -3.599234349032898184e-02
-1.383362087228400539e-01 6.056581186877211254e-01 7.111506925805420876e-01
4.785593245670072271e-01 6.976126871003958119e-01 -2.144662253986743816e-01
1.364785375590506500e-01 6.100851907525429718e-01 3.579411385258952638e-01
4.102066672183273810e-01 6.183782699947639738e-01 -1.572406943400694141e-04
4.400752242047312190e-01 5.596394129937919404e-01 5.730062117745653161e-02
4.493697789489235761e-02 6.460924350294379170e-01 4.149322246379228418e-01
6.931161595675721099e-01 2.613996022300761890e-01 2.213709761857433900e-01
7.021783037495074042e-01 2.881424000428289833e-01 1.666771221145805226e-01
1.096182515377493033e-01 5.647977112029843871e-01 4.650605938121272209e-01
6.135079290034171073e-01 4.045249939793747473e-01 8.996635249593429307e-02
3.497127299408064327e-01 4.332779186367115565e-01 3.755987824065228353e-01
5.958182379213461388e-01 3.717691273469746482e-01 1.652560159602101952e-01
5.356017036476358184e-01 4.704786141678830580e-01 8.132011185328712199e-02
5.176153106878904619e-01 4.628954561629298747e-01 1.162416701384720030e-01
2.263361491210219290e-01 6.110555500660099781e-01 2.432226831134753076e-01
2.152446981446507202e-01 2.569194491927220825e-01 8.303537319315236198e-01
3.002816465965893467e-01 6.430958528692942711e-01 9.825431709413202930e-02
2.320507934340351464e-01 4.143361399129132927e-01 5.544147219963168061e-01
1.360054559718249512e-01 5.157608691202348883e-01 5.111995571446737996e-01
5.597093069601252191e-01 3.474480130652669030e-01 2.500874901086892477e-01
2.322893449302792512e-01 3.077296396654329858e-01 7.266556086025767192e-01
-1.114202128167053329e-01 6.100251893748156462e-01 6.701902506553346628e-01
4.033504627286751271e-02 4.110500947581087750e-01 8.011399846719889917e-01
2.307066414966265910e-01 6.697093094921793277e-01 1.427890304792830412e-01
1.422172387806881766e-01 6.714309571441022806e-01 2.514276698028650725e-01
7.195647133724174527e-01 2.606925937606054400e-01 1.892114661471063219e-01
1.046406278345011348e-01 4.393138791665034404e-01 6.744223660105791440e-01
4.146266381844550541e-01 4.767646188301871146e-01 2.234770678196439930e-01
8.784450354999973065e-01 3.267119318849361354e-01 -1.177007473139048549e-01
2.816088928344478992e-01 6.709043861478469761e-01 7.675913158064752440e-02
2.585456084550527001e-01 2.416350655272475889e-01 8.005671746145059942e-01
7.620393255129568333e-01 2.782063313483485456e-01 1.073820331771350722e-01
3.304686495858256134e-01 6.271884008005039757e-01 8.598910878666247981e-02
7.714259203565602130e-01 3.714316290565228829e-01 -5.532144933397159514e-02
3.755109529914525401e-01 1.582337550639714152e-01 7.882693696094511537e-01
6.958164525587673399e-01 4.786939538298964347e-01 -1.337173620604452384e-01
5.482851531614750806e-01 2.233138843508199745e-01 4.653822005330376377e-01
2.239319659854082101e-01 6.167773088517074509e-01 2.369894160661517590e-01
7.236668117687308603e-03 6.584945249829241565e-01 4.423315091571102253e-01
1.859708110074544674e-01 1.953403284096833781e-01 9.668801879594223214e-01
3.847570868179102377e-02 5.256911314593994966e-01 6.179361827950741182e-01
4.282404674259852606e-01 1.546230207250545996e-01 7.277167406868951804e-01
7.555956232655497429e-01 3.508806444447085671e-01 -2.126565751424515024e-03
4.637033733029192750e-01 5.635877872641367192e-01 2.115786286414732612e-02
4.131151269402554838e-01 1.882837205036915762e-01 6.922830252489289293e-01
2.713803324585376542e-01 3.241435422582825687e-01 6.508668759923742497e-01
4.529257722484736903e-01 2.878182387292099187e-01 4.810584434431338097e-01
3.542059959246324219e-01 7.490872233061335317e-01 -1.411924543380996266e-01
1.376166918158083230e-01 2.515035898324564090e-01 9.368677577666977285e-01
7.376468548501877720e-01 3.482710333733929908e-01 2.469799339151554363e-02
1.349408276911959192e-02 3.916896431274040635e-01 8.662725433386142537e-01
4.949112536934561768e-01 5.157531222718245711e-01 5.928096360788465830e-02
3.636890346528665607e-01 1.973304733608053640e-01 7.398778860352869247e-01
3.179648151156468927e-01 1.664072608873850834e-01 8.475022620729876222e-01
8.097144091753804007e-01 4.653361161804767110e-01 -2.555172106829431411e-01
4.432232842165538811e-01 4.489470005758245952e-01 2.324908764048976562e-01
6.976830793348403059e-01 4.292733127904306833e-01 -5.608112189066344344e-02
-2.064219270376645987e-01 6.121414434093499501e-01 7.863904718805464489e-01
3.974596065024045277e-01 4.526297557666990046e-01 2.841556180659815523e-01
1.107577543363810202e-01 4.961758776229059364e-01 5.746893089273554800e-01
5.171415002892845170e-01 4.235804237065478040e-01 1.804691695891021963e-01
2.875575851815641570e-01 4.556667762709324387e-01 4.176279305648247786e-01
7.145541441621892920e-02 5.599745782975387165e-01 5.209210935742408788e-01
3.630249103261217192e-01 7.880805637209877812e-01 -2.154073833710558883e-01
6.596526473488685260e-01 4.646981234834219321e-01 -6.552813182392862312e-02
3.740580138621246165e-01 6.756491923749837758e-01 -4.733142499774477263e-02
5.154605283417328376e-01 3.975130280652292569e-01 2.247755844344449527e-01
-5.060406236401127772e-02 6.060871690535473144e-01 5.999847065634990040e-01
5.506301484510330857e-01 3.315845578426617202e-01 2.871946904701332404e-01
5.469010705536443417e-01 6.301949101828113742e-01 -1.914067544843017221e-01
9.024917542268293680e-01 3.174808311215358003e-01 -1.330397517533018492e-01
-4.160436958388556011e-02 6.665623796393871370e-01 4.907740085018128529e-01
2.905458941004286921e-01 3.047466689086769653e-01 6.581273570949699447e-01
6.027603128543536082e-01 6.893769191952633379e-01 -3.575295689013078260e-01
8.642896511381211733e-01 3.629527644643740780e-01 -1.585317354794035516e-01
4.646903403427658508e-01 6.805761271919195110e-01 -1.694290621283016385e-01
4.639660506059340439e-01 5.264909390485909002e-01 8.086788019521411186e-02
4.863800914426898436e-01 6.101564071506508924e-01 -8.276718867102136890e-02
5.405697222096368382e-01 6.982908746218410290e-01 -2.936468292561901228e-01
4.284297660848684908e-01 7.287311952841136753e-01 -2.017084220287918839e-01
5.260440902076061187e-01 6.610333309910505495e-01 -2.150554149781213342e-01
6.976750760343528590e-01 3.454451044037600282e-01 7.960384792800759279e-02
4.129982851827166401e-01 3.315226654193272338e-01 4.605997356655996411e-01
8.079290164653185613e-01 3.954682597250719911e-01 -1.401888197679743986e-01
3.524936661553695338e-01 6.665004481944539760e-01 -5.370655118815676268e-03
6.142135927124071637e-01 5.137465891258987671e-01 -8.769597980439478024e-02
9.187530968083061911e-01 3.637519085163236632e-01 -2.284050481325188009e-01
4.171665628421478145e-01 2.220167439026184963e-01 6.325850210214308822e-01
1.975769992831055422e-01 3.195265182798239789e-01 7.512720009477236172e-01
5.832315417827836912e-01 3.111136178217419057e-01 2.792752497272927292e-01
6.089119738582938340e-02 6.798622261350160123e-01 3.401868283581430674e-01
3.162143956858696203e-01 4.878760454655164391e-01 3.294132245068255305e-01
5.135859077254835148e-01 2.094002688745167096e-01 5.315942058184799368e-01
6.842809311343946987e-01 4.692009103566701644e-01 -1.038275610062572019e-01
2.657746481652857873e-01 2.735298385280484079e-01 7.398431436201049483e-01
5.740845121819009300e-01 6.157241328596195773e-01 -2.022151436954846560e-01
4.099879170518920257e-01 2.009005905566503547e-01 6.758005372073296879e-01
-6.776216303659252094e-02 5.961943347204691213e-01 6.376014680815618174e-01
1.442639652030389963e-01 7.320857816479720004e-01 1.506813850674927069e-01
6.445584553201585409e-01 4.736130325866343416e-01 -6.095032076230069706e-02
-3.885195614626463928e-02 4.317636581475614022e-01 8.673269458043905145e-01
1.941006295650569424e-01 6.626691850588034560e-01 2.002773618580544757e-01
3.646283189805176600e-02 5.305391119467942618e-01 6.126243852076740382e-01
3.078057974054814738e-01 6.778704500098138297e-01 3.249772586412050940e-02
8.411733285573425034e-01 2.975358431331296960e-01 -2.354740091986634240e-02
2.702367533921473108e-01 1.577897603746753752e-01 9.215483472513420482e-01
-1.965866730116873906e-01 5.876611675786667099e-01 8.136270195212866874e-01
4.078898538752442349e-01 1.475932945263659923e-01 7.647195830974460318e-01
9.492930183145911749e-02 6.965898954981742941e-01 2.702528156646960000e-01
4.383135569813099708e-01 3.007926595735115893e-01 4.784590851922576049e-01
-1.880957646965167873e-01 6.285975200566936705e-01 7.366803725837445249e-01
-2.639653962961027028e-02 5.405956575055247404e-01 6.754999804214382175e-01
2.291343302220319178e-01 2.247108704022475478e-01 8.649932014974175409e-01
8.675066493724614691e-01 3.655340333509799478e-01 -1.667603032850962508e-01
5.201493967185397693e-01 5.188483752959366369e-01 2.249168053556019689e-02
3.181056996688038652e-01 6.319710079148559423e-01 9.381584134364295835e-02
5.004546602735583383e-01 7.528685481411460101e-01 -3.314675564445371814e-01
7.361898186992444915e-01 4.419751420361768823e-01 -1.251262305416474541e-01
-2.112109826317740691e-01 6.076420423818755800e-01 7.997030335030569370e-01
6.596881872582239792e-01 5.456222726047701421e-01 -1.965475924160985655e-01
3.124056950809943056e-01 5.422267135676372973e-01 2.462432409287219903e-01
6.769641562270698465e-01 4.434080046163126343e-01 -5.286884937164378073e-02
3.687666260896352854e-01 2.622456120769082744e-01 6.284198972984141873e-01
2.304978190692003326e-01 6.816123538542837590e-01 1.237870515651679354e-01
4.463275078884673119e-01 6.008089407983262520e-01 -1.720455994924003501e-02
1.687653271255535048e-01 5.109469571336032745e-01 4.777398611698601694e-01
3.135788172704960242e-01 6.872482030978670497e-01 1.005061384929752111e-02
3.278459842756598075e-01 4.361345689576601736e-01 3.985097504825059755e-01
5.614428243510631855e-01 5.846764113033570132e-01 -1.360464941864953370e-01
5.775885021106058614e-01 5.692297973691952118e-01 -1.313768457172098669e-01
6.830719349201765100e-02 3.585170780155569337e-01 8.509417158600939279e-01
3.628197557147204710e-01 7.516011682246609427e-01 -1.561076154626954149e-01
2.077599209701084249e-01 2.957849863802075041e-01 7.768751207396312752e-01
1.501361183248015874e-01 3.549596425811225586e-01 7.536610929523588354e-01
4.252962671709125120e-01 5.731408895140339688e-01 5.405818981556278352e-02
5.010974849371533368e-01 3.155009605342449230e-01 3.755968978692794114e-01
2.635533458157005189e-03 6.277960205049976095e-01 4.978103590020823699e-01
6.076166662143941410e-01 2.464783546154151739e-01 3.531810619550215802e-01
3.855266047452110545e-01 7.399270922652256832e-01 -1.658055429901945099e-01
2.703704531040161951e-01 7.762094218825554837e-01 -7.952438539307762899e-02
3.891326032586405193e-01 4.972525165645010903e-01 2.224195373881732163e-01
6.902865682399929037e-01 4.798056627600744140e-01 -1.285534655050168396e-01
2.884404837194620708e-01 5.765605113286029759e-01 2.208512152580768273e-01
5.776128560024206271e-01 6.697299685103808020e-01 -2.940657643392149412e-01
5.657605850216388399e-01 4.641404563315935650e-01 5.360253269118224473e-02
4.636222871270528900e-01 1.607721982882298617e-01 6.732118879757621466e-01
7.419920295692797874e-01 4.831008188434546824e-01 -1.989937115216182939e-01
1.965122864755065035e-01 6.379560578535233839e-01 2.372385069224932919e-01
6.058362783455371048e-01 2.900695763319263709e-01 2.848710717289977268e-01
6.342693962205032676e-01 5.889010563490357786e-01 -2.345866292761862870e-01
2.499675205588401672e-01 7.521692014856816710e-01 -1.492439422334983223e-02
1.299883839521488726e-01 4.364818327759709127e-01 6.470883179934232565e-01
7.146868987112353633e-01 3.085110731914950111e-01 1.179599664274938037e-01
7.622388907471937536e-01 4.190606279805020873e-01 -1.208401503987278913e-01
5.264454113582945904e-01 6.907838944035158413e-01 -2.637116647364186606e-01
3.675996248260073318e-01 4.035895885108221615e-01 4.011259420993288916e-01
5.642509065069858387e-01 4.869570022619322258e-01 1.857521683302925525e-02
4.652072730897250374e-01 7.054980426264081395e-01 -2.104157835130489596e-01
4.421652887672713472e-01 3.385662069959389231e-01 4.124730098026431757e-01
2.197830282841371219e-01 4.719715274095621638e-01 4.765800439546235001e-01
3.713522714352914256e-01 4.331025915471578003e-01 3.486342202478271979e-01
2.633007443782495738e-01 3.270980956387108951e-01 6.562587174944313206e-01
4.904315784362375252e-01 7.989757295477251109e-01 -3.934704652942139780e-01
4.298140598443965232e-01 5.285136777963692634e-01 1.205979998429142219e-01
2.534854519560149066e-01 1.652400654133300562e-01 9.305832195060227408e-01
5.389394850577375884e-01 2.398755468592282669e-01 4.503453456929278897e-01
5.122647513297610145e-01 3.920946561567987265e-01 2.375692459167364212e-01
4.780918522832323103e-01 3.702396068717898059e-01 3.159715902026182799e-01
6.458720327868008315e-01 5.995761772985250815e-01 -2.664741185507153998e-01
8.399424121425846934e-02 3.211551211294039199e-01 8.916585720050298480e-01
3.748630484598995949e-01 4.602063810741321981e-01 3.003463400330360633e-01
2.523450109682759401e-01 1.961616300057615336e-01 8.819730929770406291e-01
6.598724325853589923e-01 3.187311842913466697e-01 1.704407563440675788e-01
5.332433230851526540e-01 5.210977687652270651e-01 2.363304880683954248e-03
8.224391152115642090e-01 4.639849476099178194e-01 -2.693532032364232554e-01
3.185011103877166683e-01 3.265698153007491333e-01 5.876059005501109711e-01
6.043597394704385284e-01 5.124116028618584950e-01 -7.312743316960691742e-02
5.060557644099087371e-01 1.991419036482113547e-01 5.576791323335859030e-01
3.470100709327811339e-01 4.599612275076224166e-01 3.358153506722058590e-01
3.790028810144212279e-02 6.730755193031120465e-01 3.801209849650477035e-01
4.541341262277250324e-01 7.419497918703022998e-01 -2.554692649023614370e-01
1.738590918665057494e-01 3.946229137204247950e-01 6.595948248735918895e-01
3.894943318524215492e-01 6.205339420094964087e-01 2.243462823766943781e-02
3.294325168746950472e-01 1.881818817294631241e-01 7.978202817537022318e-01
3.879703370816107721e-01 6.369948458134119251e-01 -2.288134535541719739e-03
3.096373965496270753e-01 6.374483436502694778e-01 9.561405827407098990e-02
3.003815495911946187e-01 2.941904760562169541e-01 6.628274475052395864e-01
2.770900481487241773e-01 6.230774253979936006e-01 1.598565518357504822e-01
5.911074954816831761e-01 5.004479972774272811e-01 -3.707737620098155301e-02
3.524987478938975682e-01 3.237746660892148465e-01 5.493202777499472944e-01
5.203082613741211171e-01 3.795354791734604771e-01 2.477677950626497871e-01
1.932562549840978472e-01 6.278767531912949895e-01 2.576517008836441969e-01
1.473758639502233472e-02 5.402184210434101130e-01 6.243147907808060948e-01
2.261788111288786929e-01 5.391479236891631999e-01 3.598023831060617739e-01
2.415850808827501028e-01 2.898000054070329901e-01 7.439693825115976100e-01
5.192949464787423031e-01 5.098121585563654135e-01 3.819259921131051838e-02
6.803001262797160609e-02 3.418452851005298609e-01 8.782738250441171068e-01
3.746461278099293413e-01 3.552820417450094914e-01 4.704381971842150345e-01
7.200608682679517925e-01 2.828424787028753218e-01 1.527374042520199537e-01
6.178715826257842325e-01 3.352759659358886535e-01 1.965503505666333084e-01
5.422244139392883300e-01 7.028589641562148493e-01 -3.031237980031737944e-01
1.417354969181928714e-01 4.044205707466528854e-01 6.841871991147661092e-01
8.878924186677102925e-01 3.174277705356839396e-01 -1.145705145482090598e-01
2.700839739952440866e-01 2.268926923138833707e-01 8.098985068177575464e-01
2.688910407235671762e-01 5.024325948969055045e-01 3.654428004374452588e-01
2.621203190345348100e-01 6.268673118476570938e-01 1.725724244198474921e-01
4.530779981948176993e-01 2.856744408341838626e-01 4.843364715291934575e-01
7.070791695746475591e-01 2.504770500715502446e-01 2.214668847400507457e-01
5.745279646503320681e-01 3.201662110915668991e-01 2.755832127200792403e-01
6.373703974680112738e-01 4.783824694487052165e-01 -5.961845244823781031e-02
7.093993799639491948e-02 3.085343641421099403e-01 9.285229748476598877e-01
3.811744596621788883e-01 2.741927593736078750e-01 5.934597522828767291e-01
4.177191920522985158e-01 1.525075844342954901e-01 7.443888480706889466e-01
3.667352896408803686e-01 5.722697749832762470e-01 1.292075630866992564e-01
4.540423984473773156e-01 4.663514971586251723e-01 1.906985826815926488e-01
3.157224523267691541e-01 6.184597195902041822e-01 1.186846549497278247e-01
7.129441380315424404e-01 3.356034557522198369e-01 7.630575829321274706e-02
-1.554119589651853095e-01 5.677837455042435977e-01 7.939515248926012347e-01
4.378443744854411124e-01 6.022963546630800691e-01 -8.930030905502629734e-03
3.985690156949252549e-01 3.563670092034932346e-01 4.385586939043766841e-01
5.737576086815709964e-01 6.214992332273620024e-01 -2.111504362878388330e-01
8.138708011802231468e-01 4.336857121479480992e-01 -2.095251266648944788e-01
5.626760343594681135e-01 4.325494581326621013e-01 1.086162026180073764e-01
7.238640169141148661e-02 7.008258249861507583e-01 2.917828458725204022e-01
4.671953129887579936e-01 4.527261813289351622e-01 1.961889452890674124e-01
1.412895839892154282e-01 3.803594449615644857e-01 7.236913158173263749e-01
1.769072033945032207e-01 4.117789299763718880e-01 6.279898739994381751e-01
3.037098477776634664e-01 1.203263171687982969e-01 9.400334188454690931e-01
6.090086962572219820e-01 6.006069178694922739e-01 -2.217243588755773154e-01
5.020452167083516715e-01 6.829062911345527009e-01 -2.202373459203977035e-01
6.107871149064453276e-01 5.174997895272106518e-01 -8.945589530777255105e-02
1.933927102395235909e-01 3.927191185770777526e-01 6.380795268443077983e-01
2.430358326622859277e-01 7.053448038745382398e-01 6.958862198148527134e-02
3.698102007262065172e-01 2.396575999525257239e-01 6.636642481338770327e-01
3.081348438549966207e-01 4.085569687768155767e-01 4.679638472034575725e-01
7.851935806030700682e-02 6.071049335521335744e-01 4.357463534899290170e-01
-1.469235360102933430e-01 5.927291538702467166e-01 7.428891477413182010e-01
2.316491142340854903e-01 5.045136065304594020e-01 4.089694269792693015e-01
-3.505395499183563968e-02 5.240799050668075720e-01 7.131318601664877743e-01
6.029313763297817763e-01 2.318832000918851777e-01 3.827028116725353923e-01
-8.421373050714199560e-02 5.195639174662400883e-01 7.823425005583195535e-01
4.868285518493535302e-01 7.988814544855203925e-01 -3.887809818299078346e-01
6.755053598710478724e-01 3.177903690276447368e-01 1.522786046746441302e-01
-4.536472788002241657e-02 6.284649441903829015e-01 5.571692358325621708e-01
3.618414692381194397e-01 1.590804347459605639e-01 8.041115271068302039e-01
5.380800561121922287e-01 6.508226987131618957e-01 -2.136852221574771227e-01
3.960868912307762835e-01 8.044985599931987474e-01 -2.836110676232337369e-01
4.204106419142405460e-01 1.774361667425704281e-01 7.006532029558415475e-01
5.535650361794054453e-01 6.939614414947598009e-01 -3.030032856077419789e-01
3.194307583446562293e-01 1.721396353115329514e-01 8.363785835064913021e-01
1.708584545728532300e-01 5.866152278864770198e-01 3.526360763105994001e-01
2.421721153571306517e-01 7.367948179148592347e-01 1.977475861266401319e-02
4.121268681116180971e-02 6.633851677939074376e-01 3.916337516681314690e-01
4.409633061149487721e-01 8.166862291625009984e-01 -3.598446560176201126e-01
6.611256206223735665e-01 6.098175895823153558e-01 -3.022569026750046017e-01
9.770938422297144321e-02 4.535507829152557457e-01 6.601078809285422233e-01
5.280611948719187154e-01 5.506997040494944207e-01 -3.902176012747234773e-02
4.634537882253278451e-01 2.699725866590208523e-01 4.966846167067127671e-01
3.073315719934378576e-01 7.255502991131134172e-01 -4.407436460402817946e-02
1.767846028385509916e-01 5.411746414371335634e-01 4.187189336273959284e-01
7.008899211664025575e-02 6.223307912124431684e-01 4.217189411504597696e-01
7.167809366213520050e-01 3.030421461270371708e-01 1.241745607738761470e-01
-8.024418121405327842e-01 -3.791338938949090909e-01 2.525216784737703557e-02
4.835893610752184379e-02 -6.878006690558363667e-01 -5.464956461323309256e-01
-7.747962729572829277e-01 -4.017468011561975416e-01 2.703984336333689967e-02
2.604859730645758820e-02 -4.989857550792874963e-01 -8.239972006766658197e-01
-5.485698032644306110e-01 -7.624962970237686433e-01 3.260458783313836539e-01
-3.930074368399096296e-01 -5.595485337846259899e-01 -1.983053129600182707e-01
-3.829884556818776709e-01 -3.167966323346873558e-01 -6.038120027457116734e-01
-7.218147499828891922e-01 -3.650819692506391267e-01 -9.901560574759835087e-02
-4.596249779596003338e-01 -4.556757818347579314e-01 -2.825378027493927191e-01
-4.601976041780861948e-01 -6.192551755420337978e-01 -1.706558254394529087e-02
-5.589123441787570146e-01 -5.198640692195171109e-01 -5.362806554696192274e-02
-8.671396509483587645e-01 -3.350450003929074105e-01 3.536182190896729194e-02
-6.469936181367296202e-01 -4.027424872524802413e-01 -1.322766686290080540e-01
-5.101686819221823432e-01 -2.351345362590749333e-01 -5.758368090419075935e-01
-2.150018830513745760e-01 -5.766355282292078277e-01 -3.947933103916340669e-01
-3.242191775175812807e-01 -6.191348397900061640e-01 -1.884832241945048337e-01
-7.960143182030758602e-02 -4.881211256037720214e-01 -7.085478464765517792e-01
-3.368154243536208847e-01 -7.637966271575907795e-01 6.151113101606479200e-02
-4.283768735302483921e-01 -2.891135786213838710e-01 -5.914639638970029534e-01
-3.374940479942484250e-01 -7.753635265565038681e-01 8.108652812073226246e-02
-8.823460793999083895e-01 -4.068221393693754462e-01 1.706800165686943038e-01
-6.617766740704539297e-01 -3.382947693395231825e-01 -2.179697842642901173e-01
-5.848205678513277439e-01 -2.408599522738233134e-01 -4.725692752135792207e-01
-5.732114063761989398e-01 -4.919795140416706736e-01 -8.075360680561266546e-02
-7.029542570891671172e-02 -4.910350493876494693e-01 -7.155497416321208171e-01
-2.755735374064758880e-01 -6.090479063152394179e-01 -2.660629748971756192e-01
-2.825110122869831097e-01 -2.133322966802937148e-01 -8.977880610282654716e-01
-7.000215891821183201e-01 -4.813715826831030387e-01 6.175589580596791556e-02
1.174028942909790818e-01 -6.124697980181508239e-01 -7.553572711708340659e-01
-2.163389661264517594e-01 -4.439152452917320413e-01 -6.079157614637011875e-01
-6.929774595699305095e-01 -3.872574298234308099e-01 -9.943657517403735324e-02
-3.046340041106322394e-01 -3.899453889047938548e-01 -5.840849277640575155e-01
-5.128434950664995107e-01 -4.503969915774421184e-01 -2.240691531646693824e-01
-5.144453068916887695e-01 -4.774354393491052062e-01 -1.782907805152803005e-01
-6.764563743947017427e-01 -6.375337137585074254e-01 2.848292061582758938e-01
-5.012703707290973032e-01 -8.034287501225064743e-01 3.327354908933478628e-01
-4.187519306972749544e-01 -6.048622858591256035e-01 -9.254833193993472484e-02
-3.925595648978641439e-01 -2.789556526005840809e-01 -6.530052891092253953e-01
-4.777441961599235287e-02 -4.483605148442794119e-01 -8.129761941391017155e-01
-2.912117170384893039e-01 -2.649560027088769254e-01 -8.032798940199885607e-01
1.823714982036724608e-01 -6.281348633315655405e-01 -8.118114757931956804e-01
-3.249484673323450590e-01 -4.004529231239039588e-01 -5.414988173666458460e-01
-3.246248836823997230e-01 -3.313701548952360243e-01 -6.537158553925014326e-01
-6.161132117983408873e-01 -7.001183818670120296e-01 3.101381000204735394e-01
-1.552541508863904407e-01 -3.385650143707586435e-01 -8.553412545714705884e-01
-3.037946680260970034e-01 -7.173737894623609668e-01 -5.520309890843538153e-02
-5.005952565756948136e-01 -7.496839407733150162e-01 2.449001005679197485e-01
-3.868534623693112851e-01 -6.897716247569296577e-01 4.710075859369369268e-03
-6.544491152762064168e-01 -6.653535896593166798e-01 3.021439687427588949e-01
-6.606355053120500642e-01 -5.110259407094063233e-01 6.015647594473785831e-02
-1.472068237654036715e-01 -6.714553303664851924e-01 -3.266956259331550427e-01
-4.468031619997464010e-01 -6.738878834640419369e-01 5.449059454389616752e-02
1.238930625047615641e-01 -6.273889818547687680e-01 -7.393831260254747351e-01
-2.410724447162934103e-01 -3.929556716132143745e-01 -6.592489990343818329e-01
-8.525614233551068732e-01 -3.354740166168198034e-01 1.769939887790072594e-02
-2.347507448814579178e-01 -2.761685311444562752e-01 -8.562277354728652368e-01
-3.205636168281782994e-01 -5.509236373517703012e-01 -3.034852412262080690e-01
-6.517492363096669683e-01 -3.644582020301481706e-01 -1.882510647185476615e-01
-8.028560006975263841e-01 -5.288185512642916697e-01 2.680364301511147240e-01
-1.262267666554801604e-01 -3.092393128385397816e-01 -9.393555662271469986e-01
-2.738882871336783542e-01 -5.287833977140911079e-01 -3.980921169491667411e-01
-3.526729502467894350e-02 -5.211986466198699208e-01 -7.108374666646312123e-01
-1.519613752643874938e-01 -7.349531381363755278e-01 -2.179383385031131160e-01
-2.212520392250023338e-01 -3.545718116896655059e-01 -7.463304757483227858e-01
-3.058092556284793262e-01 -1.593875702262713134e-01 -9.557599665400876576e-01
-5.091897682838646411e-01 -5.726506444731026546e-01 -3.080390815074126459e-02
-7.719556299821744849e-01 -4.130381185006837264e-01 4.173778378035320619e-02
-2.982571566197940172e-01 -1.619099897910586394e-01 -9.611870013841358196e-01
-6.375416209431112868e-01 -6.666563309392560255e-01 2.829626657414284763e-01
-3.193136953444645210e-01 -5.086633463417385981e-01 -3.734568767785410581e-01
-4.826210879779524454e-01 -3.597661621291193268e-01 -4.088097994872432750e-01
8.249588746585838350e-02 -6.048371554834796049e-01 -7.237559998414895279e-01
-3.190692342089940792e-01 -5.212528978921517897e-01 -3.533886706451400128e-01
-4.200595401497978498e-01 -7.279037528585979855e-01 1.082392526521428200e-01
-5.959381501671627834e-01 -5.140823281901358843e-01 -1.636315969722905786e-02
-5.319289752292994944e-01 -3.098214803823827190e-01 -4.275565607019866654e-01
-1.069139307934175442e-01 -7.299223665407214012e-01 -2.828039379440702716e-01
-8.116198210778746702e-01 -5.027880354832505727e-01 2.369416986663646085e-01
-2.825752533997256122e-01 -7.654723618491741099e-01 -4.075476151940845941e-03
-2.769878646650674736e-01 -2.803429177016779072e-01 -7.962869213291959847e-01
-4.649778784433256651e-01 -2.768482540746461940e-01 -5.652275616482087539e-01
-3.831869651337465599e-01 -6.486291574625960843e-01 -6.649530784456766930e-02
-5.021692669841754109e-01 -7.437409530353771281e-01 2.372634308211291343e-01
-4.578889587148400886e-01 -7.530360747474922345e-01 1.965500794005865248e-01
-1.873295504703358372e-01 -7.212602126650450307e-01 -1.955648589401242365e-01
-4.092927726994181614e-01 -7.849690513242675305e-01 1.870412923800817140e-01
-1.374376122168597947e-01 -7.241062584065451890e-01 -2.537820748365340884e-01
-6.256991012488725135e-01 -2.724784529087538321e-01 -3.699212309290801914e-01
-1.508232358117798377e-01 -5.541861475301331774e-01 -5.119405557700730247e-01
-5.979483982667235242e-01 -5.562522242658896054e-01 5.441956961636729151e-02
-1.184560183994205207e-01 -5.787304704349803819e-01 -5.129724056471060001e-01
-1.025091031724468665e-01 -5.632655801124503148e-01 -5.580823546925204326e-01
-6.032442199539924665e-01 -2.647878759136363946e-01 -4.106433280408812170e-01
-4.268894508086892303e-01 -5.249406987224987109e-01 -2.116537109238426362e-01
-7.742291403411544204e-01 -3.640240977366343000e-01 -3.472800227932607009e-02
-7.095515903994092932e-01 -3.066042357944251950e-01 -2.091027420845775198e-01
-3.341063685429754293e-02 -6.205763276100002557e-01 -5.523338385264182637e-01
-1.615686128658980203e-01 -3.836232454404452374e-01 -7.744639621463752510e-01
-2.047889287062281405e-01 -2.804437249890862072e-01 -8.870360528678340462e-01
-4.449388416558816561e-01 -6.905091300646895025e-01 7.904433502944241408e-02
-5.507514015795763607e-01 -2.189259967443800692e-01 -5.509687088265310395e-01
-5.655650640383244054e-01 -3.108422965026561569e-01 -3.835501054561334389e-01
-7.460987812338568670e-01 -5.099084472750974317e-01 1.659624580541119165e-01
-5.481290151068778788e-02 -5.632762544121517889e-01 -6.181237304438763625e-01
-2.865120733556536514e-01 -4.708151898448174610e-01 -4.760171618333049470e-01
-9.357342881133696999e-02 -5.371502644627930145e-01 -6.116013871166283700e-01
-7.304447955624040478e-01 -5.641195181790327196e-01 2.339910230030716742e-01
-2.677872911460036365e-01 -3.604736532057170595e-01 -6.781816261857831485e-01
-5.941121850565543872e-01 -5.978225623453425897e-01 1.168701074992058858e-01
-6.972036330263132742e-01 -2.994819138877636844e-01 -2.361785727950027891e-01
-6.186530980881084218e-01 -3.519555915852626282e-01 -2.501607572689922843e-01
-1.443814172833634939e-02 -4.297297922652709712e-01 -8.851065402870832433e-01
-6.879502407050922530e-01 -4.844554937705675135e-01 5.154702732920889846e-02
-5.093945450896510130e-02 -3.899421310259368334e-01 -9.035402224122129899e-01
-4.914195408713425417e-01 -6.057873333367237434e-01 4.512831161555647358e-04
-7.641419342668205328e-01 -5.792636901386934989e-01 3.009328240665590792e-01
-3.921686649841593097e-01 -2.943061042264883964e-01 -6.286529956840970490e-01
-2.877865569654277089e-01 -1.562241610623722188e-01 -9.835739332122627188e-01
-9.040643565633551537e-01 -3.415281108153633283e-01 9.234992955432143324e-02
-3.557203772340972181e-01 -4.291618637591683716e-01 -4.562860334950870622e-01
-6.056813918999702784e-01 -4.178060160675364232e-01 -1.599165426280977076e-01
-3.712216459734774543e-01 -6.884040448893957720e-01 -1.718678523089216606e-02
-6.233462416436525988e-01 -2.895989045057205113e-01 -3.451746979760398903e-01
-4.386412635716047670e-01 -3.171838111209994149e-01 -5.331078158466869832e-01
-6.755207542035935875e-01 -5.978405945193078219e-01 2.194082710768973377e-01
-2.184791456269099541e-01 -6.876744498755343882e-01 -2.106996844504447075e-01
-6.680226814063490171e-01 -2.754829295155542535e-01 -3.117650310345751463e-01
-4.641959510977661796e-01 -3.039731086621874079e-01 -5.223109247779488262e-01
-6.280206744351976567e-02 -5.738264380526750807e-01 -5.909885021459028165e-01
-3.341331934233421341e-01 -3.264505516289917253e-01 -6.497053880304739515e-01
-9.298956778553508773e-01 -3.868454136121703968e-01 1.982219897415460896e-01
-8.458208221019928308e-01 -4.018294714504682674e-01 1.166071531406363965e-01
-4.426239933927053616e-01 -6.734611145207425320e-01 4.853750081220184476e-02
-2.751699556122212398e-01 -2.488559502976694926e-01 -8.495372743790118308e-01
-8.728685389021746399e-01 -4.664605558845336120e-01 2.552699988536527020e-01
-7.531299299732818753e-01 -3.582249192089476675e-01 -7.068184564372782808e-02
-5.340633236480254453e-01 -3.622883181990895207e-01 -3.399520957029206758e-01
-3.077086753201169200e-01 -4.595122073190998635e-01 -4.676203145662150007e-01
-7.473062498779242668e-01 -5.321259023536443200e-01 2.034415615876039862e-01
3.755038086323107122e-02 -5.759428411495407518e-01 -7.139260810238483579e-01
-5.127804008849135009e-01 -3.994287862031428160e-01 -3.066399948211285809e-01
-2.411058984227056612e-01 -3.771760095547048719e-01 -6.847460573291048735e-01
-6.463818745343618000e-01 -4.820781004501961120e-01 -4.643287182300161360e-03
-2.401836793810434856e-01 -4.486421722445594895e-01 -5.702402297616057103e-01
-1.567540586426960647e-01 -4.886261414026318861e-01 -6.105805525005599810e-01
-8.042520858072723655e-01 -3.520683021784365985e-01 -1.627366786546368543e-02
-7.718768514259165547e-01 -5.300250813561895313e-01 2.309805021973049544e-01
-3.580406620279017460e-01 -7.325263140000760620e-01 3.762716473188250366e-02
-5.179377578098116608e-01 -3.011943891383515037e-01 -4.591370205923541170e-01
-2.883078553704899183e-01 -2.876404048316232864e-01 -7.702219948221215029e-01
-3.392820670775953951e-01 -6.129940700290855693e-01 -1.794549195928099306e-01
-8.930218538825558383e-01 -4.332984738314096251e-01 2.269744726535501966e-01
-5.684934048970606835e-01 -4.770240903349387551e-01 -1.108996377890132112e-01
5.087411652110539195e-02 -5.782349671845082861e-01 -7.269934388658720881e-01
-1.049389440060549961e-01 -4.168726015242806282e-01 -7.919578989856458362e-01
-1.075814610952196410e-02 -5.633884328806505470e-01 -6.734155447868158673e-01
-3.008483692347669880e-01 -4.242649829258829941e-01 -5.333059393739104648e-01
9.930038720662384341e-03 -6.592523892758009874e-01 -5.443113337459409840e-01
-5.247008301032857203e-01 -6.489470067699605327e-01 1.122121838874945710e-01
-6.137990785168465635e-01 -6.396354386994250740e-01 2.093332866025001404e-01
-5.574179472654613443e-01 -5.635395947305844588e-01 1.517848668322675613e-02
-1.960359925075164933e-01 -3.037879323541576304e-01 -8.602753722164244721e-01
-2.641897215871849003e-01 -3.836378552407187503e-01 -6.452206879982622656e-01
-3.050464515406792754e-01 -4.720824679344070574e-01 -4.506277567498687686e-01
-6.922093741978933013e-01 -2.856837257508870742e-01 -2.647994935926272775e-01
-5.108824130660454266e-01 -7.069541944276294121e-01 1.886960480901797577e-01
-1.265704432068437690e-01 -7.205215396437546493e-01 -2.732677435958992262e-01
-5.259411158836525546e-01 -7.821394258122095211e-01 3.293441822262505037e-01
-5.252731997775645922e-01 -6.666554121412761047e-01 1.415937364276037835e-01
-3.558615189770991671e-01 -1.676745051384085083e-01 -8.793222826508163559e-01
-6.532257219643061719e-02 -4.193489322566302246e-01 -8.378345879567117294e-01
-5.418153129505912657e-01 -3.768465953633933219e-01 -3.066284696670658061e-01
-1.629824779132871548e-01 -6.808119687237195183e-01 -2.916874557222451370e-01
-3.732979946618130707e-01 -5.314998785757595323e-01 -2.685196678570992979e-01
-8.243367818412317138e-01 -4.677167574231342329e-01 1.961923688812728939e-01
7.459140124546298489e-02 -6.852215072982520416e-01 -5.837016839931519208e-01
-4.309159280503555567e-01 -7.457754045699287460e-01 1.508345657146272778e-01
-5.182384671940413190e-01 -5.217051218478289121e-01 -1.018645456059008303e-01
-4.204859605768024311e-01 -1.882456144102308826e-01 -7.646536552850068391e-01
-4.071537115548659047e-01 -2.237906446403868377e-01 -7.239123293695681749e-01
-2.732533345320571350e-01 -4.872927117242843997e-01 -4.660437929443196903e-01
-1.852214829682467256e-01 -3.016073993947920306e-01 -8.774220757031568896e-01
-5.693936555097289798e-01 -7.032526475253330078e-01 2.563820008260062067e-01
-5.520964962934495901e-01 -4.593111040931524003e-01 -1.602147294058114679e-01
-9.129268159660093307e-01 -3.609097660570806387e-01 1.348784263534231198e-01
-7.169041659238272191e-01 -3.825423871130814724e-01 -7.693950661078435838e-02
-2.969085886636817495e-01 -2.547710878860675043e-01 -8.125905971339847378e-01
4.496152284566246049e-02 -5.193350830208905977e-01 -8.148770666618877501e-01
-4.864926798168711652e-02 -4.422767244110137885e-01 -8.217211301677043167e-01
-6.316609060454592139e-01 -6.246311139688084380e-01 2.075404388109870213e-01
-1.274716680763327281e-01 -5.686505025841873673e-01 -5.179342762869991734e-01
-6.759748167250145823e-01 -4.595893684191207362e-01 -3.777833338581493543e-03
-2.711547836041997561e-01 -2.721736724170477073e-01 -8.168537073385816472e-01
-2.819256805192446036e-01 -7.729989998316828537e-01 7.288355313682598827e-03
1.798524575696018590e-01 -6.538816746792638357e-01 -7.669686335903319607e-01
-2.413906276255513017e-01 -4.789208498837748684e-01 -5.197147950320519794e-01
-5.536673521890796978e-01 -6.079771652670047377e-01 8.237741356103797652e-02
-2.387057730762645047e-01 -4.431626624963692085e-01 -5.809697138603829858e-01
-3.236142355422878536e-01 -1.801711217719056124e-01 -8.997021724884284311e-01
-6.076838561709755338e-01 -5.026485064408194869e-01 -2.007856196579532737e-02
-2.703130211579102271e-01 -3.474324959242791055e-01 -6.961081960767688814e-01
-3.486033872220629659e-01 -2.861044238547392760e-01 -6.967843390350910715e-01
-4.055579850178248069e-01 -4.790517588262926396e-01 -3.127847786843758748e-01
-6.678180880788990581e-02 -5.636606631643672483e-01 -6.024304233566590838e-01
-1.870819624982695412e-02 -6.723176694737903469e-01 -4.871043212415301915e-01
-9.983531059111687422e-02 -3.347856710785464540e-01 -9.312410066950325138e-01
-3.735423917279174222e-01 -5.009032030571679561e-01 -3.177322564349907563e-01
1.388352891291879387e-01 -6.142230600915531413e-01 -7.795071282602334950e-01
-1.598081412311471994e-01 -7.467806399890146718e-01 -1.889150957059350655e-01
4.919078372868588428e-02 -5.446180048245350402e-01 -7.792824277487201412e-01
-2.337557218674213289e-01 -4.041382449274802946e-01 -6.503633012054619300e-01
-2.035391931663405318e-01 -2.725733722750106058e-01 -9.013477752963415801e-01
8.090292024502458712e-02 -6.546414593867161402e-01 -6.411425148195895041e-01
-3.283997378805180167e-01 -6.457221241338901851e-01 -1.401879155779690578e-01
-2.704795063918143394e-01 -7.363608100871672502e-01 -6.642301535755942843e-02
-4.911362181000795135e-01 -2.877078383434562014e-01 -5.147131031448677341e-01
1.076570060847296811e-01 -6.419045493087398579e-01 -6.954455598689812668e-01
-2.462752137637504446e-01 -7.552587542974084078e-01 -6.631477199494786867e-02
-1.682086835960512061e-01 -5.116943502992814530e-01 -5.588213825234017440e-01
-7.608115139464116661e-01 -5.779820395346970674e-01 2.946648518416897233e-01
-5.983395617165794267e-01 -7.315049762697796165e-01 3.385564758018512199e-01
-4.694487124299122072e-01 -6.476456729040198645e-01 4.053299430248465118e-02
-4.785546026738656811e-01 -4.295596110028666037e-01 -3.009704713852927038e-01
-5.787611011159987662e-01 -3.082770496541701322e-01 -3.710855871543942142e-01
-2.278404177377593431e-01 -6.536598070565146079e-01 -2.539643181443398956e-01
-2.256528226630888923e-01 -6.705055031408709842e-01 -2.294543738108956177e-01
-5.900611892176987894e-01 -5.370924034453226081e-01 1.347813597538591486e-02
-2.571550019189126624e-01 -5.541034159554104610e-01 -3.781823991433401755e-01
-3.899770319131049545e-01 -3.526082594625207789e-01 -5.370513825919431827e-01
-4.566504470932967186e-01 -6.419394960421719309e-01 1.518215242451138522e-02
-5.560669617894894445e-01 -2.765646480584007527e-01 -4.509879744088982623e-01
-3.489178522083103418e-01 -2.473375199305080652e-01 -7.591321097395369311e-01
1.130485298637773778e-01 -6.612208846612170898e-01 -6.709712770220321865e-01
-1.826837200174992737e-01 -6.766858686939483114e-01 -2.735578595890564291e-01
-1.039103095491868134e-01 -3.561678767932703882e-01 -8.915029738511874857e-01
-1.676067618038318829e-01 -6.405872452177272525e-01 -3.509678015772181858e-01
-6.187540709020266094e-01 -6.001960983862826282e-01 1.517404988118007669e-01
-7.835057905028083303e-01 -4.265912843337770766e-01 7.821727480753531969e-02
-1.283175377987818555e-01 -3.166664968723816309e-01 -9.247020817996363107e-01
-3.689274641088109430e-01 -5.691060422026986698e-01 -2.131579039096530293e-01
-1.561561460016585301e-01 -7.208237969331962036e-01 -2.355244783671845421e-01
-7.553301457808103692e-01 -3.640871913996326925e-01 -5.842333939602291359e-02
-8.225757435038837384e-01 -4.758351716746405113e-01 2.071144348713444272e-01
-7.900407817121589682e-01 -3.317545123867355894e-01 -6.704603241219993237e-02
-4.333420482898965309e-01 -1.907312702468138832e-01 -7.444423763971976804e-01
-2.090099994551135598e-01 -5.843431813011212839e-01 -3.898635005717771551e-01
-1.149681184032237541e-01 -5.032537600679114487e-01 -6.395224381968572791e-01
-5.072872068994415118e-01 -8.166278634599332120e-01 3.616744374282875873e-01
-7.402183267521093013e-01 -4.123172071881078260e-01 6.076553337557174216e-04
-3.826880109409127595e-01 -4.233004249367181560e-01 -4.318152826090231877e-01
-1.686345070154086911e-01 -2.624493087105791433e-01 -9.616851280761512522e-01
-5.877942268267127846e-01 -4.582069799103363206e-01 -1.170514613449182700e-01
-2.781839994740329947e-01 -7.815156123375999186e-01 1.636089165552807520e-02
-5.683838246207004730e-01 -5.992004753951803986e-01 8.670330938765541395e-02
-1.561229064496435781e-01 -3.599003423914036159e-01 -8.197163671278148156e-01
-3.458153347404948064e-01 -3.928110517448097916e-01 -5.275917070927647057e-01
-2.629940238342637904e-01 -6.968056797592715457e-01 -1.398681481890732548e-01
-9.238593934329894508e-02 -5.867950400327042182e-01 -5.327472241226396399e-01
-2.395190753082805935e-01 -2.070676180077782869e-01 -9.620624458507647248e-01
-4.324117563657735586e-01 -6.501822434832297271e-01 -1.998218844937043898e-03
-4.165982590077755288e-01 -8.134978774640405641e-01 2.424138419751759865e-01
-3.905812998406265474e-02 -4.355671352053338552e-01 -8.446575946966496939e-01
-7.376510271886317360e-01 -3.376348397229693710e-01 -1.234975310586947927e-01
-2.218725614957905434e-01 -4.943214677552917324e-01 -5.193660733953433528e-01
-6.273010621789362196e-01 -4.519241303679338295e-01 -7.747350216880193041e-02
-7.728554307164452464e-01 -4.573491608628906246e-01 1.145876653141796458e-01
-7.071038371488878038e-01 -4.030602268719509218e-01 -5.607213391963353222e-02
-2.775848873239850634e-01 -3.937096555803341058e-01 -6.120525279746662495e-01
-4.503037874435619203e-01 -2.930778578807108348e-01 -5.574376444541395692e-01
-3.611907188784467815e-01 -4.861791180234958376e-01 -3.571161228541463450e-01
-1.863662685035150368e-01 -4.257867667121949529e-01 -6.749978403712945108e-01
-7.272172493289553730e-01 -5.610440933366098726e-01 2.249493880990985073e-01
6.345693206336165959e-01 1.996855737357324575e-03 -4.687184470294914473e-01
