-8.411892186424693163e-01 4.019373763783233300e-01 2.816912425646282414e-01
-8.824855708700166668e-01 3.606774879510373233e-01 4.748452947312085115e-01
-4.168333311103191163e-01 -5.332654910300300699e-01 -6.532798132765789134e-01
-4.509141931311927975e-01 -2.328419987797641921e-01 -7.522275786196357394e-01
-7.852122820289538785e-01 -6.579674442564625858e-02 4.243564513313490827e-01
-6.507915643055955934e-01 -2.683825690505773909e-01 5.585224719310488001e-02
-4.046983686978907202e-01 -5.231556580649420196e-01 -7.084823039405493406e-01
-8.074001965221319077e-01 2.377275810033961101e-01 2.765652513852872030e-01
-7.413722198873243796e-01 1.513276465804422044e-01 8.542741820635982308e-02
-5.413681970980406266e-01 -2.201246446290357206e-01 -4.087795261825451498e-01
-7.192055410329785126e-01 -1.368414061933977306e-02 1.263123473612463576e-01
-8.006357399061135860e-01 -1.013209944136732668e-02 4.415970560089340635e-01
-7.064233723085114880e-01 -1.679844490852955285e-01 1.955750837345072157e-01
-5.725344600927997352e-01 -2.352781677544586725e-02 -4.389130485415856375e-01
-4.220048621789611598e-01 -2.603567844091023709e-01 -8.438810934990959023e-01
-5.900684931528384913e-01 -3.748308977116918683e-01 -9.908141359855493491e-02
-5.593535353478793493e-01 -7.447403845392573662e-02 -4.510399476926530427e-01
-8.959063746427939900e-01 5.092069028823336119e-01 4.125342954629786507e-01
-6.351496305514920948e-01 -2.562361664768903619e-02 -1.927485823951324007e-01
-8.072094907938514030e-01 6.584236483939980011e-02 4.085872189717338343e-01
-7.209033254193406570e-01 1.450050015196121533e-01 1.036917558943604989e-02
-4.538056470130412134e-01 -4.641049951041283372e-01 -5.623038264152683263e-01
-6.972669761344811867e-01 -9.749078336655020438e-02 1.053640851087627728e-01
-6.945184244746742674e-01 6.333744351723193111e-02 -2.959666234114025768e-02
-8.763493776794158974e-01 2.438400279573349483e-01 5.411272320896147736e-01
-5.630907920475158868e-01 -1.052282362202390381e-01 -4.126889532345515699e-01
-7.695540653574909351e-01 -1.614587877315291908e-02 3.248516739293034195e-01
-6.049195275854767351e-01 -2.281616055844834234e-01 -1.543698119252261691e-01
-8.376060795334725473e-01 9.633684764216086938e-02 5.037477050200021012e-01
-6.787886136827543382e-01 -1.663083693140482711e-01 8.635198182207075301e-02
-4.878777923773607306e-01 -1.874542768030004747e-01 -6.429231800260122309e-01
-7.815734552757418463e-01 5.102310747016280262e-02 3.199114480747769496e-01
-6.150272078332602588e-01 -1.354518777554205855e-01 -1.865043439298800509e-01
-5.019507129371447718e-01 -1.344695480322260772e-01 -6.288871355658194329e-01
-6.885277808755437823e-01 -1.238829834811296451e-02 5.498402669328867828e-03
-5.866410174986593784e-01 -2.451449174681651078e-01 -2.126389727975994126e-01
-4.655195286431660362e-01 -2.571802906499423558e-01 -6.763866836438381380e-01
-6.140673065448369883e-01 -2.915215432386967023e-02 -2.723608059151899630e-01
-4.945609126961877933e-01 -4.807362697149171193e-01 -3.902865245633850844e-01
-6.849908891564467917e-01 -1.903782944668223551e-02 -3.178846267358968660e-03
-5.747051300687497921e-01 -2.369588477684548278e-01 -2.655780252439766675e-01
-6.172516382785072642e-01 -1.843203679309037835e-01 -1.400699858381642959e-01
-5.643698262837821833e-01 -2.917283861114991494e-01 -2.636380683687887250e-01
-3.712916267027528971e-01 -5.607606603843975357e-01 -8.099067697554382939e-01
-7.827929502091705016e-01 -1.213910571266688457e-02 3.734616876899825022e-01
-5.774489966920202111e-01 -2.659515468795439416e-02 -4.173499030033140378e-01
-4.006922597071027603e-01 -5.690189908282854425e-01 -6.887027552206248515e-01
-8.287270898709121481e-01 8.482461507777472320e-02 4.779627393906804023e-01
-4.582478321395397902e-01 -4.455266950710369267e-01 -5.593048877970409061e-01
-8.725164336128317100e-01 7.307246953754413521e-02 6.580610203043999462e-01
-6.514655085557327086e-01 1.232316499476161231e-01 -2.440044654391908541e-01
-8.701006474576393757e-01 3.895052266920098760e-01 4.042085757581321825e-01
-7.243851279536969168e-01 2.400923957083428983e-01 -4.947948891955459422e-02
-4.811479331011316307e-01 -4.819863691535328232e-01 -4.417057681079267217e-01
-7.209241377000443762e-01 -5.001033675947284818e-02 1.610832946199737825e-01
-4.016165733425453022e-01 -3.726826463345036533e-01 -8.367460188842521518e-01
-5.686326403313350930e-01 -1.978662841780549561e-02 -4.570414870782114614e-01
-3.749678684821219909e-01 -4.717337465831580867e-01 -8.643148373724603983e-01
-7.428137812079186331e-01 5.603850741014734793e-02 1.646602754993130024e-01
-5.315588181218450226e-01 -5.710434833814147237e-02 -5.730097583984721243e-01
-6.190278822167742945e-01 -2.287921863662608912e-01 -9.878209174190262509e-02
-8.264715906150145175e-01 2.632080758150457389e-01 3.313676928921297504e-01
-4.176342435358724736e-01 -6.202331493870930634e-01 -5.829766709370042266e-01
-5.101945875458397950e-01 -3.403297784528064307e-01 -4.376808112502150738e-01
-7.198899393572314453e-01 -1.764506503342129773e-01 2.547086344251658918e-01
-7.196542263351609625e-01 -1.248158703176006079e-01 2.139045539416448982e-01
-7.385995320674815234e-01 1.080202875899393955e-01 1.080498611653049473e-01
-5.723929664301594666e-01 -4.036458326425649834e-01 -1.458566758498741622e-01
-5.442073640225021380e-01 -1.519111890357113803e-01 -4.503801834912028457e-01
-6.973592994374993026e-01 -9.343822543712120010e-02 1.025943989985465127e-01
-6.703276749667507195e-01 8.882504026016665999e-02 -1.437614523189585936e-01
-4.874992477143064717e-01 -3.419524735088953493e-01 -5.250648239613976420e-01
-8.843024187800712088e-01 2.400562906392811335e-01 5.751107162579035537e-01
-3.635823509501694417e-01 -5.619561266438921621e-01 -8.390922070688386913e-01
-7.060871564235354780e-01 -7.340676891735571641e-02 1.212087317715765389e-01
-7.784506822313164154e-01 7.970401940758456427e-02 2.855617777905984922e-01
-7.630606387635167076e-01 -8.502190793733496732e-02 3.526922801065134894e-01
-4.973379775204774811e-01 -1.369566295441951576e-01 -6.449812678249284836e-01
-7.730209699595553818e-01 -5.416293444814936076e-02 3.677567420013015953e-01
-4.188273587689375077e-01 -2.383023973200943113e-01 -8.733260857059013116e-01
-4.006871416317289158e-01 -5.260901691595938345e-01 -7.218816237928137314e-01
-8.699900374175444373e-01 4.554986516756989734e-01 3.528022517219692733e-01
-7.146859615967084967e-01 1.630072531992453055e-01 -2.781816143301571106e-02
-4.638412857002499057e-01 -2.904685746762705190e-01 -6.572287367360843957e-01
-8.290731112561238181e-01 1.770302819339794886e-01 4.080930672923199776e-01
-4.674290599831332771e-01 -1.718024540254075583e-01 -7.348760947166735891e-01
-4.379125600600653478e-01 -4.154579315550780416e-01 -6.619505454129408495e-01
-5.229102624393641152e-01 -1.803298562889662782e-01 -5.116057104687342649e-01
-4.605022429634725856e-01 -2.304502901844731333e-01 -7.166285223409959437e-01
-6.354843750035293892e-01 9.756535068005958711e-02 -2.865942730479021927e-01
-5.808062851833835083e-01 -6.472201589542619926e-02 -3.747881288343470341e-01
-5.969402494240113599e-01 3.856629297015398000e-02 -3.915578656721443451e-01
-5.990575601376069148e-01 2.044225781151999891e-02 -3.692893554937410894e-01
-8.114143635603928706e-01 2.197308471555292908e-01 3.061436677698832209e-01
-3.895379335147829414e-01 -3.103902394984156543e-01 -9.320351595903058062e-01
-4.188965040134396411e-01 -2.668420291076554207e-01 -8.510115876717554428e-01
-7.786154806434689712e-01 1.129768438049818940e-01 2.605049640062520044e-01
-3.779639984313207246e-01 -5.672269357809311963e-01 -7.788529490434666913e-01
-7.108788439171075391e-01 4.601828737448715456e-02 4.767708349967077902e-02
-4.771501354907704551e-01 -2.642538859281182151e-01 -6.254992069936613497e-01
-5.699605059707310017e-01 -9.094806950874672821e-03 -4.601139902592562003e-01
-5.207774001932472530e-01 -3.487048251182874870e-01 -3.898802688255511018e-01
-6.628726751563588371e-01 1.439175489742653968e-01 -2.154315009578365026e-01
-4.706305809693726028e-01 -4.573624439402705355e-01 -5.018015351145381775e-01
-6.161206390907110197e-01 -2.989723475077659676e-01 -5.592819480490755779e-02
-5.189361525753997118e-01 -3.921862547823807832e-01 -3.634856002119613572e-01
-4.991428272974047786e-01 -5.007519813028317168e-01 -3.569312617732486870e-01
-8.582644709335732758e-01 1.010000212559005600e-01 5.808278354081553019e-01
-5.102671004697588719e-01 -5.112266463172937536e-01 -3.053942498052143462e-01
-3.919291237215674073e-01 -6.682327581085085733e-01 -6.462932409722947913e-01
-8.282845698526141165e-01 2.446109343184841023e-01 3.528130609189588651e-01
-4.595845416815138029e-01 -5.669089987856499313e-01 -4.603267724432022479e-01
-4.225526600879599415e-01 -4.821453291632689098e-01 -6.704287795161580910e-01
-4.676913221263803710e-01 -5.508954110114803182e-01 -4.410346114375902626e-01
-4.106688547624721131e-01 -5.185533792677161635e-01 -6.887192420061442055e-01
-3.836164272943659581e-01 -3.753767337082878908e-01 -9.049652357118759261e-01
-5.527770587797452562e-01 -2.926205740197357907e-01 -3.082248691877071956e-01
-5.065789624090643040e-01 -3.040727736326623298e-01 -4.798072220807866883e-01
-4.343090222450476379e-01 -4.769900448429454376e-01 -6.284959353215863187e-01
-6.137985368172296230e-01 -8.575285654119919887e-02 -2.296912452366999535e-01
-6.600791552875530099e-01 -1.138734134595799780e-01 -2.721999591618092310e-02
-8.130792397789132764e-01 7.173673489809379022e-02 4.269588177874911183e-01
-8.520644848974392449e-01 6.442100261017527640e-02 5.848677775896657938e-01
-5.616633065670642022e-01 -1.276595173284025553e-01 -4.009377801291517107e-01
-7.216263998008063396e-01 1.799272346597685923e-01 -1.378130135327367348e-02
-7.978360498062853079e-01 3.516012940524367858e-01 1.512543560342946014e-01
-8.312607169733252643e-01 3.523495627158411136e-01 2.812175351262388712e-01
-5.656555395043818546e-01 -1.286127524219568552e-01 -3.846096877440664530e-01
-5.476742026778839145e-01 -9.663329787601816767e-02 -4.795378196930664694e-01
-5.372114534458677371e-01 -2.453197869324404701e-01 -4.055527132199782669e-01
-7.723838571166137257e-01 1.834902650204187913e-01 1.817015031291997762e-01
-5.429813268857892616e-01 -3.019103359623124261e-01 -3.393068725694443621e-01
-5.150755228849343004e-01 -2.368191688290562091e-01 -4.985713365809107400e-01
-7.933753353344938919e-01 8.193726039976765955e-04 4.047822187720023779e-01
-5.256675335478215860e-01 -2.204567535448163085e-01 -4.698424657210808486e-01
-4.260362487735198656e-01 -5.015031503219989917e-01 -6.418712298996606114e-01
-3.671812862769747721e-01 -5.643039526643257586e-01 -8.232229482245876362e-01
-8.311464162708323000e-01 3.715717379652591634e-01 2.659236271674535468e-01
-5.372043072564737232e-01 -4.194413844498576793e-01 -2.710864324967223182e-01
-5.366194537641685303e-01 -3.503342433954423907e-01 -3.267500121768227572e-01
-3.650792149937770459e-01 -7.148962644738557914e-01 -7.151128482562818522e-01
-6.185028199332480714e-01 -2.342800021402293570e-02 -2.594591846867946305e-01
-5.697451915420649327e-01 -3.183811692336927512e-01 -2.220573817847419917e-01
-5.605094500803129431e-01 -5.937014973910593324e-02 -4.581919592391818785e-01
-7.409080682757953618e-01 -6.098162672621450925e-02 2.476055950202324107e-01
-4.236458992671028878e-01 -4.807698397479195362e-01 -6.672215465160257208e-01
-7.519489048150607147e-01 2.538870821471130718e-02 2.240121802794976802e-01
-8.776836758657871052e-01 3.816585335358038122e-01 4.398852523612721277e-01
-6.850641390653889884e-01 -7.074465440825057627e-02 3.704637772471987278e-02
-8.065249408394951081e-01 2.777247415504324191e-01 2.422524913235598043e-01
-6.669599912590878921e-01 -2.415339697794011975e-01 9.826030879005248631e-02
-5.019925658733330742e-01 -3.653301775606729307e-01 -4.504033892487858126e-01
-8.023775341018354323e-01 3.455076293089821005e-01 1.736981145726515796e-01
-5.769501420117520984e-01 -3.285154882864650683e-02 -4.144656618919835833e-01
-7.062012387099118049e-01 -1.695524727128095710e-01 1.959186990312343501e-01
-4.381541575380178410e-01 -2.147825754898114448e-01 -8.160116988523358206e-01
-6.981371737613221162e-01 6.305149107412326426e-02 -1.524264216552046261e-02
-6.436397191546054941e-01 -1.660920414237038734e-01 -5.109029394117389072e-02
-4.720551867630140008e-01 -5.140752402079229455e-01 -4.524318566536816300e-01
-7.636516788262287525e-01 3.012100699646308999e-01 5.666910791072805181e-02
-6.621891548385046011e-01 -1.643648556271196937e-01 2.002104148941266995e-02
-8.720322032535895440e-01 2.401346850749412065e-01 5.271284268983705834e-01
-8.779397956699019900e-01 1.985407588110067179e-01 5.823285123544503783e-01
-7.944767469146118977e-01 1.622776011581294475e-01 2.843710083151491652e-01
-5.772521168620331489e-01 -1.485654732908008313e-01 -3.239070804188439179e-01
-6.318220387414015260e-01 -1.979352008334303026e-01 -7.264849491045556606e-02
-5.734734261230958197e-01 -2.175272721076619564e-01 -2.853977329526916629e-01
-5.613164142721511762e-01 -5.895910038107755879e-02 -4.553578344766045505e-01
-4.461242258862552212e-01 -4.024373983986382353e-01 -6.399368697932139582e-01
-5.225036705798826731e-01 -3.506863636193874867e-01 -3.816076915046943685e-01
-6.510764324997769803e-01 -1.304871861490066454e-01 -4.954769762032645158e-02
-5.318608094595900226e-01 -4.439845514378462088e-01 -2.729981231834093247e-01
-6.431781144726642641e-01 -1.795262619242997404e-01 -4.251630863463784493e-02
-5.633227436062244742e-01 -1.691411723772609232e-01 -3.624157273013134950e-01
-7.686598311016121787e-01 -3.549308569881763631e-02 3.363032913280102898e-01
-6.198265842968033734e-01 1.579999508637336750e-02 -2.845894835345909590e-01
-4.237244050382316107e-01 -2.421692688415588157e-01 -8.512136772222277381e-01
-7.944460179951183809e-01 1.682757476402112484e-01 2.796179352276769170e-01
-5.386512463397871153e-01 -1.048794560665938930e-01 -5.084078178792460490e-01
-4.107782571082606027e-01 -6.403351064053208752e-01 -5.942258950990352284e-01
-8.702841489945143394e-01 9.851119371553772319e-02 6.296934978044459452e-01
-8.305395688579350066e-01 1.855637049417417361e-01 4.072290196946019014e-01
-6.485611757854667925e-01 -3.976315258171735090e-02 -1.294477505816224450e-01
-5.197585615475869281e-01 -4.391363038044599487e-01 -3.240087171279464884e-01
-6.583771029046316947e-01 -1.403368402009267657e-01 -1.342666193162660518e-02
-5.485889014088837223e-01 -5.174679245896483121e-02 -5.106364579556702532e-01
-5.041508507106269299e-01 -3.867536096825648917e-01 -4.254263484836605103e-01
-4.340563030198703043e-01 -2.256922487159140622e-01 -8.235892076569648612e-01
-6.582812345724381453e-01 -2.278169235122591563e-01 5.376987811346025520e-02
-6.748506049449430888e-01 -1.331634040196775504e-01 4.537027810001774408e-02
-6.666360327034344113e-01 6.157999694737426727e-02 -1.371347954027886396e-01
5.856978464139795948e-01 3.880185730075482176e-01 8.053892339089575858e-02
4.645843665481712570e-01 2.478843092634622214e-01 6.617935144817035376e-01
6.900954516389784521e-01 -1.024931197754748863e-01 5.168934037407567350e-02
7.298314807675242433e-01 -2.276677519606013500e-01 -6.814243453069438079e-03
8.522641854136697726e-01 -1.212217707708035663e-01 -5.671997652256720590e-01
8.007808036900484483e-01 -1.537930683417828848e-01 -3.409711300712658932e-01
6.990373261479169154e-01 8.736658224763411973e-02 -1.298839925012857666e-01
8.468946818609898175e-01 -9.516312415567400318e-02 -5.663570878810233467e-01
6.397602455033057911e-01 4.437408866831907273e-02 1.348326854342152270e-01
5.762487927559470924e-01 -2.155738952854337892e-02 4.338052682201457566e-01
8.267705335624074836e-01 -1.647927907584644316e-02 -5.485381627942348404e-01
4.113697651079041839e-01 5.440150085877734076e-01 6.408890261350278506e-01
5.101872901393494919e-01 1.013367188057895801e-01 5.968853790232634404e-01
5.965460744399735393e-01 6.798759958831822325e-02 2.853676352110161019e-01
3.449809776048994303e-01 7.301680845629138217e-01 7.563851629118446551e-01
6.242666699829025889e-01 9.102184060018084222e-02 1.593119232890076453e-01
8.519214978850057074e-01 -2.130351942397523679e-01 -4.949432922799278378e-01
8.409741092290687892e-01 -1.744565206618144682e-01 -4.819866591853303461e-01
3.574707315581914790e-01 6.457642417866888973e-01 7.728008336446060556e-01
4.212849857481445470e-01 3.192241482046002665e-01 7.757967065410226182e-01
5.281138512972458621e-01 2.249085078655262415e-01 4.314238524092684490e-01
4.797282523023996825e-01 2.055475987963111262e-01 6.353500871849611098e-01
4.522480516015947583e-01 2.598283386314338417e-01 7.007476529383938058e-01
8.281333400455309635e-01 -2.206662669962018986e-01 -3.961434902864279239e-01
5.606321984902591371e-01 5.431321040363953911e-02 4.361927842436942315e-01
6.965875759186650473e-01 2.155436279673175748e-01 -2.193223256903190921e-01
7.613740925223341227e-01 -1.893335344241793283e-01 -1.596149036082132877e-01
7.155964195186376164e-01 1.690533333477095834e-01 -2.576521828041625217e-01
6.492205109634000548e-01 4.954490356991524125e-02 9.389128623871004220e-02
8.136925817100763014e-01 -3.030862284917938410e-01 -2.760821852236930440e-01
5.948313879557712847e-01 -2.272101821071549274e-02 3.621291270414040420e-01
5.786513625416640494e-01 7.362706590581011290e-02 3.509000196119134718e-01
5.987029246209419897e-01 1.530526931502169397e-01 2.112384029142862218e-01
4.986204046058383965e-01 1.395491378860347076e-01 6.125443784379105416e-01
4.757709229072379364e-01 4.799909486850984508e-01 4.388213198197310483e-01
7.247867548363451373e-01 -2.060863162222165701e-01 -3.781729653458493646e-03
8.298349921840068033e-01 -4.190004831450979683e-01 -2.495929614079533121e-01
5.392907067853822678e-01 1.270187225589654301e-01 4.633838406076501437e-01
4.680958241299175704e-01 3.711741176503949857e-01 5.528484622272668014e-01
8.568742892560776703e-01 -4.602032218247902873e-01 -3.233702118407775772e-01
6.912674141262729055e-01 -1.383245256595321271e-01 7.478892879722792708e-02
4.059629145614284673e-01 5.384223372516362405e-01 6.663255264649825538e-01
8.710888577811567446e-01 -3.978381520852594666e-01 -4.270574193077986136e-01
4.639309874677486345e-01 4.309233298214286689e-01 5.229631636648930382e-01
3.816813281931228374e-01 4.841686340507407316e-01 8.030644643130229188e-01
6.123643175459557719e-01 3.223812106169846037e-01 2.709143493585986287e-02
6.779142060006130288e-01 1.225051770652566818e-01 -7.452853086483923750e-02
6.879473814443354263e-01 7.370768914991757126e-02 -7.602150494280975057e-02
6.544216622917802262e-01 6.020190198954336602e-02 6.534638721879634793e-02
6.910827575719284965e-01 1.419646638065506505e-01 -1.409895543520216510e-01
7.901613396769137099e-01 -1.400790506906329225e-01 -3.100893763161678418e-01
4.838532116668289307e-01 2.777565115632630866e-01 5.634646498523915303e-01
4.409386924633211802e-01 2.457982084043127124e-01 7.557538201433191549e-01
8.802915715751727932e-01 -2.292393851478763400e-01 -5.932271966249564876e-01
5.574222104311387094e-01 2.487534691790217745e-02 4.714677566553404642e-01
4.934819170510321151e-01 5.283798574575097051e-01 3.322741063157034214e-01
3.728755584387710709e-01 3.989380336427876816e-01 9.032891139567129635e-01
5.502819658640160094e-01 3.201954818952701398e-01 2.712444219867173323e-01
6.921306500567983022e-01 5.703929615311779770e-03 -3.983225408972328879e-02
4.207368856201225138e-01 6.294501094871922664e-01 5.383140430559706369e-01
8.222688368694517358e-01 -3.681087646384529344e-01 -2.593526325926938103e-01
7.043249243261560100e-01 -1.544539999633056937e-01 3.625104001857613889e-02
8.700229305709493710e-01 -5.848362410084271407e-02 -6.850170431664931447e-01
4.514467845606421892e-01 5.858786392345720628e-01 4.520307790766219247e-01
6.235197119322539727e-01 -7.822185654013159850e-02 2.929556182853507162e-01
8.577423221935422948e-01 -4.464915584234137036e-01 -3.373514423992574618e-01
5.641737313085926075e-01 2.582829004895078051e-01 2.648118950737138322e-01
8.780445194118675634e-01 -2.852518583113514694e-01 -5.411863667140172085e-01
8.045472507042239485e-01 -1.980155976952356622e-01 -3.215229552019611692e-01
7.369926770683488115e-01 -6.973810506913705187e-02 -1.567698142265202821e-01
4.706402496144889147e-01 2.238776583673763865e-01 6.566851660954202696e-01
4.324414619020873762e-01 4.206353657662095791e-01 6.538931379276436973e-01
3.931622011048599430e-01 6.453173541366580279e-01 6.337517908837970726e-01
5.520115425220624150e-01 2.701158571513836426e-01 3.031717722607513710e-01
4.307482240199373424e-01 2.280616361385646995e-01 8.092530350261484262e-01
8.630248400637062778e-01 -1.357309867580324403e-01 -5.980187203443598776e-01
4.192927555592151911e-01 6.486054854179079676e-01 5.291582352787022048e-01
6.555754631651167230e-01 -7.701406018454406976e-02 1.668278914681069758e-01
3.438278454697001330e-01 7.363666981150785995e-01 7.561008548514207561e-01
5.618227798210028157e-01 1.253992208653671725e-01 3.766350052153250583e-01
6.031137072625714080e-01 5.429108417802978870e-02 2.702969244141962823e-01
8.676861358520003842e-01 -3.793159008213884409e-01 -4.280748459738544787e-01
7.688141076560482956e-01 1.004372189431175372e-01 -4.124955017987528838e-01
3.669662092710142542e-01 5.000613751575839760e-01 8.482590556336085941e-01
4.079164887196757849e-01 5.399842031615001980e-01 6.574893682182303412e-01
4.111124353399897013e-01 5.503622981965193839e-01 6.369912923643079594e-01
6.108092885927984828e-01 9.882777369509615495e-02 2.058407531393025014e-01
6.492139725360658309e-01 -9.915344982928646356e-02 2.087737093112339848e-01
8.749736236023252234e-01 -4.106387699443202477e-01 -4.323421084798974023e-01
4.571753220543001150e-01 5.780636541872131717e-01 4.356941989053491060e-01
4.065885538792425313e-01 5.126609238492282339e-01 6.837805817423834309e-01
6.310247973865731330e-01 -2.764212077085275929e-02 2.245756934749476297e-01
6.288323695233567490e-01 6.454228679082758347e-04 2.112885614496494702e-01
8.296380157416824996e-01 -3.635777405894595471e-02 -5.443827559859931720e-01
4.123404548197074360e-01 2.708585905147192774e-01 8.480881686149702725e-01
3.695085245325906986e-01 4.983805195437992497e-01 8.396282771575540593e-01
6.203890697261720266e-01 -3.408458775394895141e-02 2.710901430848466909e-01
5.343155693162894293e-01 4.335261015535942231e-01 2.460634091725115435e-01
6.490767910732847534e-01 -1.238857672829328099e-01 2.284130971266865040e-01
4.960274908862855048e-01 4.701462162755740137e-01 3.673128396379234939e-01
4.882528656758436392e-01 3.141028812897194156e-01 5.182071612686535156e-01
6.454436896573018112e-01 -8.674026623300412631e-02 2.139105416926943837e-01
6.342763370574575621e-01 -1.718058049896321188e-03 1.918525534177371317e-01
4.464913863369924796e-01 5.689911848659088278e-01 4.844283808024459903e-01
7.594067884496946697e-01 7.327138249851759821e-02 -3.547715942423033675e-01
7.867940004591922332e-01 -1.549814172901285148e-01 -2.854273042596549570e-01
5.014306436314327486e-01 3.262438065742934157e-01 4.573630728587353422e-01
6.910025364449202678e-01 1.606063609653227420e-01 -1.550753806396379109e-01
6.379678367430843267e-01 1.147522608497360541e-01 8.747181890847043062e-02
4.011647089800460253e-01 5.856010985253432555e-01 6.486234802774943908e-01
5.034446993757435429e-01 1.559507498724337637e-01 5.810340777284659364e-01
5.929908772206721190e-01 2.800667649337181819e-01 1.354393791075118036e-01
5.961095092296955222e-01 3.456414207016018092e-01 7.260858862952422610e-02
3.963400457456738857e-01 4.133579803624066740e-01 8.005095877403850535e-01
3.795362543858519788e-01 6.538844050154816179e-01 6.803510592118077183e-01
8.425518016265557408e-01 -4.553527829283381817e-02 -5.877291328787763725e-01
8.218160114904540237e-01 -8.292242593145418561e-02 -4.778664065706990649e-01
7.185040941079633425e-01 3.031985364521215792e-03 -1.407707694409176813e-01
3.910677931581957867e-01 4.272366796527810595e-01 8.103804261705056522e-01
6.365355577738156523e-01 -1.066039810434227103e-01 2.640445858395971124e-01
6.285948274682503500e-01 1.192503421365463945e-01 1.206040325644249650e-01
8.598367328279421518e-01 -1.193668722988105446e-01 -5.982073539166976595e-01
7.956646957012467603e-01 -3.140488701782747638e-01 -1.972059622329444539e-01
4.589108165830900754e-01 4.215055918068569274e-01 5.498440137920367343e-01
5.935092686853127297e-01 1.850335661730493075e-01 2.068198830833121726e-01
4.656633155519803169e-01 4.161864255982918870e-01 5.275805091807941327e-01
6.922049436468968864e-01 4.759549797040985020e-02 -7.248009958788706464e-02
5.014933031239861005e-01 3.266942358733793683e-01 4.567704356254888576e-01
5.800279703392096087e-01 3.818077756576657156e-01 1.074801287069556549e-01
7.444901066955306179e-01 9.128911376624494756e-02 -3.104311675199039611e-01
5.742373298255909475e-01 5.505036540958565400e-02 3.824880998753974470e-01
8.414103989269974271e-01 -2.306212789629654217e-02 -6.006299523138788343e-01
8.296199499274276024e-01 -2.966360495033806832e-01 -3.432692705251311760e-01
6.905547043535824603e-01 -1.149993168899821477e-01 5.955569188181333157e-02
7.444046507977939431e-01 -2.583550588129506220e-01 -4.002689932421326507e-02
3.619907927199139119e-01 5.693196590864981754e-01 8.141945511270751723e-01
5.145281388003832834e-01 4.132643607708278988e-01 3.389943586203460479e-01
7.043258627864794619e-01 3.934527894659482772e-02 -1.134461582497680726e-01
5.222804057916006215e-01 4.581366508958605865e-01 2.740575765515871343e-01
6.543471962122852092e-01 -1.018607937581233469e-01 1.908169268478960012e-01
5.124533684852300430e-01 1.416308025473741183e-01 5.569113666011893393e-01
3.828373637997838363e-01 4.437208843659862234e-01 8.297919903990428336e-01
7.648618347162071673e-01 -2.756492516647403579e-01 -1.065648143418876648e-01
3.886001908573267771e-01 6.692662075082382866e-01 6.330704128072759396e-01
7.633094531254891457e-01 -2.937124771599146089e-01 -8.654962402517042686e-02
6.950713927634598610e-01 -1.111203043901842213e-01 3.891940583601000148e-02
5.937030753518296455e-01 -3.952222989484628635e-02 3.795133029671106661e-01
7.967770607863121635e-01 -2.800612030459505575e-01 -2.278029361687596566e-01
6.058177483875409886e-01 3.184813228749068803e-01 5.567161235583718837e-02
6.641293037995326110e-01 -2.792613575397411355e-02 9.550431623692365313e-02
4.659548927182340372e-01 5.249220577979459845e-01 4.424526760983087947e-01
6.649341166026218053e-01 -1.072118092680979101e-01 1.536025622777395794e-01
5.400122372558708861e-01 1.414862663116224772e-01 4.493909267564367149e-01
4.110019344801074115e-01 3.037203119074500246e-01 8.279329072560781544e-01
7.833149530111316317e-01 -1.337067923068489816e-01 -2.882726147061059341e-01
7.170951884780165653e-01 -1.994640930638886533e-01 2.114283283372846156e-02
4.454284613247541103e-01 4.185169292534661745e-01 6.048082910284716673e-01
6.008204482565687732e-01 3.112494168068568601e-01 8.077476989684669040e-02
7.466796120165268835e-01 -1.765745741590827034e-01 -1.120803359627748769e-01
8.660489809127158711e-01 -2.179278341513872508e-01 -5.463394987447889317e-01
8.150518231906652700e-01 -3.086617129437537743e-01 -2.770841585579386090e-01
7.416323787939752554e-01 1.076110131521627322e-01 -3.118775010398685543e-01
4.846853611950281415e-01 3.080683602776226881e-01 5.368013256063992600e-01
4.637200116401438144e-01 4.615751610136774041e-01 5.001111926373211780e-01
7.629935849849480700e-01 3.165751603383704788e-02 -3.366367596252373140e-01
5.410639306230032863e-01 3.020309157291620750e-01 3.212763555874598165e-01
3.550619226189588584e-01 5.126601526699697819e-01 8.850201556647140366e-01
4.415394484275436682e-01 4.614822044327003825e-01 5.868099236984655187e-01
3.514902208591254018e-01 6.443821499235631300e-01 7.972254667344863543e-01
3.682484641587959739e-01 4.045171598609318964e-01 9.170509825178916330e-01
6.443891961501564403e-01 -2.694992562186201285e-02 1.718459258833669734e-01
8.116172119400708596e-01 -5.488028638397663556e-02 -4.596948328527165617e-01
3.926901246986740923e-01 6.002472497990144484e-01 6.704083403526843732e-01
8.660330252664777406e-01 -1.218985313257961445e-01 -6.204516886251809638e-01
3.529172426935574536e-01 5.121322349684502839e-01 8.938040464220591286e-01
5.323051853015783319e-01 4.476507223342105490e-01 2.430049574885833619e-01
3.884350487114123229e-01 5.146468390663716530e-01 7.531457507574570442e-01
7.710998256796216532e-01 -8.457217734928715314e-02 -2.785183567948389394e-01
5.310836500263856896e-01 3.613880884405099025e-01 3.144062847067669586e-01
4.041190146465711286e-01 3.817339318865358710e-01 7.945554647439422302e-01
6.093703844764397637e-01 5.714961600155770566e-02 2.436532889303850147e-01
7.760493332474336370e-01 -7.925652475749470072e-02 -3.019547153327979960e-01
6.089418445146419501e-01 1.929051399613004036e-01 1.404673188417291385e-01
8.045105994940892069e-01 4.487500473558023173e-02 -5.089922363890636570e-01
6.294614000603748760e-01 2.806739366210194708e-01 -7.466453878644941158e-03
4.898037900783517862e-01 2.053707528706189278e-01 5.961363366012140119e-01
4.152895378741138233e-01 3.567270181151553365e-01 7.702443368649696254e-01
3.902872090587436449e-01 3.898652404656654524e-01 8.422952957855255329e-01
8.542010752739763735e-01 -1.544255461041511568e-01 -5.491172482965345214e-01
5.961423596779825695e-01 1.321202227587272016e-01 2.374073356947179192e-01
5.936679204519663688e-01 3.278152854163801644e-01 9.591347518355264334e-02
4.438613933778121634e-01 2.947974070704535432e-01 7.064913821856386722e-01
7.317304028606387289e-01 -2.388679584839688841e-01 -5.579335904048728610e-03
7.119224429370911711e-01 2.499637638870948197e-02 -1.320315433496296320e-01
4.760211383024606224e-01 2.995047637788696981e-01 5.772543904853428831e-01
6.913443080009060715e-01 -1.375056736524023493e-01 7.385612336373464926e-02
5.133185990915387631e-01 3.206379881512528840e-01 4.152642860724334861e-01
8.331146956264751102e-01 -7.555786896820512744e-02 -5.276822912564664847e-01
4.004252425795979953e-01 3.191706104327118876e-01 8.573064831413116371e-01
6.667054533888450152e-01 2.053096047092451207e-02 4.801407428052530818e-02
4.991137396735135234e-01 1.249631001935718466e-01 6.218841209149102989e-01
7.863029641039610551e-01 -2.256202540257874201e-01 -2.289470253218089113e-01
5.389010427209237619e-01 3.221613967557923064e-01 3.141744944297558684e-01
7.339638426715605624e-01 3.595851133110237324e-02 -2.265822867427053910e-01
4.210556226501213639e-01 3.497221379166505217e-01 7.531353771287900845e-01
5.481194658079588944e-01 1.337424487510234239e-01 4.237093184026698434e-01
8.062507206918915204e-01 -1.211133672501711195e-01 -3.875763754502203340e-01
4.163177299470215975e-01 4.514026614200479792e-01 6.930997805748667639e-01
3.702519010167528712e-01 4.259684694039971298e-01 8.926571727572621961e-01
3.680753141297009035e-01 6.299017201536155630e-01 7.436367372587974200e-01
4.089610209216057446e-01 4.133413209164200630e-01 7.512308159371315908e-01
4.318368508352113944e-01 5.678298420149523462e-01 5.425591973623322684e-01
8.392716550917611595e-01 -3.051192565441637750e-01 -3.744117680738964227e-01
4.210603761803564105e-01 6.135041519717487901e-01 5.493675418384574849e-01
5.132713731082407804e-01 4.855939277937132426e-01 2.880342329319900974e-01
5.039523179466353087e-01 2.292197053401086315e-01 5.224574923776597046e-01
8.830182104239472363e-01 -2.910628948400785232e-01 -5.561227493031838387e-01
7.878378088119898370e-01 -3.237111970266354777e-01 -1.591744649031616721e-01
3.745236566730822392e-01 5.322494432438157341e-01 7.938806354664578180e-01
4.453027191962416476e-01 2.557934390392262447e-01 7.309894987514254927e-01
4.629189753686848152e-01 4.343406121921624674e-01 5.242760494225459089e-01
7.415799548295448629e-01 -2.310178097477005310e-01 -5.011066506913575136e-02
5.626202361209404756e-01 3.536479062364866754e-01 1.972177304367034867e-01
4.857070116858913100e-01 3.276108427706372339e-01 5.177163225396709256e-01
8.524196033864552824e-01 -9.754622047938592277e-02 -5.860941131881698407e-01
6.954124258234626321e-01 -1.048227275208130083e-01 3.272314495036342252e-02
5.002047380930905174e-01 2.666086501138490439e-01 5.082139966395028408e-01
4.107270757316966447e-01 3.436143251762467377e-01 7.981916300320058832e-01
8.226887257807419251e-01 -3.060869153183391478e-01 -3.088991496749663446e-01
5.252313469129742396e-01 3.334277812644882988e-01 3.588596196208291844e-01
7.646324233984805874e-01 -1.883063348587354358e-01 -1.731338482887088137e-01
6.452842019706285237e-01 -1.191816769881873656e-01 2.395916690210946332e-01
4.508158307858500247e-01 2.831750148801845945e-01 6.883079086076566711e-01
4.316062798975547898e-01 2.735646888542683786e-01 7.707546138859792118e-01
5.987896667646878113e-01 4.655251715283498931e-02 2.931619966740818817e-01
8.664939405733481648e-01 -3.281707190253147499e-01 -4.629240097591086900e-01
3.938836466073653564e-01 3.797225363933565134e-01 8.360836689632654695e-01
7.125301724891834887e-01 -8.235168698176015267e-02 -5.148776210155719263e-02
3.967720159663231660e-01 4.107322740186296617e-01 8.008506494451805846e-01
6.288622481886942950e-01 8.763073953640729274e-02 1.439830776459184170e-01
4.330225609250913932e-01 5.784446543236602123e-01 5.297293233260517153e-01
4.211416925808865730e-01 2.369199704182907429e-01 8.399293510546734787e-01
8.564535067851852812e-01 -3.733056909195342499e-01 -3.888478164658387692e-01
5.737433593794314390e-01 4.083506792257367013e-01 1.115227410827560467e-01
6.536666790006290251e-01 -3.391922124908515468e-02 1.409955976951189349e-01
1.445188386661918067e-01 -1.373250909007449061e-01 -7.734655061069971582e-01
-4.036543578133686694e-01 -2.486258115869357244e-01 -9.186640588789782846e-01
5.767929865167335975e-03 6.415701232927260023e-01 5.434220347027548526e-01
6.464985102753377788e-01 3.845879211548301063e-02 -5.166183433645300527e-01
4.123236259613544813e-02 1.607246326670941083e-01 -2.657513223528014668e-01
-2.644452007021829143e-01 3.933790528003401343e-01 1.475940547566522987e-01
7.133969650831976095e-01 2.318612895277150088e-02 -5.472961681443265780e-01
5.378590532829669035e-01 3.756118068080606109e-01 5.708621045479050915e-02
-1.613826585334138808e-01 1.225552211658788165e-01 -3.144390234735750522e-01
-3.767269814405380113e-01 -2.823492535598592923e-01 -9.772636409753578945e-01
-7.481243920836504468e-01 3.520273562447125970e-01 1.148362308222807687e-01
-2.140961004190342770e-02 2.568749138648446229e-01 -9.974497313159656764e-02
4.123121547843898171e-01 4.067789092649781724e-01 1.188604689797713720e-01
-6.505006629275768004e-01 4.744752485986992174e-01 3.128229574249918321e-01
2.604837478245293214e-01 7.315117827008754681e-01 6.750015360680259313e-01
-4.968416546817914226e-01 2.217164021680235186e-01 -1.227394214649490112e-01
4.184054359231120790e-02 4.053648365983685831e-01 1.445212517761431115e-01
-4.989501557225589079e-01 1.907391562703835558e-02 -4.624585183028306345e-01
-2.951489283222309967e-01 4.389819251391139376e-01 2.264039535822117977e-01
-2.145668504525882758e-01 1.970514628656302725e-01 -1.854671840763559842e-01
-6.427084674198872971e-01 5.440607673089590257e-01 4.289444644422644171e-01
-4.984074674918637649e-01 3.966402328022220480e-01 1.707670590088269102e-01
4.952806143796435051e-02 5.574192508084234721e-01 3.989702224288173005e-01
-2.256359425537346752e-01 -1.222166750443989952e-01 -7.201166359311416132e-01
1.415630833961126489e-01 6.753928910091536730e-01 5.898754674727669789e-01
3.353366507325418189e-01 4.995881600796385213e-01 2.803477089306509740e-01
4.647063766056741541e-01 2.784178483773773749e-01 -1.003954414048687793e-01
3.455870949650815538e-01 7.320647547776507058e-02 -4.355692926211528482e-01
3.216532990005495640e-01 1.641375532147316130e-01 -2.812456984680133942e-01
9.241390142347745418e-02 1.702555629836204759e-02 -5.106408963885489261e-01
-2.562786604429344584e-01 2.199624446322869797e-01 -1.438839205371014729e-01
1.768348559109989282e-01 6.464890577682844697e-01 5.387280953566020436e-01
-6.065474602542650917e-01 2.287924530868743755e-01 -1.025701161974394704e-01
-2.004659408884905125e-01 5.004345163518019168e-01 3.223098730748570340e-01
-4.762946447431790076e-02 7.208506432876632397e-02 -4.076966040615002673e-01
-1.782112768660243096e-01 -1.271836300619256233e-01 -7.320358630510954701e-01
-1.344512130655614764e-02 3.927912259122581795e-01 1.276156843947199304e-01
3.439617033291530457e-01 -8.202921737393026325e-02 -6.958127119092198942e-01
-1.108789636692171093e-01 3.714319203112531054e-01 9.916369094582959398e-02
3.333917542135203527e-01 -1.635703436757695861e-01 -8.317763725043640921e-01
-1.812757435626060482e-02 3.207523046446522086e-01 7.143944754767640910e-03
-3.090883465177360345e-01 -1.141482312390690312e-01 -7.002693754165183471e-01
7.391855760464882685e-01 -1.791545138088487983e-03 -5.911408937271283026e-01
3.600402696347657638e-01 4.385000140561897686e-01 1.760194107680938536e-01
7.998222058831713221e-01 2.648371348474264433e-02 -5.483048981726648119e-01
2.948948942971897913e-01 5.443770062944988108e-01 3.585291447646757890e-01
-1.465167330722370320e-01 -4.307834687138907548e-02 -5.933699510070278293e-01
1.235199085514195189e-01 1.063208307031014849e-01 -3.632256275792586919e-01
-9.503011831198748816e-02 1.074039922771864441e-01 -3.448718669235308898e-01
-7.599091065773929676e-01 3.974757466846822740e-01 1.919554806947286474e-01
7.182033545544975750e-01 1.380270754625640972e-01 -3.550448424140486559e-01
5.583676675838497028e-01 2.963463578911002538e-01 -7.741223393485514859e-02
-1.791088322891709605e-01 -1.394608670987395049e-01 -7.525597332507895088e-01
5.891171467400922734e-02 7.000122261932885115e-01 6.374218151626148687e-01
6.920031466497169603e-01 2.910062907535982280e-03 -5.796850445899739412e-01
2.616034996341614072e-01 7.329629069438242661e-02 -4.290638565907510804e-01
7.611259280520689119e-01 8.115115949945772567e-02 -4.536868252632350051e-01
2.715933880562509603e-02 2.626905019999674629e-01 -9.366594894957182282e-02
-2.993800470379566828e-02 -7.670751401475754683e-02 -6.585950699586653467e-01
1.874015179382500507e-01 2.567755052975343455e-01 -1.157118366771881651e-01
-1.288713970250235097e-01 -1.051928163792954646e-01 -6.988855528762661917e-01
2.855045914724104184e-01 -1.193862705834303067e-01 -7.540459097417121503e-01
-3.741538721800789502e-01 5.389146992374074241e-01 3.999925628167756986e-01
3.800235618034746715e-02 1.371723290841040388e-01 -3.050096150708306864e-01
9.588415193380779578e-02 7.121949744236644175e-01 6.550575239854024012e-01
-3.903810619974529827e-01 1.600402525743681581e-01 -2.342402515517258144e-01
-3.636433423108391128e-01 3.527399496567932280e-01 8.693885038501675266e-02
2.750240975681783051e-01 6.676349292592251849e-01 5.667649512257457722e-01
-3.969349994583477037e-01 4.552193789448092387e-01 2.613398016569383753e-01
2.806993009989230403e-01 4.340792192551138351e-01 1.746082092827158094e-01
-6.243296937428549631e-01 2.538611311306951945e-01 -5.917857514717889816e-02
3.818640627120905018e-01 3.386915841023442897e-01 6.966087400062400889e-03
8.363251380138514435e-02 -3.386002434568594066e-02 -5.953234031591440045e-01
-1.666969467900938917e-02 4.602340740677769715e-02 -4.537507078740045108e-01
-3.266973434743517535e-01 4.061133386143284119e-01 1.736628566379560257e-01
-4.998642960117447021e-01 9.375318602988473929e-03 -4.786561537627753160e-01
-3.125717932424130346e-02 5.532757157790360036e-01 3.981333340299008094e-01
5.186089475143947254e-03 3.673724662197462298e-01 8.357273524451624969e-02
5.581028405983100571e-01 4.175384231498874277e-01 1.258751212121866914e-01
2.432024839906844482e-01 -1.134316229459675779e-01 -7.408577012031235531e-01
2.958240719993514567e-01 4.945525974977075245e-01 2.748917000012586209e-01
-5.116437349642082300e-01 3.644516264261206118e-01 1.177808200409453526e-01
2.202534283102337842e-01 2.346338373194628568e-01 -1.553343789376032125e-01
-1.841027878967705367e-01 -1.946804296376568044e-01 -8.447979209420145574e-01
-2.091039940987489965e-01 -1.579663736758399979e-03 -5.190311987851721209e-01
-1.087638125038863507e-01 1.810604383947128637e-01 -2.202936649928179946e-01
-3.745189337100261473e-01 2.405455365556716796e-01 -1.004143835971263443e-01
-2.826463976413423965e-02 2.721992604019563694e-02 -4.844111691970202083e-01
1.637319196133834587e-01 1.504115463132167096e-01 -2.923179559337604205e-01
7.446906424280285153e-01 6.169711745399163866e-04 -5.875178033805205091e-01
-5.617073889886682603e-02 2.733088829437122502e-01 -6.955110610160884776e-02
-4.525322751801450494e-01 -1.477131992232296465e-01 -7.457116573768028944e-01
2.469041058004273759e-01 -3.456716681081542508e-02 -6.088637334161924874e-01
-6.470715508326276844e-01 2.157808745083102386e-01 -1.213272232286896485e-01
2.122318034270202769e-01 4.381954013631055300e-01 1.866927421435802814e-01
3.246484255666285956e-01 5.049897473908433465e-01 2.902161757531696584e-01
8.009936442989925576e-01 -1.410088110150897571e-02 -6.164633539168695719e-01
8.347716567773935670e-02 6.485803122962716660e-01 5.492997217683137645e-01
4.404758545733812869e-01 -1.325979507502370591e-01 -7.879311999557587765e-01
-2.793918952444998105e-01 4.775472355124860679e-01 2.898946711305260271e-01
3.703003063454135546e-01 2.251043238399523527e-01 -1.826712041890883598e-01
-1.243251235863218895e-01 -4.481660679278083592e-02 -5.979645924034749926e-01
-6.501287677176281754e-01 4.107051686376235189e-01 2.058375424223391759e-01
4.573683932665396079e-01 4.641559202013028629e-01 2.116858033447040210e-01
-4.113560409972093490e-01 5.646482098172455055e-01 4.459686330181233949e-01
-5.046189965812304390e-01 6.559089496302316670e-03 -4.830198514164880663e-01
-7.038524428881979267e-01 3.291968418128688456e-01 7.319421143672577568e-02
-1.232278019925939772e-01 6.416388690378220794e-01 5.532980700995404622e-01
-1.185932850757047685e-01 -8.206023428299656641e-02 -6.608645405324724553e-01
-3.031115301084438829e-01 2.919529566270117060e-01 -1.959535951339224161e-02
1.687078591021801133e-01 2.379786509179897536e-01 -1.458240439257066645e-01
3.348646893829015370e-01 -1.310232429965683433e-02 -5.795179159846834960e-01
-2.819243969106042802e-01 2.259082838461029252e-01 -1.319708250455707554e-01
-4.739472981115972101e-03 2.349784472033986937e-01 -1.377318278438409427e-01
4.685337924702310253e-01 2.427770137994126054e-01 -1.604630304278137354e-01
-6.320770303146104607e-02 5.651290118123410144e-02 -4.326359879665899744e-01
-1.661709703664281390e-01 9.937886172252796690e-02 -3.529488578703547375e-01
-3.078814281045216816e-01 4.940118869866445550e-01 3.196654462094506988e-01
-7.278869600454974664e-01 3.972223219511623049e-01 1.891074054776185065e-01
2.390222209095090589e-01 9.650983103461541202e-02 -3.884206836614841341e-01
-6.369149832014473489e-01 5.701883185594055492e-01 4.723280762903839247e-01
-8.342732577468837951e-02 4.568859315339552918e-01 2.404127823689161392e-01
8.370937884544037422e-01 -5.323719815289300328e-02 -6.848356647867505087e-01
-2.954525494930054230e-01 1.558431170584432257e-01 -2.484627903582920516e-01
3.905609031699084494e-02 6.331284731085010664e-01 5.267446029434704746e-01
-2.628237741684798512e-01 4.946797820156236258e-01 3.173762797643530087e-01
-4.188247144162793312e-02 5.754648723167639368e-02 -4.325160418633570703e-01
-2.207302960138246284e-01 -1.367485927597485718e-01 -7.448612421508932213e-01
1.623694244215334037e-01 6.741564633113420468e-01 5.862273348264762651e-01
5.955437781720432922e-01 3.544906721375786218e-01 1.729631318462746328e-02
-3.221343577482007614e-01 -5.491579734572051702e-02 -5.999356360016437906e-01
2.938743288236628226e-01 7.398843342501068010e-01 6.865176864150597247e-01
-2.380382654662258762e-02 6.866846727561549679e-01 6.213272493693667853e-01
8.693608526014878768e-02 2.842245131227267296e-01 -6.207153046315343203e-02
-7.816170427279300892e-01 3.816948712418180012e-01 1.671298540985034775e-01
1.442908471338354148e-01 1.131198723095464126e-01 -3.533937281146520837e-01
-2.131341228708749994e-02 2.204889339867056597e-01 -1.607800139022669272e-01
5.876155394041947533e-01 1.945687027571381400e-01 -2.503301650189370120e-01
-4.907987290220628407e-01 4.669464552466867646e-01 2.881112356865092594e-01
-2.060409946756741884e-01 1.250710851420650319e-02 -4.956361694944660390e-01
9.852925095660562682e-02 1.103305557509070972e-01 -3.546094143410840061e-01
-2.562790392074642543e-01 3.663253026999565010e-01 1.016007058556179649e-01
1.866083782678758518e-01 2.421619283087906097e-02 -5.057079471546235272e-01
-1.394029842262914931e-01 8.411916594886731380e-02 -3.805683771857973907e-01
-2.817193896755094129e-01 3.721403455022096463e-01 1.132788843425916320e-01
-9.245331706945270067e-02 6.107784124554240801e-01 4.992092816882859885e-01
5.248183105658972281e-01 -9.858542312820417486e-02 -7.372662192906346279e-01
9.206211641927802836e-02 1.960709151679927986e-01 -2.103135152107081796e-01
-3.991351615557592880e-01 -2.560817391904977591e-01 -9.315113402641146401e-01
-7.334317140922800293e-01 2.976142987765871828e-01 2.246110950503725848e-02
4.108970913313446105e-01 3.725747819645219283e-01 6.159925583924626830e-02
-2.676710816622163147e-01 9.316080207083018982e-02 -3.556977730199505916e-01
-4.352330563007375530e-02 5.422823133856614630e-01 3.806229802795819683e-01
2.981059055460281645e-02 5.868225078420733487e-01 4.497782956739252436e-01
4.549381754384185933e-02 4.501698429863534301e-01 2.193932489679034370e-01
4.522278371004876951e-01 1.434383607097061697e-01 -3.258432611550769464e-01
-1.241216868153399988e-01 7.960088158124022095e-02 -3.893028837205777526e-01
-3.407578880784115777e-02 4.797828816693205378e-01 2.750820123337286427e-01
-4.647041397650816807e-01 -1.277801039138333761e-01 -7.113582048761496468e-01
-3.213748690648561279e-01 9.748369141036673791e-02 -3.443836711085128122e-01
-4.173232276573120986e-02 4.660442747864362301e-01 2.526185168764737421e-01
-3.061129474432727204e-01 -9.017823715136680240e-02 -6.602912530521531931e-01
-5.842981809334885090e-02 5.908161458340466243e-01 4.631534523280921856e-01
3.089639878400800010e-01 3.508421515840036697e-01 3.286155583166479321e-02
-5.370239913867617121e-01 -3.089887504351669645e-02 -5.433935891619524616e-01
1.032006559862596179e-01 6.196407785458870610e-01 4.992689649879564207e-01
-2.165665714216845894e-01 -2.507976257024701616e-01 -9.364630869156853610e-01
-7.424868601649283750e-01 4.048612904598463125e-01 2.030244667008845871e-01
-1.279242143118684560e-01 2.032266985266411585e-01 -1.816658726931076051e-01
1.957164821724991510e-01 -1.804513632200298312e-01 -8.496722851090152684e-01
4.257120611565514134e-01 2.233250195230785384e-01 -1.898483586098784481e-01
-4.998553027012679340e-01 4.132798478081367022e-01 1.987851218709099921e-01
-7.442110865566062827e-01 4.642193444465348984e-01 3.027122136557761634e-01
-3.099383266178226681e-01 2.777644742722172877e-01 -4.287618472873770681e-02
7.240348483799219359e-02 -4.839335002222799192e-02 -6.188495067740861222e-01
2.772757931937306353e-01 1.825681130125651752e-01 -2.469754404957101579e-01
5.667136275639774734e-01 -9.524379254126083549e-02 -7.348316236885052977e-01
3.340705948332251540e-01 2.611345431695084179e-02 -5.136838359048506719e-01
1.633479606327942757e-01 3.311109411952082304e-01 1.078606333757267145e-02
2.363943831335100446e-03 6.877285055514563705e-01 6.210979607895912302e-01
-2.156405175665330742e-01 2.940079106512912266e-01 -2.276740079857877616e-02
-5.627953173473576598e-01 5.380360321476348462e-01 4.127927843327970914e-01
5.987429383670150873e-01 6.276061098438076580e-03 -5.669827523716188811e-01
3.526255652724438749e-01 1.237614917454991775e-01 -3.513093377944912499e-01
5.220207706309318851e-01 2.726544123312809199e-03 -5.671307751071890113e-01
3.530324522691220129e-02 3.009536968610238006e-01 -3.010588626555846595e-02
1.362380549354061665e-01 -1.142376775628932695e-01 -7.341159544989760422e-01
6.526598717874453337e-01 1.554029483309103399e-01 -3.209419719688511030e-01
5.545910737324762918e-01 2.051804525535838031e-01 -2.300329238595079373e-01
5.579847006934793852e-01 4.120782807758154864e-01 1.167261302052988031e-01
-4.927488005948943983e-01 1.619940995627648928e-01 -2.232173253644007538e-01
-2.325836089080229319e-01 4.291145806709010246e-01 2.051199828187051100e-01
