2.492932688564625521e-01 2.596819838684500947e-01 -4.951392421171119801e-02
-5.932205607724700958e-01 8.584246903540475315e-02 6.343779440549651705e-02
-8.745921548580294358e-01 -1.117247343144006089e-01 2.087153710468284684e-01
2.876588922886548771e-01 2.917191164155429894e-01 -7.325345235345158412e-02
4.819896684691897804e-01 -9.308807166671552447e-02 2.282728412318574540e-01
-5.548373620540526518e-01 3.351656760303073357e-01 -1.278176382722075732e-01
-1.612387779387435827e-01 2.159294850263225041e-01 -2.604958505324602228e-02
-6.179424102782702377e-01 3.106761070972879346e-01 -1.105155750741118187e-01
3.203455920182670114e-01 1.283863454144692495e-01 5.348510899248377914e-02
-6.688423237525652487e-01 1.750846652866278885e-01 -7.254478718230660678e-03
-4.813478734857262187e-01 5.189768133454994992e-01 -2.676887103844751703e-01
1.320266590853465538e-01 -1.200358537336332181e-02 1.570090201201773672e-01
5.684623491826198416e-01 1.900082556893104013e-01 1.218269753067488526e-02
-4.235977404837845128e-01 1.460664581127663619e-01 2.125013298939723572e-02
5.816245202286330906e-01 -2.373825713563539330e-01 3.420081166474237544e-01
-5.290739660123362498e-01 3.697377083462741187e-01 -1.538265995336991210e-01
-1.574632137676419685e-01 -2.347343096792611217e-01 3.214833503512138924e-01
-4.742493943766136200e-01 4.279445388456153965e-01 -1.973300084591099179e-01
-7.325203875091539363e-01 3.611614147008319065e-01 -1.523025045551641143e-01
3.242529395979938389e-01 3.020395280992710374e-01 -8.029481357494562543e-02
7.571851951690490301e-01 -2.929562322581836797e-01 3.892429580404074829e-01
4.548288282315431919e-01 3.532905494351719633e-01 -1.165412651645141573e-01
-3.045435042635913012e-02 3.713228428945949955e-02 1.150644794108807573e-01
-7.890001721215931241e-01 5.635276769294862015e-02 8.127677833206037317e-02
-1.380075410114312284e-01 -8.164953688499243523e-02 2.039494420283002873e-01
7.753340345226968078e-02 1.675133827456555258e-01 1.724794047721310911e-02
1.695003258375250843e-01 2.631153091795230825e-01 -5.415630129088792183e-02
5.908190660220685037e-02 7.225341680239799613e-02 9.022702085557160467e-02
1.898284704741209916e-01 1.612384137156336605e-01 2.489389069393970269e-02
6.193692925038684072e-01 1.978619679798729325e-01 7.400970832048016194e-03
5.523476530836481796e-03 2.893259627181598570e-01 -7.846409202391915749e-02
3.199722668783573920e-01 1.201293744440913858e-01 5.984147116187300830e-02
2.313633142592324832e-01 1.306024024922964322e-01 4.955137614433145071e-02
8.563952233432978178e-02 -2.724265784260410106e-02 1.675975094257855791e-01
4.007388143090893640e-01 -3.335661529684373905e-01 4.116371051222897370e-01
3.637451767070653541e-01 -3.280281248338289268e-01 4.064424351307840966e-01
-9.153247999751420449e-01 -3.232900663948094083e-02 1.464867232400285102e-01
6.312631055399609004e-01 -2.623392622408331487e-01 3.624897975904534664e-01
2.120058587054572674e-02 4.716556192632656574e-02 1.086211261652596377e-01
4.750693884121807153e-01 2.105166478176173084e-01 -5.963783420221072627e-03
-7.185041282801626350e-01 -6.382405925513795486e-02 1.756898705498644575e-01
-3.414395626549422968e-01 -1.182736598299636843e-01 2.270973252875113368e-01
6.734879199042310693e-01 -3.170556478822567636e-01 4.057292631243833436e-01
2.882494332183490049e-01 -1.647318772763469164e-01 2.786614636472426465e-01
-2.770409086401302567e-01 3.873416845760092042e-01 -1.610955178991107239e-01
7.863258393243394151e-01 6.570454417379105461e-02 1.134627672137503707e-01
-8.389323639724735049e-01 1.068148349376110695e-01 4.112442665168641182e-02
-1.919424177201247972e-01 4.040127326659466722e-01 -1.718198935934149574e-01
-4.872603557695824594e-02 -2.203305685662014859e-02 1.602209645069627986e-01
5.820153642323452337e-01 -8.920093286692840073e-03 1.658851166986474723e-01
-2.619567098046831077e-01 4.066044856794057138e-01 -1.755689175512106237e-01
-3.267428848278428610e-01 3.056056954582496710e-01 -9.932423680410737421e-02
2.158309676490758611e-01 8.804688183016073921e-02 8.197105260902219637e-02
2.495622940021657854e-01 3.867187325327214320e-01 -1.474459702450547915e-01
6.143638979079005802e-01 1.287517877256400822e-01 6.055617655407845995e-02
-6.892059940509663862e-01 3.878032512725730907e-01 -1.717587793250981709e-01
3.983683875319710133e-01 -2.713544618857524071e-01 3.636158239417224269e-01
-9.044066429859194678e-02 3.455534808099562372e-01 -1.242124747991799338e-01
1.472655676414511353e-02 4.062455971142570621e-01 -1.683729426479036173e-01
7.637153617581771137e-01 -1.531318222295935394e-01 2.816088638898416874e-01
-6.212666837892053540e-01 5.054348518755230613e-01 -2.607476445070967541e-01
9.275016093335390899e-01 1.145113918445633122e-01 7.936572896794695520e-02
7.829155543888394186e-02 -4.658190965111588117e-02 1.823233161787822521e-01
6.463233213996008031e-01 1.396263905804422112e-01 5.297165996240756763e-02
-6.766547383308724184e-01 -1.679427644728629654e-01 2.570065850323625112e-01
4.011812562510196911e-01 3.134889910118639818e-03 1.520690508521114759e-01
4.415157842861792137e-01 -7.372872733837168568e-02 2.123356161579195434e-01
-1.431431552201508917e-01 -1.283227312911734141e-01 2.398036336421244530e-01
1.591761448610382046e-01 -1.621691345865909073e-01 2.734578587926091431e-01
-2.613135906266167985e-01 -9.704442514244383811e-02 2.127344704171645895e-01
8.840642601282493462e-01 6.838949382510364772e-02 1.138370504061261002e-01
5.693054012275747811e-01 -9.385341719703574337e-02 2.310464734542811149e-01
-2.395139549992908456e-02 2.968562375172733581e-01 -8.500665216665724555e-02
3.885419648372970824e-01 -3.695998115356319835e-01 4.391121767161711431e-01
1.897944144718903270e-01 1.732325158728478809e-01 1.564620556182335850e-02
4.336139626350359322e-01 -1.802238414886611628e-01 2.942402417838075879e-01
4.764149060903217769e-01 1.271958172811392118e-01 5.830592342168179620e-02
-4.758817213576957417e-01 4.626625181209046977e-01 -2.241365990584892887e-01
-8.781109211076914001e-01 -2.392528909381964539e-02 1.409385349693693945e-01
-3.941833662188572451e-01 9.597415275657668332e-02 6.060430811830298109e-02
-8.219546066148917252e-01 1.013047140674904201e-01 4.579702479587283159e-02
2.654704837124181038e-01 3.479574346121250827e-01 -1.171651792142002768e-01
-6.359978875402131360e-01 -1.533006594533966871e-01 2.467350239144348589e-01
-4.013615968374659726e-01 -2.011377938257337405e-02 1.499225966504469931e-01
7.137253187029214407e-01 -2.932979292945583905e-01 3.884195449724218707e-01
-7.324944846656075703e-02 3.848820690431705160e-01 -1.541028680076354240e-01
-4.190367976765276281e-01 2.754004325003256981e-01 -7.834562325900282231e-02
-6.987721644824351763e-01 3.222710427403306932e-01 -1.214760608591704122e-01
-3.994136117623011129e-01 4.041610935375543612e-01 -1.771227082013314413e-01
-7.408301115466182640e-01 2.296835183158273397e-01 -5.114764460216170150e-02
-6.731250808885694825e-01 2.025727051726813888e-01 -2.855344127044847150e-02
-5.592134296340267596e-01 1.566761443740382065e-01 9.679137890697039545e-03
2.265092494211876362e-01 -2.074712847814544348e-01 3.100673425789652882e-01
-5.043547457347073992e-01 1.227003140963388306e-02 1.223806997457725088e-01
5.388737859758865184e-02 -1.316400191756681159e-01 2.472884275021992595e-01
-1.750279543861562870e-01 3.332874779727071531e-03 1.375065847552733866e-01
-3.361104089504221570e-01 2.356115394873913027e-01 -4.559661950756886684e-02
5.078479084099875029e-01 2.498356664749320499e-01 -3.545699194647931179e-02
-3.696973241480672745e-01 2.710932359156345561e-01 -7.379111638821078678e-02
1.680156666876047866e-01 -1.067122526410920202e-01 2.309245248802757611e-01
7.174859269743746326e-01 1.412633835311040420e-01 5.348925613269837204e-02
6.866078672616888756e-01 -3.233538326021940246e-01 4.109129417600835832e-01
-5.191562186310669236e-02 1.782254105803383892e-01 5.752261132361866092e-03
-9.122864934653611702e-01 4.125758667412619124e-02 8.983124127928457381e-02
4.859772141462304629e-01 2.125048359085482952e-01 -7.223791062785981515e-03
-7.820406177599358299e-01 -7.823146808527865759e-02 1.852083194150437317e-01
-2.400439379295985498e-01 3.006491815768146392e-01 -9.333485475973513079e-02
3.215087898243031428e-01 3.315469227668457197e-01 -1.031121169300928675e-01
4.698709558381317097e-01 2.052445576687846052e-01 -2.029276446376329993e-03
8.709953632411486790e-01 -8.850058811038325965e-03 1.730579305569135695e-01
-5.702695589484687577e-01 -1.560942443931049584e-01 2.505324665650021654e-01
2.341154861215486993e-01 -2.816804646041329296e-01 3.674690051443010308e-01
3.144320564499168413e-01 1.280787509736482643e-01 5.357436282870524369e-02
-6.477874151247760004e-01 4.330789205813685427e-01 -2.056281874937597731e-01
8.869146083429569893e-01 1.075619764182739191e-01 8.370837041616845109e-02
-3.449131090581318837e-01 1.947055695040818268e-01 -1.428036655994368090e-02
7.990806435826802723e-02 3.567537375662513388e-02 1.189476235679633315e-01
1.889474014933520962e-01 -3.159348516329616441e-01 3.927478061737553761e-01
2.613402050190639647e-01 -1.243767859040814105e-01 2.468768263785396655e-01
6.190231526653663385e-01 1.582853259674922852e-01 3.790386206567468441e-02
-5.994593837092694333e-01 -9.014331211381100550e-02 1.989577244522378330e-01
-1.705164919107878263e-01 6.199515040272176453e-02 9.239382179128119432e-02
-8.275852129394948298e-01 2.923148371160612102e-01 -1.016027275708919764e-01
6.412315001850575902e-01 6.004361621416672706e-02 1.141985336479155455e-01
1.534074117590633612e-01 -6.770509941494508299e-02 2.004867008498886771e-01
5.982200600636536914e-01 1.421531845593375365e-01 4.982066674459793842e-02
3.945275961601041326e-01 -4.838420798012695728e-02 1.916212205737581886e-01
-7.899126397567314273e-01 5.635541884152386882e-02 8.125191545854226760e-02
5.941501386296534903e-01 -4.141276509133855477e-01 4.785826873858108343e-01
-7.987957980581977813e-01 4.897845409717226789e-03 1.207008977467510236e-01
1.889064568474684291e-01 1.191604432810417225e-01 5.731077554584997763e-02
1.307921372321898812e-01 4.673825039880001586e-02 1.116912249123608453e-01
-4.287254427352366060e-02 4.103589847491466713e-01 -1.729845894475807999e-01
-6.228729711608367303e-01 2.255424625781968784e-01 -4.500523431860362772e-02
5.901556102794259795e-01 -1.166425108000737065e-01 2.491371095988010875e-01
-7.915676991778561322e-02 2.511305244472428200e-01 -5.113506343910277641e-02
8.448684814425501122e-01 2.591612820930216943e-01 -3.421835540146397209e-02
3.392340782265044208e-01 8.517210344624175089e-02 8.727342116425408636e-02
-4.613211942751828665e-01 3.228970177638016553e-02 1.080227498993626134e-01
-7.003918518103328106e-01 9.044437284938630639e-02 5.720982638464177511e-02
5.187423135476473268e-01 2.701477287573046393e-01 -5.084409607847031887e-02
-8.478875454271791456e-01 9.500089273983339244e-02 5.000841506242324763e-02
7.211480037218849504e-02 -2.573737669632858438e-02 1.660987893724579778e-01
3.542424526732760454e-02 2.721856394210903085e-01 -6.450202987667388865e-02
3.111340231115388155e-01 3.727461444437029647e-01 -1.351340415506362136e-01
-5.402117042522787127e-01 3.268299822072914251e-01 -1.210254905419216598e-01
4.205836654278326536e-01 3.290998460059440522e-01 -9.874788432221465184e-02
-5.761809469673111472e-01 -9.769254278229527744e-02 2.053599382448403343e-01
-1.855987694606719696e-01 -1.657011629661706287e-01 2.675587451995679045e-01
9.163328702014270633e-01 6.788528721650956277e-02 1.150327405104099171e-01
4.556238109871066921e-01 8.752980946001275020e-02 8.836642399148469940e-02
5.802135605390462691e-01 1.940782018185490884e-02 1.440006986211615492e-01
4.261988831382323983e-01 -2.502904272441542136e-02 1.744076290789133565e-01
7.055125242016058174e-01 2.037956358900684661e-01 4.980687702168640207e-03
4.613384780982645594e-01 2.803563345289850628e-01 -6.014995814289499781e-02
-8.938278699926395232e-01 2.163744304340413718e-02 1.054189718897442229e-01
7.229033573978690397e-01 -2.878286502162475946e-01 3.844325374367155157e-01
-2.104805575831451558e-01 3.495169535876285760e-01 -1.302700632384331814e-01
1.589918624744516285e-01 -5.752144082619076344e-03 1.528638270122017195e-01
6.260541114545067343e-01 1.724781076889664588e-01 2.713779028389876752e-02
3.578708027448667672e-01 -1.678140103888948742e-01 2.827787191406251344e-01
-7.842884756092980414e-01 3.637714655899944027e-01 -1.556093344763117003e-01
7.190489568867783898e-01 1.747268680533167751e-01 2.772972564339684989e-02
-3.763524281341693034e-01 9.579232815032236170e-02 6.119040129297764752e-02
4.445667807445842223e-01 2.693792885479905086e-02 1.348031213179772536e-01
-4.687189581348716882e-01 2.911735646708171754e-01 -9.174834434359048496e-02
7.765991367120977928e-01 -3.876341231966062284e-01 4.627202268740541746e-01
-1.637063717260339446e-01 -7.784428921899012865e-02 2.003731166432829724e-01
6.629537141933733446e-01 -5.919346342180664688e-02 2.066673941170997231e-01
-7.129476944303847485e-01 2.459324784325719604e-01 -6.297747084843725862e-02
3.100095847930245396e-01 3.288217365767446276e-01 -1.012987110104480448e-01
1.614579665998378266e-01 -7.471649196520606384e-02 2.060934506165434943e-01
-7.101934274058376850e-01 -5.186718043270557160e-03 1.306913420176350482e-01
8.504625292884893106e-02 -8.654474135765635734e-02 2.133015173433396028e-01
6.658717509070170015e-01 1.765285632833338558e-01 2.501085700125548969e-02
-3.307809836794475822e-01 2.885853557797460334e-01 -8.630341844586726652e-02
2.760864684477766784e-01 3.159818685155804108e-01 -9.224818441605735220e-02
-8.372690744654667228e-01 1.474688744266856311e-01 9.823856849983880757e-03
5.612409051892731648e-01 -2.681620920163285682e-01 3.652277847149135726e-01
3.948996097126284965e-01 6.432436842588279413e-02 1.047380310635353806e-01
7.133791092859703697e-01 2.048035404816430649e-01 4.400372728059555837e-03
-5.949950860002346520e-01 -2.615328224020766271e-02 1.497363585584235990e-01
7.411790936172627520e-01 -1.484684608803017725e-01 2.774500664730240596e-01
-5.088309699018122023e-01 -1.049832865185275216e-01 2.126650122784188579e-01
2.472676786620179451e-02 -1.663094480910317086e-01 2.732875190265839360e-01
-5.749031131825297347e-01 2.812611087192976034e-01 -8.676180413935052904e-02
-1.333802902209604846e-01 7.173815570530370223e-02 8.581116926325296768e-02
6.953855251861356113e-01 2.591493195546918926e-01 -3.794740008970084316e-02
-1.331813733619869322e-01 2.928680141039803342e-01 -8.466355924211739492e-02
2.718349070722294036e-01 -3.166598746664948116e-01 3.953796108043627355e-01
-6.444869273296300882e-01 1.561564582823286862e-01 7.947270876753460833e-03
6.428212882032365849e-01 -3.377209287600064364e-02 1.865653586709994372e-01
5.041886063013610864e-01 -3.097368016798782153e-01 3.958529762935821261e-01
-6.273007988066185980e-01 -2.206466332518820100e-02 1.457763437787825134e-01
1.673118809381511363e-01 -1.196212633286864863e-01 2.408591053151840078e-01
6.123611976299694337e-01 1.275996137808040054e-01 6.139435968028959800e-02
-7.253746673471000994e-01 5.113197796019222086e-01 -2.678881505762800708e-01
6.414759289720688429e-01 1.755960462513997677e-01 2.511968918983722293e-02
5.079631912249373826e-01 -2.525779259892131923e-01 3.518808292298366003e-01
-6.367432459106128206e-01 -1.504330264137118123e-01 2.445055869988420894e-01
-1.821597096576173802e-01 2.674507433377211751e-01 -6.629300526365546065e-02
-2.376564276992780000e-01 3.006001219675920599e-01 -9.323732551957292225e-02
-3.557077048077882941e-01 3.302312493244285441e-01 -1.190336190376931197e-01
4.801513283925648023e-01 -2.694824444310564560e-01 3.642178215160017385e-01
-4.969268406250298975e-01 1.170474731322112411e-01 4.178845917473646837e-02
-2.877595669125374567e-01 8.575834388682390674e-02 7.114161380868989915e-02
3.356792674535976628e-01 -2.115198124072055208e-01 3.159186702618491660e-01
-3.229739524449121713e-01 -1.230145887047792430e-01 2.312141243181776717e-01
6.905526347168146062e-01 -2.511639465858477860e-01 3.553569177676580426e-01
2.093349425876898373e-01 -1.308372415801783983e-01 2.505569574214406292e-01
6.183121223797291011e-01 1.684916601830311889e-01 3.001752394586443273e-02
4.607369736500964152e-01 -1.358561820870983206e-01 2.607133590541200752e-01
2.330336528017124265e-01 1.206544301553283127e-01 5.726252096032517086e-02
-2.225953219568795050e-01 1.918604834231053546e-01 -9.028030987891620326e-03
-2.795157829023329210e-01 2.266458525049281636e-01 -3.726922034753734486e-02
-4.487891517227352578e-01 2.077723448509716797e-01 -2.695190594342804224e-02
1.047404193449869153e-01 -2.945389224261322214e-01 3.741468027570593602e-01
-8.104758773137721306e-01 2.539445123636788759e-01 -7.159331842893354447e-02
6.622970638986099834e-01 3.430742692268459737e-02 1.345666139836595165e-01
6.499537884136431520e-01 -8.740583131418129537e-03 1.674457265759833335e-01
-5.240666252385001861e-02 2.373496323827417251e-02 1.248441391428934677e-01
3.939592130571205331e-02 3.617650019576932330e-01 -1.334637694492676330e-01
4.600121321631703286e-01 -1.235731029657350932e-01 2.512256124522029843e-01
-2.847508671124452939e-01 3.063083944161141825e-01 -9.881584576391072572e-02
-3.555930052246823458e-01 -6.589522741664746719e-02 1.863623093555456800e-01
-9.033799838948864958e-01 -3.655932626111052519e-02 1.500467969943218849e-01
6.405670502874814820e-02 -1.519813856980140598e-01 2.632248851252950161e-01
-5.898964086071841750e-01 5.064059035611584436e-01 -2.607117679176720881e-01
8.132860833973910575e-01 -1.740367429345786587e-01 2.989651420998877818e-01
-6.447715871450976355e-01 2.700103311229893888e-01 -7.983530512463518636e-02
-6.392434586008345354e-01 4.986516422767414691e-01 -2.559677030243459050e-01
-3.938032981655361642e-01 8.735635046131882964e-02 6.725769345198469307e-02
-5.040505064743605601e-01 -1.588982971444381220e-01 2.543502513722100122e-01
-5.999202752312812192e-01 -6.103022557732896286e-02 1.765015119893848794e-01
-1.637641164520282355e-01 4.509234900194273449e-02 1.055938722015015707e-01
6.933525100552323517e-01 7.386196973496463036e-02 1.048487378941155013e-01
-6.436526003969956777e-01 3.568228428710322753e-01 -1.467352856072055844e-01
1.620439246283588430e-01 2.420019045937573943e-01 -3.806542607660925309e-02
-5.612614204607231372e-01 1.663659893283069569e-01 2.157551636825692613e-03
3.144309769938471444e-01 -1.195961160376901727e-01 2.445188698648341208e-01
-2.888300100256054881e-01 2.634852221155967178e-02 1.169167491329835967e-01
2.873191528231618941e-01 1.309475315578580712e-01 5.068464209928669889e-02
-1.428251236621235105e-02 4.493438736313450366e-01 -2.023249468074756752e-01
-1.645111137202800444e-01 -3.065442494332828310e-02 1.639720429125022250e-01
-4.494536139889468429e-01 1.042267776395418288e-01 5.285976304785974800e-02
-5.073041183106450358e-01 3.880968866921816196e-01 -1.674361581060511139e-01
-2.449476056209186625e-01 -1.433277510760296858e-01 2.488258051907674684e-01
5.553274175579895333e-01 -3.765201173471280360e-01 4.486183428943088525e-01
-6.150305228778719241e-02 -2.469223370314048704e-01 3.332794601840746718e-01
2.754121889912485854e-01 7.360844649001342666e-02 9.459234689666769225e-02
7.891259495010182201e-01 1.376871450615118064e-01 5.803792378309818867e-02
-8.754180999165631083e-02 2.097091289438167416e-01 -1.941099919401845578e-02
-8.072779956546780600e-01 1.675176232163483048e-01 -4.882676889740209317e-03
-5.415675104302155596e-01 4.557602503562438456e-02 9.577288220390939300e-02
-2.638140689072783207e-01 -2.063643149302627489e-01 2.969519289069269541e-01
3.382966280974860074e-01 -2.487431634250373280e-01 3.446814068172823764e-01
-7.770366781653247346e-01 -6.037728996533233555e-03 1.296758126613140050e-01
4.391619723764105809e-01 2.403684653189120946e-01 -2.987596538600974586e-02
5.510286423133942124e-01 1.270529667286604547e-01 6.028199284815416448e-02
7.496749845112895549e-01 -3.087502857761522113e-01 4.012315425748229081e-01
3.352148575560832122e-01 1.117332869977609444e-01 6.669560750407617367e-02
-3.075088660696078668e-01 6.703458810423529313e-02 8.508277260324281777e-02
-5.734940258403588009e-01 1.438957840578599691e-02 1.190176045299049662e-01
9.678172522462205052e-01 1.634656858226941067e-01 4.263270891642137461e-02
-2.653664973552230522e-01 -6.484664300990256036e-02 1.878102878705726897e-01
5.935101424300810447e-01 -3.684528277325475054e-01 4.433537520715525315e-01
-7.334339981004232012e-01 -7.308248177527598699e-02 1.824542703373182306e-01
-1.025641198865465537e-01 -1.174100109120793239e-01 2.324052895114144535e-01
2.879698974927130672e-01 3.869141684627695477e-01 -1.466361445714227940e-01
-9.028211423041974937e-02 -7.924849825069085751e-02 2.032918818648330739e-01
-2.163738769021954500e-01 1.707454884629979464e-01 7.406125665957189082e-03
-1.241603435295707963e-02 4.539195305833262570e-03 1.406431700036852028e-01
-2.535868021859052912e-01 -1.262953760279549639e-03 1.390851329501781308e-01
-6.103690753239855021e-02 1.290456279655371186e-01 4.343922922692254607e-02
-2.329087266229010276e-03 -5.366905744580495463e-02 1.857709815509901441e-01
-5.065943523591366349e-01 -5.216350458017231934e-02 1.719996209914116669e-01
-2.497647377508004363e-01 2.193883136150809599e-01 -3.093001897577506501e-02
-5.127147692880953400e-01 -5.454403404546224327e-02 1.736818270121590901e-01
-7.224398272668665077e-01 2.388389044044647302e-01 -5.774607063608626356e-02
-4.569554473250166393e-01 2.770887158126390526e-01 -8.059547145537319934e-02
2.741692109048408654e-01 2.558129653338301335e-01 -4.590901356528107741e-02
-1.335874660911580136e-01 2.558069075862966571e-02 1.213910103937792390e-01
7.590503601085509811e-01 2.460666223082756329e-02 1.444650074322920696e-01
2.189991587844228663e-02 1.603233224764804288e-01 2.139982439731989358e-02
4.163526564637000660e-01 3.137915917302321889e-01 -8.705181970053629814e-02
-2.966739570793984204e-01 -5.024645600023496493e-03 1.409076803023589508e-01
-8.145076131379971329e-01 5.732222167852899647e-02 7.989148972165220630e-02
6.738755979391473083e-01 2.094373132356007472e-01 -1.599299345017392629e-04
-1.920418754476968526e-01 1.628611890086918701e-01 1.409300771962941796e-02
8.319629096668571533e-01 -2.807321105543496287e-02 1.869018654451696793e-01
-8.734824688071243237e-01 1.452974308065159426e-01 1.059230382081882173e-02
4.623622247957759890e-01 3.362156592611441064e-01 -1.031890114334312325e-01
5.295020579135223393e-01 1.382269796831165909e-01 5.112906936804324093e-02
-1.268302215422176527e-01 -2.467387866531591256e-01 3.315042515997476680e-01
-5.160763945827685495e-01 4.332190622189361316e-03 1.282072303388341883e-01
-5.060438363499792924e-01 3.364230080006054835e-01 -1.275667486524186267e-01
4.966780842028866716e-01 2.533909880054185243e-02 1.373389353124981893e-01
6.294275058805396394e-01 1.995244677627484586e-01 6.370804967260675945e-03
-6.453365536437898342e-01 5.345050821243937378e-01 -2.837612299073171140e-01
4.469270276360702288e-01 -1.552448809017633879e-01 2.753156858335547574e-01
6.350484697892989638e-01 3.038663110261998757e-01 -7.393079963779944364e-02
5.460203095183429056e-01 -1.906497318891647308e-01 3.050891209335134246e-01
-1.068555359902738783e-01 -2.672458681431878480e-01 3.478136791579032883e-01
-6.733016566424866456e-01 4.787653988703738372e-01 -2.414881629918080586e-01
-4.474280796482980604e-01 -3.335069442288323555e-02 1.589755448658660419e-01
-4.122585494390730299e-01 -2.746209440555899550e-02 1.553152573081456045e-01
4.522019929701792673e-02 3.474968037507076418e-02 1.187938118377356161e-01
2.760847273993712325e-01 1.868416852400038020e-01 7.312185330028145129e-03
8.599156470873094982e-01 1.151984710753609642e-01 7.714583778137557024e-02
-3.108873976287881424e-01 2.235567557915701664e-01 -3.567222708294771893e-02
2.745609287915913577e-02 1.429121021434614502e-01 3.496192504224016756e-02
6.479258588810705710e-01 -2.615067566178007064e-01 3.622646805883501520e-01
-7.943000541071154608e-02 2.237782761626830319e-01 -3.005472538513385625e-02
-2.619282421710610320e-01 4.319644320198848808e-01 -1.951194148271324924e-01
1.670986022125889314e-01 -1.675668488354433994e-01 2.778173424496840904e-01
-3.120176182370452689e-01 1.963085635616701186e-01 -1.469354234325420151e-02
-7.363041837600907691e-01 3.975884683443929313e-01 -1.804805071525326099e-01
2.126174495738540893e-01 -2.218329561705952302e-01 3.207920437794129498e-01
6.008529190337614789e-01 2.878992504265263097e-01 -6.247618210058387272e-02
3.324191747997141677e-01 1.404853843858335782e-01 4.445931061649370519e-02
-8.204942208792648239e-01 1.790010002368824238e-01 -1.406627877241786208e-02
-1.417463725397364238e-03 -1.290415901985134950e-01 2.439021103866199913e-01
-1.005171265946891990e-01 2.198621819365312036e-01 -2.756296530250111274e-02
6.297416698552590342e-01 2.545462502280176897e-01 -3.604029171360173534e-02
4.533682586196590564e-02 -1.015992698797889698e-01 2.239147288428802451e-01
2.506443939987626490e-02 -2.789750407366761165e-01 3.601553180693621292e-01
4.706796097914633242e-02 -2.782747442042671771e-01 3.601656892894841699e-01
5.559350601544049697e-01 -2.425134788468486791e-01 3.453213398197853001e-01
1.319601117828528292e-01 3.219517140865305604e-01 -1.004549365420541324e-01
3.499531592200245955e-02 1.628055283063192527e-01 1.981366140669014661e-02
-3.147614266561725160e-01 9.712782177378628812e-02 6.170107136703866652e-02
-2.481792840420672108e-01 4.637477512026205728e-01 -2.192788791109718527e-01
-5.203817589419241774e-01 -1.242947631358794908e-01 2.272643016895879720e-01
3.613850679530230536e-01 -2.445756865361821408e-01 3.420458926243520326e-01
1.329660469861633776e-01 -2.343910405900096749e-01 3.284817575432641412e-01
4.459070416295813355e-01 1.954816976857935429e-01 4.898095352840913484e-03
-2.323878314968022551e-01 -2.292244743407861329e-01 3.153618382540917531e-01
2.272896396464930691e-01 -2.713274838340561934e-01 3.593166908852584163e-01
-5.968421940406921644e-01 -1.372860015498182651e-01 2.353677544775968911e-01
-7.884016884643978429e-01 -1.556683094201722350e-01 2.447490481670637208e-01
4.953152847428790584e-01 -5.377413804449817508e-02 1.982970751248314123e-01
1.149736555217894113e-01 -2.577944909152566910e-01 3.460746559162648506e-01
8.312900421828142150e-01 2.588633052091080661e-02 1.452850179762929239e-01
9.426510093239909294e-01 1.394018545483310667e-01 6.055532334978219744e-02
1.792026861160034013e-01 1.574217725410786972e-01 2.757059453955898118e-02
-5.599013185513695978e-01 3.716286024685580003e-01 -1.560553111673528559e-01
-4.357732017780174827e-01 -2.088550153321861447e-01 2.945717792879887775e-01
3.926598862876204965e-01 3.084764950588086974e-01 -8.354666299361743209e-02
5.783136809086887320e-01 -1.896248337829562758e-01 3.051065694870107592e-01
3.836747027460664650e-01 2.227091054155576622e-01 -1.764913540356231533e-02
-1.856816898549248918e-01 -2.243276635901351179e-01 3.127546763903704674e-01
-2.557555222529424022e-01 2.636594249577302596e-01 -6.521057736342442124e-02
-7.387214539732217533e-01 -1.261985338957952348e-02 1.357084771718622129e-01
-5.860282674942762782e-01 -1.250080609479127247e-01 2.261725307204954238e-01
-8.702510919123879196e-02 -2.286035375341254339e-01 3.185183564857372307e-01
-1.163105289710923279e-01 -1.595709425943661261e-02 1.538465592273330351e-01
9.485308683164906940e-01 2.234975194973032597e-01 -4.131048721428448242e-03
-3.090872833975339962e-01 3.990511214021918440e-01 -1.709243042737899620e-01
5.141805149031819511e-01 -2.346074732373668592e-01 3.381820207669680722e-01
-1.402147767740286044e-01 1.738734378788310900e-02 1.275419221821964266e-01
-5.353594984676011137e-01 8.431158544688770184e-02 6.606501505318002065e-02
-4.568014941320663880e-01 -3.270644263172908101e-02 1.582444498126820698e-01
-9.985147969711086202e-02 2.026276215125467073e-01 -1.425936261812666903e-02
5.349918537774519534e-01 -5.673341255571031500e-02 2.015707539268795923e-01
-5.572671944576745862e-01 3.945875328500872414e-02 1.000963654377254597e-01
6.088328103251030576e-01 -2.847363297735002741e-01 3.791958437735820642e-01
8.117191066395876842e-01 -2.541153655286680912e-01 3.606624384157113283e-01
-5.906835879307705678e-03 -2.245096692722357568e-01 3.173907998160552246e-01
-4.558561333809067473e-01 4.854420710940833827e-01 -2.411976586440799930e-01
-9.002138688405642020e-01 -2.447421690809069642e-02 1.408089798357980982e-01
4.296441032025946072e-01 -3.522558474378221366e-02 1.823547944918356700e-01
-4.225645343152750200e-01 3.894910991317093174e-01 -1.663918578556070060e-01
5.271659087891219508e-01 -4.319225432800168074e-02 1.909355090198930349e-01
-2.132794571851307289e-02 -1.366211235281580283e-01 2.492476182327289513e-01
6.894438638307478495e-01 -8.177364812648985071e-02 2.247380158245102511e-01
-3.482457494587081759e-01 -4.277373121813318052e-02 1.687205696862054960e-01
-6.438495236720045423e-01 6.301150904096283756e-02 7.977315747876420615e-02
-7.395355763277495775e-01 3.477728468459604927e-01 -1.421560457646399989e-01
1.197555093115630770e-01 4.758974888073713543e-03 1.437790749744554675e-01
-2.344176836456135782e-01 4.331503976657487542e-01 -1.953457495316525960e-01
-4.272601412537613830e-01 4.846112186536336575e-01 -2.398419862356006294e-01
4.728883278028729320e-01 -2.138689327188430800e-01 3.211610425385457157e-01
2.516329121899585353e-01 3.732077614308788593e-01 -1.369779271666298204e-01
1.661938502842172094e-01 -3.344211560185038068e-01 4.064307719183248291e-01
-1.124122969152556439e-01 -1.695809829830892124e-01 2.723801321431916223e-01
5.096828540716409339e-01 1.455394017519576200e-01 4.499593121500349013e-02
-3.723240177417956875e-01 -2.123581005522517939e-01 2.988592132127309564e-01
6.855189493352531471e-01 -2.350825250742487327e-01 3.428330898126565329e-01
-3.151980869461005197e-01 3.848812601284151702e-01 -1.601528917473555025e-01
-6.598170264221755454e-01 3.352328426009070217e-01 -1.304947498629693559e-01
-2.904654691141650980e-01 7.669989359981031762e-02 7.805754210079073052e-02
2.792784426641631984e-02 2.641682178248120905e-01 -5.850848166390704153e-02
5.361146129010391226e-01 3.070744925010958082e-01 -7.887827808772052141e-02
-1.003249422824393222e-01 4.664038925690685566e-01 -2.176290881329856486e-01
-1.363463671115662523e-01 -1.132534660678131133e-01 2.283559822003760342e-01
5.023311165174961790e-01 1.026319621975675667e-01 7.789149950460157179e-02
-3.795236120152368775e-01 3.435113711800000802e-01 -1.298674950790396354e-01
6.111195312461500384e-01 1.595747911008432440e-01 3.671209740014433343e-02
5.844399998956749387e-02 -6.091903126429290549e-02 1.928801493363604402e-01
5.609889140717442269e-01 -2.523687115712176521e-01 3.530456020770200709e-01
-8.156396983444612614e-01 2.226623742901010783e-01 -4.760554194204996009e-02
-7.411902323477574939e-01 -1.476372879167683061e-01 2.397382085403430563e-01
-3.008019827108022182e-01 -1.153044431591774138e-01 2.258244764439495122e-01
-5.437090561109692716e-02 -6.818338154587037792e-02 1.956593151059839997e-01
2.608038387723623022e-02 -2.012666050049737865e-01 3.002715332365515355e-01
-6.142345712947633318e-01 2.930152522403938198e-01 -9.680724230610597558e-02
2.286758598958178734e-01 -9.631936580547290072e-02 2.244291348197290092e-01
2.973587738138560588e-01 -2.530808786023750478e-01 3.470017880929014975e-01
5.775632825900332001e-01 -1.297663541469956938e-01 2.589400064699401427e-01
-5.929138215099468701e-01 -8.151478749286204806e-02 1.924692688007964558e-01
-4.170790416489079666e-01 2.689495177013867533e-02 1.132882305904169690e-01
-6.456959102173576159e-01 4.492369730048879628e-01 -2.180329072894412190e-01
-5.151653873934558536e-01 1.879155885235132550e-01 -1.330330785290083709e-02
5.618395797693004345e-01 -5.721830490712617734e-02 2.026159883606950818e-01
-3.692502118288851221e-01 -8.595707734022953184e-02 2.014874205870190449e-01
-7.986818947292908533e-01 1.491077446731134126e-01 9.525360035567701639e-03
-6.796499598933430919e-01 3.587108900236558040e-01 -1.490910938189237978e-01
-1.207767230347683574e-01 9.563368088132769007e-02 6.770414296362492479e-02
-5.347211122642034908e-01 1.705394794785227153e-01 -3.962742062878087828e-04
9.486069038132899367e-01 2.185197126242404697e-01 -2.915151517960353259e-04
7.138109793335656317e-01 -3.250573168330738727e-01 4.129065351011892426e-01
1.490959599738444774e-01 3.383058886885713101e-01 -1.126346277338787505e-01
-8.694633082508581579e-01 -2.244231403925864288e-02 1.400114971271088637e-01
-7.231243082823216595e-01 5.764712577689689033e-01 -3.180602992735303558e-01
-7.095632872249238443e-02 7.268541042367276939e-02 8.664198213663121262e-02
-1.685470452247797013e-01 -2.167243938858970029e-02 1.569464653199564019e-01
1.857059431438723429e-01 1.788125124212289752e-01 1.124207192001025306e-02
7.190995373800767032e-01 -3.229888973197683200e-01 4.114441466253873636e-01
7.470589267880840822e-02 -4.292952447583262693e-02 1.794178456033964641e-01
2.920955208365805800e-01 1.338663326539260290e-01 4.855384449224599969e-02
-2.372353261560230520e-01 1.656222089947418374e-01 1.083420683822633977e-02
4.848130114920405354e-01 2.214017239014380231e-02 1.395084208682976779e-01
-1.444303714312715481e-01 1.885013485119940158e-01 -4.483563684489295410e-03
-6.660455215117861982e-01 4.842165046416665453e-01 -2.455092227772955327e-01
8.225091692242080255e-01 -1.705204076033856875e-01 2.964848798928821916e-01
-2.469575943490004144e-01 7.557491005311424426e-02 8.001289050842798345e-02
-1.612451540645213621e-01 -1.798020638778828895e-01 2.790388465102182636e-01
5.896589548378746715e-01 7.555410053281355620e-02 1.009510257829089180e-01
1.047466353569558549e-02 -2.014336023814942978e-01 3.000100120064134734e-01
1.478061992983325801e-01 2.745987107522114279e-01 -6.355193731162149529e-02
6.652598215192133679e-01 -3.041865270905206309e-01 3.956020673353796147e-01
2.617038373920242966e-01 3.091466230439544605e-01 -8.733824367720670334e-02
2.236748792750938852e-01 1.782957362537558252e-02 1.363011320435431606e-01
-1.398113869951286559e-01 -3.989898632339118102e-03 1.440327602610934898e-01
7.603671568780405732e-01 -1.620131970182299430e-01 2.883722134215153665e-01
-4.054595559245094960e-01 -6.573327718685494092e-02 1.849903922520931554e-01
-2.854949606634278880e-01 4.581864482294832897e-01 -2.159245914670747113e-01
-2.566582068151215257e-01 1.388159322217452085e-01 3.101473505196280026e-02
8.324080508365508946e-01 9.652940787803393485e-02 9.085081205699882534e-02
3.672743268774255609e-01 2.700003345047521375e-01 -5.451837151421291827e-02
-1.469228097015171375e-01 -6.314673089541127105e-02 1.894617810981259753e-01
2.035440516678446998e-01 -1.372003995312163771e-01 2.553178051465561094e-01
5.951634691305017488e-02 -1.924695003809357152e-01 2.943255857867463909e-01
-8.912993248671302604e-01 -1.742583769130259461e-02 1.355979781570782194e-01
-4.092136556808873560e-01 -6.333035111053093857e-02 1.830439778579880938e-01
-4.913682159381191905e-01 2.962747500643101439e-01 -9.624750713542089275e-02
-3.092028683473634354e-01 -3.299021445030571320e-02 1.621543671162742339e-01
2.555719741117981614e-02 5.919850592096558700e-02 9.945329772010620684e-02
4.482684084627335253e-01 -1.634978262157689155e-01 2.817118257669306014e-01
1.504264253466882362e-01 -8.902722093534026770e-02 2.168504071398060506e-01
-6.663961219035396955e-02 3.387230831592900060e-01 -1.183513745910673709e-01
-8.502484800439479296e-01 4.430607084008795354e-02 8.903246296052617914e-02
-8.740450455879515967e-01 1.330035530010749145e-01 2.005617991678233791e-02
-6.455452655830687947e-01 4.244375859187189404e-01 -1.989100930181958993e-01
-8.554412210630907287e-01 -2.551926611371118161e-02 1.427343324154345394e-01
-5.704159101671876231e-01 7.215061414421009012e-02 7.456380587026399664e-02
4.180898819483709894e-01 -4.995274989880794936e-02 1.934197306389624504e-01
-3.139070706954368295e-01 3.961494912690555203e-01 -1.688078304212810299e-01
-6.715696694334208905e-01 -1.555353318864369054e-02 1.396495234870978042e-01
6.345071535561097598e-01 -9.833666377672721504e-02 2.361333893752577129e-01
2.322970529171300147e-01 2.702118387384487841e-01 -5.805693969294405121e-02
3.641464259282602978e-01 -1.289813459612842161e-01 2.529976806273981915e-01
6.249240680556677509e-03 2.592720727654638027e-02 1.246208979976357600e-01
6.334880106967465396e-01 3.139641023919711449e-01 -8.175469932586496014e-02
-5.170618668829634057e-01 1.683487328818661644e-01 1.734300406224170872e-03
5.447720010663161805e-01 -3.095351694520821761e-02 1.819403672837643371e-01
7.388817059440590251e-02 6.077060170255665222e-02 9.944995318844052079e-02
-3.734375708150488027e-01 -2.138128248701961706e-02 1.515980996581257900e-01
-1.602784280009749429e-01 -1.017642896849389883e-01 2.188999278755975608e-01
-2.576279115810212739e-01 -1.322986569364056897e-01 2.400058342125543920e-01
-4.960760773744761210e-01 3.370313802986750207e-01 -1.277864987373003580e-01
-4.608272957757309496e-01 1.949799083082317253e-01 -1.739064759166210339e-02
4.425303558648232549e-01 3.306502638550595785e-01 -9.939433397436628348e-02
5.249220802876711778e-01 9.921381566892989445e-02 8.109166841742085352e-02
-6.371327817498920743e-01 4.557466832428470060e-01 -2.228374111919995404e-01
-7.034488613355019959e-01 1.354954536934142306e-01 2.240131957828554038e-02
2.823729470932448415e-01 -1.791764286780001270e-01 2.896505078850081794e-01
8.489978478048411104e-01 9.230077108761422511e-02 9.452575003712264390e-02
2.775680647430505549e-02 -1.161202104857507605e-01 2.346699834552489206e-01
-7.104999845487416366e-01 2.972248205526769119e-02 1.037704848662287516e-01
-1.990996694467620232e-01 -1.399571711524442152e-01 2.473738265018592120e-01
-8.883085402240621653e-02 3.103585622983398018e-01 -9.703875177222166803e-02
-7.262801519195410949e-01 2.035051927927631343e-01 -3.060164217554521907e-02
-3.335234201873162330e-01 -1.489522483888083282e-01 2.509468997633866882e-01
-5.762241449037884822e-01 -9.612389567771950638e-02 2.041495120294277710e-01
-2.698259778766421424e-01 -3.294663641750128491e-02 1.631055072997112110e-01
1.790813754891815712e-01 -2.589962677300502447e-01 3.486043685414021431e-01
-2.222148485656752215e-01 3.657646552282901586e-01 -1.430896532163505597e-01
-3.557210833953931006e-01 3.045369228181503130e-01 -9.922495457271073016e-02
3.328601003455451957e-01 2.456425268556970409e-01 -3.660038988947279109e-02
-7.789723880359845642e-01 3.654957591101767322e-01 -1.568057311220732442e-01
-2.851859284684249984e-01 3.159567989317395575e-01 -1.062651474669831508e-01
-3.433097796071792329e-01 2.814895716136003312e-01 -8.114625514933189454e-02
1.122364297357762164e-01 -4.500938860573279465e-02 1.819598764782735523e-01
-2.448371454903388589e-01 2.764221019149707970e-01 -7.477689573242886356e-02
-4.044655798268703140e-01 2.227127123896375793e-01 -3.736171476512976236e-02
3.887217687221880547e-01 -2.799358918340266178e-01 3.699904208620751755e-01
6.399170118773854776e-01 9.687063407509508006e-02 8.577393170107974751e-02
1.344733963793147136e-01 -1.223549999850704340e-01 2.421454508690674134e-01
-3.155298059069889388e-02 1.293747846549002656e-01 4.392279995068572307e-02
4.097318572442308349e-01 -3.702577890293572427e-01 4.401493598530879514e-01
-2.777995449910695275e-02 -9.556292836789580247e-02 2.174325180373214428e-01
3.945356749814318831e-01 2.342201212290456747e-01 -2.625192323038253936e-02
6.502648760466291922e-01 -3.083558466555757493e-01 3.984414041042224075e-01
1.131700023693807400e-01 1.472104818196843523e-01 3.379162822199500982e-02
-1.055163041850036842e-01 -2.110856066885115623e-01 3.045505088389859893e-01
6.424972667307273788e-01 1.597646944194036633e-01 3.735038561391631345e-02
-8.165955004504393822e-01 3.003420215071180288e-01 -1.075164417209956980e-01
4.922358306305447129e-01 3.167544274488828249e-01 -8.743832794805149466e-02
-1.867627276548751436e-01 3.906107072948411529e-01 -1.613580904322889364e-01
-1.340508373597790182e-01 -1.700664886513745394e-02 1.542120623099605958e-01
-6.712173816419088057e-01 3.424657533223390282e-01 -1.363560504517425942e-01
6.799041557144045456e-01 1.234225128985679126e-01 6.630380190914053617e-02
7.242988904254907268e-02 6.660766922790974098e-02 9.491340683745848328e-02
2.329087363142652300e-01 -1.305365009640027107e-01 2.509146349610555937e-01
-1.276719179522227132e-01 -1.478726757145794671e-02 1.526605578343253333e-01
7.443437656105315048e-01 3.425689859488265793e-02 1.366573912144026515e-01
7.662655799324274986e-01 -9.305997144348746031e-02 2.353603444934403710e-01
-6.339341651659766708e-01 9.192456030122211907e-02 5.773065096670788876e-02
-6.104640724109187261e-02 3.918081086495624477e-01 -1.591373134811512602e-01
-3.440314001448178671e-01 1.033471966856013696e-01 5.617427144965464469e-02
-8.549639721075055210e-01 2.289830397213575564e-01 -5.346186938745811634e-02
-2.507773703717600666e-01 4.548335984868467907e-01 -2.124715005381788424e-01
-3.720377100103764573e-02 1.564841806030209947e-01 2.288154057123683097e-02
3.013059398025428326e-01 -2.397383940818434978e-01 3.368141321117607001e-01
-4.533049221130546758e-01 -1.589500652088573010e-03 1.343423364500144490e-01
-3.257661274228816906e-01 2.499737579526073172e-01 -5.641045875227791717e-02
2.294512098176103299e-01 2.661683665344663149e-02 1.296710603445191679e-01
-5.147043681388970837e-01 -1.000213426546443518e-01 2.086927279225392340e-01
-5.231771074264444099e-01 7.005697449441189439e-02 7.735924110019920530e-02
-3.185025098766506302e-01 1.603398927579222366e-01 1.287427158337391131e-02
3.676437031835181335e-01 -6.023785871486973809e-02 2.000874613081805031e-01
1.280804377756929735e-01 -2.230176956551649659e-01 3.195913166186230558e-01
-7.234234462101600018e-03 3.897683238893427937e-01 -1.562190108659838594e-01
-4.438548505189695570e-01 8.434508925493385337e-03 1.268506698721921511e-01
-4.801014615000346875e-01 1.686083672975075276e-01 2.458440857012193954e-03
-1.322718642898247088e-01 -3.726789505505678779e-02 1.698769254817790730e-01
3.071780811426771396e-01 -3.461607834074768020e-01 4.190071496814386509e-01
-6.959245756134201377e-01 1.467114620642072653e-01 1.394252345870003983e-02
1.140444595914880122e-01 2.149446193647180925e-01 -1.840602603225955855e-02
1.612381129844120409e-01 -1.471194418227565470e-01 2.619068884101595218e-01
-5.144879512067023208e-01 1.906304610828269130e-01 -1.537939310405090666e-02
3.408185369924371932e-01 2.659860889793528860e-01 -5.208520142192737956e-02
-5.810355055821871950e-01 4.906328118469578392e-01 -2.483299353234671991e-01
-5.217587111258795707e-01 1.562670122467543082e-02 1.193576425707018468e-01
-5.443619280129102789e-01 3.374741535598339559e-01 -1.293353857781033844e-01
3.142988691092771791e-01 8.983541717217302658e-02 8.305466778809653117e-02
3.199806561273740302e-01 3.042044699246268524e-01 -8.207071312899764937e-02
-3.119276064704175691e-02 1.926274903748346201e-01 -4.832761797471970058e-03
4.817939227220778553e-02 4.001233591466109574e-01 -1.628164253577895348e-01
8.232135308325030931e-02 -1.063944003418189344e-02 1.547143050660974573e-01
-6.404047480841498219e-01 1.340985965689430459e-01 2.505483039103500315e-02
7.040961749751065701e-01 -3.072874324350303166e-01 3.989639241002629344e-01
-7.663358544033129771e-01 2.297170585801505405e-01 -5.181134959086511338e-02
2.110748186106099211e-01 -2.642582969161653139e-01 3.534612128173503787e-01
-1.677294287066768419e-01 4.751039040199268593e-01 -2.260219979775672794e-01
4.917283577520139004e-01 -2.574719036655053750e-01 3.552478328877816671e-01
-8.270887309990043734e-01 2.527639629872341365e-01 -7.109862977409511786e-02
3.864178488138396705e-01 3.327389997691035939e-01 -1.024079021213239460e-01
4.265954495359621235e-01 2.798189832319703529e-01 -6.060454109654382637e-02
-6.812516967546482505e-01 -1.660311439436905519e-03 1.286964389085548111e-01
-1.261426518540435249e-01 1.177653800931007244e-01 5.050755456344562661e-02
-1.211421447960867731e-01 2.878351234076218512e-01 -8.048238356332219900e-02
8.447516608802891902e-01 2.209202522540395508e-01 -4.739417378081122942e-03
5.206484615541731031e-01 -9.630673557534234763e-02 2.317210433426456773e-01
-3.694040985536179572e-02 2.548831401052807921e-01 -5.297239034591910700e-02
6.054383373497188026e-02 -1.286384832179291449e-01 2.451408627750549241e-01
4.377267690044527870e-01 -1.887194692309356603e-01 3.008927851008180721e-01
3.697308515723936040e-01 2.103867799281147200e-01 -8.497966292485351070e-03
-2.678125157515293814e-02 -2.476092488252494284e-01 3.346773559015246424e-01
5.814025667396138797e-02 2.986246431418382308e-01 -8.431705497404652638e-02
4.180435669770846685e-01 -1.917949527881033234e-01 3.027715869477377031e-01
6.533540491262256333e-01 -3.999362707191961852e-01 4.691224363841727252e-01
6.345159409259981675e-01 2.128098605926886499e-03 1.586804647263175827e-01
4.626029312054353304e-01 -1.895324261944827948e-01 3.021416355780896512e-01
-7.742223722603023273e-01 1.329754602310262435e-01 2.257420168200561031e-02
2.817481544963539308e-01 -1.278578183713338298e-02 1.613562857765149239e-01
-4.461711134812914592e-01 4.793282829277974687e-03 1.295999421172991661e-01
5.978932782569672533e-01 -1.662055623840274499e-01 2.875411667004304506e-01
-2.915367260958390272e-01 3.598408163400342308e-01 -1.402562796204557538e-01
-1.954008370370338699e-01 3.464719732445218914e-01 -1.275454272273940926e-01
3.988425401918204716e-01 -3.864084758420977539e-01 4.523283856090422050e-01
4.191078398203905708e-01 -2.040984371171699341e-01 3.122835534046887740e-01
7.662834426717338721e-01 2.717525425884887991e-01 -4.589082039876463126e-02
-4.492769557841472805e-01 3.437251233700564651e-02 1.067182126089905037e-01
6.041843106514295236e-01 -1.197335753326650432e-01 2.518709902460667394e-01
5.075866088626987960e-01 -2.479964876060547496e-01 3.483393592290263685e-01
-5.310205521070204826e-01 -1.879086216655989350e-01 2.760412472247889548e-01
-4.332680524170702541e-02 -2.924552428333110909e-01 3.688375307851489149e-01
-7.420562291311528780e-01 3.668296004063906768e-01 -1.569108552258095812e-01
-5.339622836859394539e-01 -8.164655547831600746e-02 1.940451141533434953e-01
1.494977888316597614e-01 2.310940920123656650e-01 -2.996981933719189764e-02
-8.615801180183909613e-01 -9.818747344503515884e-02 1.986042466914485216e-01
1.465126161702285656e-01 1.188813312280131707e-01 5.646577209180699691e-02
-4.376154200740207112e-01 3.406278335622137110e-01 -1.290971953965461549e-01
9.301212002245026200e-01 8.048012207041682631e-02 1.056675914782797404e-01
2.686069684472096597e-01 3.126238737287184710e-01 -8.984639102876043615e-02
-2.963848570808919058e-01 -1.367538674505753560e-01 2.424713384553084106e-01
-6.957501642130715647e-01 4.502343450132132996e-01 -2.200535855287872877e-01
6.461064476501460208e-02 -9.499218449938226505e-02 2.193030064947359969e-01
-2.205680345117511792e-02 -2.080559190169827821e-01 3.043019298315326471e-01
3.830628035982003854e-01 2.752793493107915102e-01 -5.819338140014716776e-02
-4.162388053337939819e-01 3.817168525827867587e-01 -1.602401214604495805e-01
-3.991581640745495707e-01 -2.875113424842450430e-02 1.566366546796368608e-01
6.243079442929928558e-01 -9.867716973071048552e-04 1.608265874935707052e-01
5.198949031225473805e-01 -3.530547880066344651e-02 1.846733791296837068e-01
6.851999128008500195e-01 1.393289729982407354e-01 5.417317868757329929e-02
2.061073300281324183e-01 -8.116974604403062732e-02 2.121851668135026903e-01
2.534051745082007701e-01 -2.073636339852567845e-02 1.667769728864298140e-01
2.294707654691133525e-01 2.549668568613855935e-01 -4.637452557221202754e-02
-2.795012603070798352e-01 -1.614010674847135007e-01 2.618952817454877624e-01
-8.507670633708537267e-01 -9.738634194451365952e-03 1.306851712770465690e-01
-6.783985797179271637e-01 2.616074358811743550e-01 -7.419805001729336269e-02
5.944561355870255914e-01 1.706410239125847328e-01 2.776388538496356653e-02
4.676990933936536754e-01 -3.935325999605485819e-02 1.864886975203779163e-01
-4.199391088305625130e-01 -2.376333886008472063e-02 1.522716324674128763e-01
7.193148164408581791e-02 -5.042825954148686535e-02 1.851296007263907029e-01
-6.500224074261508056e-01 4.706485631170648221e-01 -2.346483346681596527e-01
-8.495493017232649269e-01 1.845091557017482509e-01 -1.903939118773684269e-02
