1.139445086554664692e-02 6.948495389235004316e-01 -1.555817430122641010e-01
-4.502948500003041143e-01 4.438776417034073218e-01 -4.260636897045423921e-01
-3.555286232405521774e-01 2.374282542866961998e-01 -1.566464563196032223e-01
-2.761171707597968594e-01 5.162556635380256553e-01 -3.055271617994910760e-01
-2.111009061147270938e-01 -2.704508811181614569e-01 4.141886065233512104e-01
-2.078335845694950085e-02 -4.683888749406667218e-01 7.755959276579104111e-01
-3.411177820089205670e-01 -2.540563245250733182e-01 2.658203734803961105e-01
4.969394697919226472e-02 -4.870977829257326364e-01 8.641650409117830334e-01
5.592508328620751090e-01 9.612558179204712117e-01 1.914222846115609666e-01
-7.257799707368745024e-02 4.393022514447085247e-01 -3.073230863341333205e-02
9.089842661495335652e-02 -3.918379958560886528e-02 5.354763270649086637e-01
-2.121866515135931441e-01 9.192686781674836993e-01 -5.734273466298244193e-01
1.678033369142532261e-01 2.450076351406827724e-01 3.795496273818499411e-01
-7.762787556051178317e-01 -7.285565520594987632e-01 2.081824276104553284e-01
-3.547476083006137482e-01 -5.789691175470376150e-01 5.211026963773370824e-01
3.220908377548750146e-01 5.222082641529494085e-01 3.096335869918918071e-01
-1.913766224808458871e-01 4.694751917041152245e-01 -1.788965603471244226e-01
2.636880164039371865e-01 1.276604420722684818e-01 5.762445689959660999e-01
3.412057416259993425e-02 -2.288143381707035406e-01 6.338586265994315960e-01
-2.724354390961524208e-01 6.929452195984964202e-02 6.890007948952640848e-02
-7.631777530714313196e-01 -7.107997535459873450e-01 2.070392330739662390e-01
-6.687405132659713924e-01 -4.799014019113837515e-01 1.134758788006052371e-01
1.391477552812509233e-01 8.294156798419886900e-02 4.842273144311666222e-01
-6.373855072722911519e-01 -5.911507893605414399e-01 2.382238250653890554e-01
1.737337160670187133e-02 8.724981741790601708e-01 -2.966865713435112295e-01
-6.577173354238327052e-01 -3.224441491191578635e-01 -5.657851964962734917e-03
-2.174287824723777074e-01 7.586059097384899585e-01 -4.456430934299374647e-01
-5.015888557146331861e-01 -4.245694463024883292e-01 2.408635421642059959e-01
3.079263580656384502e-01 1.849865900233985117e-01 5.745679592385877221e-01
-1.111273955873297165e-01 7.409500674866636993e-01 -3.208122707509200588e-01
-3.168341893730748371e-01 7.320225444508765555e-01 -5.266433892051083365e-01
-5.424046056575614339e-01 -4.259270712194927477e-01 1.996800525023625650e-01
3.420127596570278206e-01 4.070058315099620572e-01 4.258078931557285340e-01
-1.619149783897226025e-01 -1.912242726292407158e-01 3.994812135969376676e-01
1.566923061161459574e-01 5.758528243553808768e-01 9.370215772532414222e-02
-3.476566616406304849e-02 -3.572640493556122898e-01 6.689596331361167270e-01
-4.631453810420195216e-01 3.612842552025364862e-01 -3.708997213871005338e-01
-7.780751833109729454e-02 6.229810439719489779e-01 -1.884557771734301779e-01
-1.097958955060421814e-02 -6.718218899430181690e-01 9.544408027183207688e-01
-1.836239307336937354e-01 2.512337331403724505e-01 1.010103885931653775e-02
2.085355562553859732e-01 9.231016583864565250e-01 -1.404890832460015671e-01
-4.299129071659607559e-02 1.849148937607004717e-01 2.108696353838610260e-01
1.748434000945095490e-01 -2.788704186182862366e-02 6.131258241212814708e-01
-4.624412794927211245e-01 -4.751950313753896538e-01 3.234212057303357812e-01
-2.154572941658364216e-01 7.907823702337221095e-01 -4.702795135923790171e-01
-6.333904578108535965e-02 4.962971097027570749e-02 3.019529864497145777e-01
-9.041840718712000624e-02 6.579377576195631627e-02 2.604798843989714618e-01
-7.732491181109397704e-01 -4.331330091893084711e-01 -3.363607932833852926e-02
-1.472148237515866209e-01 -2.360462462266099126e-01 4.518846883379029622e-01
-3.462673330891042345e-01 -6.205678148666905758e-02 1.012804096089735678e-01
-7.938202875569011496e-01 -4.524846062795957469e-01 -3.891401262240076764e-02
-1.813085678532445066e-01 -6.598408597290188471e-01 7.679450454123932790e-01
-1.338818476015784242e-01 -6.169119412500246868e-01 7.815113578535781702e-01
-2.602126662231632817e-02 2.444073940476351736e-01 1.791306627668405871e-01
5.295487251416223229e-01 9.137449797289098896e-01 2.000283622926152527e-01
-2.092758974941518746e-01 2.815069386783262129e-01 -4.159144326607484843e-02
1.460913553856145464e-01 5.895818086770524546e-01 7.132953122044190242e-02
4.917974865646540517e-01 6.352648586839411138e-01 3.918056704337174456e-01
-1.077262934173763981e-01 -4.281131220906044810e-01 6.520759303119501027e-01
-4.358764949723187843e-01 -2.551704832366004649e-01 1.685182634382142719e-01
-4.029816317834540862e-01 4.887574342365166302e-01 -4.142326561596600398e-01
-1.050536987262860600e-01 5.125877215824239386e-01 -1.251630737870774168e-01
1.610859882217517691e-01 -2.171000454453253514e-01 7.557564767026250241e-01
-3.521492592267275179e-01 3.753534162906816407e-01 -2.675080894907723716e-01
-9.816584019798717253e-02 -5.261283704081496371e-01 7.432583878615109940e-01
-2.251051110013783385e-01 -5.910569564055984104e-01 6.655118123368832794e-01
-2.312569804681899877e-01 8.677917928502458800e-01 -5.505119089548901057e-01
-3.528834499608602404e-01 2.312525629208966871e-01 -1.487837421719987174e-01
-3.692214738857383383e-01 -4.323824984425787554e-01 3.845526831489023412e-01
5.338091595399779149e-02 9.077009239636878446e-01 -2.885508871244322759e-01
2.937108589044704621e-01 4.345175330021524007e-01 3.529264940744311074e-01
-5.729846791890109287e-03 1.395521855189180427e-01 2.871082858442691177e-01
-1.482949263921422567e-01 5.601065222578287539e-01 -2.093880956608177302e-01
-3.964928350024346515e-01 6.048780982876709178e-01 -5.037912500860812770e-01
4.736130030141240399e-02 8.259815795472279509e-01 -2.270307966479948036e-01
-4.458241218738149270e-01 -6.688050440131799723e-01 5.011837449904417152e-01
-6.431694146490539721e-01 -2.232323985392868360e-01 -7.284192141879473892e-02
-7.809641586399413971e-01 -3.836855933915602201e-01 -8.263417325317808093e-02
4.908019781169226797e-02 8.584351361831613625e-01 -2.521588122401938747e-01
1.996828070967945346e-01 5.108208429424417885e-01 1.921888405658081500e-01
-1.611784556068123764e-01 -1.968644827291218535e-01 4.049214296454292650e-01
-5.818313220750374049e-01 -6.538061398164104511e-03 -1.889378545837634704e-01
-1.807144022787824655e-01 -4.429777798140686618e-01 5.887426387992390486e-01
1.258773778393682541e-01 3.644226009655497367e-01 2.370732092852306239e-01
4.196452066314816376e-01 6.055652589719248136e-01 3.416396133771126831e-01
-4.354430587122599672e-01 2.592246865691256730e-01 -2.575581157943723221e-01
-1.095476243345363809e-01 -4.688855994712870512e-01 6.839956388694029554e-01
-6.717125490466197002e-01 -3.522843593062257028e-01 4.577723444358726586e-03
2.585855263985358254e-01 1.554788894580050665e-02 6.639167534221995792e-01
2.300885466545786462e-01 5.229837157175549756e-01 2.136219314923661072e-01
2.516489341291200943e-01 8.451082195191198521e-01 -3.112765903728006642e-02
-7.563468612246644351e-01 -3.590640493371725084e-01 -7.753179300072281233e-02
-3.637550407260701779e-01 5.345114090053720846e-01 -4.115089941091737979e-01
3.363474783253236899e-01 9.335405590429797229e-01 -1.665622296330343879e-02
-5.457512450893420297e-01 -2.344257836836239894e-01 3.742211206151215691e-02
1.835983803615405252e-01 5.685030784307056884e-01 1.276869838685305014e-01
2.915672328236884603e-01 2.523887980699708877e-01 5.017217556064182959e-01
-7.685524138889482382e-02 -2.563025622788793201e-01 5.416148492964019123e-01
-5.235677138796972496e-01 -3.534964725954699016e-01 1.591482570058984081e-01
4.039648694618693803e-01 5.100252157435950506e-01 4.046053285197172555e-01
-3.777986871214294440e-01 2.014407469348333535e-01 -1.498912993101656210e-01
6.076994057126530735e-02 9.544478865535044321e-01 -3.196530970182240305e-01
-4.072015134974907302e-01 4.792381366778650231e-01 -4.107137422386104575e-01
-6.452746033486248534e-01 -3.973888335600435640e-01 6.938272021668340228e-02
-3.404296842460373118e-01 -5.029324689422109973e-01 4.728965225845598863e-01
-2.871661662410002758e-01 4.194949532568723050e-01 -2.367484920592469178e-01
-3.495165258993113144e-02 -6.011776724836918051e-01 8.710148967292867805e-01
4.262987912021116710e-01 8.173918796262263919e-01 1.728944669961832437e-01
-2.624860528248950664e-01 4.825843291673883040e-01 -2.634777158960774912e-01
-8.673017292280125190e-01 -6.804742597653030689e-01 7.396008382958794980e-02
-4.155829169871932960e-01 -2.665141773642312195e-01 1.989603391871833937e-01
-7.502362708739039598e-02 7.811250905203248607e-01 -3.166997461087999732e-01
9.758530230028135410e-02 7.278449108848519256e-01 -9.359622638284920138e-02
-6.404327711999939776e-01 -4.518372835629124590e-02 -2.176393629686674547e-01
5.340379524708680492e-01 7.545678324741275089e-01 3.366681996062934057e-01
-1.833941084242757813e-01 1.972982227725165738e-01 5.506146320933227867e-02
-2.804096321179370133e-01 6.391798462439683519e-03 1.127917273394122566e-01
-3.954125422204818885e-01 1.370034681351384349e-02 -1.247924960626991403e-02
-5.073568578578014909e-01 -1.155971465020147471e-01 -2.130885602108359422e-02
-1.115307272571323949e-01 8.056662568736239205e-01 -3.748916658925713907e-01
-3.382954693682307251e-02 -1.570913414367776928e-01 5.039509983478449584e-01
-7.596393933452668668e-01 -3.452855546478437732e-01 -9.236963783020445129e-02
2.289815356034120564e-01 8.071809481943987841e-01 -2.317596364032791303e-02
5.881125678892520220e-02 -2.256727412478505002e-01 6.568477984238253464e-01
-1.514254797170710432e-01 -3.756692713188637955e-01 5.632924448986103005e-01
-3.302007308132646757e-01 -4.190222749183574180e-01 4.139231836283626120e-01
-3.147514426476955007e-01 2.998554584599705808e-01 -1.661405602180608398e-01
-1.489841162916147599e-01 7.295872345477786292e-01 -3.506323514644980599e-01
-3.383538650245542234e-01 4.616932277716697675e-01 -3.247990789138994194e-01
1.842214911207800121e-01 8.919680008512793634e-01 -1.398774281324520474e-01
-2.538253424195940355e-01 8.378389961573602385e-01 -5.490698201612097540e-01
-6.592869727688956960e-01 -5.604628916342033751e-01 1.900752214949724406e-01
-3.895603281032278958e-02 2.171305742583479748e-01 1.883399780266394874e-01
-7.357673553004852318e-02 8.046832448961719342e-01 -3.347338395949546186e-01
3.304460384842418663e-01 8.033142386471856522e-01 8.520733346290856880e-02
4.810851645327034881e-02 1.921091310353967019e-01 2.993374862836962746e-01
-5.122489646909540451e-01 2.023757395027035444e-01 -2.900364068804390238e-01
-1.507044407969214319e-03 5.692048819789876646e-01 -6.477339413203155039e-02
-1.032423516603900859e-01 2.163902162410224483e-01 1.223153034215466034e-01
-2.877517178041813506e-01 -5.756458466327263324e-01 5.877943890754007139e-01
5.836004151318149175e-02 -4.797563208397573886e-01 8.670608427874649804e-01
-2.854902861343310283e-01 7.276781829399912027e-01 -4.905503549643451811e-01
-4.265969330187214248e-01 -2.631062269384172869e-01 1.847175178807016482e-01
-6.462436021144657428e-01 -3.200722145221648884e-01 4.268948425383749766e-03
1.422666206907706281e-02 7.746090596439583753e-02 3.592797914456579700e-01
-3.892510620615440703e-02 -3.469563329278851915e-01 6.561010565722582566e-01
-4.778987102480259513e-02 9.471534061791507808e-01 -4.261366967879814949e-01
2.981250710470443321e-01 2.722656085076981536e-01 4.920381121172726635e-01
2.563057799711218609e-01 3.264348345677685614e-01 4.037726625830245775e-01
1.432438398847925565e-01 -1.120200178753009285e-01 6.501313290640837739e-01
3.900678922312698638e-01 8.833647898495601281e-01 8.063452250031524771e-02
-5.688717692958625283e-02 8.153657983352942396e-02 2.821844242818926096e-01
-6.243159004245264487e-01 -4.989981242949949602e-01 1.753605954802358868e-01
-2.889426211560263136e-01 4.381674911220608815e-01 -2.540728240637862845e-01
-2.276248740682468297e-01 1.512195267261413900e-01 4.741977521480308239e-02
2.083659143771868227e-01 4.036881465300254379e-01 2.900218465079145713e-01
-2.776465729699534868e-01 5.182399223817707457e-01 -3.087578308161983975e-01
-8.021959665521269378e-02 2.185371457967501541e-01 1.444002752257291800e-01
-1.960112780573590452e-02 -3.837920106338242321e-01 7.066754725312723862e-01
-3.312872604084014516e-01 4.715772093012977062e-01 -3.256694962499451784e-01
3.020558636300608724e-01 8.822797216488884597e-01 -9.698162329568153772e-03
-2.550959175251450439e-01 4.884557518129550302e-01 -2.606856349348998236e-01
-9.774774215475544314e-02 3.078627966128980042e-01 5.216381826912819264e-02
-1.379619131165858714e-01 5.843579982175352017e-01 -2.187858107372626648e-01
-5.374087390125098507e-01 -2.951025759093148237e-02 -1.238417804366515745e-01
3.216371667347089902e-01 1.901657378970129098e-01 5.844860075668069088e-01
-3.842067818187420714e-01 4.485218412055691495e-01 -3.614083229142294185e-01
-1.067715872339795452e-01 -2.285619343249520319e-01 4.876019140411596564e-01
-7.142053414096444230e-01 -2.031330809433645190e-01 -1.631429944841591984e-01
5.583014327382865294e-02 7.140567278541423007e-03 4.607136980902237777e-01
-3.481669432501102168e-01 8.723079370090693063e-02 -2.447483057015122435e-02
4.013262835943845475e-01 5.820730816263266494e-01 3.421296187073233908e-01
5.361916228359494552e-01 9.532895891245196651e-01 1.741247646450558573e-01
1.707451873005066479e-03 -7.226331399526313148e-02 4.704506813632950979e-01
-6.423527498536045488e-02 -2.709362577787925996e-01 5.668305350445547175e-01
3.635217635047306439e-01 8.363560964724479074e-01 9.209568893489616936e-02
-2.438575643797794845e-01 -5.058039508052769584e-01 5.753832018180207175e-01
-8.860753760869924433e-05 6.207843925808311791e-01 -1.060717037351891767e-01
3.587185151804134220e-01 8.697446208903466536e-01 5.943162565717605150e-02
3.635400079832967202e-01 4.165666837016304136e-01 4.401951684967914669e-01
-2.080400449924384998e-01 1.582500896795777448e-02 1.799875073213700882e-01
4.428840096195289511e-01 7.558029592064686719e-01 2.411547805344743667e-01
8.546018764966177572e-02 7.590678620942880039e-01 -1.320544162256230003e-01
-3.980220896270067477e-01 6.245240092571859858e-01 -5.216664372501554903e-01
-4.523356085986945385e-01 -9.011563308338439715e-02 1.459689223308644097e-02
-4.391100969505957741e-01 3.028410474705584554e-01 -2.975251021826700315e-01
6.781857318870343487e-02 -8.109552167275430046e-02 5.463042986988098093e-01
-3.047195720557151488e-01 8.139353012748508087e-01 -5.820058345912156872e-01
1.996869437280043569e-01 6.445299208347112785e-01 8.132436841476220479e-02
-1.979340800960292107e-02 6.146346601235261886e-01 -1.213982764758009536e-01
-5.976895054129514051e-01 -4.722157925142632384e-02 -1.716423721431477589e-01
1.765308823310214048e-01 -9.325231968500877211e-02 6.690745675756968325e-01
-1.440734487303995115e-01 -4.338067798687255117e-01 6.191198891729888798e-01
-6.812472291800594215e-01 -2.021697279212558707e-01 -1.297777325821587446e-01
-3.307966498112630549e-01 -6.573750472658267396e-01 6.109425744450670548e-01
-2.603877127066799857e-01 5.627934220034582768e-01 -3.278102930052179120e-01
6.743560923593630574e-02 -2.718264334657166104e-01 7.040573896723022473e-01
-1.803667447733574014e-01 4.531188752184620583e-01 -1.539215155029709514e-01
-6.548118641454437894e-01 -7.606128264926136084e-02 -2.069415691248226441e-01
-1.933197003502283573e-01 -6.460928574992279572e-01 7.440948691498604495e-01
3.996661018755455763e-01 8.607426911733179198e-01 1.093417011976004355e-01
-2.641756495166387997e-01 6.318976690259930917e-01 -3.890366217090517886e-01
-6.032456263341375857e-01 -5.091371747203751186e-01 2.056089214835422063e-01
-1.538791161962493326e-01 5.757258523137323003e-01 -2.281278322748860610e-01
2.382131186382107357e-01 6.221389041787432905e-01 1.398263821698801368e-01
1.426884965049391718e-01 8.087394655330939486e-01 -1.139187665363653595e-01
-2.045236262126358395e-01 -2.047781386831829253e-01 3.665520907682903728e-01
-1.475620532063215418e-01 -3.633337509921454878e-01 5.570688802381214000e-01
-5.992713194536464401e-03 6.097743817614099671e-01 -1.030625716002681602e-01
-1.537537707733706571e-01 7.850231422488695987e-02 1.842894180396536796e-01
-5.004575912196959075e-01 -7.256976764404520219e-01 4.917254059687118373e-01
-5.883912174948714435e-01 -2.815453468448388397e-01 3.229248980305231970e-02
1.050935491612419587e-01 -1.270936255632657830e-01 6.230838330781865997e-01
-3.557913035862459994e-01 -3.666847425357672718e-01 3.439990653296668421e-01
-4.841337213928050276e-01 -2.117746621976242805e-01 8.251239489057483889e-02
-7.066088081387492670e-01 -5.992747013518084920e-01 1.732038115420692914e-01
-2.157844471265517594e-01 -2.440530995167610184e-01 3.874452078363749830e-01
-3.779627927168603962e-01 -2.064451987336742289e-01 1.881490529581214266e-01
-8.662103698829796139e-01 -7.495075518735657694e-01 1.323323326100787345e-01
-4.384193221825801179e-01 -7.544148387582491622e-02 1.685488100998533065e-02
-5.982539012782520649e-01 -3.705903337443107737e-01 9.590316271108664803e-02
-1.771320785689691479e-01 -8.666323562537117664e-02 2.970075010634781743e-01
-2.005118530400578636e-01 2.366786646671170391e-01 4.663942389302204970e-03
3.932059929548549770e-01 9.521640542003567687e-01 2.684054120594978401e-02
-6.386572235505609541e-02 6.674185104142488223e-01 -2.108504632032180137e-01
-7.579092643391646122e-01 -6.730655745073080842e-01 1.812121074966710210e-01
-5.469422718086891511e-01 -3.259708937225804792e-01 1.120947887520979819e-01
-2.243084057714387347e-01 -1.863496897881207759e-01 3.307629005412462408e-01
1.176116212439562575e-01 -2.856747604521077677e-01 7.675520907175146235e-01
-7.679897518596063843e-01 -4.561479044785545223e-01 -9.100804184392422003e-03
-6.858217622568804073e-01 -7.403098334783884127e-01 3.116948287383731198e-01
2.585141007437529725e-01 9.548756940431625262e-01 -1.150281803375782508e-01
-2.007699172159615464e-01 1.689166124717865203e-01 6.058330661429315450e-02
-1.728643011956715672e-02 2.624156752784722116e-02 3.690836310350397720e-01
4.130105898915566176e-02 -1.221881529561572033e-01 5.528896521904681505e-01
-3.455349505766159290e-01 1.127424576792785821e-01 -4.290026907856973881e-02
-2.162775812428413824e-01 6.742978694869157241e-01 -3.745433126779650901e-01
2.838790104044645046e-01 6.932971117526206539e-01 1.281603033353540533e-01
-1.040625547693823927e-01 -1.755728271316681077e-01 4.464726152002464477e-01
-7.965683948007454829e-01 -4.506621503189424116e-01 -4.327381570080438000e-02
-4.280298452925361263e-01 4.417674367039142735e-02 -7.156041261414612664e-02
1.873493599176397351e-01 8.492436799175931972e-01 -1.012090002809448858e-01
1.440905699625083525e-01 5.127240449318976045e-01 1.329843808437154440e-01
-1.585125651177846373e-01 -5.505730215986567311e-01 7.009725596833602523e-01
-6.618482241124262755e-01 -3.372918912697642213e-01 2.371545632332826368e-03
-1.534874405432116451e-01 7.584697223460867832e-01 -3.792492054473008967e-01
-1.860982834930409169e-01 7.930345736059087880e-01 -4.417137325092950206e-01
1.452085617941078488e-01 7.036377950983688789e-01 -2.415839322229084915e-02
4.844943924165375781e-01 6.271805828124406013e-01 3.909386669073467435e-01
1.431711014877474764e-01 1.638876771998465931e-01 4.212790611346095559e-01
-8.018014444107324223e-01 -6.826710151282211481e-01 1.436785363300743801e-01
-3.526383406374996587e-01 4.461598523936843308e-01 -3.267262766791012574e-01
5.102628694224287109e-03 2.449343878881088954e-01 2.109564133834819499e-01
-3.122714415801113863e-01 3.631416646753592992e-01 -2.160454090653852743e-01
-4.708709217390446011e-01 -3.756538405964804928e-01 2.321456562283665537e-01
-2.054839643257286297e-01 -4.321890610268269706e-01 5.541209760282539420e-01
-1.892642309124428768e-01 9.391891294203010832e-01 -5.661838115119922632e-01
4.481008065843616328e-01 8.160974177360111881e-01 1.965675616842997020e-01
-4.360901805020215849e-01 1.824879518853703975e-01 -1.946004265594848126e-01
-5.756172254009063183e-01 -1.365461176492502315e-01 -7.469643257314044493e-02
-2.867365843322790542e-01 3.440798516374724003e-01 -1.737705727813398660e-01
-9.791307512249369793e-02 -6.298276517006929920e-01 8.295056685079448267e-01
-2.369626383791990920e-01 7.559269583603220877e-01 -4.636703655218239462e-01
-7.631982221507586095e-01 -6.337311123297701965e-01 1.431143158017507688e-01
2.153689536934053905e-01 6.825266030480873214e-01 6.607413409616362532e-02
-1.164288278109390645e-01 -3.821460326894574600e-01 6.049400235668144221e-01
3.711345682946665808e-02 2.287356390261924277e-01 2.575701844991578615e-01
1.742478643233746627e-01 6.220565705735920936e-01 7.358889986744049372e-02
-3.185112367534127520e-01 6.229250947662600124e-01 -4.379204852174079510e-01
-5.285890860878698916e-02 6.142898103966888401e-01 -1.553877060491818118e-01
-4.374689853776184828e-02 1.744700285022110497e-01 2.187470427511024051e-01
9.330833990389543475e-02 9.588725976174427013e-01 -2.895929907811489734e-01
-1.844261107800246324e-01 -1.730642988461450205e-01 3.610885268466601516e-01
-6.888976054444004293e-02 4.470440064282306669e-01 -3.332841972481159765e-02
1.048361936726963234e-01 5.040654035544572809e-02 4.756376499856851958e-01
3.245448285131294353e-01 4.970203361220273397e-01 3.330626707012026011e-01
-2.854265336735924835e-02 1.058542498441307628e-01 2.914023763660406052e-01
-3.645080270622467200e-01 -3.277337333541182618e-01 3.026660367357950632e-01
-2.961641040048348383e-01 -5.516483728463564828e-01 5.591759910964391178e-01
2.514003726052457810e-01 2.085882824697858351e-01 4.964036524899912983e-01
-2.016731756442981804e-01 5.003974730309280750e-01 -2.152099722371869917e-01
-1.322749916333491316e-01 4.637107721963319440e-01 -1.128526572231910718e-01
-4.875946348201909974e-01 2.297639210385110931e-01 -2.871896768634977781e-01
2.447468532400266794e-01 5.529024337526013827e-02 6.166181954509289964e-01
2.771797150254443065e-01 1.342524124842277289e-01 5.847640072240908315e-01
-4.354639016007523789e-01 -3.587782558548938128e-01 2.548553434481883873e-01
-1.914747615898901578e-01 7.112479363943091659e-01 -3.794711742142909960e-01
-1.503041356342400270e-01 -4.960789184601516189e-02 2.940915689710778547e-01
-1.519609691306166577e-01 -2.485872860743446391e-02 2.718526251692585660e-01
-2.010511757647850672e-01 -7.521401645175743167e-02 2.627197487141998966e-01
-5.119397069356773633e-02 9.291107877012617644e-01 -4.147047924889966097e-01
3.616590412677436750e-01 6.867521244891160448e-01 2.142132820462745446e-01
-5.837497555847847019e-01 -5.913300966248501433e-01 2.939707939616589272e-01
-4.041603000194863848e-01 -3.905774323226812728e-01 3.136715575318790306e-01
-7.416043890750997347e-01 -6.136883853209539330e-01 1.488792617076329095e-01
-8.513278751543316980e-02 -2.844516574634038952e-01 5.563750653721361017e-01
-6.283505997350561367e-01 -2.101206852324855323e-01 -6.835284145923627153e-02
-2.290194610746584258e-01 -1.819779986323869503e-01 3.222545525670604261e-01
1.118539904297951963e-02 5.473232825440904614e-01 -3.347276961967921016e-02
-1.191043955735104770e-01 -6.059865540359783420e-01 7.877704171474337880e-01
-5.188028511571406431e-01 -6.330185464589080935e-01 3.958613017296473413e-01
-8.153962390948801819e-02 5.088226088571654593e-01 -9.766666337808373177e-02
1.382793040909977844e-01 4.070877701984152996e-01 2.145518611264487785e-01
-1.604216804155301213e-01 8.937315575257612776e-01 -4.985934439764341253e-01
3.416789254669778952e-02 -2.907710248721616653e-01 6.852808601906639208e-01
-1.328794529740058572e-01 4.058594447930104904e-02 2.373669876753160268e-01
2.072463463154271823e-01 4.737653025922912708e-01 2.307548067753986132e-01
-1.524327954978275668e-01 -4.684250393885065478e-01 6.391594067568748816e-01
8.515872101615877543e-02 5.293112507202405448e-01 5.814244480609889743e-02
-2.946164665446809883e-01 -4.364905790468758262e-01 4.652938319600859463e-01
-5.481194183981502599e-01 -3.051584646023780545e-01 9.361734094434756570e-02
-4.393166148977554752e-01 -1.478266113913352491e-02 -3.437226603706407257e-02
-2.105788656982886531e-01 6.651736861223848107e-01 -3.610704990808725201e-01
-9.580985159675126095e-02 5.379802238145312554e-01 -1.366359227747800109e-01
9.238854059317572198e-02 5.406366944849387846e-01 5.624598426679151830e-02
7.539380399836795657e-03 7.144243923588697309e-02 3.573382074905051553e-01
-2.902781468727235747e-01 4.513339097589562088e-01 -2.663745347490099058e-01
-3.332251403964004433e-01 -5.909450928488643173e-01 5.533429015680989549e-01
4.505328817630432220e-02 -2.576007469666591887e-01 6.690604558915167477e-01
9.651669816206291663e-03 8.295948455942121491e-01 -2.691162719447280915e-01
-1.594773108485322555e-01 4.645663292272965150e-01 -1.417597228955926603e-01
-6.543694509808228865e-01 -4.916606797535868489e-01 1.381233264920479764e-01
4.975961249572470324e-01 7.117216716326737469e-01 3.344200977147796516e-01
1.218666543488623327e-01 -3.766426158270635288e-02 5.663177174202272957e-01
6.408951424943933051e-02 -2.784278889278568592e-01 7.060626488893191333e-01
2.999562919779770742e-01 3.516867100233269094e-01 4.280820277526429796e-01
-2.644221166397506262e-01 1.782717984950872303e-01 -1.315505920989614927e-02
-3.104266916653733999e-01 5.402445938177173890e-01 -3.609831900394250281e-01
-5.000703023415357107e-01 -3.856134665821161489e-01 2.101361791137428547e-01
1.141962365393370538e-01 9.068482978419301066e-01 -2.248033460756772572e-01
1.124623320521894593e-01 8.462834089070700450e-02 4.551668312862749977e-01
-5.132310440969378718e-01 -5.047354923255821246e-01 2.952673668002502860e-01
2.368993908828969375e-01 6.517036960319619876e-01 1.139500802522050021e-01
-1.314182408224408016e-01 -4.446301475819378624e-01 6.412126621147511418e-01
-4.180781258919145232e-02 -4.187146903429357914e-01 7.126133949627343478e-01
1.197964213513559167e-01 8.937417054573995046e-01 -2.081305385159232246e-01
-6.928616590835441624e-02 -3.892594011001600518e-01 6.597058975677350112e-01
2.104545967321051481e-01 2.146958019200376766e-01 4.488954382543272614e-01
4.348145187685277802e-01 9.408428859350749240e-01 7.935880362780509123e-02
-6.456126224737487318e-01 -6.674326942479036351e-01 2.929470325891586624e-01
-1.643466491090773141e-01 -6.477134770680085252e-01 7.754718319656657144e-01
-7.185599006839088476e-01 -2.607325059215032659e-01 -1.198966537881117345e-01
-5.543407440158265587e-01 -4.793440145923246742e-01 2.315993771777921650e-01
-2.732937807121807450e-01 -4.718264518231737314e-01 5.166964815667657307e-01
-2.031757856146512442e-01 6.038378777921953322e-01 -3.025381747872145644e-01
-3.761907976690700983e-01 3.952590001042999845e-01 -3.089346032449017398e-01
-3.361615875287659455e-02 3.562306073822248398e-01 7.853641176007992997e-02
2.588783171506988667e-01 1.241737806663749527e-01 5.741499486329004753e-01
-1.161402976997753522e-01 1.545382205770673423e-01 1.602317960074152170e-01
-2.155918055620618667e-01 -3.374344744952662567e-01 4.650747737551237937e-01
3.242011585388531736e-01 5.500354414247514701e-01 2.887474135408506504e-01
2.484882742628436170e-01 1.485555741450339806e-01 5.431628614217783868e-01
-1.618624888759772618e-01 -4.672536054095441371e-01 6.284133511650504822e-01
-7.120479605566470971e-01 -5.294022483101801235e-01 1.096288687260415923e-01
7.904201708603290910e-02 7.542821263521028996e-01 -1.347391969159577318e-01
4.465686178695870701e-01 5.304142768887707415e-01 4.318617723994046531e-01
-1.929130176680668718e-01 -6.169013379770974526e-01 7.203114372996720638e-01
1.440432556299339924e-02 8.739846393395936941e-01 -3.009968008849988608e-01
2.492475245088221769e-01 8.760535386190757556e-01 -5.927614545468594398e-02
-3.806835957308105645e-01 5.058959317263961308e-01 -4.053296142525856793e-01
-7.912655678967899231e-01 -6.261756119081145489e-01 1.077551197679985223e-01
3.966561296545771942e-01 6.048774266346048645e-01 3.183796991053056691e-01
-1.201207692586695186e-01 -6.373029186724766815e-01 8.126837262759052383e-01
-2.475799003930272413e-01 -3.473291025862110942e-02 1.809224484277684453e-01
-3.122127708072785501e-01 -2.041287813837798504e-01 2.543841524062150361e-01
-3.987828230578313038e-01 -6.664715578222297765e-01 5.480114135184682711e-01
1.201565461270868163e-01 5.106277428750708447e-01 1.099128175007033498e-01
3.144231317261052955e-02 6.960849336073241522e-01 -1.358246900533920942e-01
-4.038418076246432786e-01 -5.836566099288887921e-01 4.740989039454482357e-01
2.820782566200156702e-02 1.576445497620942993e-01 3.072859337334873375e-01
-5.006756170151469565e-01 -5.170633595237780211e-01 3.185042073076661540e-01
2.239309009382963178e-01 1.262229557633619548e-01 5.362246687792063815e-01
-1.996145979165550866e-01 -2.925090780597911500e-01 4.443853940762044208e-01
-1.928420608744954301e-01 3.978389112641693426e-02 1.758753856636613155e-01
-3.187376828042564059e-01 -5.376581607220233261e-01 5.241760518370587318e-01
1.573742524343653970e-01 -1.954217038353009694e-01 7.339337022797053356e-01
-2.820819594073579739e-01 -4.701592002356105304e-01 5.062042922154330604e-01
-7.998490296301495606e-02 7.651109307850868513e-01 -3.085639507056992525e-01
2.535187826374769582e-01 1.459790594073077374e-01 5.505138287025951316e-01
-1.702762169628672662e-01 -1.628600019689317724e-01 3.672949784578902199e-01
6.749885038192411646e-02 -2.621091126003278760e-01 6.960655463756705297e-01
1.202294543220376773e-02 1.519155636754394578e-01 2.952592015346789389e-01
3.514411507832161385e-01 7.692933286794580994e-01 1.351800840232942058e-01
5.717166991273810867e-02 -4.510727350777794520e-01 8.420451614130542994e-01
1.563851142444122877e-01 7.252212948583848240e-01 -3.046947406164548372e-02
2.442910604066137956e-02 7.416433816256664535e-01 -1.808706199693967120e-01
-7.003472478921288769e-01 -6.514239050707780754e-01 2.229355079646724302e-01
4.614403494869777078e-01 6.019094938035752795e-01 3.879953298720659194e-01
1.620217255307408455e-01 2.508253055275071475e-01 3.687325759161475536e-01
3.923315822663453467e-02 -3.783166321749933253e-02 4.807994564484507904e-01
-6.222616746678619748e-01 -7.105886708390615203e-01 3.529364244472434908e-01
5.475036916610102194e-02 5.163899515951582142e-01 3.733551720923745931e-02
-4.755574951323918720e-01 -6.274216275197788129e-01 4.360481634891965053e-01
-4.938107265654686495e-01 -3.162185562891617341e-01 1.590839909555774312e-01
2.170332063496555053e-02 9.499743387929662219e-01 -3.564397979680379858e-01
-4.116019331545304194e-01 5.097589578919360376e-01 -4.405823980051055688e-01
1.323942975488044682e-01 5.253824240133621315e-02 5.024365460192637967e-01
-1.561293661832374724e-02 -1.501615609014877728e-01 5.170881283674708673e-01
-3.867063013765636992e-01 -8.730643749124814001e-02 8.029825865453135703e-02
-5.075550298543451966e-01 2.886725042152344933e-01 -3.567261858184865297e-01
-3.078132736977887141e-01 -3.776441333674168122e-01 4.028199145872727871e-01
-2.783863715479008571e-01 8.265580473585538712e-01 -5.651756147602173819e-01
-4.602764243692823443e-01 2.246805954349193335e-01 -2.546569025417602106e-01
-4.867766594865884366e-01 -2.393453447620825236e-01 1.026337824664169812e-01
7.999784593065897842e-02 8.268358219550295818e-01 -1.939083952810325695e-01
-1.827538135177276396e-02 8.377526046766792245e-01 -3.048294202399071673e-01
-2.188913146696025436e-01 2.821234819271908889e-01 -5.206991457063136347e-02
-7.508251115368493878e-01 -4.973364221839330912e-01 4.284454676427753433e-02
-1.057997936005306283e-01 3.734755034452068023e-01 -1.058753778006020149e-02
-1.147461960720951996e-01 2.370359485747952355e-01 9.327152400062813098e-02
-1.417180540995637283e-01 2.442254455130850876e-01 5.935138213294179066e-02
-2.655352586091088707e-01 -4.458469784172953698e-01 5.031972551357837276e-01
-6.990881020470753882e-01 -6.313154506216793749e-01 2.075672178774793097e-01
-1.899856895789956146e-01 1.740563410258331523e-03 2.103810005859284571e-01
-5.626674117691901067e-01 -3.777030932610317415e-01 1.386895175295554117e-01
3.535004423416554520e-01 9.708581174097756783e-01 -2.981856558855703818e-02
4.825569421801405301e-02 1.181464183406879670e-01 3.608183778087135085e-01
2.862058237796810678e-02 7.653280026591898766e-01 -1.961645674455941846e-01
2.977175067084250060e-01 4.186374996713891905e-01 3.702471358957501457e-01
-1.169698793289149219e-01 -4.366189277673597213e-01 6.495469558311818270e-01
-7.055279734967145888e-01 -6.974490177030330251e-01 2.557282760004819244e-01
-4.935983689018016984e-01 1.593647381148197758e-03 -1.042190879442833756e-01
-2.724508924170364055e-01 9.440189922112557364e-01 -6.564191050054631882e-01
-6.554309023555224822e-01 -4.166963726003086177e-01 7.486420686595952889e-02
-3.449085508786930432e-01 1.058650203383360577e-01 -3.654832268112105653e-02
-2.378803648984533226e-01 7.587008359420295278e-01 -4.669217128309139375e-01
-4.327995903818147583e-01 -3.852723257618670960e-01 2.795854686931495969e-01
-1.318365010319693005e-02 -7.343283702339047092e-02 4.559844558975294504e-01
-7.873268265695535506e-01 -4.399443840998262800e-01 -4.258104396879533460e-02
1.331089000946225065e-01 3.102292152846348738e-01 2.895053515220902818e-01
-6.101941400241913671e-01 -2.560503476693821723e-01 -1.144812264706049874e-02
-2.904059808995330116e-01 2.765184801486775812e-01 -1.215537622886243008e-01
3.999598967767357266e-02 -5.578972847098898624e-01 9.128176944754925470e-01
-6.558841067488229148e-01 -5.559670094338253765e-01 1.898747077130725769e-01
-5.481741904561109324e-01 -3.162541446091599595e-01 1.027608696752250472e-01
3.219384289024321832e-01 9.429824198759516607e-01 -3.942149421751580535e-02
1.169283573427038064e-01 -6.683694143209321578e-03 5.355102913821800925e-01
2.065016928256482864e-01 1.872776743764635599e-01 4.675324327712969685e-01
-6.196339739929370705e-01 -6.459795730177854134e-01 3.020877656105625531e-01
1.651345267247001924e-01 6.955011044591692393e-01 3.243438499895640471e-03
2.084608353949278514e-01 2.990014060158114884e-01 3.769242880159548448e-01
-1.229835239953417647e-01 5.592293782277139025e-01 -1.824232362217983738e-01
-1.081224552780252063e-01 -5.296421833429646453e-01 7.358510388049468443e-01
-5.500866889919749925e-01 1.791264922636096046e-01 -3.099808309294660447e-01
-2.160985596151606680e-01 -1.445483169944961760e-02 1.967415387122146975e-01
-5.968438984487131060e-01 -3.216053030561343284e-01 5.674739873725676703e-02
3.418248071134837862e-01 4.132899348546810736e-01 4.204024168456994004e-01
-1.928337510364714832e-02 -1.640973673907224761e-01 5.248386661989336011e-01
-3.670203959447182473e-01 4.267110656848825956e-01 -3.255080477220050339e-01
-6.212290282454416834e-01 -6.768701929874004763e-01 3.260482016324705024e-01
-8.421182463156552389e-01 -6.850616919902268176e-01 1.038688362659396930e-01
-2.160876807157105783e-01 -4.600944605860854963e-01 5.662678396607641051e-01
-4.912672915250311800e-01 3.708992747077692331e-01 -4.080231886730488200e-01
-4.529307018418743946e-01 -6.335734367033543091e-01 4.646038252152829284e-01
1.385920775705578277e-02 8.344757017149762035e-01 -2.688018830439058426e-01
-1.124772139053309833e-01 2.486251686963859148e-02 2.715532834815492236e-01
-5.054665944255551935e-01 -3.118565892506201531e-01 1.433847818300198196e-01
-7.860521664165610878e-02 5.091159686722375177e-01 -9.486813355198171760e-02
-3.743961137693870289e-01 -5.897960389509362411e-01 5.097127053578014433e-01
3.937588813761366997e-03 -2.497972658952302139e-01 6.199698448737890333e-01
-3.353567719725965568e-01 2.138936102642684592e-02 4.339840022348455395e-02
3.515880835028895035e-02 8.705424189863441020e-01 -2.766286919258265642e-01
1.470646467226408571e-01 4.942492495084521154e-01 1.513861919571792003e-01
3.755593602222676020e-01 5.993554828227779518e-01 3.010896759080468610e-01
3.401843329054786702e-01 4.730187215986150218e-01 3.691760615136628898e-01
-6.688610810138023721e-01 -3.111642587440719421e-01 -2.656239698507253597e-02
-5.131317779457732556e-03 7.759901560843576185e-01 -2.399922879492825956e-01
-5.047662342961607429e-01 -2.899847045576950388e-01 1.259750606478048651e-01
1.416777800828379445e-03 -2.598392884669047387e-01 6.256834313281957050e-01
-1.968327820414600693e-01 -3.862353886701284100e-01 5.249848859267963741e-01
-6.656308537109220103e-01 -3.822037447912038366e-01 3.569047511408760670e-02
1.783984630223717921e-02 -5.619898471500093251e-01 8.932443216763159555e-01
2.390235987075465529e-01 3.405895058358001104e-01 3.741213677400389015e-01
3.523757033651518395e-03 1.713522349039319492e-01 2.703325469798104064e-01
-4.282059319410215226e-01 -3.711215917688022725e-01 2.726137181861366110e-01
1.676993691473673831e-01 5.604607787939976798e-02 5.361248114195498182e-01
-4.256127176301508497e-01 -4.583200474730354523e-01 3.476049472811719165e-01
-2.772099472769770645e-02 4.890694906009196985e-01 -2.549993235650882192e-02
-1.310810060945235000e-01 -6.042581117359301368e-01 7.739223927655514146e-01
-4.457227802015271134e-01 3.504688827756166081e-01 -3.438717454858060685e-01
-6.151330840549452672e-01 -1.200899618117433759e-01 -1.293032807465890610e-01
-4.921328895230862588e-01 -5.714009200152460055e-01 3.724150786837648885e-01
1.562702095888834075e-01 -1.383257734748400136e-01 6.854465156419949912e-01
2.406295655014314971e-01 9.669532881503138944e-01 -1.435816005994572375e-01
-7.004289844671508503e-01 -6.059231916865840395e-01 1.851225443948253113e-01
-7.020335207582796277e-01 -1.700287792826753186e-01 -1.779751971794452936e-01
-3.186052778347628900e-01 -1.654476390607374781e-01 2.156841515875045912e-01
-6.188847848272218677e-01 -4.128664657221811640e-01 1.095718733909851750e-01
-4.174112566622694559e-02 1.269230115901809064e-01 2.602511952878787116e-01
-4.628049974722789339e-01 -2.506987397533343986e-01 1.368965675878201782e-01
1.281039390182761861e-01 -2.184659232329920209e-01 7.227001670541510769e-01
2.269180540403460122e-01 5.626242463645251268e-01 1.774663343732719445e-01
4.759011537182267215e-01 7.281032311541872915e-01 2.983480593299875361e-01
-4.275011162769081219e-01 1.005477432226075940e-01 -1.177539866419411857e-01
-2.947992720605854822e-01 8.381484783217113543e-01 -5.917996075282544455e-01
-7.184375633417930951e-01 -7.192295874273331169e-01 2.604063136498635522e-01
-6.655347960178738254e-02 3.823415378818569299e-01 2.274327453139829078e-02
1.086398094356295502e-01 3.516176237619708100e-01 2.298225341826359569e-01
4.226290703324515619e-01 8.145115000417002538e-01 1.714788208222536303e-01
-4.744549963447244195e-02 2.138448332710884969e-01 1.822643479080657825e-01
-2.320897771956705880e-01 8.370988093530645768e-01 -5.259252003158164657e-01
-2.433541364867166101e-01 -2.784755429349749511e-01 3.874091072003273961e-01
1.538654166605855911e-01 -8.672686418001898656e-02 6.401689987571489437e-01
-5.790106164940612282e-02 9.113376374427628601e-01 -4.069201737638420968e-01
5.006816867185581721e-01 7.881097579898103112e-01 2.742791631714477374e-01
-1.486212106593262916e-01 1.391131732103186025e-02 2.431672777537493280e-01
-3.747899693577090297e-01 -2.465298276691623991e-01 2.246753030813210816e-01
1.475836685225239975e-01 8.399650187719460703e-01 -1.347360526738454745e-01
-5.228831946538137210e-01 1.902606062832531975e-01 -2.910141306460439226e-01
-5.422922258174976973e-01 -7.848262316028345453e-02 -8.829709733613315403e-02
8.529526748127461144e-02 -9.976693138724780641e-02 5.799024085188333455e-01
-5.723861912634340410e-01 -5.673223594909586609e-01 2.858434410498223999e-01
-3.106960521747136328e-01 3.395311509933363614e-01 -1.948350337109661934e-01
-3.436084225497181843e-01 2.882735419848354574e-01 -1.864499389307831545e-01
-6.433722173710772207e-02 8.354325328988180255e-01 -3.506529147708724592e-01
-1.363719884638743551e-01 3.289042295252388778e-03 2.646724680765740190e-01
-2.933888095957484232e-01 2.320007180069602257e-02 8.540057264741506005e-02
-5.238099294363197655e-01 3.871157489365936039e-02 -1.663134997501585499e-01
-2.244388546496602632e-01 8.426915912413101006e-01 -5.226317468019994195e-01
3.588535930354742609e-01 5.166538999966096002e-01 3.523470585911208652e-01
-9.956651483021822235e-02 2.521159474970959824e-01 9.650261332782228418e-02
-3.485345987624324238e-01 -6.252125938291273055e-01 5.658871604156781032e-01
-4.617076139999512496e-01 -7.250921853274157058e-01 5.313911895638204763e-01
-2.928947943295115430e-01 1.930723554381160167e-01 -5.494186709413777236e-02
-2.902805683162281158e-01 6.481233724881270419e-02 5.411852804207248346e-02
8.971708552935486747e-02 -2.526456728704104537e-01 7.112498642069885468e-01
-3.649537927955877614e-01 2.998720553081061224e-01 -2.181935828882550499e-01
-6.148479792045247888e-02 8.577984260507516279e-01 -3.662414494076067784e-01
-4.510774649794808272e-02 -2.354879687912339592e-01 5.572649653943673176e-01
-5.714067900150230361e-01 -1.011167840063307843e-01 -9.970919639997533057e-02
-4.278357481323769584e-01 1.357536406482224844e-01 -1.472928537133202653e-01
1.225052036432769387e-01 4.080361979475720657e-01 1.974141678382069776e-01
-3.372251233895833811e-01 -3.754400938018052636e-01 3.705043380139555476e-01
2.648255764443367966e-01 6.334484793903426558e-01 1.580349310782978856e-01
-1.482204841431903619e-01 -4.199142286982933681e-01 6.033017014210889650e-01
3.734790442083343320e-01 4.762170158071536985e-01 4.010370723856366837e-01
3.081108477505098975e-01 4.826900097097410747e-01 3.279097741588000714e-01
9.224072394912031722e-03 -4.023128546266346306e-01 7.519124856862138273e-01
1.498200410809271965e-01 -4.487529287528800592e-02 6.012731580946818477e-01
4.434531283165596416e-01 5.963561920930836591e-01 3.739546350382921824e-01
5.601220495315768072e-02 1.569790518057475326e-01 3.366594959469118020e-01
-3.609686788789278067e-01 -6.460357095315703013e-01 5.702642059857538914e-01
-8.123185628446563666e-02 -6.896695128481710180e-01 8.964168702664362387e-01
-1.477562203861665152e-03 7.667325582733158784e-01 -2.285286352242925090e-01
3.425118380147341990e-02 7.869033492688564113e-01 -2.082177659868823805e-01
4.350461246930503179e-01 5.956799341409564352e-01 3.658007569138281290e-01
-2.273987427947041784e-01 -2.890863880650692552e-01 4.127466009052102591e-01
-5.019625593008230080e-01 -4.836918387757430104e-01 2.894992112669518280e-01
-3.386589544441054866e-01 -9.286390877129101218e-02 1.347118029982087850e-01
6.006786949410388710e-01 7.216747410513842942e-01 -3.801237650628386811e-01
2.482701725297066786e-01 4.903511346795341730e-02 -1.876883058473113042e-01
2.590115570723874883e-02 -8.457822854832310888e-01 3.237699653649981357e-01
7.234740412158975342e-01 2.959601355853480609e-01 1.001582923952757803e-01
-4.954556455479943722e-01 -9.592761543563378401e-01 -1.225566183345515175e-01
-3.658947530199494619e-02 -4.733003984372574080e-01 -4.986136667730193400e-02
-1.339533249205171195e-01 -3.958796392167276412e-01 -2.149834407708009765e-01
4.290830014606535070e-02 -1.597327782279245600e-01 -2.274584441702700022e-01
7.303214514189461104e-01 3.634009375741449333e-01 5.133575318402729820e-02
-3.787175094679267606e-01 -5.394016246510141555e-01 -3.496981627976135654e-01
1.575086014887604746e-01 6.945306198709770840e-01 -8.170021766317379086e-01
2.678967155560162405e-01 -5.263356415671816002e-01 3.097417250987080095e-01
6.907255948880594021e-01 3.677071303711887396e-01 6.720474263119493794e-03
5.780315832842708446e-01 -1.638003571437419426e-01 3.306178231243205867e-01
6.319867316110986399e-01 7.182086114422395751e-01 -3.447961212076328663e-01
2.451585609825754006e-02 -7.013930185211307844e-01 2.026094287700810626e-01
1.935183192757225779e-01 3.863181044727504454e-01 -5.241115116221295445e-01
6.788541530670940682e-01 2.801701552909225956e-01 6.699847666648299505e-02
1.157310580444276121e-01 -1.016220741176845632e-01 -2.001552675400449788e-01
-5.529412165531133461e-01 -9.494708987653773802e-01 -1.902759062105563725e-01
1.770371629508156741e-01 -2.966755455713217526e-01 2.512827936181923766e-02
5.362015853421916445e-01 -2.687362879443971342e-01 3.742679305857901095e-01
-2.296878478649267974e-01 -3.800473123888261084e-01 -3.273487358276225279e-01
1.997001431509205088e-02 -1.150092746009506450e-01 -2.883198352036975276e-01
3.190717520947133345e-01 -6.385730964790679032e-01 4.558542042953425133e-01
5.110093030632213429e-01 1.374386904956952649e-01 1.136209489390093037e-02
-1.088472726425347842e-01 -6.603401760498099904e-01 3.032637009236874293e-02
-7.200487743306620281e-02 -1.556352514578788759e-01 -3.499738935883885405e-01
3.856909964531896051e-01 -6.897771845185728390e-01 5.673684105552556645e-01
1.715081850794268614e-01 -6.698227921007171570e-01 3.288028579729218026e-01
2.409422137837197719e-01 1.911977866706277285e-01 -3.131626994811507747e-01
3.870999423619465585e-01 1.745597357908202085e-01 -1.478611174266875050e-01
-7.087603826690866415e-02 -2.659713522631698690e-01 -2.573153717833776555e-01
4.191603753687788703e-01 3.029352027718517082e-01 -2.210738308058067259e-01
1.883090639352238416e-01 -4.217679513248560053e-01 1.405366172371332878e-01
-3.412251263111005239e-01 -5.527273121325001481e-01 -2.997845479988572870e-01
6.065278593664633622e-01 4.589020596011919584e-01 -1.561749884231994345e-01
5.098849877853164347e-01 4.042936052297346206e-01 -2.110738518622663484e-01
-1.450430767864605563e-01 -7.804760460039261716e-01 9.242029768372275744e-02
-3.090168208223882385e-01 -2.929214047427203815e-01 -4.818233400032535529e-01
-1.880601851360251264e-01 -5.959367140434446153e-01 -1.051869520886149073e-01
1.974084573568417877e-01 1.827388904173754547e-01 -3.512754227513059102e-01
-1.603907808077380259e-01 -6.400423641539562114e-01 -3.993364145772721613e-02
-5.603084723494408843e-03 4.457153219470002536e-01 -7.797697203298384894e-01
1.237655204015030153e-01 3.613628297030377357e-01 -5.757241849183442062e-01
-2.869280884047450408e-01 -8.643731293916828706e-01 1.490939446061419378e-02
4.022647345313711820e-01 -2.191009781977946158e-01 1.942737555958906071e-01
2.207352929271555464e-01 -9.383029054125170410e-01 6.024492655075225356e-01
2.343946017507568536e-01 -7.220313007864379573e-01 4.372804963889022623e-01
3.666055220503582762e-02 -8.795383937778553651e-01 3.629129059144503566e-01
-4.732908626703925120e-02 -5.934055530326292072e-01 3.859473110483006841e-02
-2.270114442608526795e-01 -6.920021439351546899e-01 -6.590800548416098081e-02
4.744449449286031184e-01 6.300923315754237697e-01 -4.350382138690263578e-01
-3.109508353419477844e-01 -6.066259958741322400e-01 -2.237108596930874604e-01
1.515752977077269026e-01 2.513838942511150143e-01 -4.557046198596866882e-01
2.568312068436999773e-01 4.116299559781793627e-01 -4.794700527984691596e-01
5.908313322290278391e-01 3.120985913528454003e-01 -5.071949989974829098e-02
-5.852593408203076164e-01 -9.544421695238639591e-01 -2.196544816642354847e-01
1.633339643787470874e-01 4.016873765496829507e-01 -5.681441938622621146e-01
-7.637715352617119313e-02 -6.010115981647751182e-01 1.479056407935053392e-02
4.245395207277102845e-01 -1.041604800210641779e-01 1.220573313323260051e-01
5.844284973002076278e-01 1.497676753463433874e-01 7.724477196347032115e-02
-5.748873408226763404e-01 -8.957419147699002826e-01 -2.575759876070815024e-01
-4.164577909058032185e-02 -4.835013013795079195e-01 -4.664430675369087703e-02
-3.692805124002841999e-01 -3.590717938638351425e-01 -4.894415743657244411e-01
-1.559399074333581714e-01 1.528396090752136838e-01 -6.927609955282545418e-01
-4.225287489309166866e-01 -9.138366833033317871e-01 -8.463877211960164904e-02
5.314482774686613009e-01 2.753922600411801147e-01 -8.183926937704727456e-02
-2.512604840967259112e-01 -1.073223632253881288e-01 -5.758485196663248873e-01
-8.362711650831988752e-02 1.962825322547728513e-01 -6.538242296366786332e-01
7.128491353279448051e-01 4.634060540156227925e-01 -4.969802023766595189e-02
-1.130639286131334409e-01 -5.010539678300824917e-01 -1.061213535022572096e-01
-1.043173245235675811e-01 -9.402285702336490303e-01 2.670996497742082476e-01
2.260444909740503827e-01 -1.711420065036095561e-01 -2.816098286714948870e-02
6.679181445563633912e-02 -1.371973197344602269e-01 -2.213869578969704099e-01
5.303304158902371057e-01 2.598516330416547615e-01 -7.011207203167740820e-02
9.869412693172594994e-03 -5.274767678850962316e-01 4.321936640051559503e-02
5.688002861391382448e-01 -9.852374595281787953e-03 1.933983166077095361e-01
