-2.286498986882647966e-01 -6.659816050205833449e-01 -6.405592010285064697e-02
1.759740932699319360e-01 -7.838875482994738242e-01 -2.616090611533855581e-01
-2.748457547353007624e-01 -6.079894340312951284e-01 -3.182734960519412737e-01
1.614254609153717712e-01 -7.802628196031043961e-01 -2.506853829960524194e-01
-3.956379021669773066e-01 -6.218265544797384470e-01 4.547173974022448301e-02
-1.076137132250793021e-01 -7.361682864920523484e-01 9.386986951324415018e-02
-8.587161108263874354e-02 -6.620424186353384144e-01 -4.168364949223865024e-01
-6.235346759002886596e-01 -5.819494106146710921e-01 3.216384636176573553e-01
-4.013992045610660364e-01 -5.610355323702048702e-01 -3.191147334955173331e-01
-3.231202417180902842e-01 -6.474894241526631955e-01 3.823032011510794220e-02
-4.666551321305642541e-02 -6.895204515205514140e-01 -3.362011777377316157e-01
5.271118455819394366e-02 -7.182261946500713146e-01 -3.862886153361010377e-01
3.223171924166314262e-01 -8.588569416683241586e-01 -1.321468149626490174e-01
-2.353221138095103471e-01 7.404099520362960041e-01 6.203199555613243543e-01
-4.570391049947926110e-01 8.565296068951048225e-01 4.084080024693413358e-01
-3.713702893581360964e-01 8.278973079930971313e-01 3.893833200578015186e-01
1.923250990674661431e-01 6.290247814363435497e-01 3.292998666463728408e-01
3.762334509768488489e-01 5.884908880038564050e-01 1.583598515645700255e-01
3.998975343865707188e-01 6.350921281963850529e-01 -1.856923256089944296e-01
-1.942289216852527423e-01 8.101532292657465106e-01 9.235770771668455614e-02
-2.925138946067034063e-01 7.491713405744072629e-01 6.973693770236739642e-01
7.685266804656060158e-01 5.448809224248518657e-01 -4.726114609656210108e-01
3.481537513271855122e-01 5.693608051961041028e-01 3.418239167001274614e-01
3.393631549717837648e-01 6.722935890181129803e-01 -2.777203457591916336e-01
4.634681826214467337e-01 6.193200246280892163e-01 -2.338353869460183532e-01
2.424360531744411407e-01 6.112155771829419493e-01 3.247665342991961634e-01
2.177359308514142666e-01 6.750016195152779286e-01 -1.488785895307368455e-02
5.074353455437836669e-01 5.805151401579666803e-01 -9.374778102800299107e-02
9.347806714720846566e-01 4.277834508465048202e-01 -1.270931911592693697e-01
2.361211967610270333e-03 7.229970546809233456e-01 1.820287447382238355e-01
8.895805412492867326e-02 7.143196852133190111e-01 3.684456383836487436e-02
4.517644807110222094e-01 5.635519466162997038e-01 1.396902153016472692e-01
3.785769158753382602e-01 5.817964901148883206e-01 1.945790162453094607e-01
5.978601484780344810e-01 5.866051115053321219e-01 -3.395170681494429910e-01
1.536924067207960654e-01 7.112138006955646130e-01 -9.269846555926367082e-02
-1.183590093770821028e-01 7.913839140122329585e-01 3.456285623822201447e-02
2.779739640777547649e-01 6.901764650234026854e-01 -2.477122797685696598e-01
4.335855895512067959e-01 5.908351030167087181e-01 1.191718327680987843e-02
4.287834688033081987e-01 5.606407211343543695e-01 2.106257333088032146e-01
6.238702906492568090e-01 4.978066501795526122e-01 1.525845252510118488e-01
-3.759088948089733123e-02 7.012107394407046668e-01 4.093008790059791124e-01
3.380163886525230921e-02 6.886720251606143206e-01 3.230761232903183733e-01
4.148240012590860837e-01 5.892752328837548292e-01 6.475170233955844512e-02
7.438868162766651970e-01 5.332176534950890945e-01 -3.434651859393228479e-01
3.844844603506817338e-01 5.616901328533663307e-01 3.059623054619171612e-01
1.142614727175210454e-02 6.855276903088122209e-01 3.940681795121168673e-01
2.650975069274508211e-01 6.835227073130162312e-01 -1.767497628186031899e-01
4.646470917240816956e-01 6.389625417979875044e-01 -3.586300202474231869e-01
5.025237507218361932e-01 5.914719953532554531e-01 -1.505543147508110746e-01
4.471337904539069985e-01 5.842651655809114608e-01 2.159916963175738044e-02
5.478456410289436196e-01 5.361635279161435230e-01 8.899282384344892050e-02
8.885315460137711563e-01 4.238229816995833787e-01 3.865238464223142573e-03
2.547198437605910915e-01 6.236436754589975706e-01 2.192775743338530869e-01
-4.338512614977596549e-01 8.634443564456806275e-01 3.121138496702944298e-01
2.349417706474738465e-01 6.774604204188729994e-01 -6.973228010226732720e-02
-1.849298349131563157e-01 7.685350468232219345e-01 3.296448465689807428e-01
-1.064377192444442566e-01 7.446132890493688539e-01 2.978445450257373728e-01
2.742333443592398501e-02 6.778000874122078745e-01 4.053143115183991951e-01
4.810855034604397118e-01 5.274715590139527066e-01 2.965209044424438889e-01
-3.956941216572313902e-01 8.173286609689641713e-01 5.109995361055591490e-01
2.277519352651722895e-01 6.798431337320264278e-01 -6.800957528150300413e-02
5.863374190756672766e-01 5.078074266001970649e-01 1.767280614734949296e-01
4.440057304368075775e-01 6.317015727054569041e-01 -2.660392695414190989e-01
2.867798670332213917e-01 6.856872349762482832e-01 -2.400582823011227773e-01
2.211752390483444908e-01 6.208222301688611777e-01 3.139444900435872654e-01
7.895023391170438720e-02 6.689880987915003407e-01 3.416049345829610395e-01
7.165749567954948773e-01 4.989737433049349358e-01 -6.782986008050603810e-02
5.073755120522600581e-01 5.985759268441448455e-01 -2.058631993326201504e-01
4.598737609437876239e-01 5.963303525098314628e-01 -8.268310938655321074e-02
7.477595420865037479e-01 5.526254731822156652e-01 -4.729951368066557249e-01
-9.215667651454097567e-03 7.271172631535507414e-01 1.830397706622506060e-01
1.372145276474259941e-02 6.929237673666104325e-01 3.428217152393333023e-01
-3.392745884433313597e-01 8.535543993656109496e-01 1.561178183896461402e-01
1.294168989259114888e-01 6.807990340102318960e-01 1.521559911775330620e-01
-3.347881543386552194e-01 7.845779186357135782e-01 5.745106466170422088e-01
-4.337055706844956116e-01 8.544394902049652352e-01 3.677466953057242360e-01
-6.451290934971148916e-02 7.369303309709936967e-01 2.491964918496043235e-01
-1.261691394586049175e-01 7.754596356592550199e-01 1.514950677220267550e-01
4.179256869986688883e-01 5.530058685841089394e-01 2.830443944189210415e-01
1.097447521855909602e-01 7.289445069967760427e-01 -1.018488347245269099e-01
4.951015937572734171e-01 5.870945719830988896e-01 -1.062812225169753183e-01
-4.831027111549319152e-03 7.322653471474814824e-01 1.409611168278249171e-01
4.410149010558555016e-01 5.807407516115603574e-01 5.757389294393756851e-02
6.809348023866667043e-01 5.013225330441496430e-01 -4.790414983648942030e-04
1.462688749782595048e-02 6.676528898513202082e-01 4.978055928004088138e-01
4.136067671125536749e-01 6.327659537952339264e-01 -2.027568187479383555e-01
-1.787410797391970896e-01 7.836900208053140249e-01 2.212221935389955818e-01
1.565233844147123909e-01 6.607304828694157139e-01 2.145604986344699372e-01
-2.514232262253302541e-01 7.559294014566744213e-01 5.608842115105772130e-01
2.372941700923380526e-01 6.031872517456494665e-01 3.864878855115749245e-01
6.195876642940005841e-01 5.015583573962608677e-01 1.391138443269472613e-01
-2.736332175478517481e-01 8.205575222475272046e-01 2.102703726930795214e-01
1.356510694841615294e-01 6.615286195097691557e-01 2.575926271127149669e-01
-1.162743430958957519e-02 6.689194822165203114e-01 5.503012566776227521e-01
-4.007712927015982113e-02 7.603048687633615632e-01 4.773056527134397070e-02
3.679274765598193886e-01 5.919043888476598347e-01 1.562423100725219560e-01
2.636247536073647590e-01 5.851072963218565404e-01 4.383167682042388158e-01
-2.611799048015226443e-01 7.409964640737692898e-01 6.761307512352021654e-01
7.197297949628443936e-01 5.692157877315973113e-01 -5.116584984640782929e-01
-8.725012602114126659e-03 7.622351073646594921e-01 -3.635594438078811746e-02
3.228699926071802728e-02 7.455378453821900342e-01 -2.687865675784535321e-02
6.129755812195915032e-01 5.899534722328164671e-01 -3.950837805682587689e-01
-1.865544636570516113e-01 7.343303296894500010e-01 5.459726170827310376e-01
5.232595786804472571e-01 5.791343595381519549e-01 -1.215512973613674386e-01
8.270861955108139291e-03 7.608243624973962671e-01 -6.666723912698716004e-02
5.926036279429034437e-01 6.005458294939431951e-01 -4.140760641566557099e-01
-2.709684605221132636e-01 7.798443720949304048e-01 4.571871275382665689e-01
4.697293676077116675e-01 5.959730284860098593e-01 -1.031237364084349878e-01
3.518299506741517368e-01 6.302345834186846574e-01 -4.497703852646482703e-02
3.850388991772512592e-01 6.465248160998832150e-01 -2.225845597298376499e-01
4.609216786836222712e-01 5.581473597490878014e-01 1.522256687771452455e-01
-3.242669291359238648e-01 7.696025680058894425e-01 6.433947789493913438e-01
4.791179211550369854e-01 6.321106517718745321e-01 -3.493170640634047364e-01
6.004064101520727448e-01 5.188785030040409252e-01 7.556858119872182644e-02
-1.193692420950656363e-01 7.512927340502644213e-01 2.860639782965965772e-01
1.199242698096292803e-01 6.343002453847393918e-01 4.629862549889602330e-01
-2.185244385035822468e-01 7.714990010877383897e-01 3.884688009820987942e-01
-8.822410390959531390e-02 6.804338633849863482e-01 6.548586853138257391e-01
9.189102143971518144e-01 4.241689949920399716e-01 -6.813655486452570298e-02
8.216870813871326451e-01 4.919672134921957429e-01 -2.659719240004814744e-01
7.376968514842523472e-01 4.683689708341304270e-01 7.382097545120044901e-02
6.785224504994324946e-01 5.531349866727557352e-01 -3.169615355773089393e-01
2.499665467013715281e-01 6.331115550276219528e-01 1.713614713129906209e-01
1.411664755697973339e-01 6.540151994166474303e-01 2.916088448500873676e-01
1.689682555056118765e-02 6.631590660830788408e-01 5.205166188809263739e-01
7.215399854900665655e-02 6.823389686230445506e-01 2.742523597351842479e-01
8.705907084595071455e-01 4.299995230752536868e-01 6.728535440825097677e-03
-3.496382518760616787e-01 8.195595813170633015e-01 3.912351135574249072e-01
7.135271635282051106e-01 5.281814920649616774e-01 -2.423564933002624322e-01
-2.664780194909545721e-02 7.505026450699221474e-01 7.777547472998101730e-02
-1.867662788994154666e-01 7.887494529365081108e-01 2.082291136821791677e-01
8.323306602954457789e-01 4.517468659545932352e-01 -4.046419141565367472e-02
2.775819426956674385e-01 6.909415364223803202e-01 -2.515660243474209801e-01
3.675616230043259880e-01 6.589162064028430965e-01 -2.594142310053344502e-01
5.426307415737507966e-01 6.227750642399008107e-01 -4.373319618829019650e-01
3.920925778934646333e-01 5.676920863499660408e-01 2.511647014731874239e-01
-1.786433861638772602e-01 7.018362583215786987e-01 7.297422954592071020e-01
-6.878482609541224091e-02 6.739191761780758405e-01 6.506516220899792868e-01
2.104774540579148201e-01 6.201327279707558038e-01 3.428279074148292693e-01
4.424563129824160557e-01 5.971003370660057374e-01 -4.741995934381888766e-02
4.294984650103957080e-02 6.721783013592436129e-01 4.045544319476733208e-01
2.613752781483055232e-01 6.959714562309179398e-01 -2.455636161445659271e-01
-2.374526118371174666e-01 7.603608368974358322e-01 5.012182166829910468e-01
4.409905264586860829e-01 5.660378038805494727e-01 1.490129979685910211e-01
8.072325385170711076e-01 5.187103375974664310e-01 -3.989520835043836033e-01
-4.076993904547311365e-01 8.582927488163631935e-01 2.840002460444928656e-01
4.033712867347805653e-01 5.669719727445692303e-01 2.297067049116047754e-01
-3.335888038359661328e-02 7.418482040196308080e-01 1.469964458706671251e-01
7.350354993640505485e-01 5.416144110716567539e-01 -3.753011709851394317e-01
2.071770672245472900e-01 7.036131976753637884e-01 -1.684385330065439335e-01
-2.787804653311267700e-01 7.541785421103256448e-01 6.346702017324976630e-01
5.735581516908575539e-01 5.933633524121608716e-01 -3.256426637497056853e-01
4.053994304593709908e-01 5.554433133092385733e-01 2.966972329575479073e-01
9.100447836584030226e-01 4.310881501818295547e-01 -9.075636241738210819e-02
-3.169365741739638143e-01 8.407937853668592254e-01 1.840657784769568761e-01
-1.394320762021688809e-01 7.309998023749278984e-01 4.583218967630053320e-01
7.410831954453241943e-01 4.845788346100681765e-01 -3.471439481908244334e-02
2.709165957496445509e-02 6.610532065194540952e-01 5.101636416087927950e-01
2.672390479129598331e-02 7.348675550666221579e-01 5.223178071540606621e-02
7.294815796023150778e-01 4.941491741527327952e-01 -6.752062760469372538e-02
6.619297671165492725e-01 5.726066154355290427e-01 -3.998309195395150506e-01
-4.706176214437367000e-01 8.731617188386751049e-01 3.362564065249128431e-01
-2.168704283244212994e-01 7.412281362629860038e-01 5.728078035707225846e-01
8.404672007067064410e-01 4.978372196446396725e-01 -3.456377904497334730e-01
1.722881748258773826e-01 6.837700265019486245e-01 3.511430594620602169e-02
5.207533673800643914e-01 5.755218333692284638e-01 -9.333574625309119799e-02
4.059899961195083673e-01 6.037093749817314947e-01 -4.648174034951498869e-03
4.716751269647685429e-01 6.295972875379117761e-01 -3.165821845773891807e-01
1.469911394573860663e-01 6.944320835543272841e-01 2.701331039967088885e-02
-1.203286532239480899e-02 7.688128756209560155e-01 -6.963275618379122234e-02
3.280367405127495584e-01 6.717362810166932485e-01 -2.482131136488636147e-01
4.619671418541987928e-01 6.334222086728157342e-01 -3.180331071346285676e-01
6.692903779571784950e-01 5.739320961966448698e-01 -4.249937923881297874e-01
-2.896510995483465578e-01 8.212800196399825392e-01 2.426105757843532440e-01
-3.121123208038669716e-01 8.232336553775226884e-01 2.821143975398743842e-01
8.090209578099353260e-01 4.970246784262581929e-01 -2.682816630481759668e-01
-4.727827795425752766e-02 7.432142818459541722e-01 1.705114587769814838e-01
7.417254116591862623e-01 4.877588384587961401e-01 -5.595571607232156103e-02
-2.129743436040405502e-01 7.244282596403994745e-01 6.682654142600881197e-01
9.927103336016254720e-02 6.914327705084714060e-01 1.553801785119418299e-01
-2.329695161886439700e-02 7.208048332252344759e-01 2.546511567598203074e-01
2.024500944220750387e-01 6.929984002128176668e-01 -9.159553678969221957e-02
1.919291273073941984e-01 6.740749846032708659e-01 5.021034324055485831e-02
1.303703794369169833e-01 6.595124556420686179e-01 2.822658266879837230e-01
5.860478994368619743e-01 5.348144986298832837e-01 9.537029453198606066e-03
-3.621251431190879999e-01 8.552986011021198598e-01 1.978185470269672730e-01
4.784236766173994293e-01 5.473748469738647371e-01 1.789367054613739683e-01
4.719831599750519691e-01 6.053109490763662892e-01 -1.663438648580554124e-01
-2.460744427767359299e-01 7.512980567267322218e-01 5.773706238359398446e-01
-2.174821324535051170e-01 7.894831343605812624e-01 2.742956001055292803e-01
1.032228104517830952e-01 7.011365702717340387e-01 8.598174267140305804e-02
-1.045388730941407274e-01 7.081560320161135458e-01 5.200707950071271624e-01
4.743674561602314599e-01 5.387405396541943281e-01 2.419280893662592857e-01
-3.082590907480843301e-01 7.588402237422540164e-01 6.734782126203331387e-01
5.937053111140433437e-02 6.917510142135402385e-01 2.451474611249153113e-01
4.990901969494639934e-01 5.277645408587074982e-01 2.533008281655303451e-01
1.796404994069538130e-01 6.129201207561029152e-01 4.585613227107521728e-01
7.084178646056997763e-01 5.396657218994965755e-01 -3.019862213399134299e-01
-1.134937097271155604e-01 7.351395547176717837e-01 3.729507339836318214e-01
-3.814706482061797771e-02 7.129366884719182673e-01 3.376995672894895772e-01
-5.150544275566032448e-02 6.976100000450690120e-01 4.636749542323809758e-01
5.596524415492348803e-01 5.561941828434728841e-01 -6.265145008651945568e-02
2.797614151308142061e-01 6.771640909809264475e-01 -1.709466007273396371e-01
8.855840051981082039e-01 4.432331980787033165e-01 -1.099974217775908369e-01
2.364599263281996766e-01 6.827400943054323657e-01 -1.060377482856023484e-01
-4.001431270062802970e-01 8.527361708286302910e-01 3.011614785246946036e-01
-3.625108417770692149e-01 8.082016764835263656e-01 4.914263690039625820e-01
-8.227937055638412378e-02 7.541638173908432607e-01 1.829367350359108468e-01
1.639505831717497364e-01 6.741584370454671848e-01 1.140241551618017823e-01
3.017647308279493013e-01 5.834498057863360954e-01 3.609213557222354374e-01
1.236706090225786758e-01 6.337555791906434033e-01 4.577573636771267718e-01
6.542493765239111303e-01 5.389261515867124208e-01 -1.728372123946400329e-01
4.826399897426268404e-01 5.360944599619922313e-01 2.393527793558044015e-01
-3.466874169385018023e-01 8.517022932859501516e-01 1.846738861437110801e-01
6.956025366172068347e-01 4.922970514365143657e-01 2.189065980597433916e-02
6.335643169565711164e-01 5.921580400268927624e-01 -4.561265347428369310e-01
-6.155882954500108833e-02 7.276034335347805193e-01 3.003733822293772060e-01
6.120678985877914258e-01 5.258195066587459943e-01 5.614387392665164470e-03
7.006834213488887242e-01 5.641239928433990913e-01 -4.362172273212930329e-01
6.013165065028941436e-01 5.673025334568271294e-01 -2.274933605156633232e-01
3.315197968418189256e-01 6.623128778776942172e-01 -1.976527151922646552e-01
6.591180305019510577e-01 4.828783816377429372e-01 1.643210931101493910e-01
1.502328748931509583e-01 6.586949613816032167e-01 2.416759407989689523e-01
2.222065274475660407e-02 6.722765958632973549e-01 4.516071952675314027e-01
5.114188066003628741e-01 5.915287627358126743e-01 -1.713599958624102138e-01
2.375290714876502896e-01 6.397767520704790156e-01 1.585334708323431763e-01
4.884058533337299335e-01 5.585453031587589434e-01 8.655657180315258492e-02
-2.004292969493861043e-01 7.503686485400821171e-01 4.781929528366594129e-01
7.801818379670126813e-01 5.000476818722355832e-01 -2.207592425435875305e-01
-1.888547283011846045e-02 6.759090462985275494e-01 5.235478786853844380e-01
-1.653944912566546743e-01 8.094946870188642896e-01 3.015026175274237649e-02
4.737532887808300064e-01 5.889171235356298606e-01 -6.852165989597752693e-02
6.191354420578526474e-01 5.927652589790178839e-01 -4.267235279466516928e-01
2.928297610176460730e-01 5.991781749936412327e-01 2.837096379291489390e-01
6.622426046784751774e-01 5.770453825566956851e-01 -4.281384603283914791e-01
7.021370839775589179e-01 5.130974465551517705e-01 -1.224150108664771031e-01
8.788124635531092688e-01 4.222636017531795072e-01 3.590481622032902498e-02
5.042419317000271795e-01 6.069013417041643210e-01 -2.504028519959630716e-01
3.510221813513612066e-01 5.704284332747312503e-01 3.285927729846721546e-01
-1.729204015142136730e-01 7.490339101214434914e-01 4.232361312273439369e-01
1.652130480992480832e-01 6.152954261012998360e-01 4.769718894677101306e-01
5.172017236955936959e-01 6.294352334827096884e-01 -4.202565967641117561e-01
-3.126689475117979677e-01 7.913445414478686990e-01 4.815943149809600032e-01
-2.613352761370775212e-01 7.669371702394449652e-01 5.152590364793586675e-01
7.355391197893157429e-01 5.236670736549341454e-01 -2.649112945211742343e-01
7.216515018837739159e-01 5.108303951197936676e-01 -1.531951285241403005e-01
-1.205654587789701804e-01 7.410830561643421133e-01 3.522705919959779886e-01
-1.769373613191723704e-01 7.570235607557452839e-01 3.828145494450417297e-01
4.132584509131692618e-01 5.713624263337366838e-01 1.796847093540404061e-01
8.541886569889770575e-01 4.815796224148727878e-01 -2.761425802768840976e-01
3.925732612744139982e-01 6.281651627322580866e-01 -1.257981635146697141e-01
-3.421079211498012640e-01 8.060998487321271444e-01 4.575763589101193851e-01
-3.403550486327420587e-03 6.844797397030383257e-01 4.346801747605502642e-01
-1.848754189784653501e-01 7.440148582136291155e-01 4.819197670532125999e-01
2.095815321879684057e-01 6.763433414867645599e-01 -4.477223280536451501e-03
-3.450911024432735119e-01 8.129902332042044932e-01 4.216100136294052003e-01
8.069664189155293377e-01 5.124653860944006212e-01 -3.595260070148266207e-01
-2.816613195631888500e-01 7.638406439950736759e-01 5.812415477673321673e-01
-2.646979036891681722e-02 -6.032887932923162166e-01 1.668311029644024279e-01
6.569384233694126607e-01 -5.160354227707772412e-02 -1.168442291628050619e-02
-6.590022874748779902e-02 -2.580812287199792388e-01 3.155750324587039968e-01
6.147841887415846918e-01 -5.559667987368044351e-01 -1.733745748341534720e-01
7.035300033699599664e-01 -1.026378909328034827e-01 -5.640448184428654976e-02
4.065543781588336625e-01 2.094599856201384280e-01 2.237965926300815589e-01
-4.085761410255713266e-01 -5.877342276869749194e-01 3.856161320541569570e-01
6.842676800973228335e-02 5.361292915617962840e-02 3.551210347403345735e-01
-1.672651836690962346e-01 1.112617285895384361e-01 5.077176893745147801e-01
2.265851947464175009e-01 3.642784799884800084e-01 3.810002485242511838e-01
2.139167827125629529e-01 1.341716223238366146e-01 3.035718450527927770e-01
2.612631610236518243e-02 4.432402621509016760e-01 5.217758114217260212e-01
2.782882561370102481e-01 -4.806144137606115918e-01 4.193385808924301322e-02
1.788892921638042879e-02 -1.718552001769777238e-01 3.005130096209918666e-01
2.142945879096538053e-01 -5.469606301853505714e-01 5.325698836568854011e-02
-1.367547119180832216e-01 3.528956148366094725e-01 5.794294402876090100e-01
4.915865611205175734e-01 4.734049936973397377e-01 2.732978541886047497e-01
2.611475948001767411e-01 2.422032145346225684e-01 3.169025747566297513e-01
7.148958024317985105e-01 -3.953522519493551379e-01 -1.702238357372294342e-01
-4.154349916176263702e-01 1.023240190584656789e-01 6.428225330543803073e-01
4.867491855607001816e-01 -6.646792822532045231e-02 7.775998716782825393e-02
5.826116291048962781e-01 -2.093644832385691823e-01 -2.816571167657293956e-02
-2.653701918720165476e-01 1.012251486296155134e-01 5.587385623174907501e-01
6.495366685939297779e-01 -5.445501843819692267e-01 -1.885615102082970618e-01
7.128658559176449458e-04 -4.954102310577851997e-01 1.912850740054593546e-01
6.915804742602532640e-01 -9.254542799412697474e-02 -4.603523833780298613e-02
-1.423297668325372578e-01 -3.050588696393382593e-01 3.409446892094884496e-01
1.180147717301127802e-01 -4.449587682075655803e-01 1.443993501857162021e-01
-2.733352192741730358e-01 -1.409437233528114952e-01 4.742583779825210732e-01
-3.215429801760982809e-01 1.009161645215453720e-02 5.565989170388767615e-01
5.349082607612425377e-01 -8.293915465318771885e-01 -2.292319683865769175e-01
3.660694187843923642e-01 4.058899531525637094e-01 3.184990759491099777e-01
-3.353229396855909039e-01 -1.588180501291218960e-01 5.022612720184195245e-01
1.296796081036764303e-01 -2.436066498281611870e-01 2.118289563037120959e-01
1.321810470283662220e-01 -3.392386435099735698e-01 1.753190779068204141e-01
-1.284908246992958747e-01 -4.991298083265524044e-01 2.619670058237736354e-01
-2.957649659911848819e-02 -6.084505334834917623e-01 1.666681587750247495e-01
4.897336722693489963e-01 4.153584244482338428e-01 2.530170245428361442e-01
3.779292362659326665e-01 2.088437744722617118e-01 2.395325347698240570e-01
-6.786833205207325193e-02 2.017235267829173284e-01 4.855076920737531054e-01
-3.972796488293218742e-01 -1.145285035855459210e-01 5.530727556223989927e-01
-3.361292447519583781e-01 -6.085952554635201128e-01 3.375577076563657797e-01
-6.877626879384790559e-02 1.212780553573166147e-03 4.123886697231572973e-01
2.463091804770842774e-01 -7.383569373091201093e-01 -3.487386907299368927e-02
-1.751803196120382822e-01 1.624869584286060820e-01 5.309407325926654986e-01
-3.500829732290620111e-01 -2.619208137969054051e-01 4.726337069250386436e-01
7.497639933920918764e-01 1.851466904610299669e-01 2.348540154015212045e-02
7.951565183904322209e-01 -1.327647817999058344e-01 -1.185603388275789649e-01
8.125051821484866599e-01 2.796998142884515315e-01 2.321795251721263734e-02
2.253032757492592908e-01 -5.256216537511881892e-01 5.495365987563635007e-02
3.160290081737099355e-01 -4.711544467007997561e-01 2.436211650639313192e-02
-3.461084649305017913e-01 3.996569497598600335e-02 5.812667717890790398e-01
2.171999007383590974e-01 5.326788131702526741e-01 4.480684881445834433e-01
-2.341759688283098773e-02 4.049337510021187025e-01 5.353372074280563497e-01
-5.169193876385651532e-01 -3.365631148183463872e-01 5.382587005560478532e-01
-5.733450930925239053e-01 -4.285454692487012385e-01 5.359484111207120094e-01
-5.567390667873351601e-02 -6.155411619253376987e-01 1.786172304955984669e-01
-2.066512102614755653e-01 -2.684655355382674635e-01 3.902488535824032434e-01
3.969288756609519742e-01 5.088236646109528527e-01 3.390870623132698491e-01
9.296666601323673174e-01 2.759263660270241392e-01 -4.350024843766765043e-02
-5.873409359652155270e-01 -4.446451888487624182e-01 5.378412605482272291e-01
3.548338411611918208e-01 4.786105874840514973e-01 3.514665668662074749e-01
8.666714981624874525e-01 1.529468257530985087e-01 -5.352904030679337538e-02
4.202247740187511904e-01 -8.021661873324131831e-01 -1.552842864450608151e-01
1.324567043285870271e-01 -8.004042180245796168e-01 5.830497597678065483e-03
5.748810997178498416e-01 -1.271965699887335488e-01 6.316198511750562364e-03
3.024519292016264460e-01 -1.532892465500042267e-01 1.486496522899948824e-01
-5.269501102485076860e-01 -2.401516491427126698e-01 5.792533390003881122e-01
-4.358219992319448816e-04 2.514156421361172233e-01 4.661517634774128838e-01
1.033795506080377041e-01 -5.190438201800092743e-01 1.253571668159418617e-01
-1.333714412451271758e-01 5.952420694090153619e-01 6.665297511985688317e-01
1.555858081922188996e-01 1.761927720733547920e-01 3.515285839871156726e-01
3.829359483013844989e-01 -1.042496123420746101e-01 1.217762405041958318e-01
2.968816874639791381e-01 -4.848117563146722153e-01 3.002440490750544685e-02
2.253803808928265748e-02 -4.821245238381315357e-01 1.839930897896178696e-01
1.128287505179889072e-01 -6.781497695183636987e-01 6.166608570750094914e-02
-1.642996666556681973e-01 4.561116079848716032e-01 6.326890684719230773e-01
-1.972980556026744936e-01 -5.821795892933921968e-01 2.698409550584397465e-01
-3.294067555094485344e-01 -6.729615971296740717e-01 3.101744487819896867e-01
-1.723274996968936490e-01 -1.300963276408571628e-03 4.692088158410177012e-01
5.930716293656017601e-01 -6.248420529360062536e-01 -1.865572497028292476e-01
-5.887384145196582486e-01 -4.930460770325072462e-01 5.208482676567203207e-01
-4.284687601628946879e-02 -1.421471363479318017e-01 3.452895237015010110e-01
-1.842045356275217871e-01 -3.579940143909194350e-01 3.448580769104217514e-01
-6.123781950162040522e-01 -2.908170814531174098e-01 6.082867300005689870e-01
4.477902591510022901e-01 4.922222179328851754e-01 3.046294156595048541e-01
3.896029891926504618e-01 -1.415103126702527137e-01 1.043767910277037803e-01
5.490710999482251164e-01 -5.936508206712176605e-01 -1.505682070775794801e-01
6.904177797528563421e-01 3.795991868131167735e-01 1.279793609937605048e-01
-3.725374255820095848e-01 -2.528974808846327083e-01 4.884682271763531869e-01
4.725910238553510667e-01 4.311228585134275759e-01 2.683647864139675487e-01
6.974035507276605816e-01 -1.943418625847151415e-02 -2.243672021601404373e-02
-5.831353315318814623e-01 -4.769541230222335004e-01 5.236326127310519940e-01
-8.974658547685880616e-02 5.496492480892761767e-01 6.254620918787417994e-01
6.758610385593653014e-01 6.905298184426000851e-02 2.206751156665029412e-02
3.475096878297906366e-01 -4.715717822742992449e-01 6.654336970554531987e-03
-2.106979431021153426e-01 -3.281738701486341947e-01 3.705811931281793870e-01
6.271847369861263677e-02 3.803197320193817954e-01 4.782672464433349591e-01
2.978185782393634740e-01 4.335101804296057626e-01 3.666995609891870456e-01
-3.289506788700677364e-02 -3.199676269785883820e-02 3.801860984569495616e-01
1.241269047510112356e-01 -3.532786053827633999e-01 1.746549831399441255e-01
5.570402883975552610e-01 -6.797754672861087144e-01 -1.866360689198641176e-01
-2.016676931074457835e-01 -2.577766900114125126e-01 3.913947252121774412e-01
6.109442103235499522e-01 -5.134466572779762261e-01 -1.556203690143013463e-01
-1.047488252994870778e-02 -1.607745930192344130e-01 3.203981679904863711e-01
3.590422020981700602e-01 2.343326719685001613e-01 2.594237313799713784e-01
2.537135253435707227e-01 -8.400190950600585627e-01 -7.633195892148164630e-02
5.722658851477230302e-01 4.328024556507186205e-01 2.133999268577636554e-01
4.133032679275071009e-01 -8.475392126851885033e-01 -1.680851240944655489e-01
6.279393200257845642e-01 -1.602520755126375651e-01 -3.540821522643321922e-02
2.082171394545324905e-01 -7.950537326089943679e-01 -3.445107612509131639e-02
-3.741961585606790042e-01 -1.896269897101701685e-01 5.126254048245754147e-01
-2.883593666768255459e-01 -1.247314018410022041e-01 4.885892616295923752e-01
4.439155967620388443e-01 -4.952303751449247393e-01 -5.579156142736173968e-02
2.317202365616390092e-01 1.138503904097119962e-01 2.861823934869111019e-01
2.745206667727048133e-01 -6.818607833138102814e-01 -2.986065184884598156e-02
-2.489843161853292908e-01 -2.816334069434556775e-01 4.090199234693247532e-01
8.229269688578025321e-02 -6.835461785886015607e-01 7.671237209749910690e-02
-2.500282469274945352e-01 6.752703499983150337e-01 7.609664579172972232e-01
-3.350811923739321907e-01 1.756275176703381846e-01 6.249311565637986066e-01
4.567149420799316434e-02 -3.633057063511275220e-01 2.147221520168849374e-01
-2.621232288554300460e-01 9.184781678296349838e-02 5.534847098407080779e-01
3.149992047168834186e-01 -3.827726854349258745e-01 5.738916371024222612e-02
-1.076552620588736991e-01 -6.429484740349443728e-01 1.975398795323746737e-01
-2.466731194734631816e-01 2.066843360751752234e-01 5.870359731232104306e-01
-5.052978858115096950e-01 -2.007254046251722712e-01 5.816563098143157085e-01
3.176582587238949151e-01 3.185099100554556473e-01 3.134095614202663804e-01
3.253593767950639370e-01 4.901970416323374047e-01 3.721567986819794283e-01
8.539543264799294153e-01 -2.253351647986592474e-02 -1.108720055569419743e-01
4.843446819513327339e-01 2.501511816031937174e-02 1.126923643599324482e-01
2.123549757927220005e-01 5.182868573793134731e-03 2.570795191883711861e-01
-2.643573651869563501e-01 -5.732481633698292833e-02 4.999559984830599380e-01
-7.320367301221226974e-02 -3.245660447795213899e-01 2.952351600383313346e-01
-3.615692845138153699e-01 -3.870476396228056393e-01 4.330936290245539499e-01
4.967030490682078359e-01 4.908473282848629382e-01 2.768493834647026697e-01
-4.135325103975269201e-01 -6.347380349044134951e-01 3.711206723170616950e-01
5.395152076436017241e-01 -5.339431568565765618e-01 -1.233155752614805145e-01
6.972995939378556773e-01 1.626240617213137452e-01 4.447101130304582928e-02
5.216474503174726163e-01 -2.070979573644331218e-01 6.661922820496186427e-03
-3.490187947685586822e-01 -1.375978081850394441e-01 5.176903140453622543e-01
2.683375391481709893e-01 -2.172773826078898407e-01 1.441770927093337651e-01
2.572105837252473548e-01 -7.727491357156281993e-01 -5.358123963672577900e-02
-2.360973636110555093e-02 2.948420426595584898e-01 4.950199000711662523e-01
5.987260805909643269e-01 -6.714584061583407371e-01 -2.068273414669344057e-01
-3.998006374490636894e-01 -8.717652464690596112e-03 5.933310986480601068e-01
3.584066614166177343e-04 5.107446851516023179e-01 5.609316166313870200e-01
4.234848421382845784e-01 4.202928113241777841e-01 2.917711425205561371e-01
9.237098108662685769e-01 2.146873904526274413e-01 -6.266480698676246686e-02
-3.465955105170160921e-01 -2.428129952644067779e-01 4.777051750104353012e-01
3.739371305497161263e-02 5.768796579670248947e-01 5.645636832415212858e-01
7.593520965308638015e-02 -1.605084898322898801e-01 2.723111085507543550e-01
3.307442402468145359e-01 -6.554539652947714012e-01 -5.151625482997396893e-02
-3.960363849651231116e-01 -1.114808123967905990e-01 5.534985539719236014e-01
5.275233106888390644e-01 -8.051306850437415230e-01 -2.162055880856270373e-01
4.009626547794807871e-01 -6.401105093891191755e-01 -8.503812985618072751e-02
-7.481527138561168411e-02 -3.458255978746685999e-01 2.883275626976640749e-01
-6.331900249596899011e-01 -3.487323291285980842e-01 5.986261747198013961e-01
5.077329524111058312e-01 1.463847011952103816e-01 1.442159474490973259e-01
1.978693618236889995e-01 4.561160315423836709e-01 4.307347551873803027e-01
-2.407229857555309369e-02 -3.035484831389789195e-01 2.755554976530441014e-01
4.009296783559389010e-01 -8.079354564504788172e-01 -1.466431937812113506e-01
5.541229770736046806e-02 -1.062465620839209424e-01 3.036796544213236637e-01
-3.633680590720061998e-01 2.469672106298117786e-01 6.668998737203871707e-01
2.354320867385342464e-01 -6.153872359268892644e-01 1.634461895776995188e-02
-6.891869358743022422e-01 -4.825695246765532298e-01 5.807081452525849619e-01
3.965106476902561794e-01 -6.040399457186895749e-01 -6.931085230172046030e-02
-2.138864688530861535e-01 -5.155290792754453344e-01 3.035644600401507520e-01
3.866604699196721229e-02 -1.483203530567382966e-01 2.975688210094841191e-01
3.779298352223763868e-01 -2.274304409739359711e-01 7.933716494698804522e-02
6.134103697767460117e-01 -2.036488648146578262e-01 -4.324126984486145742e-02
6.140726591210248220e-01 -2.404359216533244192e-01 -5.711837936256233123e-02
3.690138606504011348e-02 -1.175674191849171574e-01 3.098449820541502864e-01
2.927239836696074460e-01 1.904450025477648356e-01 2.802896266384323209e-01
8.851328544010689248e-02 3.949846279798767124e-01 4.692680990435329491e-01
6.023224796884716348e-01 -1.176361791130533657e-01 -5.475440461972217246e-03
6.503535676740416216e-01 -4.102467212805618324e-01 -1.397023000454224451e-01
-1.874027047375908528e-01 6.506467517421009594e-01 7.170031309526805341e-01
-1.220452794080657682e-01 3.906788072220756525e-01 5.851006024672220640e-01
-9.785911077085149290e-02 4.888841002575566308e-01 6.076735849774806963e-01
-5.186965128709792872e-01 -5.778663141513132873e-01 4.506458281501276586e-01
2.022250250394425630e-01 -3.688331868855085904e-01 1.253937405963732321e-01
8.161273583248959129e-01 2.946102117514736163e-01 2.667305417797405723e-02
4.560050244774240258e-01 -3.556156659755078109e-01 -1.126800921107454050e-02
5.472285907207808942e-01 -4.088179515891559590e-01 -8.167219839125407221e-02
8.715741556456086947e-01 4.742346369047329563e-02 -9.500990807418065176e-02
-1.198209367777804679e-01 2.309325358452375132e-01 5.252031918620271300e-01
1.627443695140363689e-01 -1.592612742142284488e-01 2.243617709821937589e-01
3.981655301651964574e-01 5.961240245891429035e-02 1.734520925740629105e-01
4.403510255206610213e-01 1.958093462084458530e-02 1.352291293959157759e-01
-1.277919524182579737e-02 -2.637152956952701355e-01 2.838844392748803291e-01
3.803229225723611662e-01 5.107980063291468475e-01 3.490719789149814845e-01
3.185066517976484213e-01 3.455065978927488457e-01 3.228493561544329427e-01
-1.854311663943573329e-01 -5.941722221719558661e-01 2.588200727024647096e-01
9.434011541778899446e-01 2.504360840020855017e-01 -6.051874785768968784e-02
-2.975462507294994730e-01 1.019273008265892816e-01 5.769386869259448547e-01
7.112947908637513583e-01 -3.913319758991668645e-02 -3.741613565788518697e-02
6.665548285353257718e-01 -1.170521062249131605e-01 -4.107879308415116060e-02
3.123813039653836401e-02 3.246005597651552277e-01 4.753621375887811529e-01
-2.377549917542071123e-01 -6.794144554303351846e-01 2.566973536203548401e-01
7.783219519055021296e-01 3.487184683993293510e-01 6.762239309657501474e-02
1.891140047789456324e-01 2.889265924253461293e-01 3.742268947131092705e-01
7.190446850703737791e-01 8.342953168701790212e-02 3.265968888036686456e-03
4.530920599742634391e-01 -8.529017204092197435e-01 -1.922415598462826336e-01
9.753695401630842199e-02 1.859829796803406377e-01 3.874931612497433120e-01
-2.795023471977444718e-01 -4.128531613915220055e-01 3.778552280173898548e-01
-2.080209111714632630e-01 4.015517728372781647e-01 6.370355362736593863e-01
6.153882637526326693e-01 2.328995948740923139e-01 1.159515344612275373e-01
-1.841910438700388453e-01 -6.982557611728277269e-01 2.199102274855776196e-01
-2.750938854727670857e-01 4.049501152855421171e-02 5.418613450690871192e-01
-9.246501617685913554e-02 3.329792217186138686e-02 4.373795080848571493e-01
2.790802071473380205e-02 -5.080988629294891368e-01 1.714611437807484484e-01
4.093127889108405526e-01 -6.259357924467822132e-01 -8.448960815649357581e-02
-3.341656117234463319e-01 -2.533395417958806406e-01 4.669086727946477056e-01
-6.228423924476367279e-02 -7.168496932722274728e-01 1.451039782842504233e-01
2.611054751960251719e-01 -6.309292362079759187e-01 -3.678455375582815462e-03
1.599374941129191527e-02 -5.830517984700098744e-01 1.505830028159310663e-01
8.396648402340887163e-01 2.149345028379939793e-01 -1.570816076468236483e-02
-1.838074964908521791e-01 1.331975466175264189e-01 5.249967502342147707e-01
6.969523271681192789e-01 -1.322690020604643801e-01 -6.361679331302438900e-02
-6.159685812336380961e-02 -2.776032749821948364e-01 3.060070702951608324e-01
-1.356500542198090659e-02 -5.271044923508474422e-01 1.876090485085581683e-01
8.908706064240385913e-01 3.647176314456093138e-01 1.073671886600473246e-02
2.899227643572210300e-01 -6.066015916037548195e-01 -1.081496995835225412e-02
5.001976417217696147e-01 -2.259567559163075390e-01 1.169821629843430244e-02
9.658622539808646087e-03 5.605389030503427072e-01 5.740294295148949955e-01
-3.255872317952321904e-01 1.468546942588268012e-01 6.090719887376887520e-01
8.860807575976661354e-01 3.452157715560010831e-01 6.246811390664517780e-03
7.515020122061123464e-01 -6.678816915906535256e-02 -6.999144429213424723e-02
5.883022310629228979e-01 -5.166610732586852661e-01 -1.441748435065417500e-01
-6.774843533226683305e-03 6.253944482509826708e-01 6.070074403622072179e-01
-1.684241019719989740e-01 6.188329235149159224e-01 6.947384288780276140e-01
-8.912208889467239381e-02 9.569871772599533588e-02 4.584282725877742437e-01
1.427347567695988473e-01 -6.621896195930456752e-01 5.085002004014750610e-02
-2.686043600965117295e-01 6.599028038471042024e-01 7.656822446331222887e-01
6.345318586058130705e-01 9.944741129141622393e-02 5.627435525134690669e-02
-1.992947269265598065e-01 -4.291265160185490646e-01 3.271537417081845645e-01
-2.772927928140839909e-02 1.232838307141525397e-01 4.343228106477824424e-01
1.690457547655982093e-02 -1.676494444651616400e-01 3.026062204540502232e-01
4.535162258746355812e-01 -1.359173148058132607e-01 7.079060608706443103e-02
-5.089576484132797562e-02 6.990997897701914376e-02 4.276428295613767250e-01
-5.088554519473686977e-01 -2.231254057260048385e-01 5.754150806335730506e-01
6.865987781111150268e-01 2.249625500649080068e-01 7.332809511232116217e-02
-3.527692647478922194e-01 -2.148629185804251385e-01 4.914107961936646229e-01
-2.631748088240740691e-01 1.909138462498542743e-01 5.904470446170035913e-01
4.652996858412442593e-01 1.736594217996269007e-01 1.778929394397786856e-01
4.805569970487859055e-01 -2.219886310874767399e-01 2.410745976861631071e-02
-5.149359746434297724e-01 -2.969777893405810554e-01 5.516879829352895337e-01
-2.832717633295876447e-01 5.949413515706613031e-01 7.500080911956720220e-01
7.207664025682358755e-01 4.619811273664649609e-01 1.413058217040775166e-01
-2.434627041896706423e-01 -2.713988954099083584e-01 4.096989114486200290e-01
-8.687277633451406800e-02 -7.513743515699959907e-01 1.461381883332399656e-01
-3.790449852055220448e-01 -5.945376989903445875e-01 3.666505455042610162e-01
4.628704716561880539e-01 -6.424714167806781784e-02 9.189089759506890998e-02
-2.701049412532907298e-02 -7.287747241871207482e-01 1.210555779712856189e-01
4.014230889284146619e-01 -7.633184814032653032e-01 -1.305354771896948263e-01
7.982750114399920216e-01 8.074509899974112448e-02 -4.190084916167451795e-02
5.344421980401312666e-01 -4.423378452796742355e-01 -8.685026743813221983e-02
-3.317996651688741305e-02 -4.537565569852347047e-01 2.254794642476540822e-01
-5.356617385791131447e-01 -1.817467055800760511e-01 6.055568404011156813e-01
-1.320818423641253736e-01 -7.330291172863367954e-01 1.780842384965874159e-01
-2.413568360819950409e-01 3.333553271744816304e-01 6.305836375423434781e-01
2.153611274348312399e-01 -2.582004914855932920e-02 2.440192756838273636e-01
7.592309806249170068e-01 4.034024139531824926e-01 9.834740762850091578e-02
-6.590721786945096250e-01 -5.851402819165895108e-01 5.262524442565355010e-01
8.559813154879887254e-01 2.671305171919097221e-01 -5.640904353541397950e-03
3.402691577559447400e-01 -1.493630619135117021e-01 1.290033218760254785e-01
9.849435260554881832e-01 3.470936411356224105e-01 -4.819239825142743183e-02
3.035182612272874780e-01 -8.281118011810288670e-02 1.739337961908150876e-01
-2.570012843558443505e-01 4.228105311739027705e-01 6.721543901141721067e-01
9.334203508983741626e-01 4.053034789394637794e-01 1.912420685692368515e-03
1.967517194210915421e-01 7.384434067362091736e-02 2.909920750602371653e-01
1.716193071071141774e-01 -7.639280563043707728e-01 -2.614063163951762126e-03
1.647416467835516041e-01 2.485552701242818019e-01 3.729937270952967676e-01
3.366095944806180018e-01 -8.290901218224761005e-01 -1.185442101593864594e-01
3.533518593401306362e-01 3.632361067944791522e-01 3.099287377451678260e-01
1.757093876956621337e-01 1.469066408966283321e-01 3.295535519500996657e-01
-7.391039524908130098e-02 -4.893649482964505804e-02 3.968373515841159271e-01
4.959159117400724348e-02 -3.177985465059584014e-01 2.292459149985471289e-01
7.178374915298856296e-01 -2.654381756785088586e-01 -1.241612040024306363e-01
5.809903917404651841e-01 -2.726179174355254364e-01 -5.048761975148845227e-02
-3.865826466112767118e-02 6.139579734805844513e-01 6.205872129890758204e-01
1.449259075400184393e-01 3.958923185098807140e-01 4.381440812863143797e-01
5.099323131477234705e-01 8.770041275041910722e-02 1.214413027023432956e-01
-8.304857591102480022e-03 -6.833096803221885285e-01 1.273190314274415258e-01
3.628096944345000994e-03 4.647778000249752073e-01 5.422298140796616428e-01
-2.314936299536287934e-01 1.681334981226561276e-01 5.644160116220808820e-01
4.679031263133400231e-01 4.323562429951733482e-03 1.142629429293907789e-01
-2.044662499299139680e-01 -1.010719759549018847e-02 4.838967623874577684e-01
-1.427196332397024370e-01 4.915381606102889878e-01 6.336636527466196211e-01
-5.671949107778335303e-02 6.035145528829913841e-01 6.268239680360626620e-01
5.745670188703260184e-01 -6.866315438409784644e-01 -1.989269563482106706e-01
-3.451718864138940690e-01 -6.441498379057696289e-01 3.295448995721930729e-01
1.727583898526756923e-01 3.596643988208094167e-01 4.093213943430788482e-01
3.168221789183428005e-01 -6.767462060374326294e-01 -5.157118409460677982e-02
-2.570926254215452067e-01 4.141735902958256776e-01 6.690339359830588251e-01
5.456584738540222190e-01 -4.392766643741132238e-01 -9.198075606521860514e-02
-3.868797789735022863e-01 -4.995904546936502655e-01 4.058830246466926805e-01
-4.364016752817773681e-01 -1.775296800162036448e-01 5.517549996928127198e-01
4.807908494212451145e-01 -4.703678530711886685e-01 -6.722502873692601244e-02
1.478930827509430381e-03 5.762405061569803033e-01 5.843561163612642773e-01
-1.367933735180225929e-01 4.533913965327008300e-01 6.163519315548230404e-01
-3.358192873911421961e-01 -3.526425047050128492e-01 4.313678675742111390e-01
3.000634429547897053e-01 -1.645518530436297297e-02 2.002254856000991179e-01
-5.750544814112210634e-01 -1.694843465704891083e-01 6.320259762336319920e-01
-9.503738137565695410e-02 -6.555692651235860424e-01 1.858695698807923402e-01
9.121290928821072785e-02 1.121190691716756893e-01 3.638976259409560932e-01
5.394025972124164570e-01 -6.658558864405307309e-01 -1.716896664321859722e-01
-3.674877123060619200e-01 -5.014287217539360464e-01 3.943944555360175408e-01
4.141769403490848100e-01 -3.872960725694567508e-01 4.238490369711319533e-04
8.417623181184309411e-01 1.347590674981422876e-01 -4.631730260883763772e-02
6.061004558141186438e-01 -6.369737586421115871e-01 -1.982771279042987167e-01
1.878879972371410856e-01 -2.579632750408575315e-01 1.740986800122175659e-01
7.520735309528717161e-02 -7.270234320822840379e-01 6.469900141861108234e-02
-2.345718199003922200e-01 3.717884370792244320e-01 6.409123262120342002e-01
3.857537063804427624e-01 -3.394920142276192654e-01 3.382658547143001238e-02
-1.464097414341289094e-01 3.490808413339170913e-01 5.834126219566211358e-01
8.277166443572034904e-01 2.686960024742976461e-01 1.069512349628563147e-02
-1.754581402638925175e-02 4.098011992841629758e-01 5.338502041093209360e-01
8.475776978149469620e-01 3.192306664196673527e-01 1.817579108318755424e-02
2.726540582239889154e-01 -9.785646618577180378e-02 1.856201079386546049e-01
2.787041220073145364e-01 -1.784769564480010173e-01 1.526434705289897720e-01
2.171566996987560061e-01 -4.201153068157013615e-01 9.823718280466740838e-02
-2.029062720995716551e-01 4.655219138192334127e-01 6.576725891524027867e-01
-1.198792506690281590e-01 4.740906703940120925e-01 6.145206698362110087e-01
-8.063149235900748946e-02 -1.157531577205852813e-01 3.760508950645043424e-01
5.005685030998568985e-01 -4.679328750638612200e-01 -7.735952430626971688e-02
2.191415264342767566e-01 -6.909242792182530568e-01 -2.307654401030476317e-03
7.844419524694296042e-02 1.839301815006903484e-01 3.973860717640236295e-01
-6.186889743362572469e-01 -5.118180638168302599e-01 5.306567024854331738e-01
-2.062699146562999852e-01 -5.849433013724651964e-01 2.738291191507106759e-01
-2.535488291433448532e-02 -4.342633768879006206e-01 2.282736497977531642e-01
-1.321135796488024372e-01 -1.856417307228589719e-01 3.790964916078223834e-01
-2.587211280895902465e-01 6.715497143918808254e-02 5.425206619805307273e-01
-1.559737258474387656e-01 -3.114247899895858929e-01 3.462154607479231982e-01
-3.404489840567612863e-02 -6.729626035776730131e-01 1.454717549462148651e-01
6.598272042704423912e-01 -2.425749165816230846e-01 -8.341785377573579519e-02
-2.897168603956455923e-01 2.486245497575600982e-01 6.264383891096235724e-01
5.162542663851223956e-01 -8.591520763965596608e-01 -2.297576962685249080e-01
7.643327425700993105e-01 -1.770988608448879342e-01 -1.176510892209487180e-01
5.539703769524134680e-01 -7.273837230274252663e-01 -2.024054189928564396e-01
-9.497323173431392040e-02 -4.645315388690161584e-01 2.559807248596597251e-01
6.068024914207940101e-01 -5.456597697291302174e-01 -1.651391229569610375e-01
7.859144032850831074e-01 -2.313359123871612244e-01 -1.496008897973325757e-01
4.440203354411851877e-01 -1.021092769648478255e-01 8.849972474855689886e-02
6.995016100066963061e-01 1.177822271756399364e-01 2.677768086021543523e-02
8.355172322519340000e-02 -3.629471626713387522e-02 3.136738350859473723e-01
-1.951899062353453507e-01 -3.507194942549526906e-01 3.536549604860569351e-01
2.080436238858427156e-01 -7.705949563460290364e-01 -2.537332842169831917e-02
-2.982100979711824196e-01 -4.551385235081553127e-01 3.727604972677887041e-01
-2.863964854834849527e-01 7.772314411985824234e-02 5.618337580314453072e-01
3.771235514301475855e-01 1.394282700095040017e-01 2.144932073762956526e-01
4.681111119161331380e-01 -4.484451633275666205e-01 -5.210467228181211302e-02
3.303271952526398714e-01 3.592146591320565796e-01 3.212913263431351751e-01
-1.170216810842374527e-01 2.687927835875865146e-01 5.375441073854405616e-01
5.389074515190946935e-01 -6.744939481011086313e-01 -1.745853589488743085e-01
-3.663947289119969808e-01 -2.596144815431545294e-01 4.825764737636509261e-01
-2.752270840029269819e-02 -1.988532831479765117e-01 3.159224581789678576e-01
3.342484330266365378e-01 5.359977410762434280e-01 3.840175105649262233e-01
7.366631856599749062e-01 -3.325532606828718873e-01 -1.593028683512435484e-01
6.010072569140235688e-01 3.602684401336883058e-01 1.707392225647228479e-01
-4.605374907669634865e-01 -5.234559335224252263e-02 6.111800325282853441e-01
2.843188717672769927e-01 -8.457527735354304355e-01 -9.550372923840402817e-02
1.190730865236526992e-01 7.180594479671158215e-02 3.335594538177857893e-01
-1.455437279770147585e-01 1.499303525676307092e-01 5.098038650067301392e-01
5.828799607685449802e-01 -7.103223908348014204e-01 -2.122615087853945703e-01
-1.538666170255102439e-01 3.528984157838880864e-01 5.889725625595776393e-01
-2.202073618280731004e-01 5.446384460167834618e-01 6.963708877626374472e-01
-3.392020094478392922e-01 -3.434274920066801018e-01 4.366378214383981882e-01
1.000000000000000000e+00 3.466863376794206419e-01 -5.673788140691535947e-02
9.222621617787832848e-01 1.975480524489112433e-01 -6.815093007646447210e-02
6.605024905318502837e-01 -4.884826128146654844e-01 -1.740889818547368961e-01
-3.012575794095785908e-01 5.568535489520844844e-02 5.620287034306726826e-01
5.620285924780270559e-01 8.382648368870831979e-02 9.096844517049394729e-02
