-3.180604330096993282e-01 2.093450332920636092e-01 5.308565612858173743e-01
-6.300543574981520845e-02 7.577450387291728706e-01 2.421554029764256821e-01
-3.588242356310681336e-01 1.713983612670785805e-02 6.580840903511604445e-01
-1.845925419692874547e-01 1.946972142382961402e-01 6.136931601242171519e-01
-2.575363060919977909e-01 1.966317424578076789e-01 5.731288203090519895e-01
-2.989902874021555523e-01 -6.114539246485437007e-02 7.508387680044319445e-01
-2.003891223257949494e-01 2.523423074514665743e-01 5.605288606890124203e-01
-3.626121782926339243e-01 2.624615798954222368e-01 4.658047641828409469e-01
-9.550545967276237447e-02 2.474987046156997550e-01 6.204542291757126904e-01
-4.711739852250029226e-01 -2.882889703854051855e-01 8.347813277367051032e-01
-3.896939793344293343e-03 7.053885605467281605e-01 3.144134338782049176e-01
-4.093318275812013463e-01 8.001474969908827228e-01 2.380105890587689774e-02
-7.581399583608060266e-02 9.838050456600783145e-01 5.998297233878886053e-02
-6.130095674572450665e-02 1.768607326777116850e-01 6.935528270542732354e-01
-2.206100725992250489e-01 -1.758056326903877919e-01 8.817350320621004656e-01
-4.892786634802400725e-01 6.638259113787914334e-01 8.670603378147810625e-02
-1.189246936377919006e-01 9.739492742868475217e-01 4.453889963971143645e-02
-8.569678231550817427e-02 7.121793554024290485e-01 2.653402278847297735e-01
-2.456685940936259860e-01 6.994762050934658637e-01 1.895208918043122526e-01
-3.105923040047378070e-01 4.288327372427355177e-01 3.646399685621014575e-01
-2.929612431311211518e-01 -9.633321545646433837e-02 7.813562360280099650e-01
-2.695918672512597203e-01 4.021974249712954030e-01 4.072533086804981384e-01
-1.446782238543919130e-01 8.624622941103969598e-02 7.191741417299555295e-01
-2.538410391539641098e-01 5.110556408401847328e-01 3.312672579729066813e-01
4.866721777032981429e-03 3.504893042785978130e-01 5.943364687934106216e-01
-3.589223192626892489e-01 7.904792123264678949e-01 5.829511695688241457e-02
-9.350628695164640847e-02 4.540762049824809687e-01 4.613208672713848268e-01
-2.511645398197805967e-01 4.936155108954893844e-01 3.462257083402903168e-01
-7.730353927594757479e-02 6.000354409656891708e-01 3.568044309407444881e-01
-1.318449210912081837e-01 3.716285701889506243e-01 5.047285051208153517e-01
-3.987002448604149395e-03 1.793381998481119177e-01 7.223252560699560121e-01
-4.336812047089974587e-01 8.574598168923741603e-01 -3.368550879144646681e-02
-3.515453876611225326e-01 4.173117945019221287e-01 3.516427437615129437e-01
-2.976722589895267404e-02 3.696592886169187686e-01 5.609220943956948480e-01
-1.190107604379069955e-01 4.248976906779163842e-01 4.702906598933536131e-01
-4.459997971778685844e-01 2.592783956744046034e-02 6.045831223524155140e-01
-3.244468959446065309e-02 6.811219493907924583e-02 7.933425701564411625e-01
-3.372122126350136639e-01 6.169768907903198096e-01 2.044753707828379508e-01
-4.317049543190308869e-01 4.545560524056282969e-01 2.798308424821089324e-01
-2.961899800045996733e-01 -1.549726728929103348e-01 8.251029189456701163e-01
-3.771654873675981401e-01 8.660422528657964192e-02 5.943909815324535106e-01
-3.599895735810979547e-01 -2.579328131301402149e-01 8.707830311492562592e-01
-1.388895305161118310e-01 1.912186248715020409e-01 6.408665121913311724e-01
-2.342229134848634042e-01 8.056920038268609030e-01 1.132785100462609523e-01
-2.225519101901986818e-01 -5.607855738493842945e-02 7.878449386846545499e-01
-3.255690263255670621e-03 7.733643668542711236e-01 2.620405752588799153e-01
-4.505241622979465621e-01 4.310478625050432333e-01 2.879834192600603249e-01
-2.307491692531478122e-01 4.949984539855336596e-01 3.560864010154313752e-01
-2.818847287555835690e-01 7.709951525545756246e-01 1.146617808099032326e-01
-9.848165994816039659e-02 8.521174941524323199e-01 1.499692984582736699e-01
-4.713289437968426476e-01 2.822918927398411770e-01 3.922042058326333236e-01
-9.216615578127893005e-02 7.584418438251669947e-01 2.259983758422081657e-01
-1.630319040981484113e-01 1.374695075743646022e-01 6.696206359460959989e-01
-4.326205810042966227e-01 -1.169685817010706619e-01 7.225665351292367422e-01
-1.130106558389559340e-01 2.703067223169803301e-01 5.933915845827523183e-01
-1.064501591146769198e-02 2.030201716126478761e-01 7.003939143691951807e-01
-3.981386362903125975e-01 2.015314439849518191e-01 4.940312787858897048e-01
-3.269224381948745428e-01 -1.987467101720066243e-01 8.425919823963392563e-01
-4.843950421994522859e-01 -2.028632863144705090e-01 7.614520456831020967e-01
-1.122860540541523733e-01 9.432789007548057769e-02 7.302538960552051872e-01
-1.093115284883839494e-01 7.858841432390952786e-01 1.955344740818134586e-01
-1.315718882293622494e-01 2.590035193541976311e-01 5.922171638657998116e-01
-2.849392904910100222e-01 7.488287206736616852e-01 1.302163550132740544e-01
-1.497861270502870989e-01 5.249784837582663899e-01 3.761951358333009976e-01
-5.059227704487972987e-01 1.656349034238570606e-01 4.641472012409121883e-01
-1.400293029740436457e-01 -6.681248711394707773e-02 8.403631729609926104e-01
-1.729517362563527672e-01 1.822879055196950371e-01 6.295508497714014107e-01
-1.514213551267822588e-01 9.612141445374967619e-01 3.701202218819642231e-02
-3.860757117545862704e-01 3.261874507811956536e-01 4.038187922189634405e-01
-2.436947901077662348e-01 4.330135462532743729e-01 3.972237807256171482e-01
-6.270644275135983658e-02 6.434095098431752424e-01 3.309844660738111011e-01
-3.624287529630850213e-01 7.595283984010824108e-02 6.105433592782550933e-01
-3.610036347180481942e-01 7.029619458813589628e-01 1.250514665001546677e-01
-3.328731320631536650e-01 3.194196493603410625e-01 4.375592744401118894e-01
-3.322870040235106903e-01 8.841939923614876573e-01 -1.179235191360746389e-04
-2.585670479840500580e-01 2.921435908700497075e-01 4.985059290614579641e-01
-4.981281082465698340e-01 7.633831469386455071e-01 4.758678694188557025e-03
-5.054251418246954453e-01 3.064530557150024204e-01 3.552070813310854724e-01
6.628060078829901662e-03 1.624458328582161770e-01 7.411103021614106057e-01
-3.520562670163759900e-01 4.656910809944416196e-01 3.138502766184885218e-01
-2.375086833543780807e-01 3.829498085051294964e-01 4.393618596213865746e-01
-3.586554228524451160e-01 2.451114472427530777e-01 4.813790447811600592e-01
-5.055600234060088072e-01 7.476899945699030381e-01 1.294889153030840019e-02
-3.448834059453116940e-01 5.705971314770341696e-01 2.363353716381822733e-01
1.982556015777122566e-02 3.128638765520817544e-01 6.315265714010849241e-01
7.796065445819400953e-03 -5.940762803878632536e-02 9.137865447650516115e-01
-3.720038023983787689e-01 4.864253195793653006e-01 2.870879162766804549e-01
-3.142755586943502544e-01 7.329537935956692042e-03 6.895495900634078801e-01
-2.207291162331141421e-01 4.060717760700494616e-01 4.304165010154071269e-01
-3.044283161069186172e-01 5.923482039914085284e-01 2.411322811259733745e-01
-3.091379095894025153e-01 8.029841150221053159e-01 7.525876758898773777e-02
-2.989386831288962654e-01 7.333530902177326505e-01 1.347207491878277819e-01
-3.764120866031532842e-01 2.241367265643254003e-01 4.881359093883381739e-01
-1.726527820250237932e-01 3.847600081820262696e-01 4.726907563256497746e-01
-1.427375453831117580e-01 3.746637185320658148e-01 4.965412982174504664e-01
-5.581138420970172681e-02 6.767529485686165636e-01 3.088186811937446707e-01
-3.239487003854271685e-01 4.663092318616318677e-01 3.284235328069821658e-01
-1.981809101306998833e-01 4.390006025993510308e-01 4.169550937024937287e-01
-2.115912371056775931e-01 8.137788022247205433e-01 1.191271747287322991e-01
-1.343237191485637527e-01 1.726168322803221522e-01 6.577376460823857185e-01
6.425372052494934122e-03 6.062792694946718131e-01 3.968021759881870114e-01
-1.644362876148137698e-01 5.540746709161820799e-02 7.325088968928168409e-01
-1.387674303638199158e-01 9.020842534014253955e-01 8.964479667883441805e-02
-4.183732871789635488e-01 2.115112911306887278e-01 4.754553515674126984e-01
-4.916009354613057880e-01 6.836317983430286738e-01 7.010260472060916848e-02
-1.550246114617154780e-01 1.579547400705911967e-03 7.792935678473288386e-01
-9.429701332056410201e-02 8.881807748792486246e-02 7.441606362008520437e-01
-1.780922404193613084e-01 -1.570648245833765611e-01 8.899711221946821071e-01
-4.249390508655764287e-01 3.160237505211332398e-01 3.908881407361728955e-01
-1.111957002042588821e-01 8.803699052840767703e-01 1.212502851774569929e-01
-4.849091560540487733e-01 3.886625863098421840e-01 3.024394094749688899e-01
-4.577051977923757287e-01 5.115602215267612829e-01 2.216991504098203281e-01
4.355402505540690444e-02 -2.440625059032427643e-02 9.057921543094553662e-01
-5.126761468474744232e-01 2.365546526421695994e-01 4.055311744268740859e-01
-4.559573738983617730e-01 7.769793575223497006e-01 1.679859870964890353e-02
-2.994577929374412154e-02 4.641593570589599982e-01 4.875402323619676959e-01
-1.688980259309434961e-01 8.214062108372340854e-01 1.360757971032856006e-01
-4.284217816896470632e-01 8.285062693344964480e-01 -8.414976815226942602e-03
-4.755246411632324532e-01 -1.390013972722991820e-01 7.166766074761058425e-01
-2.900676587803971973e-01 7.292051877517624625e-01 1.426882722889768751e-01
-4.535641808987497629e-03 -2.808219062655325712e-02 8.828891063379419313e-01
-4.779195210425470353e-01 6.991726955324659709e-01 6.537730610388453600e-02
-9.062786466018209197e-02 -1.325641326475129056e-01 9.178108714198499607e-01
-1.785803681519834984e-01 6.182133764089824401e-01 2.884696776479128144e-01
-1.076251476358790760e-01 4.807525725693903573e-01 4.330717664241415799e-01
-2.329785785161020972e-01 8.354367401640647728e-01 9.087740210699586652e-02
-2.381224601410831532e-01 1.369312596060893727e-01 6.298242851869206849e-01
-3.964461315939436514e-01 5.381188355010234625e-01 2.339090372372804594e-01
-8.038750717151776914e-02 9.551400624937703698e-01 7.976381818943209523e-02
-4.821977709569035819e-01 2.382159311995172835e-01 4.205651252804525897e-01
-9.439026541446961238e-02 3.267788095805400084e-01 5.595685299819453951e-01
-3.461468851335254282e-01 1.713335285677408948e-01 5.452937272328710616e-01
-2.896389551703549281e-01 -1.365962459891578440e-01 8.143600365526980633e-01
-2.613220764290944409e-01 1.332696690997400013e-01 6.202396516645390934e-01
-1.679688662605816341e-01 4.022149684543253612e-01 4.616625793492682428e-01
-3.762764172478334501e-01 1.463970352451883505e-01 5.484968781082365519e-01
-3.017366601721847008e-01 4.910343613581951150e-01 3.211441880240796798e-01
3.617222893922497629e-02 -1.183017066950467905e-01 9.746562834729413094e-01
-3.852698680344170401e-01 2.319886589691010081e-01 4.773029468165515543e-01
-5.493898479162216963e-01 8.472568934571783617e-01 -8.773924483681666553e-02
-2.153789492280667461e-01 -2.606282109245398534e-02 7.684086646691931088e-01
-1.708655592483119545e-01 1.959177801463655999e-01 6.200978996887861472e-01
-1.529584928076675038e-03 -9.134585211857199072e-02 9.335608924891404259e-01
-3.366013689107404394e-01 5.476191376306989156e-01 2.585904924511260305e-01
-3.742737581663929114e-01 -7.391527369662291569e-02 7.204249218718186132e-01
-1.430103338249890665e-01 4.016459946642507162e-01 4.754700444719394681e-01
-3.765628633683797410e-01 1.008418734127691646e-01 5.836721963483566533e-01
-1.898787796497637959e-01 -8.701669496194813780e-02 8.293356047670358278e-01
-2.310497704787635720e-01 7.814463803573923339e-01 1.337806951858189486e-01
-2.418848507369266709e-01 1.696641377959311192e-01 6.024245410711290827e-01
-2.309801181552492699e-01 1.137985418785354697e-02 7.310162975961426168e-01
-6.562238077080619070e-02 8.395927577370828621e-01 1.772797814179286890e-01
-2.687452594171771958e-01 5.129402690061193315e-01 3.218239389369539349e-01
-3.630324251710055627e-02 3.012807633640966487e-01 6.104504018671191856e-01
-1.138022361579160181e-02 8.130066319375472972e-01 2.269464077449962203e-01
-2.693974637560983543e-01 6.954404508910749794e-01 1.799429931596286669e-01
-5.961974226386031195e-02 8.052410799425971377e-02 7.691636969739110707e-01
-5.039086642433723284e-01 1.650467017787846102e-01 4.656819889327672990e-01
-3.265234407558075813e-01 6.862220283889018946e-01 1.564989463054176355e-01
-1.974424532357936177e-02 2.821576042654185268e-01 6.341486580318922428e-01
-6.558243122316988194e-02 4.039668531562664588e-01 5.151356891998767340e-01
-4.436046902696582084e-01 6.063037999779580939e-02 5.789534428871943028e-01
-2.143920890563091597e-01 7.785212445661365832e-02 6.883495443439200390e-01
-3.375110872336787859e-01 7.504248679775148145e-02 6.245936835694757550e-01
-3.065409909348418283e-01 1.322722529763743493e-01 5.967967617404899006e-01
-4.987704945998085448e-01 6.080436087426531744e-01 1.248828310734896446e-01
-6.423760058470381895e-02 7.104317185021966630e-01 2.781877324346654357e-01
-2.350005696720127990e-01 1.483645371645799516e-01 6.226294924009051490e-01
-3.013672043246340415e-01 2.707549434514633924e-01 4.921720835484163503e-01
-1.131221785606911501e-01 6.507403062334390365e-01 2.982998306726055149e-01
-2.309619629008640707e-01 2.542567827999178132e-01 5.426712689743503626e-01
-5.011179544112762674e-01 8.632308792157300514e-01 -7.427592922616226001e-02
3.185300442208827132e-01 -3.721103527333140537e-01 -4.062052515382035267e-01
-1.527187337872893715e-02 -2.425932511056291818e-01 -6.854110070307858349e-01
3.644705161978533670e-01 -3.015019987177977243e-02 -6.467977280688108621e-01
7.310747332778218255e-02 -7.545581068717903683e-01 -2.410440670459978729e-01
-1.534918498221221096e-02 -4.970214901758572834e-01 -4.881394419074233104e-01
4.994959167354502960e-01 -5.926027726797730155e-01 -1.382961085884107655e-01
8.857552502506932379e-02 -8.860283091800823518e-01 -1.308032121392234959e-01
4.723325093106119366e-01 6.156819200259185804e-02 -6.601626487190063175e-01
1.386986269618875889e-01 -3.176593476881338640e-01 -5.447392095821865787e-01
3.864003155578947246e-01 -6.047248990336092644e-01 -1.894620929268996112e-01
9.806481342174339089e-02 -5.263626081956949143e-01 -4.046475675570674335e-01
4.415330713651022254e-02 -3.026274381950034287e-01 -6.070291998261766464e-01
1.239952708098608636e-01 -2.409306208377305358e-01 -6.121176950990360188e-01
-4.696926609713064464e-03 -4.411262872069565688e-01 -5.257823434079677005e-01
1.375834125850007028e-01 -9.031310268730323720e-01 -9.129425798331382291e-02
2.228001059426585329e-01 -8.533653220738049994e-01 -8.425162748885886566e-02
4.533643269509707863e-01 -8.489866557683992676e-01 3.582831876784123987e-02
4.239584663188060709e-01 -4.891104220844815220e-01 -2.590090989357132223e-01
1.813467100817206523e-01 -4.667723027747453513e-01 -4.062602194386725762e-01
3.836506376708375132e-01 -1.000171230853817289e-01 -5.823432021979734197e-01
2.618186401119482754e-01 7.948322457144248177e-02 -7.867939924352097547e-01
1.850347750410938352e-01 -7.099376654223393812e-01 -2.157066878245059993e-01
4.093511506345440809e-01 -1.759404473920059275e-01 -5.096999343608167310e-01
2.375030116268958824e-01 -8.614794160164245262e-01 -7.008507441844406827e-02
3.982721771382146114e-01 -1.265603392021693863e-01 -5.539281592588922720e-01
2.276053343604983736e-01 -9.076729846587167083e-01 -3.956183177240883003e-02
3.985489953610335534e-01 1.437455944229207583e-01 -7.634062747786640735e-01
9.016225500498435685e-02 -1.482129628391071763e-01 -7.021404801763901915e-01
4.973392958893828597e-01 -3.939366518112463744e-01 -2.935196565594676010e-01
5.263015577131163053e-02 -7.628043752595384808e-01 -2.456153214904071569e-01
5.074901520374907049e-01 -7.519345984723775356e-01 -1.045064611790482226e-02
1.074815208625207325e-01 1.297005009230721984e-01 -9.083914899190057568e-01
1.896945704269098754e-01 7.440864333023319843e-02 -8.214836845893942474e-01
2.832298213547470023e-01 1.740483748677126019e-01 -8.486642249675525607e-01
2.871443711705130020e-01 -8.129298015262388377e-01 -8.115125453039011283e-02
8.709798498701926128e-02 -2.215541739174936575e-01 -6.469042856635737193e-01
2.343440910132227328e-01 -3.318613202385153893e-01 -4.825036801320670699e-01
1.222932825293273351e-01 -2.202872379905058686e-01 -6.290384300875317969e-01
4.497858279463105013e-01 -1.937150186464745710e-02 -6.094672671575011025e-01
1.783060417261936315e-01 -3.186774533169278723e-01 -5.227384175625826579e-01
1.659639154292599506e-01 -3.768351244140983880e-01 -4.842459244035901555e-01
3.900220467607761754e-01 -6.814518081295536933e-02 -6.036482528528759328e-01
3.117954048569953063e-01 -2.671453137484693374e-01 -4.912138838986530032e-01
9.643145217959260551e-03 -5.030502615823069235e-01 -4.700797207561109858e-01
2.413413136188107266e-01 -4.015446040280843953e-01 -4.247159623969655740e-01
1.823884627335388142e-01 -7.764272588842744405e-01 -1.655601951484306777e-01
4.074406304708433346e-01 -1.643887186214379459e-01 -5.196816298978796933e-01
2.694678073078591307e-01 -8.497803941712037679e-01 -6.203951334484801572e-02
4.275485059803807442e-02 -5.814237427836364824e-02 -7.973800098440131379e-01
3.554649473982677832e-01 -7.975121366190712768e-01 -5.651969247229483156e-02
3.129608578703519384e-01 -1.849820757510637348e-01 -5.543085811790341433e-01
3.734453751835312141e-01 -4.236662705224033543e-01 -3.368136623479623948e-01
6.057968428937241141e-03 -5.136646812925418359e-01 -4.637680716439021023e-01
4.795111518926775118e-01 -7.798465032710653055e-01 -3.788328982896984384e-03
4.048260848260150646e-01 -3.185744115146141309e-01 -4.015084663445308011e-01
3.991506596280933183e-01 -3.528520344140767540e-01 -3.779650486639914986e-01
1.296414876574301656e-01 -6.729932151473382307e-01 -2.740228251114858460e-01
1.292446359460333594e-01 -2.741384604460019858e-01 -5.835532813135674290e-01
4.250605935838202565e-01 -5.564006774328450478e-01 -2.062342527514585133e-01
2.958484932170978854e-01 -5.642942911322771510e-02 -6.631674177062241160e-01
1.263844547286328557e-01 -6.833212923065226096e-01 -2.677575058271880470e-01
9.463940534375969715e-02 6.272728269780816768e-02 -8.633301686311992684e-01
1.381758549627327137e-01 -9.412305079445486278e-02 -7.183749707565444398e-01
2.125966832178389221e-01 5.066297979135014895e-02 -7.908036329150535115e-01
1.236502621405511371e-01 1.963173380142905211e-01 -9.513949010772904114e-01
2.702095753141595114e-01 -7.927907223763951405e-01 -1.058386262275215622e-01
4.672049504695683919e-01 -6.631207157274389141e-01 -1.009013782558906280e-01
3.044388089240290252e-01 -6.729689051110553377e-01 -1.804312468960552474e-01
1.495859931280671129e-01 4.185072706478551452e-02 -8.177141521327221385e-01
3.690688827449954967e-01 9.355432871104760184e-02 -7.402698757178677313e-01
5.181589740531701294e-01 -7.768912045114635401e-01 1.461713017899754323e-02
5.166377403775080507e-02 -2.964986945216952496e-01 -6.077600009151412630e-01
3.493990680753315536e-01 2.021063591585980923e-01 -8.349875393311951832e-01
3.808868138383680879e-01 2.695329503338110277e-01 -8.704150335673179750e-01
1.569410806359165522e-01 -3.331322216785025936e-01 -5.229702518130099342e-01
1.650680594102823806e-01 5.521399176287838245e-03 -7.812489867638713337e-01
3.555054560613908898e-01 1.036532157499621548e-01 -7.553654328637081639e-01
9.252779042676929910e-02 -4.877116412487212394e-01 -4.375872607876910014e-01
2.810050540778226136e-01 -4.135398509602580264e-01 -3.941720658804377941e-01
1.864540371808219577e-01 -5.530386684457544444e-01 -3.366241784828852834e-01
3.503135621272612243e-01 -1.561363683562177196e-01 -5.566751111564699483e-01
3.567861075092325640e-01 -8.636785089205262222e-02 -6.073153699192981314e-01
-2.158903414877762911e-02 -4.012402854786815132e-01 -5.657608926721796605e-01
1.159487071357455656e-01 -3.552941659858384060e-01 -5.277362592516281481e-01
5.300467906730620821e-02 -1.853182111170557089e-01 -6.932640522134569938e-01
8.182913012595391389e-02 -9.870120642940255484e-02 -7.450002967716575775e-01
3.315573530803652691e-01 -7.467901575659058322e-02 -6.298911704813076051e-01
5.751353715496216809e-03 -3.856430179008607517e-01 -5.632150218781155626e-01
5.095918035957451853e-01 -5.469268990463205249e-01 -1.683117223137974572e-01
4.962084660127926566e-02 -5.640712481399980938e-01 -4.013474799651445268e-01
5.435531167186263835e-01 -7.136893926731563420e-01 -2.079733328911997220e-02
4.620307253251378365e-01 -1.821603071117097739e-01 -4.766644777842406477e-01
2.577769025995041430e-02 -9.972364472333417051e-01 -7.819017330963654033e-02
1.402567708934551738e-01 -9.022665623889255526e-01 -9.053298107863892719e-02
2.359225785432102485e-01 -2.765169469639283117e-01 -5.245787447392926683e-01
1.525728530518546677e-01 5.031390989600827666e-03 -7.875606231469258756e-01
1.500492591067503767e-01 -1.530502440466300074e-01 -6.663173892188648528e-01
3.809765593192813160e-01 -5.013578327359917708e-01 -2.725294467678249233e-01
1.758732143865635311e-01 -5.275138162945235409e-01 -3.620855114427314891e-01
8.537915411066973603e-02 -7.598780633934348883e-01 -2.303464208963174054e-01
1.454277539687956755e-01 -3.136881791551923704e-01 -5.442152147547181240e-01
4.371077151049354015e-01 1.313700559069466145e-01 -7.331592358219499728e-01
2.677017542402411188e-01 -1.007016788366865701e-01 -6.439072346484128184e-01
3.078387460997535907e-01 -6.587188709442057810e-01 -1.896615729687660956e-01
1.985831202965706588e-01 1.572243482269914949e-01 -8.809483758400775688e-01
-2.209786152426048561e-02 -4.780264067796753946e-01 -5.064845838400289235e-01
1.475526765240172677e-01 -3.058981918903061481e-01 -5.491184937107213004e-01
-1.110469719581196925e-02 -4.911817778555008229e-01 -4.903951474065006977e-01
2.144421913940803837e-01 -5.191019287454778919e-01 -3.479539443581173841e-01
3.657400238507073076e-01 -8.191951723218858783e-01 -3.420148506366966351e-02
-8.894303822991849037e-04 -2.438641767315173070e-01 -6.767230546729586793e-01
-4.570777987747461774e-03 -7.198172154382568300e-01 -3.095857334146676076e-01
1.863412369549506953e-01 -2.751142839960066255e-01 -5.522191735573446225e-01
1.292827448666520329e-01 -6.556902565675050143e-01 -2.876336526403419080e-01
1.036242967092149136e-01 -3.778078205886856167e-01 -5.168767553986913788e-01
2.258413828424548908e-01 -7.441786560725675015e-01 -1.672988310413576762e-01
4.373572597733784151e-01 -4.964350019625897170e-01 -2.461532263640857920e-01
4.760435024038416896e-01 -8.564894829722720093e-01 5.379241267803438337e-02
7.931422735670244639e-02 -4.620636206260908541e-02 -7.870576702930572877e-01
7.847508877451708775e-02 -3.642409118304907878e-01 -5.408664305240151737e-01
2.007943107940803051e-01 -6.666928714504594122e-01 -2.408038688327112931e-01
4.439754215398751258e-01 -3.937332648792902789e-01 -3.222557147785383713e-01
2.674406622336001349e-01 -6.028034880920675187e-01 -2.546594708168697929e-01
1.156747576421244955e-01 -8.077848678258677806e-01 -1.769695492888648247e-01
4.064353967609469348e-02 -6.476226089479482084e-01 -3.413598090548423669e-01
2.369587637651755785e-01 7.914128304417016035e-02 -7.998421948928019498e-01
7.343574873788129287e-02 -1.710938255617175385e-02 -8.127709630978905420e-01
2.097314526157184889e-01 -5.974853801854643764e-01 -2.896891606918565176e-01
4.878843596951022432e-01 -7.836697108291391656e-01 3.660789105845554340e-03
2.483269189701413637e-01 -4.332558028052205246e-01 -3.963823954785895554e-01
1.720305562907289976e-01 -5.847322093104984075e-01 -3.197696631150361846e-01
1.786440123398831681e-01 -5.393325589386793739e-01 -3.514360320096975854e-01
5.256849807311938516e-01 -4.665079634649446083e-01 -2.220593381253314069e-01
5.120084682966794670e-02 -1.724873435537006561e-01 -7.041806040048472770e-01
4.328357047232238575e-01 2.787777345131462470e-01 -8.497639517014488053e-01
3.779763321929872077e-01 -2.055043999935793064e-01 -5.035750153368281357e-01
1.804401656371486806e-01 3.980769913849916547e-02 -7.996062022824294013e-01
2.622619030799454021e-01 1.120985699175571504e-01 -8.118503049994399978e-01
3.368174623670857626e-01 -6.139284953445633963e-01 -2.088780159098172218e-01
4.575356636888960882e-01 -6.326764061810756790e-01 -1.296896639815255381e-01
1.231883705772930937e-01 -7.639218933841753767e-01 -2.069621353244847084e-01
3.897821390853341561e-01 -1.255927521974312677e-01 -5.592252671051882729e-01
2.423463177456013917e-01 -5.056369769274414727e-01 -3.434525274556820551e-01
2.542732371432712135e-01 -4.313561962423307361e-01 -3.946710959276281128e-01
1.095791500839826543e-01 -3.137727551164380402e-01 -5.633478781748714193e-01
1.434658995945726212e-01 -2.793652958161488287e-01 -5.718837782963320793e-01
-5.388307603037383216e-03 -6.907703816870736091e-02 -8.146824536766671399e-01
4.312813731399174344e-01 6.595700412382175803e-02 -6.855506410940613859e-01
2.380400667238129764e-01 -8.662629972797717404e-01 -6.608772153824926665e-02
-2.750400796045130922e-02 1.467744280003428492e-01 -9.939223235897106656e-01
5.048199719279969910e-01 -5.689945304055962216e-01 -1.537534309852529035e-01
2.691324916090609767e-02 -8.165712624804440933e-01 -2.176906375657524928e-01
4.405587629340352307e-01 -5.305357076115984061e-01 -2.179930872218173443e-01
3.375629582923611038e-01 -3.668118361397070815e-01 -4.001215022450704817e-01
-2.503247001671797794e-03 -1.551909905359611097e-01 -7.463547174633113901e-01
4.022018408847668341e-02 8.991968432751606607e-03 -8.508011211600507995e-01
4.974129261538671187e-01 -5.187972926165245191e-01 -1.966488991990564816e-01
3.930825187120997044e-01 1.785565897282533621e-01 -7.933302314311936332e-01
3.264099341271640142e-01 -8.823647099959570639e-01 -6.275265819219414884e-03
2.603135296196146808e-01 -3.260885950541194123e-01 -4.730729213524576537e-01
4.116445117831045164e-01 -1.147701382929523367e-01 -5.559102595268538005e-01
4.038826288069340409e-01 -1.337438510418127550e-02 -6.387009834268334574e-01
1.328768675119595087e-02 -5.086479837666932902e-01 -4.637868152837451574e-01
3.966605166745696409e-01 8.328147323562930943e-03 -6.593993355243338295e-01
3.970763111322403449e-01 -3.852671456749076073e-01 -3.539375273092201235e-01
1.806287702955113039e-01 1.363906509178247628e-01 -8.744067452993934397e-01
2.110791090030540718e-01 -3.927156218028187151e-01 -4.477695022934788938e-01
9.256969939020623372e-02 -9.242444530789553636e-02 -7.441160483506833456e-01
2.612049359325034903e-01 -3.459926286250139538e-01 -4.571596595964610432e-01
4.730652725510039458e-01 -4.349445123010741154e-01 -2.747170745219663646e-01
4.305235193524590415e-02 -4.140381544402653158e-01 -5.212180974505170594e-01
3.532239045440945802e-01 -3.577719817453844375e-01 -3.987450308001182497e-01
8.792540426536057940e-02 -4.502367431723090785e-02 -7.833632588754938508e-01
4.094364627784456978e-01 -2.825840377636110734e-01 -4.269505205496773592e-01
2.806250149576952624e-01 -9.168488385088371384e-01 -4.051817504575372896e-03
2.960074703885679503e-01 1.690284508936068242e-01 -8.379282939075649583e-01
4.963999882288786525e-01 -3.559300359966325322e-01 -3.234973990647398434e-01
1.471605587000944237e-01 1.823083793242477879e-01 -9.279401071699806547e-01
4.145634075824348175e-01 -3.230652141290407120e-01 -3.928110841234963013e-01
3.984044695599343044e-01 -2.362828497706898623e-01 -4.687658363391317695e-01
1.440787731222836938e-02 -5.499192958271448273e-01 -4.311803817116098836e-01
2.823782603408420133e-01 1.061204410295672890e-01 -7.964411217548925670e-01
1.098202919823893925e-01 -8.644652330474200674e-02 -7.395136873614421846e-01
7.963630364706314468e-02 1.234242792944696271e-01 -9.184363283770209385e-01
3.833259923690365278e-01 -6.716927303152984141e-01 -1.391739352077025205e-01
4.036901481367227706e-01 1.403366701395050709e-01 -7.580093246846780763e-01
3.417942430285142996e-01 -4.062693293797117744e-01 -3.672556067446256511e-01
3.168183963511892465e-01 -4.703674915316573280e-02 -6.592214250721954993e-01
1.327375327228933477e-01 -1.567228162383320911e-01 -6.727403234497346673e-01
1.843050944016008663e-01 -8.111055680348053798e-01 -1.376402119171135641e-01
3.533564877185657593e-01 -7.268652152449245341e-01 -1.124366124332144279e-01
2.918684160450761289e-01 -3.096267546417231231e-01 -4.689405200714447108e-01
6.874407768600277954e-04 -7.543709008060413002e-01 -2.799728543316654106e-01
5.193559525660743637e-01 -4.869429542375702247e-01 -2.096011207209938776e-01
4.980583001905471430e-01 -8.140591369431764424e-01 3.267677262574367192e-02
4.935672855592700414e-01 -6.135635003526433984e-01 -1.252157468257105721e-01
4.738246603359170805e-01 -2.250955208764795004e-02 -5.941599775874837341e-01
4.555097348023569026e-01 1.690814417527747027e-01 -7.525500267913647345e-01
3.049226596605972284e-01 -8.977406099897764502e-01 -5.858251818892187650e-03
1.168477829697211909e-04 -4.343713866861114159e-01 -5.284429172385913809e-01
1.474770405007685692e-01 1.966170244711700225e-04 -7.865401785245246247e-01
1.466458037165524753e-01 -7.505274668007611005e-01 -2.047873937215667350e-01
3.835319689227359441e-01 -4.033906476213440784e-01 -3.471359721930762920e-01
3.455796406901807116e-01 9.159805163275840101e-02 -7.513321110463838659e-01
1.569178488357699242e-01 -6.038699078131380960e-01 -3.130215007475601330e-01
5.050619238515317022e-01 -1.391208550796682597e-01 -4.869974288441997201e-01
1.234096921521162793e-01 -9.671064849912364147e-01 -4.927086892929059131e-02
5.739616197326113251e-02 -7.324763305047616857e-01 -2.665828087710520045e-01
3.406748172470248637e-01 -6.465590434300950706e-01 -1.815067734592809290e-01
2.980825994479899266e-01 -7.212788510556678023e-01 -1.463701344744059440e-01
3.381903645580005002e-01 -1.496575420728575023e-01 -5.681919601755848204e-01
3.563957366509927227e-01 -8.564582522765274986e-01 -1.030761134610293228e-02
1.049016572376763531e-02 1.518252738460086626e-01 -9.774920459953505558e-01
4.349782912663520684e-01 -2.886667672880137148e-01 -4.085546773992158043e-01
3.804078130304962002e-01 -5.508769303253890914e-01 -2.344312182527522881e-01
4.030039422531121046e-02 -1.527890325034798047e-01 -7.252945393258288798e-01
3.323000991454964637e-01 3.960071357530094149e-02 -7.181190703751193505e-01
1.132663425093703713e-01 1.009768813360730211e-01 -8.830179001818879714e-01
4.656376626316907630e-01 -8.382090566677233290e-02 -5.509965306543399555e-01
2.465652458065844266e-01 -2.164518467721190664e-01 -5.654606013391901831e-01
3.539011581394653216e-01 -4.672781141847618946e-01 -3.134586655440961267e-01
1.346924164709049909e-01 -5.370279303497368373e-01 -3.767610118143585041e-01
3.336227740666468100e-01 -7.257295302763797640e-01 -1.238854869759029864e-01
3.338515901033495270e-02 -2.105528500650593604e-01 -6.842011846661819607e-01
4.980463820399724795e-01 -4.003917411249023339e-01 -2.881349658501470845e-01
-4.070841299567139193e-02 1.394134849371508889e-01 -9.952852476171519802e-01
5.112559837475328522e-02 -1.587058080603810928e-01 -7.149086926789360863e-01
2.039378530207766882e-01 -6.974558979407818882e-01 -2.152631908562414875e-01
1.831434114493868670e-01 7.447550040562218865e-02 -8.250439212176212678e-01
4.034053993020653150e-02 -9.844225378679666294e-01 -8.032861022093430725e-02
2.842443141355748826e-01 -7.239098950562797841e-01 -1.517406334844829396e-01
3.758074612304801998e-01 -4.643405462619627500e-01 -3.040051585529927047e-01
2.909660767903995970e-01 -5.112666065700428586e-01 -3.130489847237619694e-01
1.120255717136986462e-02 -4.248458874420754650e-01 -5.298932793307035150e-01
5.833674595259716322e-02 2.818450268043587448e-02 -8.559831343376751445e-01
4.873934810451442945e-01 4.424035460326270625e-02 -6.386589398754408675e-01
6.103373396776197446e-03 -8.930070589218636057e-02 -7.928444715923870234e-01
-5.579953933850846648e-02 1.233449365995425567e-01 -9.909057003897121518e-01
-1.790372397291937687e-02 -5.180541386023769235e-01 -4.731963533388872656e-01
4.538758483086678397e-01 2.221705463100404759e-02 -6.395294679462504295e-01
2.953517109693379675e-02 -9.219453258799302775e-01 -1.345673128575579081e-01
1.278228330606895891e-01 -6.638277176010410896e-01 -2.821047646389743258e-01
3.540385774214468984e-02 -2.378237269618192762e-01 -6.619711171003986871e-01
2.020945890632113717e-01 -9.253681498497461355e-01 -3.950090979563281035e-02
-2.488239096523353275e-02 -3.468194602022026118e-01 -6.097287846124309629e-01
1.391278436928979068e-01 -9.126259180988838260e-01 -8.310372546980002162e-02
1.447548989682437004e-01 -9.065469632579056247e-01 -8.480455115230360608e-02
4.763168940254620676e-01 -2.892526939159644761e-01 -3.859619315615114843e-01
2.996162269225856600e-01 -4.215138511512077635e-01 -3.780211360196088499e-01
3.015753615876766713e-01 -5.786744770074185862e-01 -2.550914917360326273e-01
2.661915932217334690e-01 1.964941328629802794e-02 -7.380500837853336549e-01
3.309588090535714455e-01 -2.735265920558291319e-01 -4.760023937631063795e-01
3.301876402956548939e-01 -6.461453938036041400e-01 -1.874438361965214683e-01
3.078722354051001142e-01 -4.511707415441043034e-01 -3.506003686249502538e-01
1.701453483869751204e-02 -9.934286466221683431e-01 -8.583617445020880199e-02
2.039653406611123543e-01 -8.751626798071003577e-02 -6.882659282524183908e-01
8.087271329945532050e-02 -3.762672866048744624e-01 6.966300145998123305e-01
-7.615163307182927499e-02 -3.573832056907867982e-01 7.324810167668923677e-01
4.289250217045333380e-01 -8.592628315709762710e-01 7.266447764949100774e-02
-1.584055033799605106e-01 -2.461983216990520640e-01 8.762873418213895649e-01
-5.958870777623363930e-03 -3.389655044855707233e-01 7.496075132505681804e-01
-9.311889834050228465e-02 -5.536227940142395276e-01 4.916162669195787149e-01
-4.073156690602657837e-01 -3.429640087478985633e-01 7.767302971787612975e-01
-1.198167875591499842e-01 -5.788200917540836654e-01 4.626475327693512218e-01
-1.137121981174723517e-01 -6.085345334173231091e-01 4.254831727503641248e-01
2.425481524047768123e-01 -7.001622874833343113e-01 2.839302337307672564e-01
5.147053000805906081e-02 -3.039600157318839146e-01 7.882279077377561949e-01
-1.910730142504593332e-01 -6.222981741916854270e-01 4.146737627126351744e-01
-1.761761033720824626e-02 -6.511899485830874301e-01 3.651577668638655294e-01
1.447158873075395959e-02 -4.550738517646624182e-01 6.046622335316794716e-01
-8.477375653582801263e-02 -2.556385451216005023e-01 8.587539050612394975e-01
2.265303823323922550e-01 -8.407876278103147971e-01 1.116347284870554818e-01
1.192896748671243845e-01 -5.800227619212813268e-01 4.420645622124453888e-01
3.180690081765522037e-02 -4.866603946168734929e-01 5.642900767240012216e-01
8.208998608281292686e-02 -8.280676447665155093e-01 1.388722016968053918e-01
6.220000158910968940e-02 -3.831996734057594445e-01 6.895647906192641230e-01
3.075666554023526178e-02 -9.065893890328012850e-01 4.605244410481942191e-02
-2.669670502217670327e-01 -3.644241708355361320e-01 7.390315837831932244e-01
2.628980314625908865e-01 -5.212464181712723743e-01 5.031420022283412674e-01
-1.000499700900006443e-02 -5.196670244841727904e-01 5.268894487937032522e-01
-1.087770740419298325e-02 -8.996607080961143144e-01 5.793009128022755250e-02
-3.409506490834414150e-01 -2.804178956429959069e-01 8.486305636797749630e-01
-2.660332294779653162e-01 -3.755744966316665878e-01 7.251940642460946718e-01
5.283261483840093198e-02 -6.549506013695973738e-01 3.548887893105695523e-01
1.561609850750630413e-01 -7.681171483633252306e-01 2.069531678487720183e-01
-1.666062380077196203e-01 -4.919277495778103804e-01 5.736366882557331071e-01
-1.214686785356274001e-01 -7.010987431207609255e-01 3.118500166445081212e-01
-1.073427672280178741e-01 -5.720478357272121839e-01 4.700102234157812475e-01
9.962965815170103656e-02 -8.691635610950666502e-01 8.674623045892486395e-02
-1.351042798912009124e-01 -3.241978758924591864e-01 7.781507315480853393e-01
3.929139133999787203e-01 -6.995306767793155744e-01 2.726994477518179250e-01
-1.015009967970472403e-02 -8.481847222375117346e-01 1.214091709161107258e-01
-8.724036845134794382e-02 -3.256042520149237673e-01 7.725917256010469414e-01
8.151506089331787830e-02 -7.303952806143323429e-01 2.594758580381762436e-01
2.488411199374985783e-01 -4.438946743981737053e-01 5.997406305584735975e-01
3.217783523292779002e-02 -7.713903114707275632e-01 2.128161683096070622e-01
-3.278082554310320917e-01 -3.080270821521967073e-01 8.135025949569321124e-01
3.530933158699064989e-01 -8.420870522396324276e-01 9.992168990490790659e-02
-3.971315376572680245e-02 -4.351916663683614295e-01 6.335309431070638153e-01
-1.230998310100340914e-01 -7.257453292925915012e-01 2.815588372235536263e-01
4.048378019785275339e-01 -6.344979629700182588e-01 3.520174015963147274e-01
3.319236985063133138e-01 -5.682162299492464763e-01 4.396534202408846626e-01
-1.141229940919112062e-01 -7.156930721802731155e-01 2.932493936327148498e-01
-1.988858911353627024e-01 -5.808895216317558896e-01 4.664088238727805980e-01
6.171786606227686739e-02 -6.416305451150546846e-01 3.706201301657775504e-01
3.654554015916937071e-01 -8.576576552506357531e-01 7.971536213187277453e-02
7.807878481543853444e-02 -6.102341615483177772e-01 4.080661028271881374e-01
-3.451190487016979613e-01 -3.940316800790928942e-01 7.087291628821391631e-01
1.228647293973435112e-01 -2.394232946506583692e-01 8.621834935329636407e-01
1.656756506171949694e-02 -2.449337218608070299e-01 8.638723630700652079e-01
5.836454087704101568e-02 -9.748289017819429247e-01 -4.038126512800849222e-02
3.360817067288409121e-01 -8.666938088888576086e-01 7.090817842969747431e-02
-1.603961840824806029e-01 -5.778136324228186904e-01 4.671310715273372383e-01
2.216276935222941114e-01 -8.897333056847674948e-01 5.161230950218870933e-02
1.241730320848660613e-01 -5.014250257331034355e-01 5.386882841372104824e-01
7.597649609804178750e-02 -3.110445593267773812e-01 7.775260007981519284e-01
-1.293882969971272244e-02 -4.688117553545727012e-01 5.898948287674429247e-01
-4.125601192520605281e-02 -1.719530546876444355e-01 9.585715785359264496e-01
2.755856911021444255e-01 -8.778773163795566825e-01 6.193637906396069065e-02
3.709253146020293629e-02 -3.193316434462988851e-01 7.704030271501113303e-01
2.880920087945175734e-01 -8.329951340071921617e-01 1.163358590084735966e-01
1.308381446646250390e-01 -2.908720033777868474e-01 7.980430925292968380e-01
-9.793296114084987236e-02 -2.765031607856155982e-01 8.340516375491284773e-01
2.392410869322148248e-01 -5.959174956768991116e-01 4.128645153122056377e-01
3.839902518818294475e-01 -7.978465795025928564e-01 1.520601616348470075e-01
-1.278893212692603087e-01 -3.502795210588915409e-01 7.453816694306806268e-01
-3.742111025370556399e-02 -7.359032829501094275e-01 2.621772547848080226e-01
3.952328175784666220e-01 -7.861237407334226157e-01 1.656317556406191327e-01
-9.274496952464304778e-02 -4.399516655202804216e-01 6.318915293234500519e-01
-2.600810250048865568e-01 -5.357125733612833063e-01 5.270590011236820915e-01
5.506101380559034197e-01 -8.412258004751264062e-01 8.520818485309460122e-02
-2.010465345298466724e-02 -9.566661777852555337e-01 -1.169519160394204282e-02
-1.086530162622533630e-01 -3.780147413066518580e-01 7.096113882800172412e-01
-7.897716792095316185e-02 -3.998158438826743266e-01 6.803317800971552254e-01
-3.144688397287432324e-01 -2.923686745806201581e-01 8.317644063522000586e-01
3.755239843680603928e-01 -8.818967153168441042e-01 4.899268491551932864e-02
-7.652119131842448178e-03 -8.530993516431131241e-01 1.151434819250038155e-01
5.991354514810714321e-02 -3.446891669409928305e-01 7.372812282421171703e-01
9.365595739205281878e-02 -7.066510270137547067e-01 2.878138211736134267e-01
-4.616714520603381056e-01 -3.205593138577287893e-01 8.087262209876746599e-01
3.164103237556240567e-01 -5.735284438238840155e-01 4.343356374873274528e-01
1.727766381136971729e-01 -8.676679669605760203e-01 8.274967615499147222e-02
1.112720103676828054e-01 -6.160911734862321021e-01 3.981854570726711118e-01
-3.327326349476806278e-01 -4.323811592223927303e-01 6.604047535986303785e-01
-2.201013583270179652e-02 -8.144635910453522643e-01 1.639787313346681707e-01
1.058773816557018466e-01 -9.093266857787386526e-01 3.667354955586764331e-02
7.682852071694828977e-02 -4.735515719890447395e-01 5.768743164602332385e-01
-2.249460105397002307e-01 -4.842401701995945884e-01 5.877853846920615410e-01
-1.388359676828660183e-01 -6.533317582558446635e-01 3.721963690087711774e-01
-3.650674758156682853e-01 -3.634082405024229856e-01 7.481212752840905589e-01
1.194016279538842457e-01 -3.317269995680305339e-01 7.485289490084693353e-01
1.082129826672358908e-01 -5.208515766151955440e-01 5.159847468521311376e-01
1.499167952922020042e-01 -5.584489206631152447e-01 4.662469914230616963e-01
5.372745404804516595e-02 -3.646568139671247932e-01 7.131291220184377000e-01
2.015837551561072138e-01 -9.185006711497680776e-01 1.770553297610351004e-02
3.436423928307371506e-02 -9.675173607681107901e-01 -2.943956325660995049e-02
-1.544032486879091115e-01 -6.141281006991187175e-01 4.218291672751841581e-01
-2.138732308545807370e-01 -6.596331345639556698e-01 3.704120955903447143e-01
-1.519616863706190202e-01 -3.364007307250483358e-01 7.644351326208203012e-01
2.715851316721630271e-01 -4.940310912730982440e-01 5.360402074724222032e-01
-1.798753653676720687e-01 -5.552186781789107961e-01 4.965760832641250011e-01
-1.931699527196219235e-01 -6.570839580763091492e-01 3.719048996294614939e-01
1.579758931553932599e-01 -3.875168500507323865e-01 6.765860168991784107e-01
1.812922678739057603e-01 -4.291532767081224775e-01 6.233314785395046576e-01
2.596059209127440232e-02 -9.688353352007164077e-01 -3.039511202487478816e-02
-1.834659379900556442e-01 -5.034033383924769733e-01 5.608189424426341940e-01
7.096653154754985204e-02 -5.243512801816717639e-01 5.146400775167362385e-01
5.241037450752693561e-01 -8.437818498390274868e-01 8.417041838483192706e-02
-1.317775674033976330e-01 -2.408679134539351840e-01 8.807398121617103781e-01
2.839741310213492534e-02 -7.186961347891417384e-01 2.781589466167636027e-01
1.786734462338577245e-01 -8.226330234881701342e-01 1.378656414533031282e-01
3.531925998308788062e-01 -6.182804374729841124e-01 3.761599493860555699e-01
-1.395835061168022341e-02 -1.880068811247652405e-01 9.365758330306087620e-01
2.403623913492604000e-02 -6.254960860088211172e-01 3.935448150946407320e-01
-6.719838525765768622e-02 -6.374014952412567769e-01 3.861371975399375822e-01
4.235010618816644201e-01 -6.730577838201876606e-01 3.029320061022826582e-01
1.460914688339673417e-01 -5.508583526138814968e-01 4.759216327021609794e-01
3.764196119590462741e-01 -8.319073238770821055e-01 1.106234293666364527e-01
-2.767091525048948064e-01 -2.539017348813468744e-01 8.762284040588242950e-01
-2.382286572189210583e-01 -3.843303370886397285e-01 7.121657885344745420e-01
8.992081225343591389e-02 -8.111041303191611762e-01 1.591849120913015614e-01
2.610475471841467998e-01 -6.294295850989439778e-01 3.697585112149911479e-01
4.764693295624946034e-01 -7.508213077271475022e-01 2.027170898915891806e-01
4.094717338146313668e-01 -6.566209244434563219e-01 3.243407307547940821e-01
1.601170447574994937e-01 -5.618311621729249472e-01 4.612575255811821040e-01
2.382052702514293185e-01 -7.528352850509510974e-01 2.192624417153392624e-01
1.064646736780235775e-02 -5.908187351157881961e-01 4.374168315351860681e-01
-9.679192517068560542e-02 -4.529108442882306407e-01 6.162191658961847507e-01
-1.637378924413080417e-01 -2.312176566906362085e-01 8.952040112705619279e-01
3.704021405611797046e-01 -6.759263116715548136e-01 3.036326096088061144e-01
-3.076766635917456694e-01 -3.571389147126367014e-01 7.512754897003350862e-01
-3.237049308940618819e-01 -2.711419464369909105e-01 8.587024447561729668e-01
1.641961744775758958e-01 -4.780559714459025056e-01 5.643360558841430397e-01
1.394555643904214770e-01 -9.335231370789096594e-01 4.125647454536652756e-03
5.198485091583586737e-01 -8.495856837398246819e-01 7.734658728207922940e-02
1.790553281316461798e-01 -6.411378668778190404e-01 3.618559771872879582e-01
4.963561287812897488e-02 -5.461938004175636019e-01 4.893834864867126488e-01
2.153077600091669597e-01 -5.409892296127319922e-01 4.825745498713073789e-01
3.331591565244028663e-01 -7.133310316772448756e-01 2.604384462665232935e-01
2.092341647081995826e-01 -3.934141226220845833e-01 6.652127408832060329e-01
-2.269192034325468177e-01 -3.665165406240931123e-01 7.332501548331521457e-01
1.332309701441891127e-02 -2.763909483411187695e-01 8.253036217879617942e-01
2.875122757844451177e-02 -8.526599348703811643e-01 1.127781587598436358e-01
-1.063424369950382309e-01 -7.381673061248731349e-01 2.648878094607688416e-01
6.218205397932463629e-02 -4.266404773360802927e-01 6.359469128008899963e-01
1.972141672111966393e-01 -8.839397760406604299e-01 6.071332462197735758e-02
4.573560679529236062e-01 -7.671956379822075789e-01 1.840327927099900396e-01
2.713277620838438486e-01 -7.283310241636906657e-01 2.468625934306598602e-01
-2.662704696866998177e-01 -4.189525146630855845e-01 6.716711994190345258e-01
-6.589591061529245352e-04 -7.145189760258526812e-01 2.856357079162807344e-01
1.586334128646040842e-01 -6.202790789959901074e-01 3.892333261030203051e-01
2.719600988083142878e-02 -6.094354026393011825e-01 4.131162524417191229e-01
-1.275238567039932158e-01 -7.541904644853487660e-01 2.468021594573069355e-01
2.001991481498942640e-02 -6.351632306442074327e-01 3.819333875228286823e-01
1.299568831122668022e-01 -8.044310214819941907e-01 1.642237200041880840e-01
8.101830535578295744e-02 -1.635336465241053749e-01 9.591971192180003269e-01
4.607706201915631183e-01 -7.993534739527580202e-01 1.440673980383004316e-01
8.083672099294969549e-02 -8.175606659787330033e-01 1.519411486303336445e-01
7.904243289105213066e-02 -9.340797462776558868e-01 8.264088337704556322e-03
-7.410855113238837277e-02 -4.908906769026940564e-01 5.675285496994428858e-01
1.655121548622246475e-01 -5.005627738778070102e-01 5.364506269232609537e-01
2.910388464915529272e-01 -7.101029873958046856e-01 2.677871837297998714e-01
2.730598706202289061e-01 -5.791391851707319294e-01 4.308728523464918081e-01
-3.078020775190207781e-01 -4.612056065529586135e-01 6.228352057747987836e-01
-2.218226426822127173e-01 -2.645571635761602147e-01 8.586922964477849973e-01
2.368238456758614552e-01 -6.851859322357234383e-01 3.028728878318623363e-01
-1.878682953261006094e-01 -3.311299581707571882e-01 7.738089087939432620e-01
5.626340756983455593e-02 -2.592215873171617724e-01 8.430660581533886422e-01
5.000029758910727873e-01 -8.091186913711074791e-01 1.288804524182359801e-01
-2.082490127863519391e-01 -2.804240335582471322e-01 8.380235126538199131e-01
2.370281310637609717e-01 -7.263838490690285310e-01 2.520056716985376588e-01
3.001764620141782886e-02 -2.521866214780316695e-01 8.538457361488537289e-01
1.130010723126458339e-01 -8.307386414891658744e-01 1.331063632159546206e-01
1.072995355862552125e-01 -5.657266921606417531e-01 4.606680149674063918e-01
3.494511982259167291e-03 -7.548731835492024089e-01 2.354944493600933386e-01
-1.855682428856192112e-01 -2.860190486447979907e-01 8.293059285742421238e-01
-2.537380586941793692e-01 -3.414810520013584760e-01 7.662937892135734952e-01
-7.087541744788655729e-02 -8.210520954317711562e-01 1.597495800006728250e-01
8.741681192996224314e-02 -9.213346300901081865e-01 2.332658199229887749e-02
1.775513077374453810e-02 -3.445346840388768261e-01 7.408392893174956528e-01
1.890017993331081780e-01 -5.190708136385474569e-01 5.117297908206883683e-01
2.834125481281835612e-01 -6.405070215912282983e-01 3.542991549979779831e-01
-3.110054208898499831e-02 -6.489197518037559398e-01 3.690368300812372215e-01
2.145360753295392497e-01 -6.537588586899029108e-01 3.434437855303824616e-01
-8.495594355155951932e-03 -1.676708300372989346e-01 9.612404391596729436e-01
-1.965091225876901271e-01 -6.642402220476976149e-01 3.633385836030689209e-01
-5.139280217483845059e-02 -2.900323820446916168e-01 8.136350466202388887e-01
-4.193761197392632811e-02 -7.507029210418849630e-01 2.442707033077748113e-01
9.147734395956835796e-02 -9.194746322330081822e-01 2.529805844445082511e-02
-2.136772312702961418e-01 -5.408114592765309592e-01 5.170589286877917967e-01
1.396796058271876015e-02 -2.843632999216265111e-01 8.154117800592349807e-01
-4.531778997830607225e-02 -6.092325988734748066e-01 4.191585771268625527e-01
-1.091489993188314717e-01 -2.294720760942615123e-01 8.929983347806864646e-01
-3.812553058801026462e-01 -3.178381810092576476e-01 8.056617374328222114e-01
-1.531242916541784571e-01 -2.372102967322221034e-01 8.869594946419255832e-01
