6.622002036350188581e-02 3.282142414999470459e-01 -4.521395012194728835e-01
4.034894455907149791e-01 5.106135373944241662e-01 -8.688461259168182849e-02
2.443702617200564087e-01 6.538249924916784694e-01 7.231312778490267545e-02
-1.836841124618067700e-01 1.897375856841972408e-01 -7.275886028379398018e-01
-2.629489929705195461e-01 5.666356963998795404e-01 -2.064443754812984311e-01
2.427335847572258121e-01 6.622662259945554242e-01 8.402669116885175260e-02
8.238438615245624597e-02 8.443374791877397145e-01 2.990460128832562736e-01
4.372031894680408759e-01 1.807161488118595727e-01 -5.537740779686468606e-01
4.098091999841623756e-01 5.035193375580164776e-01 -9.524094885881237427e-02
-2.112068120806326332e-01 7.970627281101783090e-01 1.423281475236989335e-01
5.282841735110430648e-01 7.217547257902269253e-01 2.559859241504547356e-01
1.779927044771348332e-01 5.226259655043582475e-01 -1.373790420477874197e-01
3.424542066083413050e-01 8.601324707139458292e-01 4.001552930653866080e-01
1.956037160388695295e-01 -1.642744959149889869e-02 -9.115569879595455394e-01
3.474934015225089601e-02 3.134265920008880157e-01 -4.829939140034745781e-01
4.811303525414455939e-01 7.886331636092674957e-01 3.385017782261016128e-01
-1.801050548126851836e-01 8.223930391873988943e-02 -8.819553448975834264e-01
4.012296769490299453e-01 8.536723907855777727e-01 4.085027544014470657e-01
-3.036669530591615818e-01 6.149006357431803238e-01 -1.489069668330675056e-01
-5.730448385696822189e-02 7.521496248674029196e-03 -9.530406988472268637e-01
3.447593334662154563e-01 1.620902555598334460e-02 -8.194749817848507867e-01
1.644903671477261353e-01 3.163066409827559045e-01 -4.397830115241171955e-01
2.426483095365005171e-01 5.452653924344520731e-02 -7.947982758136186154e-01
-1.139829801728331066e-01 2.058362845607235869e-01 -6.833327195680943822e-01
-4.709757739797146986e-02 3.988911793744071704e-02 -9.031648792063493580e-01
-2.164199294982121768e-01 1.563074015232872316e-01 -7.857811076990798282e-01
-1.941775390487514297e-01 8.292162269925948959e-01 1.939475736849644860e-01
4.361760829659558913e-01 3.401943296642555570e-01 -3.234757173829584387e-01
-1.966511994960491172e-01 3.207121463567995101e-01 -5.421002453547768551e-01
-6.242569462801996621e-02 8.398555247623973319e-01 2.489836155979990306e-01
3.045798019222821229e-01 3.714362005064801298e-01 -3.179042400581527095e-01
-6.531677788614236035e-02 6.402681220487946856e-01 -4.049239097534865217e-02
1.089281787284653163e-01 1.631324827896917795e-01 -6.779965520572635018e-01
-2.550214148581460005e-01 6.207834290096153618e-01 -1.257602160232977051e-01
1.500276201089291439e-01 1.920170391021134570e-01 -6.238600014878503686e-01
4.871894737512766360e-02 3.453720475773791598e-01 -4.325961452873050561e-01
-2.671177259492881761e-01 1.778684972598796876e-01 -7.698612856142325045e-01
2.966926491204414651e-01 3.967689143910419491e-01 -2.836464985692049301e-01
-1.413403500801504453e-01 8.925078761806350958e-01 3.013697606473448309e-01
-2.572135112252946776e-01 9.352268901099644038e-01 3.282692967798755412e-01
-2.978136919173102748e-01 1.304479207516607564e-01 -8.476701704134598225e-01
2.060413736155383424e-01 8.885555529250869222e-01 4.002011969781020806e-01
2.768490352003605270e-02 2.228349535018799288e-01 -6.161166566313781567e-01
1.154557734929295872e-02 1.071241552107541489e-01 -7.882931639086766529e-01
3.897423770169948509e-02 5.695143814524818993e-01 -1.114162117252615603e-01
-1.814369096497135403e-01 8.026073207961834655e-01 1.593051238618612420e-01
3.633758242825369522e-01 6.484473795801739548e-01 1.003524459977528926e-01
-1.501425267630809683e-03 8.661467642387056243e-01 3.053365941407550355e-01
-1.986631935624581236e-01 3.021746159955385203e-01 -5.695112709016143526e-01
4.482866519453024279e-01 6.508495024426936837e-01 1.293803525587668701e-01
-1.018134336826068964e-01 4.465762810970523855e-01 -3.315571324918738516e-01
-3.171197883731230460e-02 8.410337436393895694e-02 -8.346001178848119206e-01
3.175866918288943186e-01 1.222344642324629665e-01 -6.743386155686412753e-01
1.755832481792400368e-01 1.434163412344255373e-01 -6.864461130476737782e-01
-3.305950370014107964e-01 3.590943044806114148e-01 -5.269103327099300405e-01
-3.336319395037793401e-01 3.030144950366054357e-01 -6.089164225898145988e-01
4.279229111985355383e-01 6.650438961136420080e-01 1.437770400509456592e-01
3.660174480574052147e-01 -2.604565667899834749e-02 -8.741780357948698565e-01
9.622065176800462249e-02 8.364151028756676709e-01 2.917542605956269242e-01
-1.474105173527319457e-01 3.805720415997033146e-01 -4.407228077697007418e-01
2.863943830468113627e-01 2.076686780247814779e-01 -5.601871641184955619e-01
2.552809559121441696e-01 3.311877853523290116e-02 -8.219523013446223825e-01
3.720259908861011100e-01 6.954540948999049510e-01 1.709280709922968988e-01
2.670485289573519272e-01 8.625247506604007963e-01 3.809207838995111173e-01
-2.565526809529796587e-02 8.084563254529412157e-01 2.146462480312788523e-01
-2.394237512828884529e-01 3.671831152577745283e-01 -4.877752820387588062e-01
1.135177076891068504e-01 6.827605472775756246e-01 7.477347177229630437e-02
-1.633694676155746650e-01 8.382672803587385424e-01 2.163073796713830821e-01
4.423432300029865316e-01 -4.975087515666425791e-02 -8.854853956066487397e-01
4.638909756635893888e-01 2.538620886736402821e-02 -7.703512990480209099e-01
1.141884991057263848e-01 4.746736474134485295e-01 -2.259209487340375910e-01
-9.633358095692309830e-02 8.427571404673075417e-01 2.429746135554220754e-01
4.919362179995736550e-01 1.838664097657189689e-01 -5.327465380285730800e-01
-1.675736632260449721e-01 8.351434107412765151e-01 2.105249474738919990e-01
3.184820410186602752e-02 4.820007345751701755e-01 -2.401066773548981570e-01
3.255863879445544673e-01 7.487483578683735708e-01 2.340159838300650275e-01
5.784267206673778666e-02 3.535803072988672469e-01 -4.179810596182008120e-01
-3.362749223952892774e-01 1.670936487524428415e-01 -8.062551130098029040e-01
3.265495796577123910e-02 8.103764288948969163e-01 2.349715429494880770e-01
-7.069730722191497341e-03 1.323486126886133374e-01 -7.574206631524642575e-01
-2.098214996865737647e-01 2.528204383139894817e-01 -6.442361954206070607e-01
4.798262855964762208e-01 -5.962912624467310574e-02 -8.884887289631202556e-01
1.981230492627408524e-01 7.849183335120010208e-01 2.479573962562037215e-01
1.193728054901039143e-01 1.382765671622883941e-01 -7.107951505812394322e-01
-1.061426245860843387e-01 6.176952609531056737e-01 -8.541981022099860710e-02
3.360550146417085604e-01 5.029337017432204959e-01 -1.182845358276434500e-01
-2.262579120521822362e-01 6.325077301427783905e-01 -1.001501846211557550e-01
4.083383972739815237e-01 4.751268025466383049e-01 -1.367395615692227340e-01
1.367348679661554434e-01 8.930474163860862014e-01 3.858382934438405187e-01
4.321517393818525288e-01 1.568955655842095565e-01 -5.897392069640067236e-01
1.143656759349229723e-01 4.768810891043908651e-01 -2.226756376281636973e-01
1.393857873799022595e-01 5.783624521936676643e-01 -6.840235043772439905e-02
4.475553858322055545e-01 1.178794452119974884e-01 -6.415211955697577295e-01
5.557345736212981197e-02 2.204995265005550431e-01 -6.111004915829709727e-01
-9.715535714616861662e-02 9.357655752794457049e-01 3.772186728158679059e-01
-3.491385386639344057e-01 6.804016693448756981e-02 -9.533590852783417890e-01
-2.861409432699634769e-01 7.074944263158013946e-01 -9.740615727200276769e-03
3.347735532494225397e-01 5.456660860871180851e-01 -5.687862877924958899e-02
2.983711158409492747e-01 -3.941662804221365141e-02 -9.138711864414094110e-01
-1.434001452218697792e-01 5.688357188303294620e-01 -1.672841955282805271e-01
4.924173071712678040e-01 8.046660836908007264e-01 3.650824587229914986e-01
1.770726772465678125e-02 4.239539478368656300e-01 -3.282988648171364376e-01
4.810323389036528785e-01 2.286626033530823610e-01 -4.712522590680579548e-01
-5.653964352994809636e-03 2.886756423708586317e-01 -5.309437103968963623e-01
3.591647209862725565e-01 3.977196523348898449e-02 -7.810672868734115371e-01
-3.260315102869172921e-01 5.067652073765098741e-01 -3.120029124402693976e-01
3.186316698306057016e-01 1.697423766963489511e-01 -6.053270787904098116e-01
1.192661753363815774e-01 1.261782724338832706e-01 -7.283215293221968478e-01
-5.410115039214045268e-02 7.924429845458484944e-01 1.829298003980305287e-01
6.670865440444667671e-02 1.668364839632484886e-01 -6.853467302201576850e-01
-1.233938242662340895e-01 8.850754757532667272e-01 2.960235263722329480e-01
-6.090764564901306882e-02 5.848300733251704867e-03 -9.565445532593654931e-01
-9.002050440055309188e-02 2.992480781147333624e-01 -5.410464339711459347e-01
2.872218911374967987e-01 3.702241681338194063e-02 -8.066947809937101699e-01
2.863587075808666782e-01 2.865807450306694371e-01 -4.460900500983049355e-01
8.001693578033361454e-02 1.673654407281155998e-01 -6.805766475016703509e-01
-1.982592771273203325e-01 7.348002510463361725e-01 5.619245099571136548e-02
-2.303224483138988365e-01 9.583126614045914815e-01 3.697446366269646623e-01
3.250621681483923942e-01 7.927079488268212737e-01 2.974243434770789674e-01
-3.323790466604069072e-01 3.397723432482473438e-01 -5.553870420248987472e-01
-3.160894176810304379e-01 6.182232390497870156e-02 -9.524038404651031797e-01
-2.866934299466840017e-02 3.580206398581979865e-01 -4.375965754082060677e-01
-2.533584904097099799e-01 5.002807086312017759e-01 -2.995082128296424062e-01
2.219940206967171148e-01 1.960727063269670500e-01 -5.963367492426842054e-01
-5.348305010426406686e-02 2.694908363295415721e-01 -5.730796244581911614e-01
3.740795319091644866e-01 4.529608627717596758e-01 -1.791021962713799653e-01
-2.192032809285242578e-01 3.147535152127896307e-02 -9.671275026380762307e-01
-7.240427448575961766e-02 -1.107602992156252891e-04 -9.686214083430293442e-01
-1.431063554034965601e-01 6.213680352927564154e-01 -9.123338122193104527e-02
6.190507922683283898e-02 2.547889841020838930e-01 -5.596119622032584839e-01
6.099826470379542814e-02 4.144550816682847638e-01 -3.290056690943514162e-01
1.945517705250719431e-01 3.616651477791439917e-01 -3.651468810028923873e-01
-2.096880712256341168e-04 8.740225227647309136e-01 3.171137967665321189e-01
2.493047175315415143e-01 8.051581602674560134e-01 2.926278628316100194e-01
-1.333471525829479053e-02 2.562265351960498205e-01 -5.801770979095317582e-01
-2.588954940770324953e-01 9.540067312074360650e-01 3.549189829344295832e-01
-1.604371289973069437e-01 5.617908404489286855e-01 -1.825985582588632861e-01
3.760888267280842467e-01 8.012721231177979408e-01 3.251650172890680479e-01
-1.770641428531810058e-01 6.633929283783202013e-01 -4.068464549457489338e-02
-1.970344836851001258e-01 7.090792009382838046e-01 1.936809467990939504e-02
4.575646096059682311e-01 4.699334402601673677e-01 -1.294343150619844396e-01
-3.891294929158144872e-02 8.961842533840380653e-01 3.375119695109777829e-01
3.832420914967158976e-01 6.086110402295089594e-01 4.872746195541309555e-02
-1.228093220605995101e-01 3.233071381543033973e-01 -5.161247126798022000e-01
4.066249905711485924e-02 5.346389125854898727e-02 -8.571236802731754256e-01
4.454392145974003236e-01 7.291105354676660766e-02 -7.071829348520241032e-01
3.384571790318013362e-01 -6.528100295613364912e-02 -9.392072675659132175e-01
-1.235350771775987205e-01 5.146930696356149387e-02 -9.094240880515348513e-01
2.465914606136460629e-01 1.284252783149608113e-01 -6.867530466946741852e-01
-2.638947325068853877e-01 6.161733414770922401e-01 -1.350969375718316656e-01
3.413543878902618456e-01 1.028298454467646839e-01 -6.952449146174456418e-01
-2.266190239341184520e-01 6.714471296864285010e-01 -4.395199722286943778e-02
-3.004591223566772107e-01 4.982829555463680893e-01 -3.165721977085813044e-01
1.275360418834534382e-01 1.914771968928117574e-01 -6.314095911835938546e-01
1.589812860427224639e-01 1.901675772765901717e-01 -6.238396890388147042e-01
2.238192058360610193e-01 6.566699661308007530e-01 7.024203624101744980e-02
-2.185380574555296218e-01 2.381474833455253237e-01 -6.680767732441049711e-01
1.695828676256793399e-01 8.170906180995231027e-01 2.858895949194925068e-01
3.850444306727459076e-01 -7.326178540233176106e-02 -9.367268765351485227e-01
-5.981920230960493731e-03 1.736789311219475163e-01 -6.973291150868731192e-01
2.730698985703283732e-01 3.155098177499622847e-01 -4.082575878619588705e-01
3.357171247665053371e-01 8.982782426817409460e-02 -7.157425693710118830e-01
1.101230513563656865e-01 7.716029574976508432e-01 2.022190833686515754e-01
-1.645062875672733405e-01 5.447032128532122153e-01 -2.085321215957995633e-01
2.570133089282292810e-02 -6.287768331262088076e-03 -9.480279890406887455e-01
4.743223384803036402e-01 2.864189616549333087e-02 -7.625041546977573415e-01
2.467454876662283133e-03 8.160887907354812398e-01 2.341465864333345248e-01
3.527002686495772643e-01 5.017907486267235706e-01 -1.149277747429274799e-01
4.077489720899308279e-01 4.181576716992644882e-01 -2.192950389851924808e-01
3.130894653854234821e-01 1.436367054320257797e-01 -6.447441694709540316e-01
-2.109315460581538404e-01 9.329833816985061423e-01 3.389539811691867910e-01
-7.905911709835473922e-02 7.590035812872252263e-01 1.270647538037804336e-01
-2.181214273958777261e-01 3.810097213399476490e-01 -4.613707760895363053e-01
-7.100705579239531551e-02 2.404785909466796434e-01 -6.203056508420304871e-01
1.877149259392326686e-01 3.638721720717522090e-02 -8.375604863999798200e-01
4.750919602886137239e-01 7.361529345870244656e-01 2.607974115754485012e-01
2.113052502127509003e-01 6.414837702338905823e-01 4.451645659465026245e-02
2.036268520494767184e-02 2.911202110364266571e-01 -5.195789713860793357e-01
4.875351855703828896e-01 3.236303868050565691e-01 -3.319705690381556940e-01
-3.223453511551784278e-01 1.050849621774021803e-01 -8.917282757486429956e-01
-2.909780976133097830e-01 8.110551002694833533e-01 1.385536639426429295e-01
3.655093604529496831e-02 2.415943439223146583e-01 -5.863220559674595656e-01
-2.539318101073815281e-01 9.384593521311208886e-02 -8.873905991817607752e-01
4.027683019883248061e-01 2.779958046236489788e-01 -4.234698398473835668e-01
1.110297827160312695e-01 1.720680212787591701e-01 -6.644431600387159520e-01
-1.335064325626163229e-01 2.606744075523927118e-02 -9.491564463675603580e-01
2.945300182981921422e-01 4.974707441529350738e-01 -1.386812305200855744e-01
-1.565732376760200772e-01 7.426935501025956343e-01 8.015191716156172541e-02
3.570210557641150806e-01 7.103375929181370285e-01 1.879339757746112671e-01
1.991587045572137948e-01 3.316200757238412788e-01 -4.072059531118774611e-01
1.269062428404859819e-02 2.682704711729854904e-02 -9.040591931436923190e-01
2.361752954793631398e-01 7.878687085135610557e-01 2.636757203191777976e-01
-9.605421404588480178e-03 2.892824553637146079e-01 -5.312554650389131883e-01
4.130035388691079556e-01 5.070116131563462414e-01 -8.922971917841950040e-02
2.042776080807136019e-01 7.171131013862345194e-01 1.517624199436977683e-01
4.639375903418009317e-01 8.304337275259799922e-01 3.937716627798052982e-01
9.765757200544275540e-02 1.446056613448771511e-01 -7.081785255906153376e-01
3.937686867773187993e-01 5.433951926159791279e-01 -4.240744172898504999e-02
1.313154204264657399e-01 8.976758470807901791e-01 3.909000487996297513e-01
3.414576977460775931e-01 4.165105363323773902e-01 -2.416275614036630659e-01
4.050751694329552399e-01 4.649975157827934136e-01 -1.523687261896570777e-01
-1.547245819822101742e-01 1.359098462898893078e-01 -7.967086586216158839e-01
3.332536740714762691e-01 7.865761281551651996e-01 2.910229341869737807e-01
2.359471391288751191e-02 2.663547312397953060e-01 -5.544174717965003607e-01
4.267634797668149460e-01 9.737848209407368172e-02 -6.774232933245014632e-01
1.203070790899867654e-01 1.279936393491427349e-01 -7.253832196888045925e-01
-1.017491838943897914e-01 2.977657870933522188e-01 -5.467196597737371544e-01
-2.562714826352560649e-01 9.245631991117078119e-01 3.131329731817646400e-01
2.998067510882271303e-01 4.478411451376572705e-01 -2.088581974348247550e-01
-1.847698939432496357e-01 4.560951732640358136e-01 -3.427589217581818448e-01
-1.228121642577547773e-01 3.249325405241806908e-02 -9.366461366421753310e-01
-1.548942411323069035e-01 4.045492806241971495e-01 -4.083036858317924955e-01
8.345240241104555368e-02 6.937908738398200770e-01 8.167513590105079935e-02
4.215962501572139143e-01 -6.459363144237356691e-02 -9.131921336388283406e-01
4.246712870182242638e-02 1.078968710208538101e-01 -7.778697866897724689e-01
2.339682107211913387e-01 1.072048028322736823e-01 -7.212371639779739940e-01
-4.875461159365473279e-03 5.626609726883413654e-01 -1.345231491834215087e-01
2.521637577570874367e-01 2.823231705734787766e-01 -4.625377254333023491e-01
8.535915156256754233e-02 3.724889569509063914e-01 -3.823576679480820695e-01
3.878307626099823935e-01 3.286041098198475563e-01 -3.547851271830901321e-01
4.167526989895763978e-01 7.243793564996898748e-01 2.262151288968454188e-01
4.930413882394880931e-02 3.019007245716998078e-01 -4.952801135028172541e-01
4.710249478547828272e-01 9.397334948516586350e-02 -6.690264125955599495e-01
2.681088021516850883e-01 1.749284822597493572e-01 -6.130330545637393547e-01
5.142549987960998159e-02 6.313516362197694187e-01 -1.825147662638892943e-02
-1.482379926797541547e-01 3.198236047252776826e-02 -9.450369458791822996e-01
-1.328298814121991467e-01 7.848354261719878711e-01 1.482353058646529997e-01
-4.996825746687736519e-02 3.722673718848510949e-01 -4.234056519495759119e-01
1.359469885732486338e-01 1.082424250994851039e-01 -7.492368047229291950e-01
1.247431096916181564e-01 1.971939449283567070e-01 -6.239836500975274314e-01
5.306256414512976888e-02 1.930205802282561889e-01 -6.515910646524173400e-01
2.885254199407535358e-01 7.617450111829950909e-01 2.416555961073749981e-01
5.000234882429173133e-01 2.847949862068032689e-01 -3.843686241868255471e-01
1.067109910325953204e-01 2.275911134506033717e-01 -5.854558292598611713e-01
1.889566536023122925e-02 9.086182807879531476e-01 3.728895690980902344e-01
1.496949217271647814e-01 1.733108313683425494e-01 -6.510095428740020340e-01
-1.036952301214160710e-01 4.554506439360528902e-01 -3.192910287178371553e-01
-2.093928285876626438e-01 2.139714731839725548e-01 -7.002832811701641402e-01
4.350560355042610433e-02 3.171257916526695197e-01 -4.750095760512187404e-01
3.738367936341812636e-01 7.420408544997356692e-01 2.388380884363789092e-01
3.756111440248723898e-01 4.916908572761901630e-01 -1.226371849460215629e-01
-2.056878499290221152e-01 2.374129648344089349e-01 -6.652715517993960104e-01
-3.281007731358138169e-01 2.397605589029156437e-01 -6.987177806904654176e-01
-2.952503396075659703e-01 9.010505523655829019e-02 -9.052350103864096331e-01
4.134107311978431065e-01 8.298900164477032160e-01 3.777790981422449179e-01
-2.551672618618305299e-01 7.250014095138462844e-02 -9.186287050666056553e-01
-3.344156264663131206e-01 2.093321174484475689e-01 -7.446181851143446329e-01
-1.688807549105836858e-01 7.940615557270911395e-01 1.507266867190574233e-01
-2.117902844747208135e-01 1.974884695440385363e-01 -7.248394419658062970e-01
3.549993710269233604e-01 4.097939282452142118e-01 -2.472644168025633360e-01
4.656728741519422510e-01 4.603045627597003309e-01 -1.409175649007816111e-01
5.040858601381129622e-01 5.267398336319627505e-01 -3.329070867667810463e-02
-3.063543436164502531e-01 3.851609161037505835e-01 -4.819223039946686216e-01
-1.498960199132300386e-01 3.697014262778170468e-01 -4.571898819599117814e-01
2.031949590190872679e-01 1.057419393365792992e-01 -7.326138718718473442e-01
1.229041880931312919e-01 5.449599705764742730e-01 -1.216629958983020676e-01
-5.785585459044240153e-02 5.342573542776228868e-01 -1.915398989172227007e-01
-5.599330544859768694e-02 9.988985876309676437e-02 -8.190802671898976817e-01
-2.431348655299556127e-01 7.870291230106295499e-01 1.182104941681982463e-01
8.994553264051136088e-02 8.677468000140371451e-01 3.351717589231973937e-01
-1.378992477510454506e-01 8.426623248830520385e-01 2.303280803495120488e-01
-6.758071083362213183e-02 5.127788391964070019e-02 -8.928610968950420057e-01
1.132901388368932893e-01 6.272882630849917485e-01 -5.508643613603038738e-03
2.475981544135718304e-01 5.254156157977984964e-01 -1.123970081602009008e-01
-1.792348824531168339e-01 3.572218067356867088e-01 -4.840652712222398013e-01
1.503730126760031705e-01 3.977113089092226272e-01 -3.263195279530269333e-01
4.360281332168058910e-01 4.487517778865826590e-01 -1.665447953429745331e-01
2.075291622056747165e-01 4.239478864660430335e-01 -2.711796287729222876e-01
-1.432422595501992545e-02 4.984397395540663966e-01 -2.302315282543913599e-01
3.864295764376206588e-01 3.075809300581451855e-01 -3.856066071399697481e-01
2.768099164334894904e-02 8.958968636143682662e-01 3.571382332884917021e-01
2.883567632880142950e-01 6.020890163978035448e-01 1.074024245572731406e-02
-9.797967923140325774e-03 3.355229561155366191e-01 -4.644490618743153387e-01
-1.546022149460493655e-01 5.544905953468721727e-01 -1.913987541110520052e-01
2.911701576368133648e-02 2.943547054903892790e-01 -5.122671847490184449e-01
-5.321455006413729899e-02 5.829488819516189801e-01 -1.197345041774604407e-01
1.992388354479426860e-01 5.101576149910321822e-01 -1.490142887609013644e-01
5.063817760116308131e-01 7.660582401196052160e-01 3.134577147003352882e-01
7.048243727000948200e-02 4.186241330237955305e-02 -8.649250812112513342e-01
-3.089970639233108884e-01 5.495567838754946699e-01 -2.449991340401223017e-01
1.666311064352664628e-01 7.036090028315898914e-01 1.209053888164294127e-01
-1.110476037100953939e-01 9.366560303341618932e-01 3.743253298967080256e-01
5.921455173328761534e-02 4.998785082099994059e-01 -2.060191285496283387e-01
-1.995914097054958258e-01 7.189892599254101846e-01 3.292864406733666399e-02
4.202322845182323574e-01 1.793933726830278796e-01 -5.607943213880683953e-01
3.445740852526918419e-01 -2.330872691900243987e-01 7.111054293582246277e-01
-8.618846859426076978e-02 -5.051069603048633505e-01 1.881210117317593244e-01
-1.351512026135373579e-01 2.342309148519387471e-02 9.376465578607839912e-01
2.327425853750073326e-01 -8.282761017039911300e-01 -1.832015179330966637e-01
4.998182802604905772e-02 -5.921027407845171897e-01 1.033052497543712339e-01
-1.360111032654403584e-01 -4.598663901649904240e-01 2.385450394556066778e-01
-2.920360846392519028e-01 -4.227575789256768357e-03 8.504479261291010284e-01
-3.472146521749110426e-01 -7.720109022087786599e-01 -2.763828218108048684e-01
1.334787155895560996e-02 -5.561418475351743718e-01 1.442799561317871515e-01
-2.760079753917311744e-03 -3.686211754534760021e-01 4.105894472882548607e-01
2.637440256816731554e-01 -4.928670219000358399e-02 9.525571072110713411e-01
-1.886861666900970513e-01 -4.104929409298190834e-01 2.940868078335696079e-01
3.125457240404857506e-01 -4.764091944606207440e-01 3.496197150016534527e-01
1.637548938371718998e-01 -2.819933389594564410e-01 5.859680464353280716e-01
-4.597664637276815958e-01 -4.623830933958185674e-01 1.374697998363914320e-01
-1.452364519173922897e-01 -5.556594267257232156e-01 9.725067017926523893e-02
-3.095925844895121015e-01 -6.906929706884074038e-01 -1.474734807922396529e-01
2.999415284715474250e-01 -5.796747498785449482e-01 1.965031049962856491e-01
7.342230500928448311e-02 -3.134283520994057132e-02 9.212257402230715764e-01
-1.139751718672768477e-01 -7.955110107472025405e-01 -2.401695018029498530e-01
9.967447783813257467e-02 -1.272352336483163482e-01 7.904648584100399944e-01
-1.335920608610349780e-01 -7.184719520301537932e-01 -1.346738614079894814e-01
-2.275706783093344454e-01 -4.947797788649676010e-01 1.605044506169106822e-01
-2.666932723861581422e-01 -8.264136567765631991e-01 -3.308165190230519803e-01
-7.011847161113081428e-02 -8.650857994734049150e-01 -3.275766011383255405e-01
-7.513505134559034238e-02 -1.155769319345332641e-01 7.547129683061188921e-01
-1.884397292512680067e-01 -4.422578269602709944e-01 2.482285461238274704e-01
5.115376188167786858e-02 -6.442374176741125780e-01 2.827054536546875357e-02
2.747098360017462548e-01 -3.781589768215572467e-01 4.803038469898950891e-01
-1.168194485172329988e-01 -5.888808615914928879e-01 5.776431568829273194e-02
-1.587274339850906213e-01 -6.435847844132452922e-02 8.036178896046977105e-01
2.224177133360757119e-01 -2.101075064234030065e-01 7.075707889505948867e-01
3.204917776083880954e-01 -5.690646283293003815e-01 2.180301922133031367e-01
-5.080265263102111684e-01 -5.574149855492721573e-01 -1.447166867698484669e-02
-3.317026197361728768e-01 -6.982479206370713065e-01 -1.650521777690268921e-01
5.708654918538043355e-02 -7.103762651823027907e-01 -6.558156105796353330e-02
-2.860051872779855731e-01 -6.970327373906466395e-01 -1.495420998422068992e-01
-8.837781142890334396e-02 -6.837593088698871169e-01 -7.087144789781242571e-02
8.195496260555726331e-02 -3.981922734118295004e-01 3.933247478866717106e-01
2.804383633927238773e-01 -1.661653876477648117e-01 7.885733019739209482e-01
1.659529151720083584e-01 -8.966730765241204271e-01 -3.022051507839138007e-01
-3.539345815516315441e-01 -5.020894104571291816e-01 1.119046804392747341e-01
-2.382010703438144639e-01 -8.300932827967351102e-01 -3.275624113924415215e-01
2.187418444139271057e-01 -4.746120521208129217e-01 3.239875836336574833e-01
-3.852355939418617981e-01 -1.181797155268185934e-01 6.576227520801855020e-01
-2.481934852151879978e-01 -7.608933216143617395e-01 -2.305056642106375342e-01
1.859583509144311086e-01 -7.225932461659305417e-02 8.959283532352252388e-01
-3.403119954044923623e-01 -2.373616996255076272e-01 4.988041076528315076e-01
-2.839307137803616099e-01 -1.290943931909202813e-01 6.723282812594766344e-01
1.854227068896630304e-01 -6.348511884515386505e-01 8.225217028113669671e-02
-3.916454199586709706e-01 -3.546451529545631698e-01 3.137616530504943047e-01
-5.399443842512050007e-02 -4.951122631155291387e-01 2.122624509926628322e-01
8.195601431769089073e-04 -4.960579278338981268e-01 2.273915988113019149e-01
-4.987590064189394434e-01 -7.412801288211903206e-01 -2.775538863018326419e-01
-3.555246472521743084e-01 -1.633994239323770525e-01 6.011761614634878459e-01
5.794926878699995648e-02 -7.182578930389814653e-01 -7.671885453262868027e-02
-4.962478584921655583e-02 -7.842342893971500084e-01 -2.044965974020161448e-01
-2.131784756183306428e-01 -7.854522191278677790e-01 -2.554801714511135691e-01
-4.210768274258000488e-01 -3.511988203685753041e-01 3.098875408284554878e-01
-2.167577250793484844e-01 -4.294734170796766226e-01 2.581924999210629679e-01
-3.561157470922065027e-01 -5.936714720881673957e-01 -2.118057783460854798e-02
-3.878796957429336278e-01 -7.600575802853540841e-01 -2.713365474302839586e-01
-3.963790248360810065e-01 -5.125066563053732871e-01 8.406730913283237683e-02
-3.416745266055709607e-01 -7.339940468339974933e-01 -2.197426333318035219e-01
-2.009177767470674003e-01 -6.297658253196960487e-01 -2.666574092288651748e-02
-1.989623509498815168e-01 -8.409852586249420836e-02 7.629645986313551287e-01
3.262311669081305876e-01 -3.261228893395483608e-01 5.710543337036403377e-01
1.103857547958518037e-01 -4.446605926182769508e-01 3.346873802729540825e-01
-3.282361472920479195e-01 -8.131571323346229452e-01 -3.301691017705868370e-01
2.799376440159474511e-01 -9.181030671547290023e-01 -2.988888236023292122e-01
3.042123942477829024e-01 -8.085310263212822646e-01 -1.331406344576578915e-01
-3.051231878073240589e-01 -7.424618604472998928e-01 -2.209868617701030158e-01
-3.356550030173921506e-01 -5.000131102866987032e-01 1.204083821003232857e-01
-3.237098100660799060e-01 2.464206456171532528e-02 8.826614011054383369e-01
-1.618058350865210493e-01 -7.911835923881678223e-01 -2.483069156180962023e-01
7.903400936812901567e-02 -7.870384704124346875e-01 -1.698308676004308682e-01
-2.459637942328039839e-01 -4.732929433159165922e-01 1.860391726277296209e-01
-3.153990591938871102e-01 -5.838417635590684718e-01 5.287229037686854566e-03
2.475239760142839973e-01 -9.460420711095636481e-02 8.821459016560071476e-01
-3.260689792863064040e-01 -7.514103163254856055e-01 -2.402302000938302540e-01
-3.140073579917814772e-01 -5.689036139226442135e-01 2.730682362097579252e-02
-2.074696839231774392e-01 -4.604666205706527959e-01 2.161712240765607251e-01
-4.642251698710646024e-01 -5.556555264996140275e-01 1.254803888754576959e-03
-2.007102319741302099e-01 -3.675909391372518820e-01 3.525049348753037659e-01
1.437269227420230888e-01 -4.453933836318431649e-01 3.436619731681336276e-01
2.711798316789464924e-01 -8.866017379912655150e-01 -2.559732161436851228e-01
-4.519369909709856081e-01 -3.105763238738575294e-01 3.593406411731649430e-01
-4.412383663832420977e-01 -5.790841454126918197e-01 -2.570526458525752497e-02
-1.918214902080817852e-01 -1.868837967362361741e-01 6.164848754708707190e-01
-2.119933262160749732e-01 -3.460352690825244104e-01 3.802789947466144738e-01
-4.495341307042723944e-01 4.152261825853891322e-03 8.151653266348808380e-01
-1.685012298568820677e-01 -1.030851470238973167e-01 7.446771545658458225e-01
-2.024202343340605337e-01 -1.459837603609853707e-01 6.724370937772250478e-01
-4.627530721780199197e-01 -4.185469489827660095e-01 1.999585840543978699e-01
2.397329191955676064e-01 -4.251862278586777677e-01 4.017753388143143756e-01
1.216771822234554157e-01 -3.562081769926472852e-01 4.659889168795341985e-01
-1.925902115951771687e-01 -5.814863390050704073e-01 4.565323831013713696e-02
2.811532809321016790e-01 -5.058635271742218942e-01 2.975806379912936395e-01
-3.744654918244748054e-01 -5.590768654595985598e-01 2.332120038527291453e-02
2.310340868786281421e-01 -7.530236848665035065e-01 -7.489975031937258498e-02
-2.705583593262801401e-01 -6.232840441925219244e-01 -3.825174063885179720e-02
3.076364100166390503e-01 -5.139222658591183768e-01 2.938978509442267129e-01
-2.691764855070551965e-01 2.572260732486500445e-02 9.006360001949866856e-01
-3.643747352538530548e-01 -6.708469420950823325e-01 -1.352628777070823685e-01
-9.402535985275815855e-02 -6.924590284284850572e-01 -8.515101530757489268e-02
3.101708069286199798e-01 -3.729682086506335148e-01 4.984819486817014256e-01
3.346654941088123003e-01 -4.859414119565278606e-02 9.749027867504124201e-01
-5.058301577188989429e-02 -5.357682472722964384e-01 1.545000691805505921e-01
3.091174255062922316e-01 -7.311316870128915513e-01 -1.974400952924582411e-02
-3.055080699680769452e-01 -7.791902339894367646e-01 -2.742123887358675072e-01
-1.057120302692671626e-01 -5.949419453593101093e-01 5.234275359723642579e-02
1.030693547189503317e-01 -1.606449002611901600e-01 7.431757642194624092e-01
-3.224904877195220454e-01 -3.684956213273115067e-01 3.145462781679100872e-01
3.011589945902572868e-02 -2.367887290241925125e-01 6.111150553258694051e-01
-1.443888857174786544e-01 -6.347421454440473065e-02 8.092118157478114249e-01
1.294364654191558495e-02 -6.729667832168850783e-01 -2.477203793923700784e-02
1.373456912403166197e-01 -6.419891957195107413e-01 5.746146425054669132e-02
-1.257195856581798110e-01 -3.516791747513960953e-01 3.980824184448819025e-01
3.089122788152225130e-02 -3.846158947025750674e-01 3.975884365288198663e-01
-3.748435885064594353e-01 4.412047194207362882e-02 8.954384180752390510e-01
5.965507767449807625e-02 -9.088352827337387030e-02 8.309858151533616732e-01
-4.823985055972780933e-01 -5.042611400608869587e-01 7.010236831850256978e-02
2.156938686428917507e-01 -8.617730379661419082e-01 -2.367694232961851664e-01
-3.751788333146381937e-01 -5.064845093466207038e-01 9.915573077592532147e-02
-1.495261262514699097e-01 -7.511130274744141078e-01 -1.866687203717185550e-01
2.978430233978353603e-01 -5.207530323884165258e-01 2.810730992760110403e-01
-3.951461818897225586e-01 -6.983666092435609762e-01 -1.843175112551020123e-01
-2.200249190429964252e-01 -8.162054790343802324e-01 -3.020102526047154790e-01
-3.764028987122742254e-01 -7.836126992562251203e-01 -3.019435398408497617e-01
-4.351384697618736475e-01 -7.821418018862975607e-01 -3.174934145758880888e-01
1.222631565259878900e-01 -3.751176504659226030e-01 4.388219305296773842e-01
-2.758021716727253603e-01 -2.574236448777210695e-01 4.892088859762462327e-01
2.878925218813223053e-01 -7.000441609631307127e-01 1.882118989168164724e-02
2.115484426902761173e-01 -4.772545774043556177e-01 3.180015625251605971e-01
3.633916814287966451e-02 -5.984541121838046207e-01 9.001524840060365351e-02
-6.537244835204953156e-03 -8.729090747921294802e-02 8.162598267965512910e-01
-3.968180916044424800e-01 -6.111292719867589263e-01 -5.867438494820696043e-02
-1.946471440064589387e-01 -7.540601229447454479e-01 -2.045096900122611305e-01
-2.396214432561673546e-01 -1.810548400269419433e-01 6.105279475779932241e-01
-6.458784368398121090e-02 -3.280891852308003287e-01 4.505917953438766665e-01
8.324210148870545001e-02 -3.873046255570533059e-01 4.094557968317295571e-01
1.508504608300715588e-01 -4.637282272184972132e-01 3.192934266948682653e-01
-1.718892801661477121e-01 -8.595161321310459401e-01 -3.501513069574092030e-01
-2.261463789771230304e-01 -7.050026356240036707e-01 -1.430518180970573594e-01
-3.214067358417202480e-02 -7.101056648094805634e-01 -9.204372004734462376e-02
-1.630496018000457126e-01 -7.826089584877162775e-01 -2.362822049456366758e-01
-3.239041433261505842e-01 -7.971485540141479698e-01 -3.057167525378171047e-01
2.282645941246188304e-01 -3.431359064620781441e-01 5.169696862734708409e-01
-2.974254678614466907e-01 -8.009363968129294686e-02 7.391226683845818490e-01
-3.874218461404598801e-01 -8.339659734907981514e-01 -3.780712298516800129e-01
3.295722187941479420e-01 -4.463133235715212310e-02 9.791002078756045890e-01
8.895149703729433865e-02 -2.745035775968438507e-01 5.742858200326382834e-01
-1.327608514832710751e-01 -2.033023521177108051e-01 6.105180779491662379e-01
3.326958871755688052e-01 -4.143378384038654549e-01 4.454399924644485975e-01
-2.249356755988723144e-01 -3.444348692639925824e-01 3.786981180392257063e-01
2.303900997812041440e-01 -2.776412087698968412e-01 6.123155339212585924e-01
2.310831553815615499e-03 -8.401884641396263342e-01 -2.697767189844095803e-01
-5.899971517599789800e-02 -8.223017910250398632e-01 -2.623641274538805468e-01
8.022455270040869391e-02 -2.221837209138177172e-01 6.473145725005475803e-01
3.300182324237780351e-01 -2.389743051639937887e-01 6.982120322075128227e-01
2.585720382216257218e-01 -9.077686996663981711e-01 -2.903753000779873417e-01
-4.336797858410619266e-01 -1.817989574840072481e-02 7.876442003578834061e-01
-4.864890257466349954e-01 -6.857417028251443503e-01 -1.935518952974171203e-01
3.260543462439063900e-01 -5.199923149118936827e-01 2.906634677531466093e-01
-2.117106625057372793e-01 3.241349812690816345e-02 9.276057862041189317e-01
-3.611619085811833274e-02 -6.090022169856889461e-02 8.455191380109990940e-01
9.744439996947297511e-02 -7.724407307298265524e-01 -1.431816367816572955e-01
1.715435201280192945e-01 -2.210431193790485249e-01 6.764468700601881102e-01
-1.251203336393312826e-01 -6.586652556279309900e-01 -4.564300362713042541e-02
2.183318678203227947e-01 -3.303731352465105187e-01 5.324355038569661414e-01
1.146468896011677147e-01 -2.784514275905019751e-02 9.386902259126941317e-01
-2.509063653362200719e-01 -1.937961819068015623e-01 5.887075426582752957e-01
-8.784325501346559872e-02 -1.869931581938881482e-01 6.476195907823368847e-01
5.336920473212895116e-02 -7.593508400055437590e-01 -1.375181744224866776e-01
-4.661627635666170111e-01 -3.367239069419906139e-01 3.172495752582101813e-01
-3.772050015999433015e-01 -3.863450094088015652e-01 2.722691858727611658e-01
-4.801279118395707091e-01 -7.428374478907366907e-01 -2.741986534002808784e-01
-3.550424400838184807e-02 -2.293051645348902490e-01 6.021876215553696454e-01
-4.950202503046783331e-01 -5.208791183559801086e-01 4.227397339598148313e-02
8.297298717149549641e-02 -8.830473179499405412e-02 8.417324478009321487e-01
1.707160579516316112e-01 -7.197281098362426355e-02 8.917553990532134378e-01
5.998008787779682965e-02 -4.866818936289854514e-01 2.587541674970762484e-01
2.827713858596958563e-01 -5.200630305707266698e-01 2.775349538723243525e-01
1.752032489497046541e-01 -5.638552441708550855e-01 1.818376018956718021e-01
-4.340756678799497226e-01 -4.367476437286211266e-01 1.822707796418378545e-01
-4.247022484728289471e-01 -5.830433792784031066e-01 -2.645372636137890976e-02
-3.712964064418874943e-01 -4.893704657900396771e-01 1.250712939395881573e-01
-3.076198053945977118e-01 -4.787077996251491441e-01 1.596534872491516821e-01
-3.861717297729572174e-01 -2.864501649191614208e-01 4.140198103842673283e-01
-1.941968330624668088e-02 -5.583358440446452020e-01 1.312458235057259170e-01
9.262122950595941262e-02 -5.233940914413452716e-02 8.966424554986904827e-01
-4.858428923068366934e-02 2.009277237083641893e-02 9.588836891534273654e-01
7.229435837862434322e-02 -5.276185089441355613e-02 8.899141095222771192e-01
1.168646177976828682e-01 -7.364510159627661243e-03 9.689729188460831644e-01
6.439198296287104717e-02 -5.967940520832665241e-01 1.008583738197027097e-01
1.193381331644822324e-01 -7.382423535595231678e-01 -8.714130313507534309e-02
-1.762608555149869916e-01 -3.433453795105045336e-01 3.949225036660563570e-01
-4.650529304352969961e-01 -3.540742036578368723e-01 2.924948366498971164e-01
2.185860431534289092e-02 -2.863509935321001398e-01 5.369623107060126355e-01
2.873767000547602368e-01 -5.616219791779153425e-01 2.188261825896765378e-01
-1.019316863227328618e-01 -8.034910815495033276e-01 -2.480842286235383498e-01
2.102529105946114030e-01 -9.469359844451871733e-02 8.707996971948150922e-01
-5.079282459422422846e-01 -4.501822209824751231e-01 1.406178483617659958e-01
-4.903802735355636822e-01 -1.707540628756662460e-01 5.499556767498420262e-01
1.020056561807514001e-01 -4.990161111435169605e-01 2.535665710713748133e-01
6.599518054992287164e-02 -5.700076875197325199e-01 1.400742886771874640e-01
1.780837462756625911e-01 -8.631047932187113636e-01 -2.500141429135646076e-01
1.788762108458321065e-01 -2.154037578552647214e-01 6.868082742511508743e-01
3.382480387324102722e-01 -2.703994857474151803e-01 6.552476300836274081e-01
2.689187331197766540e-01 -4.809827616584445575e-01 3.298764826405126693e-01
2.989008829946093737e-01 -9.390502959102556835e-01 -3.234716854964268529e-01
-1.755181610559106153e-01 -6.831720207543390266e-01 -9.624761580615780188e-02
-2.311262489515709118e-01 -8.172172989817044764e-01 -3.068143667623174364e-01
-4.428749099061624617e-01 -4.925027327197589178e-01 9.900003013534564023e-02
-1.112013681539177935e-02 -7.671549800582683210e-01 -1.682115016526493922e-01
-8.307455371222703666e-02 -3.590437759007435448e-01 4.002673815562288739e-01
-4.248238355165860902e-01 -2.154175771628527580e-01 5.051012585512222319e-01
3.222440250089726455e-01 -1.497911132734665862e-01 8.248323671090074249e-01
-3.387605909149996597e-01 -4.009006805113922711e-01 2.627915691850863378e-01
-1.365359787134431437e-02 -3.387772872841731120e-01 4.504656209762818442e-01
-2.165005937023238292e-01 -3.840828029873278454e-02 8.237550378525989592e-01
5.443938221560211399e-02 -6.459467308093012061e-01 2.678768337964760465e-02
-4.596569852710932214e-01 -4.698649325997193427e-01 1.266839135349817347e-01
2.332440519776113677e-02 -3.040796886162994150e-01 5.117675338136291607e-01
-3.555446746430102056e-02 -2.016992247808967464e-01 6.420910458843145374e-01
-3.049857818291820677e-01 -2.035709646864779232e-01 5.582975683896381769e-01
4.475622929199157135e-02 -2.511454844663418839e-01 5.947610969182121066e-01
-1.667292070840112606e-01 -5.887655168053815835e-01 4.291047419834711357e-02
3.246386866807379756e-01 -5.611049912896129976e-01 2.307879647821363123e-01
-1.047713361270973115e-01 -4.196563153186870232e-01 3.060911074255295294e-01
5.105822057930815144e-02 -3.106998702818452585e-01 5.105413197804966607e-01
-2.419032056642391182e-01 4.171528997890858875e-02 9.319696742177682180e-01
-2.861679894298718371e-02 -6.284150555107338443e-01 2.714246866895307295e-02
7.369415745145872776e-02 -2.483072119230702590e-01 6.075743124847788890e-01
1.233248305653352611e-01 -1.572815467546402057e-01 7.541352191091046375e-01
-2.138501187625418964e-02 -5.072175896572185261e-01 2.045719913078583307e-01
-4.924337893147915368e-01 -1.620725518956603328e-01 5.618912343551719646e-01
-3.695207094421559257e-01 -2.687749226579999248e-02 7.943764117881494391e-01
1.540121768204308350e-01 -2.782392733314704714e-01 5.884643457624814111e-01
-4.414422390770222915e-01 -2.906298465675972720e-01 3.913419570922905266e-01
5.280839847273582216e-02 -5.199821444177199492e-01 2.084432205256495918e-01
-4.837829064984100480e-01 -5.481366790477402301e-02 7.195924757586091847e-01
-1.566261720257018375e-01 2.636384167391964128e-02 9.354359032849426381e-01
-2.022908186061763980e-01 -7.931311196871558833e-01 -2.633072555818548599e-01
2.500673618806085324e-02 -4.595120862536107298e-01 2.875166207348751612e-01
-3.710576965853986109e-01 -3.146654079518686475e-01 3.777688667471197914e-01
1.095411401933470003e-01 -8.571716076082022129e-01 -2.620629763122436784e-01
2.445731240596227610e-02 -7.542697382005800755e-01 -1.388720385019245329e-01
-9.311341056110730707e-02 -6.532872655604616829e-01 -2.823369244316659143e-02
2.396745737530048548e-01 -8.039556364359666529e-02 9.003294573346813934e-01
-3.245612851425218603e-01 -7.711264504176620904e-02 7.352665427740402437e-01
-2.814446487063862468e-01 -7.645140390358873272e-01 -2.457483982120299004e-01
-2.613436914404582700e-01 -1.058654777091444510e-01 7.127152834280581217e-01
6.335678543757676529e-02 -1.213497061708170011e-01 7.880453855507039140e-01
-8.926835504267119359e-02 -2.760884644630448581e-01 5.183577546374223965e-01
-3.065514239838766919e-01 -7.103422945619604356e-02 7.494761811266541507e-01
2.017538189465228338e-01 -2.074415844951544019e-01 7.052068269563862568e-01
-1.416968557550699059e-01 -3.370745884899893352e-01 4.143923834316670107e-01
-2.485389104316822750e-01 -8.002853266082422534e-01 -2.875709612767275991e-01
2.297620671837364292e-01 -3.072063902729678664e-01 5.693748960527592606e-01
2.776648634582180031e-01 -5.914939399287657551e-01 1.727081144984297378e-01
-8.780942676588497642e-02 4.682794450144981552e-02 9.857380546817671174e-01
-6.648230823379036591e-03 -3.947712324369101466e-01 3.716059712578431151e-01
3.195615665071999678e-01 -3.493325520627224012e-01 5.354856117850973485e-01
-4.836629902744017384e-01 -7.144618573158630914e-01 -2.342310915447247399e-01
-3.576929275357611515e-01 3.337996730008978979e-02 8.850691029623398709e-01
1.972316171193871093e-01 -4.993435354366047019e-01 2.817519170190571076e-01
-3.706269304210544902e-01 -4.711399968073509137e-01 1.516342662368150851e-01
9.088207470034075086e-02 -9.712858018923423153e-02 8.313533367910734828e-01
2.500831859807709640e-02 -1.650167178110083788e-01 7.133611386538273313e-01
2.820025992003368787e-01 -3.510817168490977247e-01 5.216527080947191974e-01
-3.856427671633660403e-01 -6.832771635406952315e-01 -1.596378733736714961e-01
-3.301260831600207890e-01 -4.137305963317775559e-01 2.468379532433263857e-01
-2.440972169976389494e-01 6.245517548520941251e-03 8.800196325141752540e-01
-3.973384014324611302e-01 -7.320149422842117115e-01 -2.336331892263280863e-01
-6.565890286872247406e-02 -4.114645335401917459e-01 3.297076416763949358e-01
-2.816004675046252514e-01 -5.734637110271193494e-01 3.046590709339065672e-02
-4.342399667586649969e-01 -2.315826451147613152e-01 4.788925257127509272e-01
2.102512351530257118e-01 -6.468965728949183092e-01 7.230668113244254069e-02
-3.047740933468909286e-01 -2.379616310799279044e-01 5.086319370379212002e-01
-3.182913926093881574e-01 -2.090441221905727509e-01 5.463789123618869592e-01
3.013502032644653772e-01 -3.044003689986087835e-01 5.949773034891628898e-01
1.677527098151756005e-02 -8.660381172982309916e-01 -3.028024886423048567e-01
-4.377608312120400552e-02 -6.821794143355749407e-01 -5.516375134184573620e-02
-2.179625565027934198e-01 -4.532729320732795109e-01 2.234154980718039418e-01
-1.722564703022869126e-01 -1.018749476747448229e-01 7.452969567820982855e-01
-4.201728112896941925e-01 -3.978212148861162006e-02 7.604721100607328976e-01
2.810214510663988086e-01 -1.900855777798960977e-01 7.541598869715524511e-01
-5.099981310628269870e-01 -5.946199048148795852e-01 -6.886382018241696268e-02
6.034729715694348018e-02 -1.080768395058165771e-01 8.063323962956958635e-01
2.544622334423494725e-01 -1.672326160655829286e-01 7.792124090591446839e-01
3.546562435035577332e-02 -5.445491080430112651e-01 1.676996706921631553e-01
2.951483075670161549e-01 -2.161017788936633599e-01 7.207916893147729986e-01
1.435715106051294876e-01 -6.922529172080571502e-01 -1.334681869821958966e-02
-2.029654826401693923e-01 -9.968991700076568208e-02 7.392144833807707816e-01
-3.210977168581717334e-01 -6.898227507656159441e-01 -1.496776680972787266e-01
4.686248738393670316e-02 -2.668945012191442090e-01 5.726217093414373016e-01
-2.319564566972930064e-01 -4.408503115453302201e-01 2.371672195892863266e-01
-2.692358385965397671e-01 -6.722597099613354388e-01 -1.086731548465094954e-01
6.443709018744302186e-02 -2.919279262931835928e-01 5.417122375758841590e-01
-2.305032346014296296e-01 -6.897696502089345483e-01 -1.223359487759321518e-01
1.691391231047758847e-01 -1.537574544666190923e-01 7.730191785437050545e-01
-2.809164968079370106e-01 -3.439132763584661356e-01 3.626045949492625042e-01
-4.733929419885869461e-01 -6.287925166422171364e-01 -1.072613066334224818e-01
-3.046663053621342376e-01 -6.880947805420848384e-01 -1.422338725586871910e-01
-3.791450519210339820e-01 2.983327087460192761e-02 8.734843935611080745e-01
-3.239269582708124151e-01 -2.079554534423005280e-02 8.168926882926608180e-01
-4.462851422241327914e-01 -4.586666213480776189e-01 1.469011475533713862e-01
-4.602647533791699996e-01 -2.059960312046329178e-01 5.080587836942958013e-01
-4.141151218381247667e-01 -3.839279488945334662e-01 2.646559711527464720e-01
2.785371278628532843e-01 -8.275847245612181213e-01 -1.684196444553544003e-01
-1.018936728856647822e-01 -5.560984125717119975e-01 1.096601519820967208e-01
-1.544265847407517121e-02 -3.311370326873654402e-01 4.609750979519631198e-01
3.204377435636063809e-01 -5.011068245412467759e-01 3.162817774242413504e-01
-4.437190221123463174e-01 -5.530105682174141224e-01 1.125089133014230830e-02
2.869643932244133611e-01 -8.681072289359678118e-01 -2.244794658331701609e-01
1.154204563144348578e-01 -2.749683407854208173e-01 5.815797534806436131e-01
2.213477257396466169e-01 -3.203089648091978492e-01 5.478960620288552130e-01
-8.776437051353641605e-02 -8.433031920275829707e-01 -3.013893099103441275e-01
-4.031154585543127999e-01 -9.835586867827185442e-02 6.809072372777008608e-01
-4.592510072164277535e-01 -7.246389467842933030e-01 -2.416003641369291188e-01
-3.908110562950886657e-01 -9.402543312999055158e-02 6.908721833339718232e-01
-5.495841241335132354e-02 -3.448990471804565250e-02 8.780381157338134068e-01
-3.569508978955850398e-01 -7.993955166208662755e-01 -3.189115015844096734e-01
-3.293798889256637219e-01 -4.024954256747366732e-01 2.633087241409345913e-01
1.397177298708125737e-01 -5.072282982324942679e-01 2.530413117352399710e-01
-3.620501763464338829e-01 -4.069081776996479882e-01 2.470955160721478028e-01
-1.231091977385777719e-01 -5.015732196204841786e-01 1.821193379032301218e-01
-4.425845300126388104e-01 -5.721167717412555254e-01 -1.603548955588216668e-02
-4.877261370976677113e-01 -3.876551266382031180e-01 2.371127625371294845e-01
-3.826575754950911068e-01 -3.039724816262776574e-01 3.897399230882555021e-01
2.898196146716485178e-01 -2.886676331174550247e-01 6.142568417561257155e-01
-2.779096844252222920e-01 -6.246456159167893540e-01 -4.243301459401556397e-02
-3.006517279558019173e-01 -1.791512425678238041e-01 5.949131552740760664e-01
-3.839278083699552147e-01 -5.508399333648449359e-01 3.238416968713931504e-02
-4.121036976818262532e-01 -6.231228967732754809e-02 7.303216473897879979e-01
1.439742306098075741e-01 -6.985549574981442245e-02 8.867689556156457265e-01
-3.464742975401329250e-01 -5.044177984622399274e-02 7.672381041969229543e-01
3.485996171536678290e-01 -1.076831825914186941e-01 8.936528379006980494e-01
-1.912774038977199664e-02 -7.612861336861050932e-01 -1.621350100591296972e-01
-2.241679784010781606e-01 -4.154043309960723240e-01 2.763064182731670981e-01
-3.753166886079006281e-01 -6.467403462148620941e-01 -1.036974783753534246e-01
