2.623007471218153364e-01 -3.252792077568708029e-01 -1.362898887744557475e-01
-1.161225264096723414e-01 4.741852142242871659e-01 3.576561743682629135e-01
5.121766357318813245e-01 -7.475077665514082703e-01 -3.909155542372560466e-01
-5.427441820736940148e-01 4.638996685836454525e-01 2.974108371088595160e-01
3.803479584694715587e-01 -6.040233142449474152e-02 5.776563089229517362e-02
4.144822311280961513e-02 3.456853859229245818e-01 2.903460001226539910e-01
4.352622846762673747e-01 -7.702985567283437973e-01 -4.159502268605579922e-01
3.982962329678140789e-01 -2.059493096978606275e-01 -3.852283195161985974e-02
-1.861799153723064093e-01 -2.030850391638389929e-01 -1.095812590103916323e-01
-6.028832118788305383e-01 7.940968084744381983e-01 5.134314821467584888e-01
-2.202399785992032455e-01 4.493203940824355147e-01 3.278199596178374420e-01
-5.219301143727236303e-01 7.732870164165163152e-01 5.094545367125951074e-01
2.611108069874623072e-01 -7.611300710172759221e-01 -4.314939268339771927e-01
-3.738607889408274154e-01 4.599555553369851779e-01 3.158332991052587579e-01
5.005973348224139752e-01 -8.386489556648819566e-01 -4.540610571873531232e-01
6.966064099960174449e-02 -5.484208291242972377e-01 -3.114083244219605917e-01
5.058590612954718541e-02 -6.275403900623703901e-01 -3.673517488022922661e-01
7.343825370605872038e-01 -6.988527197776713829e-01 -3.302256954275704093e-01
3.173240013099913326e-01 6.914487625581541841e-02 1.375931497647307211e-01
6.300125466607270353e-02 -3.926791839212719903e-01 -2.068085253296238213e-01
5.694261860881679738e-01 -7.013457479654615634e-01 -3.525154084516154973e-01
6.832975385476076635e-01 -7.785865936906957163e-01 -3.905828705187695538e-01
-5.059795089831032877e-01 7.552902960631793228e-01 4.992635330925526693e-01
3.305074993119991311e-01 2.889549150951962325e-02 1.119922949551032804e-01
-4.643906236478739236e-01 5.438423040860626001e-01 3.613150098465469084e-01
1.442832883648287601e-01 -4.970021562400026571e-01 -2.672798202140111434e-01
-7.549210964611178243e-01 7.268006270161001536e-01 4.488857917558188859e-01
-3.289949212835889258e-01 8.874444957557251490e-01 6.108314666236335233e-01
-3.172035408985191540e-01 -3.797481102984970325e-02 -1.417158481912090227e-02
-4.947228696909776735e-01 8.203002447121625629e-01 5.446788238587773057e-01
-2.314139227032529500e-01 8.243430968376145307e-01 5.803013396828570203e-01
3.419879318088687725e-01 -6.167072563231779103e-01 -3.236238047628563486e-01
-3.734422283567823131e-01 5.467981607380537623e-01 3.746749078111887843e-01
7.189976994047545533e-01 -6.604251460632536430e-01 -3.061330750588486249e-01
3.581374046990690174e-01 -3.826486919999386171e-01 -1.631575721433620452e-01
-8.144864735034010872e-01 7.144334777083333199e-01 4.330743295660083869e-01
-1.153977911266736434e-01 4.815547351759328909e-01 3.627355910001671679e-01
-2.385642372667969024e-01 1.819593889719703650e-01 1.445375502857274563e-01
-3.986743344328582545e-02 2.216744939102681944e-01 1.962392486511240208e-01
-6.391764702381526053e-01 4.672334560537387271e-01 2.876238988040878408e-01
1.424827190554825984e-01 -5.676492191548264676e-01 -3.153302310866477609e-01
4.970164534208383333e-01 -2.338085797449132863e-01 -4.505301831874956864e-02
3.804533673594864829e-01 -4.413191247094254144e-01 -2.000882285351246737e-01
3.772012449474940743e-01 -7.784600676830883970e-01 -4.287267401605450723e-01
-5.622907019560854369e-01 4.873489195388027162e-01 3.108439012784694477e-01
-8.800774484022434729e-02 -2.017030848540635746e-01 -9.638463195587222698e-02
2.773425099677844230e-01 -8.319305773522219782e-01 -4.773960947535104693e-01
-2.171850666342494407e-01 8.134365567536707697e-01 5.746950983486404096e-01
6.935070702652099683e-01 -5.155086549213729885e-01 -2.112134226012906124e-01
-1.383133872354116722e-01 6.619715946032822540e-01 4.820093267478161025e-01
1.261275435249654964e-01 1.625285466981415405e-01 1.769313012084172132e-01
1.692877638813808372e-01 1.841983031894820280e-02 8.476530537200915871e-02
-4.335756161642823625e-01 2.721884091960314889e-01 1.812636566145270633e-01
7.213110131815471393e-02 -3.417470894132944026e-01 -1.711890607106074380e-01
3.421011774403745487e-01 -1.149437393853799255e-01 1.606626635131032377e-02
-1.996575548887158658e-01 6.332751113579565549e-01 4.549213305270723429e-01
5.459084072000527366e-01 -5.286010164414506329e-01 -2.385106373571178329e-01
6.948890985601680059e-01 -6.763150263105536242e-01 -3.199009690945138762e-01
-4.668165708432354122e-01 6.044902647084366976e-01 4.020685210187820435e-01
-4.943381302754962792e-01 6.497615193710020165e-01 4.292782671818153317e-01
-1.295479216791605992e-01 7.431182586103887155e-01 5.380374636777759401e-01
1.027515974531254955e-01 -2.936135299575425295e-01 -1.347800556232883473e-01
-6.559063518651688796e-01 4.086511033936894854e-01 2.458762863560681189e-01
-4.517492968706251499e-01 6.098126361039213350e-01 4.075533846063111865e-01
-5.881868493447874879e-01 8.320083118626198093e-01 5.409316961956606162e-01
-2.164641282810423895e-01 6.748142382025595909e-01 4.809427949562793403e-01
1.642701209707785742e-02 -7.605546105438121263e-02 1.717560148287213375e-03
5.763635719386984713e-01 -6.529137589945885889e-01 -3.188622504431249394e-01
-9.014983802892696796e-02 1.933436275938510418e-01 1.707803073999241694e-01
4.368930750854636558e-01 -6.133370279124221724e-01 -3.094892187473666234e-01
-5.362815076027422911e-01 6.520550347315465789e-01 4.255924279762766660e-01
-2.360037719331151973e-01 4.872157795693593529e-01 3.515049784127401988e-01
-2.593663807697100254e-01 -3.756369743190347225e-03 1.621657576815586574e-02
-1.073827582112162338e-01 -3.378165584287668444e-01 -1.909483965456229282e-01
-5.008815589585945416e-01 1.817966074730694437e-01 1.116655511206826046e-01
4.927849681706800156e-01 -2.515990533985933975e-01 -5.762501790361641840e-02
-5.853873305816814643e-01 4.618575759006244286e-01 2.907025494943589750e-01
-5.974233638897067378e-01 3.441343501122317017e-01 2.095049168670893580e-01
5.250713634951343911e-01 -3.848659351089014358e-01 -1.438095531450624687e-01
-3.827143452932564860e-01 8.417235689779161145e-01 5.731708150159343651e-01
5.160489824028290373e-01 -5.012437227931805239e-01 -2.237199859529352131e-01
6.245239089455965065e-01 -7.712592574456756944e-01 -3.929629871291006049e-01
3.662518712379098096e-01 -9.176059987481584024e-01 -5.242910598584605841e-01
1.242442189110951473e-01 -5.401948605002258041e-01 -2.990224889406628561e-01
-4.702402747521233217e-01 4.123659621797030606e-01 2.715796509131282455e-01
-5.348442163822673956e-02 -2.461243446956372372e-01 -1.221444853271605596e-01
3.430644299399943642e-01 -8.561783267841371892e-01 -4.856026935190697613e-01
4.438043341372255313e-01 -6.387760749676364425e-01 -3.258473690899020281e-01
1.039961868464737149e-01 -1.462121115896060641e-01 -3.483913393818612730e-02
1.005396695158892045e-01 7.782338427466603537e-02 1.163931741345840265e-01
3.685448324971387635e-01 -7.224563856206229762e-01 -3.918953855701685085e-01
-4.742149295810587084e-01 7.686157557771245985e-01 5.122515903897776335e-01
-6.045878986813041367e-02 -3.090573402288308569e-01 -1.656189242110859550e-01
-3.966448519410386425e-02 1.987894639047888823e-01 1.807722500695705947e-01
4.901869538121736425e-01 -3.132434078258787835e-01 -9.968051354034185296e-02
4.961877631984284998e-01 -7.109400925447407760e-01 -3.681574595469906952e-01
-8.072651185982828714e-01 6.598922605784705020e-01 3.970537815868179776e-01
-2.324680941720805305e-02 -3.984229242425563755e-01 -2.214686785415989623e-01
-2.171934343695273717e-01 3.538324307359133614e-01 2.635585233047521569e-01
-2.916977858135350599e-01 5.148533755674420398e-01 3.632588049762853211e-01
-5.946068767579664183e-01 4.453101666761171695e-01 2.783490822155930688e-01
1.325516464382809068e-01 1.817165912577271003e-01 1.907232505431052660e-01
5.393319275661491163e-01 -3.552009980241342402e-01 -1.219463976031319591e-01
6.936505328418081373e-02 2.653527603959064396e-01 2.394503286645599249e-01
-4.236611460630591575e-01 6.712525835540427144e-01 4.526540635407494406e-01
6.040771612037031391e-01 -5.625456402681798806e-01 -2.542250161893797600e-01
-7.253829939818309258e-01 6.865682225833643626e-01 4.253390203872678965e-01
6.258625356898839254e-02 2.574857656695855868e-01 2.332780251144815076e-01
-1.849020438192689741e-01 1.998459867380559529e-01 1.633482104567960114e-01
-3.973077100734575540e-01 5.144445894963470822e-01 3.497920487804132006e-01
-6.275579753374758984e-02 2.728487790842910043e-01 2.280237923003418654e-01
-4.310992990076462084e-01 6.722107443538403171e-01 4.523737250411615785e-01
-4.516616280784795934e-01 3.398880916239696015e-01 2.248350861703111991e-01
1.156302834135113644e-01 -5.823364043181884497e-01 -3.286266315320075515e-01
-7.717438734360630714e-02 -1.322252369930072002e-01 -4.799759872995269100e-02
-7.605255430723958376e-01 6.253793884752889554e-01 3.795272857216490103e-01
-3.730915440330899169e-01 1.398648687331250362e-01 9.923944405601077545e-02
3.767527595933384266e-01 -5.682866796788769159e-01 -2.865028980738910658e-01
-2.386742783702829607e-01 5.654599324120261894e-01 4.041399374817390422e-01
4.447495059556295094e-01 -2.308621821582427791e-01 -4.958622934372509949e-02
-6.613375067358058246e-01 4.586445556689768277e-01 2.790417452825401656e-01
1.758246786708600184e-01 -5.058873618282015983e-01 -2.693554626543384622e-01
-4.694618496989870216e-01 7.658434442566000033e-01 5.109684649106848164e-01
4.585386121541220605e-01 -7.187041546654353574e-01 -3.781155962841526441e-01
-3.190989936205181760e-02 4.581471581169224150e-01 3.573166182117881728e-01
3.429817474257279009e-01 -3.831964478065336133e-02 6.804801138309859998e-02
5.775296720086861013e-01 -4.521273581437374456e-01 -1.827914107336114091e-01
-7.106763860042291103e-01 7.028677360701126586e-01 4.382099710219981570e-01
-2.765322054504693039e-01 4.518847080228004520e-01 3.225253592918871925e-01
3.442885822317063443e-02 -1.143110387399792344e-01 -2.193177698924596297e-02
-5.272028308263333046e-02 1.537198115467333370e-01 1.486311218983355498e-01
7.175605586212461251e-01 -7.103152872994058509e-01 -3.400864035203630675e-01
6.042287212122489093e-01 -4.297710085468723906e-01 -1.643224176938464509e-01
1.224447639833555444e-02 -1.434761862757402417e-01 -4.444622846230553842e-02
3.745787154137920072e-01 -2.726202930145501524e-01 -8.661886987932555793e-02
-1.959397042126021227e-01 2.118792840781993925e-01 1.701157865835411509e-01
2.496589039294166423e-01 -5.766584549299001994e-01 -3.080435221114778410e-01
-5.150618581459505130e-01 3.276999179002847984e-01 2.086658347490168985e-01
-2.237609138469184300e-01 1.471192729834435720e-01 1.228008827809590614e-01
-7.286281435607309120e-01 5.225900837012317224e-01 3.139263951799137198e-01
-2.671111282031820092e-02 -2.010056458639931931e-01 -8.825692265511295154e-02
-1.254505538051981783e-01 5.769797903490614388e-01 4.260794076262114372e-01
-5.937614035243292676e-01 6.913599257758050731e-01 4.450215497961024780e-01
-4.024177482979665599e-01 9.045473696641450623e-01 6.132394452027738474e-01
4.123015527453877671e-01 -8.441414920612679840e-01 -4.688069015815238827e-01
2.160696639213071091e-01 -6.547608771774457992e-01 -3.651111514475587905e-01
-1.338439586985721574e-01 2.765552640758576763e-01 2.216544806944796830e-01
-5.482645251602655811e-01 4.887445373616230437e-01 3.135404667944462487e-01
-3.488384645881680846e-01 5.839580999083665569e-01 4.029037125984264445e-01
2.287184386559282245e-01 -6.608761448553713835e-01 -3.676712153205963229e-01
-1.119259928721367953e-01 1.343893679547450426e-01 1.281506791111025056e-01
4.671210525527123014e-01 -7.656347158809797548e-01 -4.088140117160110054e-01
2.499910743889137699e-01 -4.398799802485003352e-01 -2.154079082305128123e-01
-3.606525636021310488e-01 9.122979548843809239e-01 6.237025255632975274e-01
4.499431165421637346e-01 -8.645219247503426185e-01 -4.779025272746852404e-01
-4.063280398812539329e-01 8.019509741751965626e-01 5.432969894353880669e-01
2.660580718511705300e-01 2.374736559855056273e-02 1.004578654948287963e-01
-5.116710951157301679e-01 3.386140125062777617e-01 2.164777710592542537e-01
-6.624383209202086009e-01 7.491258007678990305e-01 4.755496581239336829e-01
6.113192166295158825e-02 -3.237884791017275332e-01 -1.604054539463030393e-01
-6.653290450553061008e-01 7.400077444788643044e-01 4.690160271667659364e-01
3.624810921297066391e-01 -8.088615294708245695e-01 -4.511458963194718841e-01
-2.448944655532533585e-02 1.768771117663696379e-01 1.678336405284366617e-01
-3.094792840964919259e-02 -5.402217371999427087e-01 -3.184232174417711003e-01
-3.042822384399201385e-01 9.696151215476309093e-02 7.878926277066096440e-02
1.983900315073936216e-01 -4.674341729460769201e-01 -2.405057589842665988e-01
5.835334762078062676e-01 -6.069715461391161915e-01 -2.868655415749359339e-01
3.386357451727627921e-01 -8.429884282190946987e-01 -4.772267198440758307e-01
6.205433475596331405e-01 -5.874869382849174926e-01 -2.690528572719220191e-01
-5.542563428210314780e-03 -5.630736172381853866e-01 -3.307201495867849728e-01
2.778108622276209694e-01 3.586629469772668888e-02 1.101297968044275127e-01
1.313446450510985797e-01 3.178732516739319891e-01 2.827456854500365324e-01
-1.942751549785528553e-01 1.040035857596793983e-01 9.729569485269398688e-02
-3.425117608200637376e-01 5.641967022776298579e-01 3.903161202196837043e-01
5.826037159014212374e-01 -3.428996848885824122e-01 -1.082144720304543950e-01
-3.829974382969070223e-01 -2.223752138097483122e-02 -1.173525200877448271e-02
3.614252914460107102e-01 -4.446888623751638625e-01 -2.047459085594179051e-01
1.792333794187099261e-01 -8.279676652047733842e-01 -4.869665653716428455e-01
-7.127966488886063878e-01 6.183108734130104978e-01 3.807031962437104622e-01
-1.446664813305354423e-02 -1.691307682712132054e-01 -6.514951482422610962e-02
-5.868963978714906993e-02 -1.648968501751062465e-01 -6.780648053510773821e-02
2.118360137329358683e-01 -5.698673605706303658e-01 -3.081700382272959393e-01
-2.767705580902136142e-01 4.906497957033060242e-01 3.487381662962462658e-01
-5.142072766141526224e-02 -1.327919447052500201e-01 -4.516476763925747484e-02
5.020853058187066953e-01 -4.112690621901607946e-01 -1.645543400355811425e-01
-1.320272072632603377e-01 6.256543747746075024e-01 4.582089746123860774e-01
-7.678710688934275996e-01 6.268250183039019152e-01 3.795885148446912494e-01
-2.914532623800871261e-02 4.889447332695954773e-01 3.785107513871329710e-01
-4.133492435925658626e-01 2.179098298260297439e-01 1.470451508089988535e-01
-3.026709792516046882e-01 5.943815653175515967e-01 4.157260570710416547e-01
2.761338060186526722e-01 -4.217188853936401638e-01 -1.998484329788559055e-01
-1.399238455986773211e-01 9.032049253938351230e-02 9.482087136866826360e-02
-4.779498469330209498e-01 2.946886347191414179e-01 1.909534378947977395e-01
-8.341881254957249636e-01 7.202981649176163348e-01 4.345838989356588522e-01
6.501777939593317290e-01 -6.033496057000111712e-01 -2.760901568645028892e-01
-1.088740984498737518e-01 -1.816403030390562334e-01 -8.540892511184804137e-02
-3.401896884899696660e-01 5.284980150387434961e-01 3.664394001026762271e-01
6.918503710737098356e-01 -5.750510202848588825e-01 -2.517283825269956976e-01
2.891401876797623505e-01 -5.509397914608833435e-01 -2.857019414286445236e-01
-7.576353172301509842e-01 6.550445193490500584e-01 3.999704879281039127e-01
-4.468663167284372406e-01 5.706315026304252802e-01 3.816390145896130792e-01
3.160780130654889386e-01 -1.735540745767138737e-01 -2.686096248099754946e-02
-2.371324919547368182e-01 6.432623796894847423e-01 4.570019668830372361e-01
-2.821610242007491776e-01 7.303781291095631234e-01 5.103524250824206243e-01
-3.891766316428071915e-01 8.430317428529767732e-01 5.732493024986180519e-01
-3.045148968182673777e-01 1.791203348660300870e-02 2.524653973676090415e-02
5.503861993553726961e-01 -6.138535532673579098e-01 -2.956643025921844581e-01
5.915907373514470158e-02 -6.918420167761333284e-01 -4.098109114466352287e-01
3.071564794427261158e-01 -8.494262327745611962e-01 -4.855164474166969724e-01
-6.168682633293123274e-01 5.993079440415085557e-01 3.798197524598705965e-01
-3.063266368319623734e-01 1.598404138475693348e-01 1.211006942060573327e-01
-3.420808848309034311e-01 3.684015831646099692e-01 2.578236518323387405e-01
-2.933953374297415539e-01 2.538519213882342584e-01 1.863581561171069323e-01
-2.727748798675591613e-01 1.279787913211512251e-01 1.037219228218058675e-01
3.281080084094583627e-01 -8.598047637799877130e-01 -4.899256254870922311e-01
-2.642891173380135794e-01 7.265410892858917835e-01 5.099869765749915906e-01
-1.023526254243372624e-01 5.678585144245431593e-01 4.227894181464914025e-01
-1.219486609546518996e-01 2.628237607088757533e-01 2.138443934892843012e-01
-2.487138312746315846e-02 -4.485668163318080603e-01 -2.556171964478823888e-01
-1.917981560943834984e-01 -2.386694539661818049e-01 -1.343723164943335935e-01
3.984302353020234277e-01 -7.590785798848422861e-01 -4.129547983244090115e-01
-1.402563632535431537e-01 4.837428714484852121e-01 3.611121998324769433e-01
3.829535801064782863e-01 -8.218796293633754413e-01 -4.574017972153193168e-01
-9.814506563647056037e-02 -5.371276717627767455e-02 2.533423677589285820e-03
1.748436921121158949e-01 2.835992676715380356e-01 2.649761864220953611e-01
1.099183805414089832e-01 8.776589742200360811e-02 1.242952420609011177e-01
1.633749744109857793e-01 -7.140501885808350213e-01 -4.118291304522053164e-01
-1.989537675248419513e-01 3.391906663218003937e-01 2.559245942169065535e-01
-1.881595100653304653e-01 7.347243390520583617e-01 5.250348579751905609e-01
-5.363207653823729437e-01 4.831416438893026410e-01 3.112392099219411512e-01
-2.483887028563285249e-01 -1.276315949324520471e-01 -6.627147069333291785e-02
-3.929576479428938951e-01 3.047882531506346249e-01 2.084055148177971217e-01
3.784711341601584289e-01 -3.025490213750756108e-01 -1.063934080195618331e-01
1.685278505426696660e-01 2.084607022529068043e-01 2.133212598219590694e-01
-7.773751851683084746e-02 2.931220771747774373e-02 6.128713337136305894e-02
5.022126577652837043e-03 -5.118655273948774509e-01 -2.947346430016340446e-01
4.372543634500894449e-02 -2.061072178963025969e-01 -8.291341728866773175e-02
2.640335067591734197e-01 -3.897974039043968220e-01 -1.797499855771317046e-01
1.455172235393890900e-01 -5.878334019370183849e-01 -3.286152090822748728e-01
6.944314911902198517e-01 -6.312326953455240641e-01 -2.894389982267854267e-01
5.410323823195812842e-01 -6.828456791545461924e-01 -3.435377340395739942e-01
3.550414029739832888e-01 -9.462798033214084858e-01 -5.451023161978117981e-01
-4.087009219001796478e-01 1.519536644276063830e-01 1.029757358990474048e-01
2.023444887144921003e-02 3.150828416307122071e-01 2.669797053842585810e-01
6.114123992761768406e-02 -7.964750491870650762e-02 4.870404064744486734e-03
4.329216913405611877e-01 -3.984085860150373692e-01 -1.644863636017867281e-01
-8.511684022907251013e-02 -1.403188102468386766e-01 -5.446862087024251231e-02
-3.270526688179994368e-01 3.306068120526039489e-01 2.341148763329175264e-01
5.199418853501810434e-01 -6.156441039729808606e-01 -3.006787467431621952e-01
-7.006041762033184961e-01 7.652374254215934535e-01 4.816899729432355115e-01
1.827022480913266245e-01 -7.161661821745386736e-02 2.548924052536854362e-02
7.066835258286884303e-01 -7.427227438465715537e-01 -3.633835644874975346e-01
-5.127091658682926267e-01 5.298559303482943683e-01 3.458120504357268810e-01
2.841915780512653256e-01 -5.081902578073235199e-01 -2.573800890273262865e-01
-4.872018012806179216e-02 5.513769674160468037e-01 4.183303600376088172e-01
-4.490416094841914729e-01 7.503300779592012026e-02 4.586490574355521488e-02
-2.549286495351996140e-01 3.022867665652027025e-01 2.239510613945428497e-01
4.562667303662365503e-01 -6.166717823804208631e-01 -3.093270790243691226e-01
-2.567867854492887347e-01 7.896201204364889925e-01 5.536262157179639987e-01
7.810924078629505329e-01 -6.488907164529922333e-01 -2.905694365136917701e-01
-5.934629215745748088e-01 3.632787991931804572e-01 2.229596577390944856e-01
1.251792925539882695e-01 -7.832609724286279107e-01 -4.634527550323304657e-01
-5.020647526999545418e-01 3.016182717155360682e-01 1.926327521761135309e-01
1.485693590792683538e-01 -8.297841943620153371e-01 -4.920260359584209819e-01
3.006994147702156117e-01 -3.928919008406728253e-01 -1.772655052994857039e-01
6.901088580700059927e-01 -6.256518931614408752e-01 -2.862008650473374383e-01
3.082364355269072171e-03 2.253066669207938744e-01 2.040622622786299467e-01
9.849438164069033996e-02 -6.447665338470404128e-01 -3.730297604809416079e-01
-1.198204920111056171e-01 3.034608700491714384e-01 2.416200559266586390e-01
-7.389457741401830870e-02 -3.661898031445122159e-01 -2.059736013760885276e-01
-3.506111934305589650e-01 6.586072027055497324e-01 4.532170784014959430e-01
-3.172308623979302467e-01 7.933262247548418244e-01 5.485860263246286062e-01
-2.264916713073937549e-02 -4.856569453568509442e-01 -2.804483442466314536e-01
-2.605242680960474511e-01 7.006228211865375699e-02 6.604454591651817696e-02
-9.265658049011778197e-02 -4.550852565241002012e-01 -2.684958965039330736e-01
-3.757966888397693550e-01 5.505206455492878126e-01 3.769008392162477294e-01
7.811787263160543948e-02 -6.961469118135342748e-01 -4.103573351200764940e-01
4.060556526270014399e-01 -7.774452045546108581e-01 -4.244359781248094876e-01
2.710975794038052444e-01 -1.195593970061320788e-01 4.073723710757980697e-03
-6.029398636061690242e-01 5.748218929835572366e-01 3.649831434952145459e-01
5.909600836643116306e-01 -7.124850621993700228e-01 -3.573668752987879116e-01
-8.669339097246284154e-02 1.439780112358157449e-01 1.377932421761738357e-01
4.589001667645369320e-01 -6.924316748653780440e-01 -3.602849126364665588e-01
-7.813611966208299231e-01 6.667488085114061658e-01 4.049306576690558379e-01
-7.040915358511370403e-01 4.791283016474105483e-01 2.875687952520034618e-01
1.617497071078126958e-01 2.375447957114661390e-01 2.321636013239927465e-01
1.779129780453678478e-01 9.832348031316180681e-02 1.399344498143308135e-01
5.987656015233777662e-02 3.477913991584547504e-01 2.940732803201008272e-01
4.098139440282793644e-01 -2.021952123963879633e-01 -3.454295207923703537e-02
7.742343795362522929e-01 -7.046231963572666679e-01 -3.291548541141531836e-01
-6.986327877232341166e-01 6.990152069126620571e-01 4.371061172994224475e-01
5.230286704745741311e-01 -3.388866601112429655e-01 -1.129383506352855809e-01
5.341727643956246663e-01 -7.204385870024236915e-01 -3.698435096610988015e-01
-4.128104863655148726e-01 4.139245325670237174e-01 2.798073706046318998e-01
7.193901744285544596e-03 3.034049043920046262e-01 2.574454769589631931e-01
-2.608415271171319466e-02 1.441651960764342988e-01 1.454896764903471917e-01
-5.636168534234543559e-01 4.256386946200085286e-01 2.689026614429063655e-01
1.766294071866764681e-01 -3.028821880247943854e-01 -1.318277261934388267e-01
-1.337839682504165240e-01 6.060378134536189565e-01 4.447098567567059346e-01
6.789119453295411333e-02 -2.864658135188037358e-01 -1.342951551309946590e-01
-7.019166947510189214e-01 5.113730214518421580e-01 3.096689396570530550e-01
3.035511714635469316e-01 -9.510037890756306567e-01 -5.547310949942165781e-01
3.615210349636401310e-01 -5.148906296739186317e-01 -2.522580325733568829e-01
-4.987672778628082226e-01 6.381763448929279603e-01 4.208823460640902514e-01
2.002229498977644850e-01 1.180841430786486040e-01 1.560980873865787377e-01
6.045733172400389321e-01 -6.709172259458845433e-01 -3.275267309425921591e-01
-1.417208765739167708e-01 2.735356030385872050e-01 2.186265002887906317e-01
-1.427519297047285529e-01 -2.068878091054376644e-01 -1.067317127458904114e-01
-2.424797719777368465e-01 8.140171511186724551e-01 5.719289885667385720e-01
-1.167804738602723769e-01 -3.409416200979711875e-02 1.348707004397137026e-02
5.816803181410734602e-01 -5.159567080057491095e-01 -2.254832042914720058e-01
-3.686027932746013813e-01 3.683240448687995494e-01 2.544587397795758932e-01
-1.785229510638696171e-01 -8.004891002634675901e-02 -2.533389960894506451e-02
3.307780262788707071e-01 -9.538749244541487871e-01 -5.532742859781769607e-01
-4.789938563479202993e-01 8.437567201615416845e-01 5.625224734457177078e-01
-6.440891701070926290e-02 5.714378747158789240e-01 4.299514500275311568e-01
-2.361564179340552155e-02 -1.832975813440917701e-01 -7.588259221257627474e-02
5.540451491721781752e-01 -8.631480807636385810e-01 -4.639707877248195333e-01
-5.080671787393397087e-01 6.222514068648585805e-01 4.089402336856781672e-01
-4.361527166459124305e-01 1.715680034629488149e-01 1.128253824069286315e-01
-8.778283350999750712e-02 6.332928945335893900e-01 4.689058259631487813e-01
-6.452675680800324942e-01 5.734588319282831748e-01 3.587739329671677524e-01
4.313520655157480066e-01 -4.133304045173044061e-01 -1.747839367203994354e-01
-2.282275424407728404e-01 8.365371913810652760e-02 7.927912207926617050e-02
9.167991202742510615e-02 -5.125004776775183846e-01 -2.843414631889658595e-01
-3.927038947680573377e-01 3.750993116167824493e-01 2.560352750002672928e-01
-2.796500473905725315e-01 4.549405171855376850e-01 3.242046335677887248e-01
-7.456052047254224657e-01 6.409046101970033993e-01 3.919007621609124081e-01
-3.805178020635016645e-01 8.711517329712576974e-01 5.933669624889268412e-01
2.361710816981302807e-01 -7.812969559327543889e-01 -4.482610020983667787e-01
2.505580497937587858e-01 -8.368077551206331011e-01 -4.840429818808101303e-01
-4.548313133695379151e-01 9.107186054400544239e-02 5.599953652629187373e-02
3.764027162799994941e-01 -2.907816478720695041e-01 -9.868565020186612080e-02
1.182940934754244944e-01 -7.074651483841032373e-01 -4.130016157552034994e-01
3.119469631460587977e-01 -6.495924812242552526e-02 4.613790264358778870e-02
-4.428341363257813912e-01 8.300876607304497057e-01 5.577851339713261192e-01
2.177028508370974502e-01 -8.001158549420283039e-01 -4.633072897873016238e-01
1.667465434587830225e-02 -6.369719570670530073e-01 -3.779718862459839346e-01
3.013466150727166504e-01 -1.305831064136052377e-01 3.889837315122859386e-04
-4.001845234517856231e-01 4.740020012759620371e-01 3.220545691398380983e-01
7.027660257601576754e-01 -5.583726175859460295e-01 -2.390744039548526878e-01
3.772687183054610482e-01 -5.527341892789546796e-01 -2.759099791404732160e-01
2.745952487207791171e-01 -4.434354985266616977e-01 -2.147419584023149697e-01
8.293154104217340117e-02 1.787017997435807470e-01 1.824851021425649977e-01
3.409628570177479778e-01 -8.701326211657439691e-01 -4.953117243492721755e-01
-5.073285309828536038e-02 5.618852190047971540e-01 4.251926996145296012e-01
4.424173611075435941e-01 -9.040537354216652277e-01 -5.056040670866457365e-01
-5.529631879787636484e-01 6.047911840939200756e-01 3.915130559970542157e-01
3.104040084829317592e-01 -7.082909249588348333e-02 4.197152282420273106e-02
6.049738330132804487e-01 -6.859299712641964142e-01 -3.376397998268690914e-01
1.801130778509297259e-01 1.725206137030528275e-01 1.904380301065090320e-01
1.630338670075348884e-01 -6.739727325002454750e-01 -3.847407304818374341e-01
7.787043763347498496e-03 3.087107751730623906e-01 2.611114411666197732e-01
-3.710492487323462374e-01 1.450536291938725741e-01 1.030071190032488399e-01
1.116900891223043951e-01 4.845450458110595049e-02 9.790411265189916112e-02
-1.159941525124816158e-01 7.062290748583475164e-01 5.147575891419174932e-01
-4.614191034316221240e-01 2.876848966064106672e-01 1.882767451169916617e-01
-4.451536085863034287e-01 5.251991547123476822e-01 3.510968490625140381e-01
-1.995889063087167570e-01 6.922984859128136215e-01 4.948866146219186302e-01
-5.706548878086127319e-01 4.213514974780470101e-01 2.651213758286375399e-01
-5.307319146810917099e-01 2.583611433406120539e-01 1.597688755397588256e-01
3.452606340165930154e-01 1.229321269457476096e-03 9.510586348780639132e-02
-3.211663339450157029e-01 5.060978944631032705e-01 3.536512195227308752e-01
1.831388818715883327e-01 -8.669011192011146782e-01 -5.128353461380539269e-01
-4.043051849913909535e-01 2.102217586717856912e-01 1.429701486969399693e-01
-5.368444637420551890e-01 5.922443473462390973e-01 3.850324253576536959e-01
-2.783615426913235713e-01 2.270006534644547838e-02 3.175425705729490594e-02
-6.483765781670260695e-04 -5.783899488558578161e-01 -3.404775039532388359e-01
4.524283026645768424e-01 -7.838832454024949881e-01 -4.230026456019513326e-01
5.783268545878229167e-02 2.928327032245577333e-01 2.566129445958557631e-01
-5.188516809067247326e-01 3.433087545212310521e-01 2.187591327307881750e-01
-2.655786380499663979e-01 4.924690136560204157e-01 3.513675128862064900e-01
-2.067467369167203251e-01 7.584888097546400587e-01 5.388011243553834095e-01
-1.982970613834460771e-01 -7.524252186518487484e-02 -2.454981038024277307e-02
-3.854489969352117296e-01 9.230535780063240381e-01 6.278867768479976519e-01
1.192401269165756644e-01 -2.475913261764936535e-01 -1.015653574369137085e-01
-4.283302219610776035e-02 2.765630575719381090e-01 2.330264565126063947e-01
6.952736345259761253e-01 -6.482357669999229133e-01 -3.008442902099533467e-01
6.124666533861498063e-01 -6.382964222688775058e-01 -3.044577867639829405e-01
-4.144351163633091528e-01 2.791978914781757526e-01 1.883993544101696394e-01
1.084331321646445911e-01 -5.071184871792046023e-01 -2.786056754146878367e-01
6.111024766777396477e-01 -6.014554533738359909e-01 -2.796881476778627640e-01
-5.793259119299213749e-05 1.804596590497748176e-01 1.733102408451868137e-01
-3.143846663529323293e-02 -5.508822913122410903e-01 -3.257012958804701430e-01
-5.466047336557895431e-01 3.856340688534740102e-01 2.439456707404515923e-01
-2.094567370900743408e-01 -1.196437719420823664e-01 -5.600164028273924705e-02
-1.290390612891418320e-01 -4.020053870827475229e-01 -2.371066718114805405e-01
6.295259132763942889e-01 -6.522493555122880204e-01 -3.117728273104167780e-01
-4.400140408378115653e-02 -4.866871866759043923e-03 4.236255167310588182e-02
-1.369132680377244948e-01 -2.877683690906820413e-01 -1.607557421294730227e-01
6.415427245807572287e-01 -6.951297438225192415e-01 -3.393004892003929074e-01
-2.659283948450549481e-02 -4.353856326232213303e-01 -2.469090064284902297e-01
3.079000334873384648e-01 -8.152992191584047532e-01 -4.623208163771500012e-01
2.364430897178705915e-01 -5.242434689979594831e-01 -2.742110271732681737e-01
-4.509024273230201607e-01 5.929965805990364824e-01 3.962752861317759834e-01
-4.951929153105941173e-02 -1.965235434614528154e-01 -8.807129953964484836e-02
-6.114323414595880246e-01 7.958690785216466779e-01 5.135635123738738761e-01
-6.849789843115273724e-01 7.098756080466018803e-01 4.461634949621331447e-01
1.807617135366220151e-01 2.398642432863848928e-01 2.361082656002565505e-01
-2.240463102230322856e-01 8.576671034672171678e-02 8.123175133626245326e-02
-1.773227298356453568e-02 -9.823119575510880219e-02 -1.756090013651071674e-02
4.327963896854351150e-02 -2.599177562126019914e-01 -1.193969015164226821e-01
3.225078670164919226e-01 -6.817221204491863418e-01 -3.700694778279711161e-01
2.501839075561901327e-01 -2.975627931205702681e-01 -1.190401867850346407e-01
2.743147782361914921e-01 -2.292456107968661727e-01 -6.977810586313878960e-02
-3.373266952366237859e-01 1.583748618684270304e-01 1.162368535323387575e-01
-1.040672657143402458e-01 -3.095736290981438987e-01 -1.714148606795019014e-01
-2.403707569460668547e-01 2.474281357256447322e-01 1.886319236289008827e-01
4.757117463705656246e-01 -8.215078870070864347e-01 -4.455652229259113861e-01
-3.422861512773997528e-01 6.238813854817149007e-01 4.307486900294818510e-01
-1.966803813625973060e-03 -6.079335634067655619e-02 9.752185138352386859e-03
4.765532929620575064e-01 -5.152747853072083828e-01 -2.381512786285928940e-01
1.020807445704799699e-01 2.883227130711574770e-01 2.590861501825883484e-01
1.901445356782547613e-01 -1.989502726287743772e-01 -5.978158689844451784e-02
6.247369508458762155e-01 -6.035207174494343629e-01 -2.793833964577432383e-01
-9.955523808938626651e-02 -3.956738590830735092e-01 -2.291381080210319054e-01
2.092459077747222396e-01 -7.713235175970866164e-01 -4.448721283549743610e-01
-4.862976315941724276e-02 -1.671098203470359755e-01 -6.804816605082501801e-02
3.999209709371993882e-02 -1.547530027745614989e-01 -4.861472404784029228e-02
1.497311877992156814e-01 -2.233524629458445154e-01 -8.134837142685165390e-02
-3.010326969968956864e-02 1.351886813057950887e-01 1.389109348220544937e-01
-6.515441984616535676e-01 4.686604810676758270e-01 2.870452912909969290e-01
-1.945199112705156275e-01 -6.941534738347501787e-02 -2.013327943364621314e-02
-8.482132175452443412e-02 4.712554665888226135e-01 3.595821659392857139e-01
-7.105370014001312073e-01 6.143414874234628398e-01 3.782982800318123728e-01
1.462666266744771237e-01 2.793989871554642956e-01 2.585636492398837305e-01
-4.693244502111328931e-01 3.078934335065916517e-01 2.009698720709997832e-01
7.446552986211041336e-02 6.492072613728176733e-02 1.044020388908672436e-01
-5.416655392375356870e-01 4.347511535909765468e-01 2.778130523607656444e-01
8.837272821326003225e-02 -6.998903290794383780e-01 -4.116107268380886919e-01
-2.771906246727791623e-01 7.287369165201516841e-02 6.586624518867222056e-02
-1.329839908824897998e-01 -4.483299664975914922e-02 4.193545171809675773e-03
6.721320044459909715e-01 -6.883696386848703330e-01 -3.309037293776621591e-01
-3.942371954751372476e-01 5.611139431474977401e-01 3.817690176480258990e-01
4.509827140825272140e-01 -8.896718055860295404e-01 -4.947982564470264633e-01
1.434365228381303814e-01 -1.579966181512149348e-01 -3.789097009611031713e-02
-4.175543035210840803e-01 7.239516137194352829e-01 4.890921258960294615e-01
1.207102321179167881e-01 -4.595348885393473748e-01 -2.448599501908030884e-01
3.406856339999069228e-01 -7.959018496613647908e-01 -4.450947744707474674e-01
-3.199514364616222184e-01 4.111136602777814564e-01 2.895020285216829414e-01
-3.529644819857158944e-01 1.966641825639749430e-01 1.402042897911491004e-01
2.578272786155265395e-02 1.839446676540984829e-02 6.682524872679442007e-02
4.819575108354204329e-01 -3.065861846200474972e-01 -9.620161813889425984e-02
-2.725163509130017481e-01 9.039247931037620587e-01 6.290418597467923867e-01
-1.457692862492489527e-01 2.199625125429769401e-01 1.818538158614469158e-01
-8.000119871325146459e-01 6.416320017590401159e-01 3.855981114687194178e-01
-3.558164206451722156e-01 5.111118449414451259e-01 3.527179040806148191e-01
-2.315769853076645596e-02 -1.722750083959264100e-01 -6.836351089791427305e-02
-9.492575195096039642e-02 -1.803313263850513937e-01 -8.278073308360646421e-02
6.048731021561488258e-02 -2.498610590106558060e-01 -1.104397466380891840e-01
2.053612712903836110e-02 -5.423629056252375902e-01 -3.134426734506290946e-01
-1.214896240746452527e-01 6.822135744385747769e-01 4.978136053926702775e-01
-2.660144402807795294e-01 8.768766285465430244e-01 6.115432694235981570e-01
-3.908663646339948783e-01 7.750887034641164020e-01 5.270432614597634347e-01
-3.885838758139069093e-01 6.429141051952992347e-01 4.378508616773683082e-01
3.737533986684926091e-01 -2.577818265788567875e-01 -7.667683655502526008e-02
3.553937080920206992e-01 5.947957641686741313e-03 9.956576921332964403e-02
3.981937516475426708e-01 -4.594398484450369358e-01 -2.101396457507073989e-01
1.436817196514272588e-01 -3.785519848377283947e-01 -1.871684293351290607e-01
-2.442816432164684193e-01 8.948103633163398962e-01 6.263980566435033426e-01
1.871115472487530906e-01 -3.090828917653154831e-02 5.359801512449439975e-02
4.175476492149179375e-01 -3.384947946586406298e-01 -1.258469952465403885e-01
-8.612466264278028083e-01 7.181544049771160232e-01 4.297532117786695416e-01
-3.739571136043962074e-01 -2.725104239781822937e-02 -1.400014582407829375e-02
-4.071594609142740323e-02 -4.733734907534637437e-01 -2.743893138029191436e-01
-1.387936839242141784e-01 -1.360240339298535162e-01 -5.826511506454797040e-02
-1.043120749792649793e-01 6.150947417231072967e-01 4.545219289301526966e-01
-5.352636488514540547e-01 4.770802154916705673e-01 3.072678673011123296e-01
7.551462106168667365e-02 -2.805160408773058056e-01 -1.293152536204646152e-01
-4.272647137890356883e-01 3.661464500650409848e-01 2.456580770928757651e-01
-1.665756038449512921e-01 1.081386931908246973e-01 1.035545161123339886e-01
3.862977959219233703e-01 -7.317497665498614579e-01 -3.959694368516261664e-01
2.052608091945787583e-01 -8.717309020687297183e-01 -5.133420450042069927e-01
1.725916410654608768e-01 2.008910463538188806e-01 2.087044160891421973e-01
1.967553871119297193e-01 8.962782878155846344e-02 1.364011049085153415e-01
-1.704857690700174178e-01 -2.223166566427831337e-01 -1.206402738944590963e-01
-7.586673216481418791e-01 6.211561568404954103e-01 3.769003894822152700e-01
1.608945881453889004e-01 -5.599795201613165796e-01 -3.078385916707289116e-01
6.777197259391575246e-01 -6.670439300035257979e-01 -3.157691168424613393e-01
-4.011265311054844351e-02 2.189393698416882139e-01 1.943570412195672059e-01
-4.486551076878538269e-01 7.846807843367420432e-01 5.263193020416294665e-01
6.558417038317292391e-01 -7.521541033342500349e-01 -3.761180843646973471e-01
1.468217045205131854e-01 6.544065731492983151e-02 1.137908498486135817e-01
1.474234363159598604e-01 -2.351707718457181906e-01 -8.963716701833024381e-02
-2.400238178193683236e-01 6.030662486835779851e-02 6.200069414378935051e-02
-3.171200718445639222e-01 4.711951400812404156e-01 3.305286580172678845e-01
-4.995931346586691101e-03 -2.460480184784064328e-01 -1.160369043628475538e-01
4.239579759715968454e-01 -8.716206097156679045e-01 -4.859534651514468839e-01
-1.363960539668522265e-01 -8.108418087897055482e-02 -2.077335346497113586e-02
8.080123821351383739e-01 -7.303559502610422749e-01 -3.423563443087824232e-01
-6.760242013338567668e-01 7.188101612717027189e-01 4.533302641505069230e-01
-2.534287010514378879e-01 -1.123799857220812576e-01 -5.657614200830259760e-02
-3.353444293515925323e-01 3.849430571947690671e-01 2.698629786133788788e-01
6.804364231124990781e-01 -6.580933355592312184e-01 -3.093705864406924855e-01
3.990282138183787741e-01 -1.962161435126260622e-01 -3.184240723771407378e-02
-5.223048257389723004e-01 5.837809216163235559e-01 3.811188996575808896e-01
2.409321041409038799e-01 -4.271102837319777912e-01 -2.078946901475856868e-01
-3.669741637001041612e-01 8.855127543676342139e-01 6.047803757452572260e-01
-7.997936610152625581e-02 4.333518203178651218e-01 3.345274852946655275e-01
-3.148308770343953289e-01 1.798016683210627020e-01 1.335516217514981785e-01
-4.570447561510965206e-01 2.699614411235067846e-01 1.768249293897321550e-01
-2.006730813208363051e-01 1.937903056368348309e-01 1.572790267786539631e-01
4.061234879873998338e-01 -1.913382340269615123e-01 -2.765408163351142090e-02
6.157161428609789766e-01 -8.283364792807702548e-01 -4.327022569661194140e-01
-4.400197034512564054e-01 2.467435724019834409e-01 1.632335871359054114e-01
2.802094886524070794e-01 7.409367856060516564e-04 8.665076123485113135e-02
-2.917568990950014651e-01 -1.600639165862743907e-02 3.878375459264315692e-03
1.757333975097189194e-01 -3.787487033833601968e-01 -1.832985455340559455e-01
-4.156959413449309304e-01 3.422783043560077010e-01 2.309450651448549940e-01
4.394544001968762603e-01 -2.498931591480758052e-01 -6.313084483748115927e-02
3.519395617128180387e-01 -9.568928880341207588e-01 -5.526743950607649891e-01
5.603317140700690979e-01 -3.673132730031255511e-01 -1.275232311734395274e-01
3.196078600093321120e-01 -2.113725128146000387e-01 -5.202183455617678809e-02
-4.942416486472267501e-02 -1.247169887809651198e-02 3.653708710364986928e-02
-6.655639965589090767e-01 7.163546501212945117e-01 4.529743855759819637e-01
-1.511707080735307795e-01 -5.270096804089782760e-02 -3.404197483273598956e-03
3.659392988139745229e-01 -1.910254437212696166e-01 -3.246108909156308203e-02
-3.849059370186433404e-01 5.087512065464150357e-01 3.474867367825050235e-01
8.070073521651627280e-01 -7.364147780836176604e-01 -3.465834757053005699e-01
1.049695250630434673e-01 1.665415130636420105e-01 1.770054307830283835e-01
-1.475822756614416642e-01 -3.417255607527244221e-01 -1.986153207927521258e-01
-7.564014283843956132e-02 3.822719343482758325e-01 3.004901742077821236e-01
-6.610094146930828307e-02 -3.866538100467487027e-01 -2.188536243588191099e-01
2.113909260772992016e-01 -3.574716070076975893e-01 -1.644413099126980082e-01
-4.611874184151270040e-01 6.555698625533833424e-01 4.373506251782522947e-01
-1.319571021871151772e-01 6.037404886875528121e-01 4.433828143904811059e-01
2.725866233151417739e-01 -9.095164592735139886e-01 -5.305129382948019501e-01
2.959537701811132959e-01 -8.881617934173000606e-01 -5.131381831446700792e-01
-4.263523682362121425e-01 6.630408200926828366e-01 4.467588769180479424e-01
-1.864833200733982954e-01 3.147152989503058107e-01 2.409131285547027879e-01
-2.432948341602524100e-01 5.925824092989445679e-01 4.219238041083882007e-01
5.025540613261566536e-01 -5.445862517293446059e-01 -2.547467571892909066e-01
-5.379600384095629684e-01 8.290959615772219848e-01 5.452331556606204721e-01
4.142427160334802294e-01 -8.077395249749662609e-01 -4.439216345875121039e-01
4.612165561129549785e-01 -4.862644595694740612e-01 -2.204277903159499730e-01
6.870818047875509871e-01 -5.152540423425540084e-01 -2.118435347002066704e-01
-5.468489682981174660e-01 8.421082152790723141e-01 5.529318132527240026e-01
2.869253160320564544e-01 -1.577680861817201408e-01 -1.981540433885915081e-02
-1.480828693370782323e-01 5.925465717271488630e-01 4.337909255642109496e-01
1.075939461836811772e-01 1.592714551916406263e-01 1.724116358969768614e-01
-8.946691845161654309e-04 -2.975875040729106247e-02 3.089540462021867287e-02
-3.646588999466602865e-01 5.099468279752596978e-01 3.508248586598363139e-01
-9.421265139956135071e-02 1.127518975316270655e-01 1.157151728810043578e-01
5.503180388007433005e-02 2.823748179109037901e-02 7.714164498701649164e-02
6.018462906096052611e-01 -6.351200680753952277e-01 -3.036339260086604597e-01
-2.142956912379329892e-01 -2.429635345982867900e-01 -1.400890574747675199e-01
5.153643371937003392e-01 -8.164719576432734049e-01 -4.372037171740878470e-01
3.051865778530490347e-01 -2.215071147392977668e-01 -6.068372547451958421e-02
-2.822968430799859263e-01 7.813047991513548673e-01 5.448109935377488666e-01
-5.271781675890471197e-01 3.409089761686381892e-01 2.160946423502162206e-01
5.179955239509000942e-01 -3.212834369107936960e-01 -1.016502077843193519e-01
1.598569698200473232e-01 -2.345329388844989427e-01 -8.765250595049629834e-02
2.245195538319344208e-01 -7.769807605035815579e-01 -4.467942957624789213e-01
-4.673092264609373520e-02 -2.130581011583025930e-01 -9.891635289007037757e-02
3.897966644911460277e-01 -6.085762581418932005e-01 -3.121483969004458237e-01
4.441841972274261918e-01 -6.640039578467060721e-01 -3.428782995809414591e-01
2.019688002863217757e-01 -3.537204431268988758e-01 -1.630786712424384388e-01
-2.588095366193969848e-01 1.657601256275372248e-01 1.310427173030604964e-01
4.677419748581297942e-01 -2.445421124469455976e-01 -5.597543576665276605e-02
1.833110405199382675e-01 -2.700914279905675119e-01 -1.087950617937405579e-01
-7.493414782591500956e-02 7.637807480062665764e-03 4.696446436606262903e-02
-4.709781482169704825e-01 5.854632165024452606e-01 3.886681358159376209e-01
-7.579719567854157347e-01 7.373066051075708449e-01 4.556169291133008170e-01
-5.332707868851849220e-01 3.771841256834999045e-01 2.398906889147113808e-01
-2.870405874401584234e-01 2.403366901204854467e-01 1.780024974225856427e-01
-4.835540971857882897e-01 3.758804152152409039e-01 2.452174289437371313e-01
-6.502067800394873975e-01 7.757506152572153368e-01 4.951013471917337094e-01
2.187748630366320168e-01 -4.909102248556189707e-01 -2.538522665293951319e-01
-1.415831792768686426e-01 1.697304306225665832e-02 4.496003497500448975e-02
3.455313314744016817e-01 -8.248776417854383758e-02 3.846620387413354769e-02
-4.954697734983449786e-01 5.236410582253810952e-01 3.437578975113199098e-01
2.311269503450179008e-01 -8.840226306776899357e-02 2.017390435561429093e-02
-2.377451966376462611e-01 1.732388266782359243e-01 1.387363350699643005e-01
6.620928631594878988e-01 -6.059265084681541014e-01 -2.763465096981391755e-01
-4.515822438081766588e-02 4.982041431700669487e-01 3.827791288298639238e-01
-1.252385005028779918e-01 5.378006546134826982e-01 3.995830202963970845e-01
1.450606911961694889e-01 -4.681963832731247388e-01 -2.476822509804530725e-01
5.302314753663422281e-02 -1.124103135654319074e-01 -1.832274304869291326e-02
1.365585553718398626e-01 -6.874925245461070977e-01 -3.971997471607525143e-01
1.237073703029348617e-02 -3.775212393979393566e-02 2.714094379528467910e-02
2.221492070104525429e-01 -6.971012624880880137e-01 -3.930147785216390188e-01
1.631608842125474024e-01 2.732753915899904795e-01 2.565281820814357405e-01
-6.141787538693666004e-01 5.509832258831234286e-01 3.474415522959500291e-01
-1.405984313106182215e-01 -1.086338289911435301e-01 -3.994832918117123544e-02
-8.130668523119862767e-01 7.117566535593937704e-01 4.314395173599951949e-01
-2.354697721109916819e-01 1.748177580026274158e-01 1.400894013888505651e-01
8.474539114267322371e-02 -2.581261934679763281e-01 -1.130052631749979969e-01
-1.035500206090897157e-01 -1.271749052740316632e-01 -4.787285760671526613e-02
1.940353894361649678e-01 -7.553478781948973486e-01 -4.359568918728017328e-01
-4.879605563922280731e-01 6.968456447720012825e-01 4.619490528021382714e-01
1.490973424479854481e-01 -3.454926319279862934e-01 -1.641120540216131907e-01
-3.396745238764086183e-01 3.733099760987784177e-01 2.614469975427903825e-01
-3.857339114895884102e-01 3.780404105804509585e-01 2.588968012060683943e-01
-2.917403435216421315e-01 8.283445911373390480e-01 5.754758132447024277e-01
8.995544210533717999e-02 -3.205262536640659521e-01 -1.545971657531781951e-01
-1.295128674759497278e-01 -1.205444696665119719e-01 -4.662688829763957793e-02
2.953972917604214543e-01 -6.043650697506643826e-02 4.713268537190749841e-02
4.413167878185998705e-02 2.654108945913382089e-01 2.363381919033528122e-01
3.835286977716604873e-01 -4.784716236997145766e-01 -2.248550498819095467e-01
3.128234528507385925e-01 -3.883785031823712153e-01 -1.726958798106312254e-01
-2.626425737706499230e-01 8.041888099911178589e-01 5.627573451459996212e-01
3.987025503952346117e-01 -7.194590075534310625e-01 -3.860997565960362365e-01
-4.793030122802597326e-01 7.575247716516618768e-01 5.041079215414805414e-01
6.187673210646212896e-01 -4.470633884985071860e-01 -1.742129588011404606e-01
3.180369973828000019e-01 -9.641514614350824575e-01 -5.618224086639942438e-01
3.660758916729776047e-01 -5.976036234398155456e-01 -3.076828932415719975e-01
1.877545403664754309e-02 9.931249855230807333e-02 1.207286927878277183e-01
7.206617722639226953e-01 -5.983092621614842788e-01 -2.638750143427697203e-01
2.066915178145175558e-01 -1.901346637329353606e-01 -5.174712030726948131e-02
3.155972294554354463e-01 -7.849569244738628937e-01 -4.408188378569031229e-01
2.102688031396771073e-01 -5.299366117379178398e-01 -2.813340864708877564e-01
3.818203315857618407e-01 -1.824073829693877713e-01 -2.464352845109064535e-02
2.709386931060495662e-01 -8.150235445334786943e-01 -4.667504360528675900e-01
-6.798280802799662181e-01 6.095267927186646117e-01 3.788742574274055475e-01
-1.772451543652235895e-01 7.695441449891706753e-01 5.499697544662521809e-01
-1.974901922085973427e-01 6.304960959665664166e-01 4.533107267716293687e-01
4.770045968023517435e-01 -5.606900901748224086e-01 -2.688394481726550378e-01
2.797975469057311093e-01 -8.828411161612120805e-01 -5.115540870315756772e-01
-6.933523936922241226e-01 5.954287273937332037e-01 3.676412695783693452e-01
1.117543330634752780e-01 -4.416498810432624156e-01 -2.338709768578109693e-01
1.324631055093120069e-01 -1.072937436242918235e-01 -4.937451826623503841e-03
3.687820758572257773e-01 -8.248423604382404406e-02 4.137246565367791451e-02
1.365509749793810401e-01 5.534527262254564095e-02 1.056738857978337526e-01
-8.173964567543759996e-01 7.026569782044427281e-01 4.247386224359334661e-01
-1.746652953879204717e-01 5.854979740140466848e-01 4.256992977215458551e-01
2.694941157508111695e-01 -7.102401689039744559e-01 -3.959962628937904738e-01
6.815410240626431637e-01 -4.926516564083137095e-01 -1.972345381064025960e-01
