9.954713456280887829e-02 -4.235068666543378435e-01 -1.974624319253512339e-01
2.877826020606032154e-02 -4.974694327252945913e-01 -5.349834616268946963e-01
3.508570785887477061e-02 -5.039595973553256947e-01 -6.481368791986957811e-01
2.384875392756528045e-01 -2.897884150340245824e-01 3.393663742443027709e-01
-8.946433327412130210e-02 -5.989070087752194071e-01 -8.565028678487813796e-01
6.591489463745572874e-02 -4.541325335171357835e-01 -3.083297018318937877e-01
1.471037153289089100e-02 -5.197184314685530104e-01 -6.847008495247752791e-01
2.736819038453504604e-01 -2.618150130113690577e-01 4.107693411278141582e-01
2.151023858708971392e-01 -2.906906368517273020e-01 4.855517400377612480e-01
1.567604625464670554e-01 -3.848227388316901032e-01 -1.557354669915632095e-01
3.397593775390416598e-02 -5.063636735602908834e-01 -6.670525852342262807e-01
2.758627742030095309e-01 -2.597911770798408404e-01 4.183737321517233543e-01
3.417323248640058431e-02 -4.904048216969641993e-01 -4.936380340448233706e-01
4.314713308083542032e-01 -1.222536314325733398e-01 8.857803220999337368e-01
3.162598684112022940e-01 -2.112425427533160538e-01 6.803309709272378214e-01
7.715457954961489617e-02 -4.530593245681551196e-01 -3.715886924526668467e-01
2.673757231400618606e-01 -2.747738831285301830e-01 3.109695611124909664e-01
1.265411412687693082e-01 -4.311824213195962763e-01 -4.616487858557343782e-01
2.253476483126482660e-02 -5.141930390847075927e-01 -6.764211467515758303e-01
4.480433120558050542e-01 -1.268727821343350604e-01 7.246107591897122946e-01
3.539610798049840357e-01 -2.143064163647111775e-01 3.951814306718228198e-01
5.091947337917271943e-01 -6.966061055357980480e-02 9.429173183269212721e-01
7.125800773824407519e-02 -4.554375921714534092e-01 -3.582765203708467294e-01
2.048942214133458728e-01 -3.282552124893552969e-01 1.423879186172155309e-01
3.712598077983878531e-01 -2.057395332979668479e-01 3.735338617187541899e-01
1.625297487852792599e-01 -3.561947281809874077e-01 1.192065565766607521e-01
1.496938206164155349e-01 -4.036131904083132271e-01 -3.143093806777551014e-01
8.253173963299452465e-02 -4.962193688188699103e-01 -8.800270705696520146e-01
3.031521961111384722e-01 -2.302106713669842819e-01 5.601272472863443319e-01
-1.500736711620312969e-01 4.001257980663270319e-01 3.266033362523587669e-01
-2.590394641259243236e-01 2.575409086598603459e-01 -5.073420656916528548e-01
-3.949202240207179693e-01 1.629950929194498854e-01 -6.356941100718259685e-01
-8.944933767419405157e-02 4.391547977798858637e-01 3.493424948632932736e-01
-3.261130354210650117e-01 2.168835762877554529e-01 -5.048698363825798729e-01
-2.957569879501845689e-01 2.311153788860590419e-01 -5.516326087714262805e-01
-2.511806005729823044e-01 3.228790015071327235e-01 1.555884296560553492e-01
-3.747866700093068770e-01 1.580868339778334908e-01 -8.237976673944361616e-01
-3.889553873380879878e-01 1.608328690518965876e-01 -6.991750577560053026e-01
-2.242173167913363574e-01 3.256335383006615514e-01 5.804711420515481536e-03
-4.102229272798998405e-01 1.652629812336907089e-01 -5.087388689445840884e-01
-3.055038605820350472e-01 2.240195296145268689e-01 -5.642771231925803876e-01
-1.950389108089806423e-01 3.610280713786766515e-01 1.986088284294994233e-01
-4.033277975871345511e-01 1.353639927681480892e-01 -8.821141696191404646e-01
2.837458483083481545e-02 5.328458304804699619e-01 5.888401405639257513e-01
-4.347130567811352542e-01 1.167417275012568867e-01 -8.765533850742110999e-01
-4.629207474159453550e-01 9.485582370037984323e-02 -9.279316094677305671e-01
-2.409388275317584094e-01 3.018821998603399837e-01 -1.426523126405154496e-01
-3.523908698102976023e-01 2.008801622969398348e-01 -5.047206386404927692e-01
-2.565269742304313039e-01 2.493859049441414510e-01 -6.133974598078129059e-01
-1.324947867120074563e-01 4.306118178379276795e-01 5.430756500437746714e-01
-3.126789959097012184e-01 2.349047237912047503e-01 -3.972125268333951964e-01
5.130031903958638673e-02 5.498627686347267174e-01 6.221585244002900694e-01
-2.023805273783135794e-01 3.420345764679554312e-01 3.964689857111217131e-02
-2.066008883277186403e-01 2.987144034862829201e-01 -4.064944825798633143e-01
-3.737118194701350565e-02 4.861560499408443814e-01 5.164026794929416075e-01
-1.301153315756237439e-01 3.835940131930600794e-01 1.240474520908824672e-02
-2.077983348371752192e-01 3.391570014911661213e-01 4.429713240236929361e-02
-4.557347929067697562e-02 5.083316627866901749e-01 8.139393704825417242e-01
-2.722239264289476046e-01 2.371711253337919489e-01 -6.423798419607988919e-01
-2.711050957481824786e-01 2.714058051928214255e-01 -2.750158060438194774e-01
-1.714925223812150124e-01 3.308813166187836718e-01 -2.886034308513832358e-01
1.211265027505655650e-02 5.138292673943484212e-01 4.891564674991074613e-01
-2.812832130170186407e-01 2.715575162286157362e-01 -2.054298397926499764e-01
-2.265791156570443610e-01 3.133547288390381991e-01 -1.128724921831371075e-01
-1.477193334971774186e-01 4.220711874620461934e-01 5.511683554509080318e-01
-6.789525721377281942e-02 4.792237776789375903e-01 6.442083354811977136e-01
-1.593232821228166840e-01 3.692912625649432123e-01 5.072875315595911511e-02
-1.034759588989914297e-01 3.967141692752488291e-01 -2.172560706049316698e-02
-1.715813872123403139e-01 3.340083878609990120e-01 -2.537725179441997492e-01
-2.869744529210446204e-01 2.262058307125500434e-01 -6.639978759905937888e-01
-2.485369738498974801e-01 2.702611533120387599e-01 -4.381595445746387929e-01
-1.953708415965471901e-01 3.487448254376844803e-01 6.633647894013172674e-02
-2.281787520854313411e-01 3.440235254774005602e-01 2.335912114112996540e-01
-1.874403872527567183e-01 3.625152885562513139e-01 1.641824887566187829e-01
-3.582016893001853663e-01 1.705853449114333176e-01 -7.976351172108974152e-01
-4.454811531451215861e-02 5.042122648060601842e-01 7.619937709206970888e-01
-7.937083534829765530e-02 4.608680998334103163e-01 5.198182701361182545e-01
-2.500277629897879605e-01 2.542292715995695396e-01 -6.037413970513164641e-01
-1.912714448455961683e-02 4.997146760538653254e-01 5.431003644583590750e-01
-2.506469477591772299e-01 3.091119112139971148e-01 1.293099884870107770e-03
-7.707938434189070230e-03 5.090421228657501240e-01 5.690178056126543593e-01
-1.532465120278482251e-01 3.483035698478787467e-01 -2.196166030303037531e-01
-8.521670718651654097e-02 4.637079199408392083e-01 5.899241972674634793e-01
-3.088382616014034299e-01 1.979981348159869647e-01 -8.269291795323255867e-01
4.021363129331827213e-02 5.569068197642138562e-01 7.732712072799841074e-01
-1.451944226293364892e-01 4.312989537700723242e-01 6.353515694568200312e-01
-4.560929903296569443e-01 1.041459072654624535e-01 -8.717816601537680121e-01
-2.715244612557437542e-01 3.060027761262442136e-01 1.065802431682551232e-01
-2.819899468054269942e-01 2.290863387615565960e-01 -6.657243068137070896e-01
-2.592458070627624012e-01 2.881468553717834169e-01 -1.708648106629340468e-01
-3.115891092787008709e-01 2.389762337019827598e-01 -3.599076291941302741e-01
1.342657533049357657e-02 5.276860948674482188e-01 6.321042813979832475e-01
-3.124461761044438068e-01 2.304195478106169093e-01 -4.478738382885654734e-01
1.242294877877567205e-02 5.284519388859230116e-01 6.471872235600573120e-01
-4.784721154143808247e-02 4.790840745863585437e-01 5.088856748993005885e-01
-1.455352677271273543e-01 3.904498710776006520e-01 1.903753870074470500e-01
-4.318653049944068401e-02 4.596714192816644950e-01 2.652356240539626153e-01
-1.758888953667945010e-01 3.571887937194662133e-01 2.877316088689890403e-02
-3.985209212552744129e-02 4.683379344476437112e-01 3.378712980772000107e-01
-4.385960368558222688e-01 1.238703327162744006e-01 -7.725897507017251975e-01
-4.011929560960970087e-01 1.709834897481425364e-01 -5.063684377796583425e-01
-1.560264109293330870e-01 3.574774106019832365e-01 -1.006215191381277657e-01
-2.811305779431549912e-01 2.530921893696365665e-01 -4.086227318472805403e-01
-4.492630924081585930e-01 1.040703224146379696e-01 -9.181893824919201696e-01
-1.796352545216637342e-01 3.771689558239849638e-01 2.725349254458804271e-01
-7.039602966952240859e-02 4.395999541146055067e-01 2.270618805937319185e-01
-3.263328871068799653e-01 1.824796050089156629e-01 -8.800868658731393346e-01
-2.251691255564423899e-01 2.805347011737965857e-01 -4.816240935013335056e-01
-9.176810518061274957e-03 5.159355569150705367e-01 6.542957407233614964e-01
-3.276867600860873253e-01 1.825319554164662461e-01 -8.704784526446442960e-01
-3.079564458936283611e-01 2.702459401216594226e-01 -4.178303820213804393e-02
-2.045572979174374861e-01 3.488656075576327953e-01 1.289658389026104579e-01
-2.881222928070635847e-01 2.733363042188804992e-01 -1.403127098247041460e-01
-6.878169392590210984e-02 5.015731181356534174e-01 8.948238599156999040e-01
-1.057869694653178379e-02 5.119757295764361116e-01 6.202958084330840727e-01
-9.661613437587945885e-02 4.115004710221945583e-01 9.438765515995314881e-02
-7.080999048193126200e-02 4.787050497986519715e-01 6.579806839352099201e-01
-1.175217035791391307e-02 5.275157687538067908e-01 7.982728264298829535e-01
-1.730699122520109046e-01 3.953366110391535182e-01 4.276354137314830051e-01
-9.035302364863052882e-02 4.367210727026725747e-01 3.287268399912733896e-01
-3.651477150599488630e-01 2.109027133769648954e-01 -3.098507800333514250e-01
-1.818709142461363837e-01 3.209754995499927155e-01 -3.277993665506538368e-01
-1.078952610445522015e-01 4.075528785012558219e-01 1.264386442070611904e-01
-2.116488528998029250e-01 3.312564895932231246e-01 -1.650755914488354070e-02
-2.207507012654082723e-01 3.221190492590435550e-01 -5.580981448621719077e-02
-4.739618586826819385e-02 4.659933323696066609e-01 3.625470072393917609e-01
-5.369721068304758593e-02 5.103792429573996703e-01 8.905727468915957123e-01
-1.254928304375237391e-01 3.795692505258809191e-01 -6.251063797755802842e-02
-1.571252174209390451e-01 3.696469972878289045e-01 3.995459041611404416e-02
-3.381353233605822739e-01 1.859450469826474661e-01 -7.633792359520675808e-01
-3.728740655896143896e-01 1.954408286077744528e-01 -4.275780389285393501e-01
-2.037710110943863340e-01 3.614883743733218746e-01 2.619233543717468526e-01
1.560934079101007795e-02 5.364703921712388190e-01 7.137153647183134275e-01
-1.738585435970652349e-01 3.371104692925303570e-01 -2.046113851256229077e-01
-8.356991220282203965e-04 5.386238940824561450e-01 8.470417278215655044e-01
-3.366400515599551890e-01 2.297589723472519274e-01 -2.936456156274520612e-01
-1.964595575775859859e-01 3.572987925809887333e-01 1.672583390576984075e-01
2.855665931186492090e-02 5.436705744576443289e-01 7.061436417384640007e-01
-1.056261727847395415e-01 4.405142125586409274e-01 4.721846124144435941e-01
-1.431016931084594102e-01 4.229953101426349171e-01 5.304700597925328109e-01
-1.213525008902961028e-01 4.200783233292022523e-01 3.533865025011837524e-01
-7.879224653630007014e-02 4.818906998113874907e-01 7.461304738965659489e-01
-3.306245504570876625e-01 2.330813328447833566e-01 -2.974147366573071660e-01
-9.480113657394095839e-02 4.380778240970161774e-01 3.732667425373767389e-01
-3.058005169251171163e-01 2.589376272971650184e-01 -1.799840169607028473e-01
3.612285025070983285e-02 5.567264242936680319e-01 7.985964074983369354e-01
-2.314661204082593127e-01 2.883221566042123984e-01 -3.543365796910537546e-01
-3.124010623150942356e-01 2.316851405499611993e-01 -4.343181139777499422e-01
-7.220256158716324701e-02 4.802081209807301243e-01 6.837310912710413691e-01
-2.070965863158393261e-01 3.318810954268370805e-01 -4.004894254314488033e-02
-2.964869091151658420e-01 2.190598180007023166e-01 -6.787560294628854907e-01
3.509841010648719756e-02 5.596774356690036312e-01 8.377433413567152432e-01
-4.789498457016654331e-01 9.692309103857883745e-02 -7.983252535980552844e-01
-3.374846721406394856e-01 1.825124753195199179e-01 -8.053041797363540422e-01
-3.389375499427118577e-01 2.097677806233219366e-01 -4.971937235873353789e-01
-4.402707781191745884e-01 1.206707163081217338e-01 -7.964453106479345568e-01
-2.208015681203008285e-01 2.807392918170799612e-01 -5.085314851053512886e-01
-3.618120307578176487e-01 1.554195466542740989e-01 -9.395892537265406741e-01
-1.976988351961082579e-01 3.648038151699955489e-01 2.577002443715710189e-01
-8.388031636824974657e-02 4.267308712998256204e-01 1.761491324767038291e-01
-3.094150867634394286e-01 2.194488439451330597e-01 -5.882188732854226609e-01
-2.378983700381691047e-01 3.017823500980826856e-01 -1.640364164984103867e-01
-7.081645101661761255e-02 4.587263029375155399e-01 4.392793133037239395e-01
-2.208781999878784430e-01 3.300810206132428481e-01 3.221556682554295448e-02
-1.052890591702652645e-01 4.502070813697369167e-01 5.760606992831005524e-01
-5.007637915361178721e-02 4.821321878477253797e-01 5.571356589128757530e-01
-3.196362583960001835e-01 1.845536972420192823e-01 -9.020686882706067111e-01
7.308057162389198190e-03 5.481314610136506227e-01 8.967903911787855620e-01
-3.411558194626865270e-02 5.149191367877025138e-01 8.095990241417422295e-01
-4.851930667289628546e-02 4.646541491471675722e-01 3.553797620196316176e-01
-7.091845307729102710e-02 4.401217016971972207e-01 2.362608775487195223e-01
-3.113804250713226862e-01 1.941355768427069917e-01 -8.522543457197938599e-01
-3.568344400807846317e-01 1.763627009393810563e-01 -7.435041636346870764e-01
-3.628129879695782267e-02 4.684453373919307273e-01 3.152171142203490373e-01
-3.850839790198518631e-01 1.608393527036763859e-01 -7.249403834293559612e-01
-2.747588754027454616e-01 2.636163029533907243e-01 -3.359180261675153156e-01
-1.423568146633807652e-01 3.996164128598735377e-01 2.695267689730115324e-01
-2.291941891350562921e-01 2.914619308557579447e-01 -3.351216432527354683e-01
-3.687080271884009552e-01 1.938892680301871618e-01 -4.723684211439145297e-01
-1.263918882224069062e-01 3.987123532382562674e-01 1.530844691894788778e-01
-4.694356604068151140e-01 1.029860922009904062e-01 -7.954363804251108894e-01
-2.421072754690122564e-01 2.999826635099615002e-01 -1.556522892117143952e-01
-2.164738076982608284e-01 3.275992130416902071e-01 -2.435064238455044924e-02
-3.001208544218897933e-01 2.442909937821655109e-01 -3.782518631377840279e-01
-1.712363114357484672e-01 3.546057272452499132e-01 -3.055805489312445403e-02
-3.303304289557561502e-01 2.303223483970427699e-01 -3.295853244416152572e-01
-8.039718076519757062e-03 4.979374226830545203e-01 4.496481789713318022e-01
-3.217935265413543466e-01 2.453648694599087354e-01 -2.218589362928461983e-01
-5.671135177516550829e-04 5.114878593675160623e-01 5.481406665722620142e-01
-3.638100450597283042e-01 2.126493242240128090e-01 -2.996544872802555104e-01
-1.885369775947207394e-01 3.854209299725041560e-01 4.222913598619732478e-01
6.522338026014719292e-02 5.807989328627413128e-01 8.679569874051773493e-01
-3.497609994038278214e-01 1.864556508725914163e-01 -6.802033428460410036e-01
-1.871251832199092580e-01 3.611960806150539272e-01 1.476351143419639134e-01
-1.008559275424169427e-01 4.628375436879403337e-01 6.847648093809125536e-01
-1.641264586891806321e-01 3.452980710097873218e-01 -1.799147392522309485e-01
-3.332860255515413539e-01 1.759432413063211909e-01 -9.052499764720132180e-01
-9.823530601838695309e-02 4.079845096405400606e-01 6.669762802617647257e-02
-2.936183329919482277e-01 2.479610329438332872e-01 -3.814644888227981534e-01
-1.280981559660228364e-01 4.183995777258768811e-01 3.800241028803533205e-01
-1.640729654176727725e-01 3.879275395253291570e-01 2.864723142052237881e-01
-1.269628587890138105e-01 4.237534238852607160e-01 4.310660667137103941e-01
-7.886300389942429989e-02 4.913439015079645866e-01 8.501044558558871200e-01
-4.142454898440753874e-01 1.452001276617414516e-01 -7.015591667643809037e-01
-4.126186605036218785e-02 4.828440064820643807e-01 5.061045356544829898e-01
-4.594553550336058501e-01 1.024294248057574519e-01 -8.681360350822524552e-01
-3.922067742572965532e-02 5.139654966837695627e-01 8.332272285225988950e-01
-2.935437362985695020e-01 2.376570143827539394e-01 -4.947795670492627362e-01
-6.969194949044786591e-02 4.470649759407938628e-01 3.040965885697265447e-01
-1.166990012144777794e-01 4.194717984970127156e-01 3.156900514711976635e-01
-5.094476432174668279e-01 6.837961747681031710e-02 -9.073129649249205286e-01
-3.037310059286199015e-01 2.452931577112835992e-01 -3.431865262544156470e-01
7.220904805951103289e-02 5.781621728869786869e-01 7.924677700867140961e-01
-1.265441098800259567e-01 4.217885276360340274e-01 4.067581226217373280e-01
-1.898285441950605668e-01 3.125495597185440899e-01 -3.669475838543657664e-01
1.733987794533107737e-02 5.506174721661365457e-01 8.570608010909098740e-01
-2.037051300928779396e-01 3.444354290544718311e-01 7.477339274884056697e-02
-5.442705576599506795e-02 4.471965909811883022e-01 2.036654982812256820e-01
4.975994823590470378e-02 5.617994795243886896e-01 7.631317427987468482e-01
-1.655430652502991873e-01 3.378728195452628258e-01 -2.517588756691033214e-01
-5.815029886199206410e-02 4.558086527149373124e-01 3.228052650086318254e-01
-3.216477495088577720e-01 1.957018270343818256e-01 -7.665854545690892197e-01
9.286054615819504254e-02 5.979461377108256093e-01 8.712593305304935365e-01
-2.920991836142369791e-02 4.714249994202539540e-01 3.006492967673784489e-01
-3.754126585795087845e-01 1.731794643372483178e-01 -6.543729722115982916e-01
8.288151236642365971e-03 5.140621549255329770e-01 5.172295797601952350e-01
-2.116866549545451393e-01 3.494684894509191841e-01 1.831453391290588650e-01
-2.333700836789852073e-01 3.008479682633566910e-01 -2.044869013800267588e-01
-4.367034236199452413e-01 1.367680389031694643e-01 -6.440051666472985659e-01
8.714824480162103315e-02 5.894147110767498088e-01 8.159716796360271251e-01
-1.506462514745537107e-01 3.565644235062671585e-01 -1.465228347460452996e-01
-2.321200174225446222e-01 3.150424736456288732e-01 -5.741573014667483016e-02
-1.956555035580983815e-01 3.621116860297334816e-01 2.145880793425695154e-01
-4.031950482844366968e-01 1.443906157269012336e-01 -7.841688646710242017e-01
-2.853296423096816636e-01 2.785005572757467407e-01 -1.024071231262061593e-01
-4.799896204273143563e-02 4.675809500641331384e-01 3.839523099057942090e-01
-1.009865510058264443e-01 4.584763180042359942e-01 6.378860951269902380e-01
-7.732621233756610535e-02 4.749037476028744043e-01 6.598475606025487883e-01
-8.786934000373440579e-02 4.320774562761968696e-01 2.613093728167025787e-01
3.011451373717916602e-01 7.565674969215367696e-02 9.593864924605619571e-01
3.381388931823986477e-01 -4.049204154649625395e-03 9.694551376416055133e-01
3.780985310460667215e-01 -1.751566653160051973e-02 9.630444292624982250e-01
1.387786727545533005e-01 5.318622634955538775e-01 8.898768717095639769e-01
3.353890715847731019e-01 -1.203313647223715754e-01 9.977931425448182123e-01
8.601551796257835003e-02 3.860612268277687220e-01 9.372758292222843624e-01
1.653293298610953033e-01 2.523544023795161739e-01 9.500133417393534785e-01
2.435048702907871010e-01 2.010005689694036868e-01 9.434239509238842025e-01
3.520669945558405622e-01 1.068701029209836728e-01 9.397036111993986029e-01
1.846860246835421993e-01 4.059989546816745176e-01 9.087864569243216950e-01
9.215646294186662091e-02 5.825516964165887712e-01 8.890314259979473777e-01
4.371256455848427924e-01 -5.087778408363947957e-02 9.567806975210251252e-01
3.354265342103640024e-01 9.479080704988648853e-02 9.465829497557699534e-01
1.661057667202927440e-02 4.989773803618181014e-01 9.271022360749168190e-01
5.105753796207598318e-03 4.618123601360320518e-01 9.387163859869845917e-01
4.052428602968907723e-01 1.074249910585286516e-01 9.267753410813821535e-01
2.788227917870119144e-01 9.920307319173483906e-02 9.591538703751539829e-01
1.868703925547562927e-01 4.262337914756501589e-01 9.034447234675934135e-01
3.406545705372318600e-01 1.635252052200553974e-01 9.289654208902257126e-01
4.004773670000603691e-01 -1.388590265132864758e-02 9.567952833430923842e-01
4.017005312820338785e-03 5.205859975454649735e-01 9.249896819241345547e-01
2.901616774636802711e-03 4.532262703467260234e-01 9.412903611263201409e-01
3.145877626674947747e-01 -1.085723755540148466e-01 1.000000000000000000e+00
3.188556252872594698e-01 2.575102125340988368e-01 9.118417534653282530e-01
9.207862380296891192e-02 5.629381421524398688e-01 8.937183746162049580e-01
1.298829609716388722e-01 3.512227103997349054e-01 9.350115070679008156e-01
7.932813223177807849e-02 4.675080662100999929e-01 9.194999336186695515e-01
4.078213842992517435e-01 2.929583447339119059e-02 9.447503492501465594e-01
3.532213107285316900e-01 2.070986218886789187e-01 9.155704710352365883e-01
4.870444124529476615e-01 -6.673726196720818071e-02 9.485429927055737398e-01
2.146885537571701641e-01 1.646155042700615523e-01 9.590182889375531428e-01
9.342966975380616323e-02 5.835551831322591809e-01 8.884862028061539796e-01
1.616295536947836009e-01 3.432753020090635876e-01 9.292635910973413571e-01
3.722896730459606118e-01 -5.759632010335995200e-02 9.739818555764641062e-01
3.839142198139233186e-01 1.469996931924480998e-01 9.224886838777563991e-01
1.813911016542388843e-01 1.009501557324123250e-01 9.821839381057861917e-01
3.516229087607086190e-01 1.379194014934025103e-01 9.324204393851224237e-01
6.954582237086406882e-02 5.684377008416018340e-01 8.978317027448989851e-01
1.550301056874613115e-01 5.450567985882293076e-01 8.828257105979657737e-01
2.735142448201852150e-01 9.513096476608697135e-04 9.838161944938419445e-01
3.820599937956504766e-01 5.334193582283040802e-02 9.452263444019192162e-01
3.544047092706061886e-01 5.284845508396256164e-02 9.519987450174044463e-01
3.304342937145784975e-01 -8.221149839429851836e-02 9.899125561839406950e-01
1.142014387389580082e-01 3.030006556373042725e-01 9.502624170542309789e-01
3.323636738327517270e-01 1.599266979051530702e-01 9.318170160757205389e-01
1.416787012941380097e-01 1.548124973584168174e-01 9.789205376574549033e-01
2.658872695512438655e-01 1.284533649022476520e-01 9.553048098648523334e-01
2.457564850198157569e-01 2.152210767042823242e-02 9.855997506209465131e-01
2.606982622007495420e-01 1.835034539902968831e-01 9.434510299532818944e-01
4.060180838337661968e-01 1.228708643425975855e-01 9.229125231689069286e-01
4.893774711710261599e-02 3.586491923148651395e-01 9.527225287240801421e-01
1.081751626651021314e-01 4.965616691625199253e-01 9.056431641310765945e-01
3.991324773192941877e-01 -5.108637853471102025e-02 9.659729931772015332e-01
3.504241727105442128e-01 -1.050760893151567593e-01 9.905442023065037516e-01
2.871354819555905769e-01 1.138226640894692276e-01 9.536739052995047983e-01
2.629967659270861513e-01 -4.417538963075290370e-02 9.970877080441852280e-01
8.968740879642456143e-02 2.569114934290206986e-01 9.671311259581693021e-01
3.645090014792296551e-01 -6.651094429229163774e-02 9.779759582934499651e-01
1.222995406761319542e-01 5.582060639605812558e-01 8.875723161740394218e-01
2.776727388031370314e-01 8.440854178029427377e-03 9.810329128097550200e-01
1.149469875863758511e-01 5.147026240629288818e-01 8.996958727151400659e-01
2.181891399714996904e-01 2.503230914813272534e-01 9.377766676443072269e-01
2.646631985542099996e-01 2.216341998527008028e-01 9.334214206697012406e-01
6.305780320700717090e-02 3.523017550959222088e-01 9.508354408335940589e-01
4.023748987375059261e-01 -2.531781986346597069e-02 9.590595706408261423e-01
3.200990315548459808e-01 1.101164156344038719e-01 9.466237042343006447e-01
2.537301309982265551e-01 3.180031863082873889e-01 9.131155860895965315e-01
2.327858826268063286e-01 5.200274131539295297e-02 9.814662983777701077e-01
4.221373688300679716e-01 -1.179464578883319542e-01 9.763504648162323329e-01
3.102658470567791205e-01 3.280713505874913866e-02 9.673903183340429868e-01
1.472466943020762642e-01 3.370743018224652277e-01 9.342005704350272444e-01
5.770522779274094710e-02 3.344264840844184405e-01 9.563779697290407666e-01
2.459066193375156195e-01 1.898689996194782015e-01 9.454954180137388198e-01
1.038724100072421913e-01 3.605022480704360710e-01 9.390620463790909644e-01
2.922825743420641165e-01 -2.861844331061591876e-02 9.863376874346535539e-01
3.692123431909046238e-01 1.134000072622307898e-01 9.340235860760396358e-01
2.518751293927687929e-01 2.887747830935101234e-01 9.205186177309740980e-01
4.616615806237579778e-02 4.628597573355893169e-01 9.285863496636782566e-01
3.972867584139441188e-01 1.386399995604748747e-01 9.212604147260791132e-01
2.962821943830100668e-01 2.125008885747087239e-01 9.279864659911518654e-01
2.062630640702726170e-01 3.029930556159891042e-01 9.281105839501821997e-01
1.236056027580215572e-01 3.312546181656953470e-01 9.412746869076600298e-01
3.524873262212864788e-01 -4.215166474115964595e-02 9.750710989773915260e-01
2.923275514990910096e-01 2.353530617655159030e-01 9.234990679550569848e-01
-1.847392852143312780e-01 -3.155719688432762071e-01 -9.011965066164563387e-01
-1.944164038569442809e-01 -2.926543226889136151e-01 -9.043224354887346994e-01
-4.191089042670440024e-01 -2.655980745669040202e-02 -9.135856903848432742e-01
-3.737495478767766666e-01 2.679215701265887355e-03 -9.314601056970480686e-01
-1.961638663391743198e-01 -1.358334242506096246e-01 -9.412268327732420392e-01
-3.126372410671360846e-01 -2.199112860460841409e-02 -9.402943434951638313e-01
2.842886580829783946e-02 -5.202221567284468495e-01 -9.037843907248679365e-01
-1.327954901301418855e-01 -4.163146747610476650e-01 -8.897184754766140902e-01
-1.466998401453449910e-02 -3.718478935525463269e-01 -9.287276388110249359e-01
-4.397007415415284393e-01 2.112567031737458412e-02 -9.199800951859403719e-01
-3.032659835663562564e-01 -6.600902232908115175e-03 -9.462124602060617562e-01
-2.528820844518517297e-01 -3.199296060563526223e-01 -8.837615131831613180e-01
-1.449397651637440998e-01 -4.986210497937790254e-01 -8.672063649623529269e-01
-4.578638828681916295e-02 -4.270078086170071563e-01 -9.081112116252191280e-01
-1.021247284474242900e-01 -2.874776376183144078e-01 -9.277635381575356499e-01
-2.095908135819205542e-01 -1.325055941222171019e-01 -9.387878381096006475e-01
-3.983468512898757363e-01 5.990936652281976527e-02 -9.391623634655505981e-01
-3.542725098667112715e-01 -1.801450466638118350e-02 -9.312217382887020278e-01
-1.542324899390508097e-01 -3.086385396450208596e-01 -9.101878633142402863e-01
-3.668339294336565026e-01 7.337343496467470250e-02 -9.499501896452547944e-01
-8.068749942123069896e-02 -5.359212827862557260e-01 -8.737901633210335417e-01
-1.805274535875042441e-01 -2.355810372193022639e-01 -9.212486616241563064e-01
-3.135706656128223746e-01 -9.486352661583359602e-02 -9.227253824833662188e-01
-3.438110752865459196e-01 4.482823164554888828e-02 -9.486963552092267937e-01
-3.881627203669352766e-01 -3.300766438206632989e-03 -9.265684362915540540e-01
-3.013678482470392717e-01 -1.458767378444388377e-02 -9.447682964670692796e-01
-9.479845510484928572e-02 -3.000550913796546371e-01 -9.265329703708750086e-01
-3.468608295611068093e-01 -1.935970143306878569e-02 -9.326851096322890111e-01
-1.810186050191375240e-01 -2.768255006765733550e-01 -9.113138861989952266e-01
-3.405420890229616249e-01 1.342849096764044403e-01 -9.707745646897012470e-01
-2.896101158592636615e-01 -3.651953773882232485e-03 -9.502004767264566887e-01
-3.607511388953712483e-01 2.680090053827788657e-02 -9.403292298673758820e-01
-1.899322017647995520e-01 -3.182243586582373385e-01 -8.993155923075145664e-01
-4.669663620400673620e-01 -2.056422511878375214e-02 -9.034963140051042174e-01
-7.874063807829274897e-02 -2.782732836085506367e-01 -9.355813946553880323e-01
-1.825599652130366068e-01 -3.047545493106988967e-01 -9.042955880767739041e-01
-1.517001844115002107e-01 -4.272755777690042112e-01 -8.825604617508416849e-01
7.711933271694361436e-02 -5.028860103432531981e-01 -9.196274011105904922e-01
-1.315182850880316223e-01 -1.802876529506216297e-01 -9.462025574415583451e-01
3.173581188639946343e-02 -4.822091805131307196e-01 -9.136276313851177111e-01
-3.891428460534407940e-01 -5.941515248569490676e-02 -9.129768076611390892e-01
-7.852117602905818450e-02 -4.221530263889333723e-01 -9.013894219002668295e-01
-3.793900736207750368e-01 -1.466452639010587533e-01 -8.945620892401779933e-01
-1.411472976414518965e-01 -3.409519262211702650e-01 -9.056457728049676081e-01
-1.550855480686832988e-01 -1.950930743932108857e-01 -9.370075136706265129e-01
-2.838360939183076082e-01 2.367047703308983522e-02 -9.580929384991900832e-01
-3.165784797862822852e-01 -1.321049476278425006e-01 -9.131377623787644282e-01
-1.686497741874078693e-01 -3.440488394984784759e-01 -8.982905014196500559e-01
-1.408173986758988194e-01 -3.782935867119746054e-01 -8.968374795666791410e-01
-2.418067396499756772e-01 -2.034431632165494830e-01 -9.141515870584625558e-01
-3.720920585894066379e-01 9.009913412823043755e-02 -9.526657570502098382e-01
-3.574908412856684925e-01 8.597317657969434646e-02 -9.551973650792090487e-01
-4.665268945122978961e-01 2.411239418588447328e-02 -9.142355388643934599e-01
-1.138611735625628535e-01 -1.881506508555742530e-01 -9.485800815127202190e-01
-4.293523207464629010e-01 6.105148098151941261e-02 -9.319730644364223604e-01
-2.572492898216946489e-01 -4.372506136385592018e-03 -9.578162636649022454e-01
-9.049236114965358846e-02 -3.368633180440122610e-01 -9.188084682382803292e-01
-2.340939856275908448e-01 -3.148604076788386052e-01 -8.894891862219964640e-01
-3.891139986343566948e-01 1.137246678881792539e-01 -9.541927176518980591e-01
4.781950454903280412e-02 -4.913567589836453919e-01 -9.153207863752977902e-01
-1.655954236125657397e-01 -4.968368489536360011e-01 -8.626604596910496525e-01
-2.701813570279775201e-01 -2.924256088236875661e-01 -8.861448488723973060e-01
-1.582096458535474093e-01 -4.742508346684575216e-01 -8.698134598124279693e-01
5.318429383722293735e-02 -4.813199822276764683e-01 -9.190006162231996178e-01
5.888302057166515391e-02 -5.077222816058702959e-01 -9.140879485415558392e-01
-1.725812722220058104e-01 -3.328625216029837408e-01 -9.000068815238183584e-01
-1.865329586259123762e-01 -2.174475008083357197e-01 -9.241194600591025043e-01
-3.227868078564011811e-01 -2.328685967615580499e-01 -8.876610622935200423e-01
-1.452510602280648044e-01 -3.749259843858794850e-01 -8.965720887456241073e-01
-2.460497980738385604e-01 -1.585091941994444253e-01 -9.238252640527422344e-01
-1.038832400016634211e-01 -3.015939269053435345e-01 -9.239805565141949728e-01
-3.291212594816873005e-01 -6.657246887894502363e-02 -9.257168470204913957e-01
-1.743462514508588579e-01 -2.654043688424242431e-01 -9.156378573845392888e-01
-9.844138109809312531e-02 -2.701517811706358185e-01 -9.327736192040926300e-01
-3.825485206549407713e-01 -4.705370359935896751e-02 -9.175058068469043038e-01
-3.581355546695336178e-01 -1.396680368570707986e-01 -9.013374092658361647e-01
-9.471835372430138789e-02 -4.577895077111953093e-01 -8.890099143538358062e-01
-3.277102972996379093e-01 -1.470722005259030296e-01 -9.068966576155610415e-01
-1.161084532323499313e-01 -3.653343754083306916e-01 -9.058678409243979823e-01
-2.415666212851095007e-01 -3.125291339304795968e-01 -8.882458425791153189e-01
-4.431570103849770126e-01 -3.668520758847087365e-02 -9.053888276521501188e-01
-4.061894430616335705e-01 9.342650276154065847e-03 -9.252397556229932096e-01
-2.300640645241216198e-01 -2.267685231255150424e-01 -9.114256723276055183e-01
-4.384615361768351982e-01 -4.691095650559946872e-02 -9.040849150119011357e-01
-3.640451376378843196e-01 1.239254347433635522e-01 -9.626531521059547014e-01
3.564651084722182395e-01 9.969242197669057892e-02 7.337550369772113390e-01
5.122568294292845215e-01 -4.895457959022263966e-02 9.200105568215579677e-01
1.616903149942021667e-01 1.773800031020389412e-01 3.361437434278827241e-01
2.274896194267993499e-01 2.100552748771814318e-02 2.722415755641250934e-01
2.129179927745103729e-01 -3.330438979772739616e-01 -3.056744874361809750e-01
-1.582419528044926305e-01 1.590765057835542007e-01 -5.392263468782882985e-01
7.544503818898538883e-02 4.678805921304234339e-01 5.501968956049096970e-01
2.197031290957337790e-01 -2.925478878063813570e-01 -2.260141552004018284e-01
-4.260474157567108872e-03 3.805616337417844774e-01 2.060487305070462793e-01
7.650070329427545272e-03 -2.033345900330825184e-01 -6.518380421100136157e-01
3.386965362610922514e-01 3.819071424324463337e-02 5.930024331395912229e-01
1.353299682839287921e-01 -2.068116392669404890e-01 -3.189152351456110424e-01
2.724050165160223358e-01 1.628285734099035598e-01 6.072569918478128992e-01
1.345472015378704478e-01 -3.887362564425613232e-01 -5.981108626471350886e-01
2.909700091925251919e-01 5.355463161571936276e-02 4.899801746824444804e-01
3.966272630878567990e-02 -1.698490680677032516e-01 -5.160298791780749683e-01
-1.411698073527626884e-01 4.046580871035954097e-02 -6.746801524884158408e-01
4.060267679284051412e-01 1.287845907232516574e-01 9.093575543576876141e-01
-1.052429721504679894e-01 6.078538077002239998e-02 -5.485589000743827937e-01
2.048173012325008036e-01 -5.506339206803018832e-02 9.630918949179415045e-02
-1.807491722880129048e-01 9.569338293498962089e-02 -6.953973738043471853e-01
1.077013401543589211e-01 3.804735806773151263e-01 5.024973050511460926e-01
2.118597083329082920e-01 -2.835918047548667276e-01 -2.331484655943937556e-01
2.638958660744888940e-01 1.717693570125675973e-01 5.983358828216011061e-01
1.126167580961153630e-01 3.697545761375648499e-01 4.991900214788227430e-01
7.143685926745164949e-02 5.313507037024314261e-01 6.362621212835477547e-01
8.955160621077298821e-02 -4.137259920140221592e-01 -7.553688911974529852e-01
-1.060175884430065996e-01 3.520959238876152364e-01 -1.068633434872028054e-01
2.664948979507736197e-04 1.852704479453465974e-02 -3.334394978272376409e-01
2.125352893283978251e-01 2.538629917413575132e-01 5.873351964473375597e-01
-4.418937124584330911e-02 4.502538752477716621e-01 2.064393479567393219e-01
1.830153434095111165e-01 1.336877398765572156e-01 3.260774096833949365e-01
-2.290385868359040566e-02 2.121460924767603062e-01 -9.988090931926696392e-02
1.999799362183210527e-01 1.107062587216581934e-01 3.360087607717857083e-01
5.451202172551269931e-02 4.928883489668106077e-01 5.328399220283359661e-01
-2.321770447159561823e-01 2.356340364491530670e-01 -6.184591246474870907e-01
-6.687128707818946333e-03 -1.770336272523916898e-01 -6.497530247577223417e-01
4.448888670848311633e-01 4.009229096141502663e-02 8.771986223679369976e-01
1.111977593530121509e-02 9.078487820050430701e-02 -1.946206547478345483e-01
-2.958149480747475704e-02 1.861786148062581359e-01 -1.571254563989449571e-01
-2.855676384525728806e-01 1.524996607516270752e-01 -8.865257533057415706e-01
1.124437765320378813e-01 4.287458667072353014e-01 5.885920451936227371e-01
2.716618166686100566e-01 3.235558368563570819e-01 8.501208880471717855e-01
-4.022140253420736222e-02 -2.993917444498683800e-01 -9.249697324576769963e-01
1.597094033317981304e-02 4.002146083827848866e-01 2.895779796897327008e-01
2.741018959394794230e-01 -5.882338990947773294e-02 2.741139886111654822e-01
-2.353083088938703882e-01 1.764757843896400114e-02 -9.588081112096603631e-01
6.045229287143866898e-02 4.614096128686822063e-01 5.006245554721781010e-01
-1.601996506644729479e-01 1.617094849431246761e-01 -5.404014519288798946e-01
-1.413679260703283591e-02 -2.118185079710215718e-03 -4.030417366638866516e-01
-3.804797651471873710e-02 4.313763252040038743e-01 1.939518834021249361e-01
2.629082961675822117e-01 2.121919551714406549e-01 6.572947767757126858e-01
1.080854566721608095e-01 -1.072195777811450756e-01 -2.393783559201952960e-01
-3.053970816418612524e-02 1.896276645303929809e-01 -1.544098601128523762e-01
-3.520477509050498090e-03 4.525699544064189506e-01 3.176977796522401642e-01
4.854783814778351053e-02 -2.218300480878889480e-01 -5.716751271578851545e-01
-1.577433619655032038e-01 2.509696269024342397e-01 -3.979266565243294584e-01
1.957205144783645545e-01 -1.512505852350857216e-01 -7.430787725980787795e-02
8.738192644360541494e-02 1.929529776174422895e-01 1.630255698575202583e-01
3.534413502985258027e-01 9.667591847431888930e-02 7.211502343757792977e-01
-1.297287251069321745e-01 3.525411730621315354e-02 -6.523120134991050589e-01
-5.704136107477950773e-02 2.379820999649899238e-01 -1.509544200630008881e-01
2.159835919837229390e-01 8.427480545628410202e-02 3.381393521119661072e-01
1.349288864156101830e-01 -4.365393504665476265e-01 -6.699172844163557849e-01
1.261927287139521792e-01 8.116165019080485293e-03 -1.572424677934970011e-02
-4.327715215746640032e-02 -2.967459981765563914e-01 -9.290340881186109900e-01
1.667013202109776937e-01 1.653957613946168970e-01 3.311623567014376768e-01
1.547289800304101626e-01 1.632756647239413106e-01 2.962185699057831023e-01
-1.136098019013492000e-01 -1.388058760326182917e-01 -8.747556664267071014e-01
1.658613415863334495e-01 4.908875916319346139e-02 1.517691690658382331e-01
1.938689749484077962e-01 2.819300942804869869e-01 5.806428725585086603e-01
1.175812966511410457e-01 5.039152748744742949e-01 7.167051922854872359e-01
2.203571968914460333e-01 -2.043020148453377205e-01 -8.985839184278250624e-02
4.370969825688479915e-01 9.055495030188305192e-03 8.092804820546651845e-01
4.605622894195475214e-01 4.619109733073049201e-02 9.280071272615200151e-01
9.536098902972437938e-03 4.219853727942968202e-01 3.056952900030988074e-01
-1.558639968680698151e-01 1.562449100204776620e-01 -5.372405424050810119e-01
-1.202722042194976498e-01 -2.135447621062473364e-02 -7.134927705386779895e-01
2.162280918167817645e-01 2.658259986748885972e-01 6.153403012775197078e-01
1.429340480608891073e-01 4.582613172520395572e-01 7.143199381571926354e-01
-8.873566818085268371e-02 2.819505681072672146e-02 -5.544758470291001329e-01
3.755313581840271087e-01 6.879560910588583544e-03 6.428808640790337758e-01
5.822467615241090633e-02 2.699948459615724161e-01 2.031454197884738910e-01
1.088602664188323133e-01 -2.426826187162295367e-01 -4.436740370623649676e-01
-7.228674529666938298e-02 -1.451243605645426704e-01 -7.749172385585573197e-01
-3.245696122511609882e-02 4.465601714012314427e-01 2.318915233345282267e-01
1.338717160468542999e-01 2.972462531496037341e-01 4.450431498734692126e-01
3.020655365936222303e-01 4.221768364427591624e-02 5.021024716395346976e-01
7.905149560249805085e-02 1.223955530632605260e-01 3.347986218940718350e-02
2.021793872269793957e-01 -2.108455992895056363e-01 -1.479784476096757118e-01
-2.564332582328934795e-02 -5.955218720896054280e-02 -5.210101768054232751e-01
-1.420732189772831444e-01 -1.292765018711806643e-02 -7.584064376313857103e-01
-2.806146223846399668e-01 1.801267328807436285e-01 -8.313216341181928204e-01
2.796498275721269813e-02 1.541332808155802987e-02 -2.648102902057651309e-01
1.682354167584983462e-01 1.245636458421075510e-01 2.730273819966911319e-01
2.782946709022338094e-01 2.241140150866644531e-01 7.162133481054184792e-01
-3.152635829637077669e-01 1.852912372447932943e-01 -9.152384632885087745e-01
-3.149005344025933573e-01 1.809572647871722229e-01 -9.208786140867399883e-01
2.316771324139715316e-01 -1.954381505346814984e-01 -4.637015535063461480e-02
-8.000340730051920535e-02 -2.036337892624067725e-01 -8.844846257119433064e-01
3.529848092049687747e-01 -9.608317096978238880e-02 4.263148330412472875e-01
-5.254789593285649762e-02 2.987857388898500222e-02 -4.560513094592225647e-01
2.481553628867039785e-01 -2.567774821868240021e-01 -9.615690164755889835e-02
-7.852207162440281649e-03 1.675197716495098188e-01 -1.279880175112700635e-01
-2.417728085595785836e-01 2.274493452406241012e-01 -6.563455234339143907e-01
5.844239842991489492e-02 1.430506520517909989e-02 -1.857649381537666844e-01
3.382027291782713219e-01 2.197652071773057922e-02 5.669956018269524112e-01
-2.820936936435187170e-01 1.844965008751271174e-01 -8.285832595376648735e-01
3.336761569175772379e-01 1.199180003674876586e-02 5.397953553430587803e-01
1.548764860010589661e-01 1.070111408578836715e-02 6.419556597845889334e-02
7.427189020759665528e-02 -2.692146884018646880e-01 -5.757131337074914423e-01
1.952389996718528475e-01 -3.076526699680572907e-01 -3.138275395962696890e-01
7.270313171400158425e-02 -1.780105073979466324e-01 -4.409392238618011217e-01
8.229102612842975617e-02 4.278607497007690386e-01 5.073702439777950657e-01
4.473216821370149532e-01 6.525155475895023927e-02 9.219676595448683676e-01
1.625642807869008555e-01 -4.891244582155868798e-02 -6.247885884096610054e-03
2.906735743539583527e-01 -1.558365045185523649e-02 3.838779763852980809e-01
2.209806556959109380e-01 -1.269650003767471835e-01 2.959904487424826550e-02
-5.768612648365117196e-02 -5.531858894479622923e-02 -5.994414152914188110e-01
-1.679089383141662561e-01 1.112595989018958231e-01 -6.376723655940580437e-01
2.445333830436151323e-01 -1.447123418159140806e-01 6.495518029344689304e-02
6.063065648635748706e-02 -2.334364699469507753e-01 -5.573480171816748152e-01
1.355323748341536183e-01 2.762140138794291211e-01 4.174041868452396664e-01
1.110784566770956772e-01 -3.328939127954011479e-02 -1.188336446914490391e-01
7.349778392075781430e-02 3.684286149247392728e-01 3.935454960977873284e-01
2.688133781867531047e-01 -2.016732012466087576e-01 4.250465857642968942e-02
1.209695165477172318e-01 4.548685414164564955e-01 6.509685596358298909e-01
-1.662952788030361631e-02 -1.014849848800274262e-01 -5.610083461458639231e-01
4.821001048189343940e-01 -6.474962728364262732e-02 8.160662307883431721e-01
5.016771271193741777e-01 -4.181598296780534435e-02 9.028593973471017442e-01
-2.064306701692961155e-02 -3.219149568796809691e-01 -9.074166021074884236e-01
3.910243658195013128e-02 1.176845591314439228e-02 -2.408597474679740891e-01
-7.455261112863806328e-02 3.158812313918868964e-01 -7.867889475748961192e-02
8.222046281149456015e-02 -2.814104896030568057e-02 -1.874350365962915710e-01
4.168039368165530473e-02 2.401904379375559839e-01 1.139197727863373588e-01
4.051070124035752174e-02 8.923512532944528897e-02 -1.191258883063051194e-01
1.444188822690266327e-02 -2.221124684921319814e-01 -6.624507320411422429e-01
-1.000025788572381086e-01 3.312861589183422883e-01 -1.226289017182760621e-01
-1.670560564721122743e-01 3.179972296431647361e-01 -3.204938416982677230e-01
-6.026553799096270175e-02 1.557644101796522990e-02 -4.982812088636651704e-01
2.640062256512100136e-01 1.504427560350515281e-01 5.661418392754464790e-01
9.958024779416752015e-02 5.908566609862226926e-01 8.014571432302650678e-01
-6.591927424611415676e-02 2.288137381970028195e-01 -1.884376645386781624e-01
3.505210336940016713e-01 -4.465510246265880223e-02 4.981277244138814231e-01
1.064205719827320956e-01 4.017941991327425577e-01 5.315818664740254995e-01
2.699211434212619998e-01 9.873698594927897421e-02 5.030478788447970695e-01
-1.033422002989911187e-01 3.763997780969516316e-02 -5.787807521917177622e-01
6.906406987454609403e-02 3.022541659820193183e-01 2.809985455807576527e-01
4.479500297785592861e-02 -2.443243686099700329e-01 -6.158813943432540627e-01
5.836391062610066238e-02 -4.508354025300339574e-01 -8.945119610471427007e-01
2.751890703161123386e-01 -1.726505257214467626e-01 1.036032885786204033e-01
2.005736194337660594e-01 1.255950475911724595e-01 3.602611980315815199e-01
-1.697991243670581296e-01 -7.966869660766114081e-02 -9.335166278390357730e-01
-5.209709622606630182e-03 -3.119708268401589768e-01 -8.513865162160201283e-01
3.828112339171528822e-01 8.346521217707658646e-02 7.788263665397372471e-01
-1.205476358583727872e-04 -1.481510350333914428e-01 -5.883621230891682430e-01
2.586878143837366070e-02 -3.523473573935224090e-01 -8.305654994120039714e-01
-4.536146317979592758e-03 -1.603160603070948043e-01 -6.185896187673182167e-01
3.078609472378683876e-01 2.404427208792184745e-01 8.194065091432793935e-01
-5.447613187742964685e-02 -1.170913105605083382e-01 -6.850354017385609229e-01
1.937226166401443544e-02 4.768864357156204492e-01 4.153806052958787798e-01
5.050824801379142359e-01 -5.585472648880822344e-02 8.904951160925934639e-01
-2.451255113386420770e-01 1.389271871845698669e-01 -8.000707305483343301e-01
1.447155499191536687e-01 1.749538233955518773e-01 2.874824680277892064e-01
1.197533607821083951e-01 3.155514439652519765e-01 4.355280777968172368e-01
-7.083640862581322417e-02 1.217230688098723673e-01 -3.645920326276326784e-01
4.377923371973625466e-01 3.403144230234524809e-02 8.491678084747926736e-01
-9.382760098897770240e-02 1.171926789595716251e-01 -4.323959022879543257e-01
4.514947391806175547e-01 4.578573937883769623e-02 9.033700485305160566e-01
-8.263292324930980592e-02 2.718378751387111047e-01 -1.671737006520246094e-01
-1.018480551698975750e-01 3.653113877931493114e-01 -7.568755395076066927e-02
8.853206915002065358e-02 1.347284627287294867e-01 7.738002381823348708e-02
1.961379139924170623e-01 4.017104291124807269e-01 7.691121811147031417e-01
4.953648653936035262e-01 -6.190830928384771087e-02 8.555322133270079066e-01
-2.776799407796973762e-01 1.529335637487333199e-01 -8.649705782799393949e-01
-1.272700916787374709e-02 -1.314984036570077397e-01 -5.963895551305735676e-01
2.963104983553323524e-01 -1.504097171177464498e-01 1.934321461089278382e-01
1.050654314064585759e-01 3.859007575244848276e-01 5.037819895419637373e-01
2.405437199319541419e-01 -2.933813400281632955e-01 -1.720777820805713398e-01
1.392045436437958639e-01 1.894832128747007960e-01 2.950163428168807167e-01
1.423729163339463623e-02 1.907588448952801663e-01 -3.407413992614428261e-02
8.497824043460834587e-02 -1.337055454072062777e-01 -3.409340582094201877e-01
1.187838578043546450e-01 7.991651572517427526e-02 7.402195722601208339e-02
9.743539774121212638e-02 4.810383424135191155e-01 6.284914806611683336e-01
3.956393945174101479e-01 -1.667154888005898949e-01 4.317124635159462764e-01
3.210590174807499420e-01 -2.207315306625151907e-01 1.518702546306723022e-01
-1.092423351059849390e-01 2.228348612310580568e-01 -3.123063529211378420e-01
9.160569298701289054e-02 -1.335294774065779455e-01 -3.231099807442024408e-01
-9.041333405488832797e-02 2.083940253694427369e-01 -2.844264603149768700e-01
1.463894475368386627e-01 -1.410138485969776034e-01 -1.893906336860368134e-01
7.238404721547746223e-02 -9.151686286280573401e-02 -3.100304392194035974e-01
3.472540156764384323e-01 -1.125986791111724394e-01 3.859764318908410763e-01
1.252497096392877762e-01 1.505712210733978207e-01 1.987766499635869044e-01
3.806402956227746825e-01 -2.663459115215108253e-02 6.053628171207087183e-01
-2.340083386651705191e-03 9.233346776486009433e-02 -2.279163888230056056e-01
4.741850531940884350e-01 2.687878254485591336e-03 8.978257465816644745e-01
-2.758263789235141927e-01 1.463345959335949353e-01 -8.701126363377473805e-01
-1.031697007987351228e-01 -3.873501377379525573e-02 -6.946642947104493260e-01
-1.635332767876672422e-02 5.998883968198556044e-02 -3.143068754106050910e-01
-2.222276858833006907e-01 2.029296651060033541e-01 -6.419215517382779179e-01
8.384023526650935532e-02 3.874161246750969928e-02 -8.126330742774864890e-02
3.230058674761269732e-01 -1.259000604535609295e-02 4.740851829743909507e-01
3.502729953697076293e-01 -1.540144973425088826e-01 3.308857151636659388e-01
3.620095489035233816e-01 2.729713558446447003e-02 6.381637720556763149e-01
2.224087002963988924e-01 5.229811117725614161e-02 3.064497716001562955e-01
2.202494342950385153e-01 2.993976302704968312e-02 2.666719341641530794e-01
-2.474406692646443084e-01 1.863675891243952443e-01 -7.339384889048488070e-01
1.920383446820658202e-01 -3.398075487913289061e-01 -3.712868359138328800e-01
4.420490807809619033e-02 -9.683695589926730185e-02 -3.927799269202194576e-01
9.800908717138226423e-02 -8.306223658611770755e-02 -2.292718943703374312e-01
1.535605601472364579e-01 3.546589520130818407e-01 5.846537780006686447e-01
8.422187380624945874e-02 5.410882896062300107e-01 6.849622204036877049e-01
1.855706880080471299e-01 -2.997762988088281677e-01 -3.274406218656156220e-01
-4.463333139132715649e-02 1.643037559792332458e-01 -2.303187467843266223e-01
3.656177996777444372e-01 9.285249129830394632e-02 7.475810486500931162e-01
1.502875774880754189e-01 1.988402388297846601e-01 3.386282587337192673e-01
8.337413052091138810e-02 -2.118422467337068293e-01 -4.642073503285298330e-01
-2.258956705612717372e-02 2.500565868938082192e-01 -4.130006938724300330e-02
-4.115322452256758162e-02 3.572267092055427806e-01 7.277557883072970080e-02
5.450440486419813602e-02 -1.234368994251947571e-01 -4.060160995090871250e-01
