7.021578643505478612e-02 -2.781945040075667341e-01 1.275507269652233766e-01
6.107859429149579272e-02 -2.847250575874096246e-01 3.216056370286339283e-01
-4.039553454501431662e-01 -5.300031804394759183e-01 -3.546577776210013133e-01
9.791349709265206869e-03 -3.084295240051265763e-01 -1.584664287432531737e-01
-3.302705513890498157e-01 -4.865226215165286416e-01 -8.068261285138363936e-01
5.308232261922142259e-01 -3.319016810093543962e-02 5.476613235689569148e-01
-6.652298744801536934e-01 -6.711311631031605662e-01 -3.322163547298345732e-01
4.537659002295276744e-01 -7.523768484266149525e-02 6.057564070082392949e-01
7.379045312352264796e-01 7.976056251296201327e-02 3.971573613379470458e-01
1.934433211445305001e-01 -2.117266523128764066e-01 1.283268440343715844e-01
-3.309880618116848305e-01 -4.941096304385254601e-01 6.556612845455633831e-02
9.687876608011823654e-02 -2.616876873667364212e-01 -1.297646642430253794e-01
7.824866971485910927e-01 1.048288517510871654e-01 2.737200172459723913e-01
-1.702275137460507459e-01 -4.080919354803893007e-01 1.508056367744610160e-01
-2.771014783815703986e-01 -4.586819941629222130e-01 -7.049169412262338286e-01
2.371484596071245787e-01 -1.908824573850575745e-01 4.593831349229088312e-01
1.486026071776298807e-01 -2.317919152328997423e-01 -3.713337453002991118e-01
-4.049823460191350442e-03 -3.137311654940102557e-01 -4.207777701056008568e-01
-5.141380661780796668e-01 -5.899006837670521808e-01 -2.988991154012161089e-01
2.496891421542844769e-01 -1.794140737483128911e-01 -1.105105486396928960e-01
3.064245851956502453e-01 -1.472208164872961522e-01 -3.028873468890122544e-01
6.409127650109452956e-01 3.080962831810375724e-02 -1.124795712167243021e-02
3.880732479034842419e-01 -1.062036540167961146e-01 6.396258898358352096e-02
6.266421312350192174e-01 1.705056148842554881e-02 7.231257927038726718e-01
-1.468232850078838025e-01 -3.909389954839045389e-01 -3.977979149125042135e-01
2.790151833591019565e-02 -3.005112096892724183e-01 6.582384501039308111e-02
-3.604865383808611989e-01 -5.063693857549124155e-01 -3.770543899629087981e-01
5.272281169389294586e-01 -3.256088049994795147e-02 2.364279071662737097e-01
5.710203939685098984e-01 -7.786513484994413668e-03 9.697503581531687067e-02
4.284658740658200959e-01 -8.592891329969540304e-02 2.475038867252930264e-01
-2.631577913824544868e-01 -4.542356718341177824e-01 -3.322691203497991630e-01
4.308701644597089375e-01 -8.735202544758761956e-02 5.770873945034521446e-01
-8.405679414939066715e-03 -3.192106725914742316e-01 -4.155483047392369983e-02
-1.369206140294070839e-01 -3.905408191128492135e-01 2.012186784891585312e-01
3.057782969614694646e-01 -1.519618161557773628e-01 2.293195073838988629e-01
3.176767654480880942e-01 -1.458861587584091291e-01 2.708663288166132666e-01
-1.939414646998675607e-01 -4.193877743391229984e-01 -3.051876917195893435e-02
7.108919256866742531e-01 6.615378606316241195e-02 2.802329817627822739e-01
4.530752217908058377e-01 -7.591745253530739201e-02 6.429770119273651163e-01
-2.930912819660370650e-01 -4.691911961517952756e-01 -4.766866055089391541e-01
2.163834680800550553e-02 -3.004882419994278631e-01 -3.463348906893417567e-01
4.327822003450922939e-01 -8.470053765066055951e-02 3.807914257362750576e-01
4.562067918558452284e-01 -6.792120424206619933e-02 -1.212126066802407115e-01
-1.029781910476852552e-01 -3.709505635638297716e-01 4.609591159286429568e-02
4.338705526902014720e-02 -2.939763301444063837e-01 2.861877245870862452e-01
-1.764192996160893201e-01 -4.104881330502734293e-01 3.643434865324962635e-02
5.427833236555502650e-01 -2.323381366047299820e-02 1.230263273878256791e-01
4.294078801442381410e-01 -8.672927348724203400e-02 4.060524010778544524e-01
-2.444315278196091401e-01 -4.410179182324382441e-01 -7.098233168426928419e-01
3.750728385784963259e-01 -1.109738032534467872e-01 -2.077934181505126654e-01
-8.437291676145433628e-02 -3.623980126073478303e-01 2.258993103052420182e-01
-7.307257636854624927e-02 -3.501382920932986087e-01 -5.209495229315728171e-01
1.995397808662298378e-01 -2.057338363299162087e-01 -1.993218658084976447e-01
-1.529106975722009654e-01 -3.922661532555654085e-01 -6.348788033785968121e-01
1.027237750256148607e-01 -2.625210162955555759e-01 3.532505104738759005e-01
-2.317454072168552426e-01 -4.349749457395633012e-01 -6.128333634346323500e-01
7.161515133486194840e-01 6.962367237469144210e-02 2.035785883280527842e-01
-3.817400228536215190e-01 -5.159707548826096835e-01 -6.028696133392421608e-01
-1.911603130891701419e-01 -4.170090099885474522e-01 -1.369623477113007248e-01
-4.242287724086624134e-01 -5.423274120469271375e-01 -1.864946999493971025e-01
1.993577233796925141e-01 -2.061572478430439559e-01 -1.599183345073044993e-01
-3.862045958511050592e-01 -5.234862460328171263e-01 1.594015006342735727e-02
3.975877102367390004e-01 -1.012332347727480653e-01 8.360279658543952330e-02
-3.702385577028628472e-01 -5.082013712721511478e-01 -7.924945599754046333e-01
5.454091679163406425e-01 -2.065397709229454051e-02 -1.793170368484804308e-02
6.262882478566990097e-01 1.955569818209186919e-02 3.964567726662742153e-01
5.074212207072972269e-01 -4.182261648991897340e-02 6.401302044856896356e-02
-4.648116242117825148e-01 -5.633875846663146669e-01 -2.873016543443422943e-01
4.426763934707488302e-01 -7.868507816811172451e-02 2.986279947392335710e-01
-4.304808728743369506e-01 -5.472402042530968291e-01 1.183823512772762076e-04
-2.392559529887463010e-01 -4.434907524853537453e-01 -7.191101756980204651e-02
6.410007428563641030e-01 3.084614038411223960e-02 -9.921550458498580582e-03
8.197246902932532331e-01 1.231922027181029250e-01 4.826631672311816335e-01
4.175334634291739122e-01 -9.023181983444818199e-02 5.430309498470485552e-02
3.141791997351632837e-01 -1.452802163645627309e-01 -3.116275485329913358e-02
3.561625554169781660e-01 -1.245912434348271647e-01 2.061613968834802302e-01
2.100235608006804644e-01 -2.021693512836098272e-01 5.402721644256133771e-02
5.824990858442277153e-01 -6.318553734800290249e-03 6.693823271481150750e-01
2.571449129118462129e-01 -1.756090970703267917e-01 -8.421886736481914992e-02
5.335599594902621368e-01 -3.049829094160135673e-02 4.003757108783122520e-01
3.406487575052594141e-01 -1.325080007395458837e-01 1.513874459200066913e-01
4.787773050671344510e-01 -6.138824617032658665e-02 5.624750324122015366e-01
2.122792269226532191e-01 -1.979961011354917921e-01 -3.041947046708669000e-01
7.353709421088105991e-02 -2.777538683568335776e-01 2.912490926818433468e-01
3.326746663126309289e-01 -1.363593762438070067e-01 9.683908330574807211e-02
1.533871119103688840e-01 -2.306681208617156476e-01 -1.947732108957774821e-01
7.670116082663443191e-02 -2.735741526624838049e-01 -8.381013215182153003e-03
-5.078029151116574269e-01 -5.843423704185081169e-01 -5.582992761019957006e-01
3.268895608744512571e-01 -1.420614515601527350e-01 4.096106557195302589e-01
-1.715290779858986633e-02 -3.211343514519525155e-01 -3.802093181430452606e-01
-1.039317179180282158e-01 -3.658379195484480761e-01 -6.357094744520824792e-01
9.197060508423025027e-01 1.796704850405452247e-01 1.744139324978672967e-01
1.985435843371190501e-01 -2.066536347726434797e-01 -1.529869932649252640e-01
4.466443431705502953e-01 -7.964655441209528286e-02 6.744812488753189061e-01
-2.975092074946683041e-01 -4.712609018448742360e-01 -5.146739931257027223e-01
6.609941843277639117e-01 3.763814336771441338e-02 4.739349997648520385e-01
5.277533076873706097e-01 -3.448117017304298121e-02 5.034301857126771695e-01
2.070332521270512940e-02 -3.061737680239918769e-01 2.814445074083557485e-01
5.141975395521144465e-01 -4.176224102881675310e-02 4.996138998610695214e-01
4.631292567699171192e-01 -6.744043459430712484e-02 2.730030841201339653e-01
-3.682831154401123297e-01 -5.132525940753710492e-01 -5.264378139239834359e-02
9.469537769721051435e-01 1.939815672998191076e-01 2.213681645208108451e-01
3.432120593772862785e-03 -3.137353328797006236e-01 6.876487879497049371e-02
7.172468005788902312e-01 6.818038219311388370e-02 4.500474278140786377e-01
6.382527783703503821e-02 -2.790751867525217422e-01 -1.834390061697021568e-01
-3.286164583257789595e-01 -4.919782380929651477e-01 -3.767332021120717300e-02
5.658311566676573756e-01 -1.264337595555085729e-02 3.462825847361114540e-01
-5.008608980034743308e-01 -5.812244989698993614e-01 -4.823337010467276254e-01
6.050718942550007418e-01 1.193946985666497450e-02 -6.746382444369444786e-02
9.708129996188386013e-01 2.065948499094683588e-01 2.525579770935298951e-01
4.412580275638235405e-01 -8.152236359008012412e-02 5.497038369941517066e-01
-5.259405256740770085e-01 -5.940030039901679215e-01 -5.732726933514328271e-01
-1.309166613695742221e-01 -3.834695368575737340e-01 -2.631503737219047512e-01
-3.387057502552108801e-01 -4.948534069368611954e-01 -3.487596787226621142e-01
-1.966674506020815449e-01 -4.195074189503941176e-01 -1.941988019350212313e-01
-2.515121663284030085e-01 -4.519534579878544123e-01 1.523890957097452370e-01
-7.613136485352028915e-02 -3.525026810843109315e-01 -4.343947627980785375e-01
8.960930852922351086e-02 -2.638651148741334995e-01 -3.410827205701799647e-01
5.174833950098928215e-01 -3.510207635674118809e-02 -9.260283434259200530e-02
-4.688937681695393711e-01 -5.655079602812754791e-01 -2.972020666224031160e-01
-4.275894466847792175e-01 -5.394440893722513009e-01 -7.555181702841047287e-01
5.023953340482677499e-01 -4.978011384866730393e-02 6.996902793655024322e-01
-2.875533193625040562e-01 -4.709395892685944163e-01 9.713430852083607125e-02
-5.121086527136089472e-01 -5.895925787903111281e-01 -2.035837792590005357e-01
6.958394942087000601e-01 5.481053219615120847e-02 6.707912447542329071e-01
2.313923618969034868e-01 -1.873857443845359516e-01 -3.405332110081673025e-01
1.315846302937401791e-01 -2.409006308536428831e-01 -3.799991391686307063e-01
-1.411709768027231970e-01 -3.879146640669954849e-01 -3.947968811328067540e-01
5.182839649107953139e-01 -3.993833098094971140e-02 5.457158159421316990e-01
2.153910177355156663e-01 -1.983289380952008851e-01 -6.047198658716260167e-02
-7.376972988875263662e-03 -3.158641669723691869e-01 -3.798001162061293012e-01
5.863947363274932822e-01 -1.313566467950648018e-03 3.175751134663227782e-01
-2.320258090549227881e-01 -4.394107736437176670e-01 -9.368786164668269079e-02
-1.450168704681004950e-01 -3.922338164021197948e-01 -1.228375830249814754e-01
8.028997437900250445e-01 1.149042837071893169e-01 3.871617407094218311e-01
-3.217798063634547123e-01 -4.879256858995336121e-01 -8.184654987681931615e-02
-6.970807766662875382e-01 -6.889693967695180721e-01 -2.526729611051646285e-01
-1.277610816818185169e-01 -3.839592179529473515e-01 2.438726653385347130e-03
-4.221595993231693766e-01 -5.409461046241866855e-01 -2.186166416218403852e-01
5.434776504326029878e-01 -2.204043491561118520e-02 2.381179173960795356e-02
5.934903461704086336e-01 2.962620783332424110e-03 2.632309366224063751e-01
5.237052067510497011e-01 -3.410646293144643793e-02 1.934347348845679160e-01
7.452454458036961160e-01 8.643699420540494616e-02 6.801794262925946188e-02
-3.236665506545061133e-01 -4.845428424568423154e-01 -6.150555682512637290e-01
7.177197629737542828e-01 6.789808346965683916e-02 5.151664935721842475e-01
6.691116353884765111e-01 4.334597706655076571e-02 3.129133756312305614e-01
-1.287973048920522945e-01 -3.851765167428227721e-01 8.220440167704759493e-02
2.217907281213529758e-01 -1.967830775663597931e-01 1.705220094582262091e-01
1.893076420315500108e-01 -2.107416126732937212e-01 -2.613446959261388480e-01
2.364204433899971536e-01 -1.912096138715038973e-01 4.514386282339244993e-01
-6.294797556107141201e-01 -6.530115663290050332e-01 -1.909894002341513963e-01
-5.224696451133717945e-01 -5.934239112377213132e-01 -4.165742403838362806e-01
-1.743919791502345218e-01 -4.103710638165889435e-01 1.547599919296439863e-01
2.187788746522122407e-01 -1.975191555491599693e-01 6.284799456943281071e-02
1.392217184068248181e-01 -2.435491919786045012e-01 4.400957269223906287e-01
5.370860485557193975e-01 -3.123275579310117248e-02 7.198417505423888585e-01
8.921428389218030164e-01 1.650527744822410936e-01 1.439918397407344008e-01
1.868005824006522819e-01 -2.140440352229837362e-01 -2.506948654454213554e-02
4.034331001091687741e-01 -9.629964428124831999e-02 -1.321139128311523969e-01
3.654352582455537846e-01 -1.187051723459936481e-01 9.905340232034308412e-02
2.584866316890630511e-01 -1.746106876067498870e-01 -1.174945952447444819e-01
-2.944085636408749762e-01 -4.742667555636889687e-01 5.219991258747200963e-02
-5.075183797779136974e-01 -5.852780031458716392e-01 -4.263341324392355136e-01
4.958992017250201112e-01 -4.611325112425222056e-02 -1.692129203270529847e-01
-1.040292630421608133e-01 -3.661290142549537552e-01 -6.068143628670839007e-01
-3.364840139243209516e-02 -3.321246534070174672e-01 -1.267389430720094468e-01
-7.577522847531489858e-02 -3.529541558628242481e-01 -3.564132728980192177e-01
-6.099125278680424256e-02 -3.437669792284712700e-01 -5.032743609041229194e-01
3.459004489072674549e-01 -1.298556983326720204e-01 1.732806207924300901e-01
-3.021313238287905434e-01 -4.720745095223329302e-01 -7.182046351814720397e-01
-2.318450572914912411e-01 -4.370961509960503144e-01 -3.623279557738103840e-01
-4.234308336100966463e-01 -5.393659424874786001e-01 -4.931700803227840324e-01
7.974759123087211965e-02 -2.718500005714518108e-01 -1.816833584703583804e-02
-3.737204526181348574e-01 -5.155367577551942526e-01 -1.312772457724268593e-01
-4.564128172445559017e-01 -5.576387138516026853e-01 -4.349055046263299862e-01
6.225613604714228533e-01 2.054665742803945053e-02 3.278757736326272376e-02
6.446844965463209842e-01 3.131089632878750195e-02 1.745445755127639775e-01
6.346905261972003442e-01 2.108846578138549518e-02 7.599298077072599300e-01
1.802961804148485447e-02 -3.074999363014703779e-01 2.673716489672581798e-01
6.650972719391359256e-01 4.020040582947980584e-02 4.316625070888001070e-01
-3.608270837823095989e-01 -5.101365155610143587e-01 5.713625350394567481e-02
1.636834618556569365e-02 -3.091823970443177694e-01 3.626446468441731352e-01
-1.738266019571033938e-01 -4.030582993238659983e-01 -6.943468493590964075e-01
-3.961738830100372533e-01 -5.222549987574688357e-01 -7.848620096272167501e-01
-3.646465125166997723e-01 -5.054982272041734781e-01 -7.545153506139619104e-01
1.340159187146739983e-01 -2.410772565239037435e-01 -1.996832372153760360e-01
5.983465759251954674e-01 8.508663790021750786e-03 -9.134829408208267054e-02
5.448905241932181509e-01 -2.019947904371098210e-02 -1.069013798063607745e-01
6.493615576074204254e-01 3.446220627807824316e-02 9.841560094734452813e-02
-5.961917829372967992e-01 -6.354138247658636107e-01 -1.474628816213245097e-01
5.868396814611356316e-01 -2.741954458212785863e-03 5.197303983095070690e-01
1.575193870916249128e-01 -2.302616926453946167e-01 2.607670914014233524e-02
4.404138877302987698e-02 -2.917464416685566220e-01 5.876899547821280712e-02
-1.236115695104244650e-03 -3.183969025254218543e-01 3.284633703042090236e-01
-1.553219556296660253e-02 -3.199283333104411264e-01 -4.204045615369731981e-01
6.448844278242166217e-01 2.620955542920200970e-02 8.057235992231783772e-01
5.728064807177366546e-01 -7.013131898483349058e-03 1.200100725811823893e-01
-2.252424444709061335e-01 -4.307602945189258348e-01 -6.984582691072696026e-01
-8.485474712894365557e-02 -3.597370789169065941e-01 -1.280099889885042141e-01
7.073186938053808159e-01 6.649647044442193178e-02 5.156198800223362258e-03
7.391286618625980687e-01 8.348598600425105598e-02 2.577335830793457336e-02
8.096669623216068423e-01 1.203025671590644968e-01 1.753927838413168183e-01
-1.282783967241263590e-01 -3.788885999615617672e-01 -6.457626728633866220e-01
-4.268912546903736449e-01 -5.397563566445242600e-01 -6.720463801641010093e-01
-2.144955107798133809e-01 -4.321684682862734772e-01 1.746102655515933966e-01
1.176588107155766977e-01 -2.484191102515900529e-01 -3.792369346315824785e-01
1.268947060770232727e-01 -2.442637250480103606e-01 -2.790497996117146662e-01
4.985839721985690920e-01 -4.472194870438901682e-02 -1.623090066829895317e-01
2.407173153985174563e-02 -3.018254437120769795e-01 -2.525916454249265558e-02
2.256253912322704960e-02 -3.000315979918340425e-01 -3.412573814280046025e-01
-3.428216636903019809e-01 -4.991749037783277387e-01 -9.416544118562550358e-02
-4.158289198608977055e-01 -5.372768672917765942e-01 -2.494165639606045759e-01
6.603220006129579822e-01 3.923982123461891569e-02 2.359299514535455888e-01
-2.299094454834223755e-01 -4.374628821216434149e-01 -1.913762681182841485e-01
-1.857539738871169868e-02 -3.260320795935400251e-01 1.202533874969755195e-01
-2.893402101179272726e-02 -3.314984063327620079e-01 1.055241041414351350e-01
5.873686017325532305e-01 -2.020625798212913153e-03 4.669011017132028707e-01
-5.085346268543684545e-01 -5.881730239068538868e-01 -1.419792623400290277e-01
-1.932570093765712538e-01 -4.148998305775119522e-01 -5.295690619023585288e-01
8.480876614253367585e-01 1.387184038258508223e-01 4.552809125831553949e-01
1.082758534113765353e-01 -2.548250409677553230e-01 -2.163459233813430083e-01
-1.162251640289368136e-02 -3.231158270380605768e-01 2.213584840529902176e-01
-8.743099303482253920e-03 -3.161728930895565393e-01 -4.316861614793299773e-01
-7.869662058549407868e-02 -3.589039050089942728e-01 1.735471730840988935e-01
-1.352998912090292993e-01 -3.870270776290870574e-01 -1.185943694931140963e-01
6.518949408501237830e-01 3.340926976609375626e-02 3.915840812533272208e-01
8.902432535331243901e-01 1.641287984057586136e-01 1.317852513433626638e-01
-1.528137575906893253e-01 -3.979751288006448395e-01 6.319335743097888314e-02
-1.748593854191889951e-01 -4.071111978270762766e-01 -2.707769758142776206e-01
5.792467100020715076e-01 -2.466231425514446313e-03 -9.972682747814726884e-03
-1.513194383427918233e-01 -3.927052928415069588e-01 -4.776613498406029890e-01
-3.019997653374110191e-01 -4.760795145404808637e-01 -2.243336760114607864e-01
-1.002506650755234097e-01 -3.657055329470779714e-01 -4.111478902844747929e-01
2.545847600001158867e-02 -3.032117991682216074e-01 2.333614394842113415e-01
1.643012004405798032e-01 -2.285357228370017701e-01 2.602226754426709698e-01
2.697827828946999795e-01 -1.674923564019626387e-01 -2.416536839879767917e-01
4.264747164350892183e-01 -8.829574945735962910e-02 4.041380592788444970e-01
-2.919367066208611999e-02 -3.300569910528130535e-01 -8.609829573405984593e-02
4.401937314550225522e-01 -7.707416283425674863e-02 -5.883350235047205695e-02
5.207080731838749088e-01 -3.798452425658348230e-02 4.674256132094938287e-01
8.125569762377107264e-01 1.221559746022279069e-01 1.397203027742650594e-01
1.031081885906161809e-02 -3.109050446103849286e-01 1.754371977189508602e-01
2.853189941388554751e-01 -1.593988344638846422e-01 -2.068326759112942836e-01
-5.082345867053827959e-01 -5.845881602260727394e-01 -5.567328980512095127e-01
-1.652106419980952645e-01 -4.009591518471760652e-01 -3.855332769144387828e-01
1.199186247208432338e-01 -2.483148312387519208e-01 -2.441652144760387555e-01
3.055301131304040130e-01 -1.530287427286944335e-01 3.423732570464558811e-01
-4.456075241718371882e-01 -5.546720389735039225e-01 -8.810705972616049431e-02
3.136080944640930457e-01 4.897090912345171687e-01 1.104137128318042477e-01
3.576946004303566684e-01 5.109816967953649813e-01 4.144881250446005305e-01
1.467163807346925641e-01 3.986771018416263024e-01 2.319905319702349755e-01
-4.441329026904871635e-01 8.682412999825155075e-02 -6.012298884505357099e-01
2.842161487989759983e-01 4.755679712909617329e-01 -9.728553976374033907e-02
2.733181215980727274e-01 4.699661143185687173e-01 -1.308498185152256466e-01
1.992200235012337450e-01 4.241860696595704527e-01 5.729243706642234146e-01
-7.990135901278261343e-02 2.751890696269670977e-01 3.823132924381813513e-01
6.176871734884452625e-01 6.524517649963325061e-01 2.668057352539910942e-01
5.443723487607750045e-01 6.106806984349731904e-01 5.360231531317553033e-01
-2.354851701839552891e-01 1.919916547499750104e-01 2.937145060114842998e-01
-7.897905624173393591e-01 -1.027148068533160763e-01 -2.284907301636623089e-01
-5.584847346773342824e-01 2.484769358371882383e-02 -5.660774699898768469e-01
-4.600875604542135067e-01 7.693161076528805264e-02 -4.454235587137827523e-01
3.525637059147922470e-01 5.114072510483165246e-01 2.755775569129100336e-02
-8.455074586281197124e-01 -1.336483440369823084e-01 -1.221750113333642251e-01
-6.576585724403872790e-01 -3.264706714376683361e-02 -8.188360624752893946e-02
-1.777953931305894242e-01 2.240962994365021388e-01 1.744521194852886870e-01
-9.381670449694685943e-02 2.737385272702353434e-01 -3.514698908320670334e-01
5.806103554791638421e-01 6.327758003670745923e-01 2.274420295845007156e-01
-6.716399445406843194e-01 -3.680586216531606114e-02 -4.918332597784472737e-01
-3.381600918637980846e-01 1.432564836849071765e-01 -5.122986414093269047e-01
-7.600984790095384191e-01 -8.376001574892819046e-02 -5.844288953253456986e-01
-4.415568536756543649e-02 2.937548860379526339e-01 4.691828758849281855e-01
-3.420998494347831653e-01 1.362417909102393576e-01 8.013438043811915712e-02
6.634488994248680660e-01 6.780879610674055424e-01 1.516560282519132385e-01
-5.843409469785083576e-01 9.396324887429906639e-03 -3.839146543572819481e-01
-3.277326698850313580e-01 1.486822791972167157e-01 -4.881615112264901524e-01
5.073380548336989815e-01 5.912298308270340641e-01 4.721647303701612119e-01
2.575470896297223367e-01 4.598234203429092948e-01 6.727150035880787027e-02
-3.118052345712161166e-01 1.575076210163610380e-01 -5.164411351262117034e-01
-3.136404310393468009e-01 1.500405196251478890e-01 2.683677350025531205e-01
2.315154806193066572e-01 4.414951085018634092e-01 5.865587714304684175e-01
2.029704610223613259e-01 4.318576575531175021e-01 -1.114766683171987960e-01
-8.523140929558610246e-01 -1.344470984280836945e-01 -4.702906768087316558e-01
-5.666135088131688535e-01 2.039202976010761822e-02 -5.575168470286296918e-01
3.646523418078941869e-01 5.115610551513968263e-01 7.990639321571874065e-01
-3.979484416186125362e-01 1.071383843366022909e-01 -4.390817478281064390e-02
-5.604831856498521114e-01 2.196036263004881930e-02 -3.468535344688847832e-01
-2.432477456522074144e-01 1.936777618864795603e-01 -4.179654416763021740e-01
3.642858287231554582e-01 5.133955305384713119e-01 5.528310109033376385e-01
-5.835851993401488386e-02 2.886490376569356697e-01 1.595089401279713159e-01
-2.130631788369989899e-01 2.064051354544447492e-01 1.283995759796692331e-02
4.944163101251967118e-01 5.870978314370595141e-01 1.282281197047295263e-01
-1.834356687148800125e-01 2.241510594713462257e-01 -2.008448157641399001e-01
5.150558749490612431e-01 5.959825882227062221e-01 4.007454185101996802e-01
-3.440488856948146212e-01 1.393291843725718571e-01 -4.213475832886406369e-01
-5.536152415523285519e-01 2.748250196096432146e-02 -5.670459974002043380e-01
-5.092338555012020374e-01 4.615243247436502660e-02 7.165920870271363929e-02
-4.242107012945531275e-02 2.964468413889558840e-01 2.563869633421509975e-01
1.538620145752409019e-01 4.043211346343787427e-01 1.517914250797790764e-02
3.605171140321787593e-02 3.406284065108785564e-01 3.223450168509926078e-02
-2.452222543248715469e-01 1.930431490868226019e-01 -4.701302969365999118e-01
-8.466990674059639010e-01 -1.319453597694625890e-01 -4.064058505840854041e-01
-3.197283681166685487e-01 1.524801596692720307e-01 -4.251567136521257062e-01
-3.761454959214904359e-01 1.175745053963449666e-01 1.166772697344515830e-01
-3.615103106682113210e-01 1.274943532809933999e-01 -1.286842431241800588e-01
-5.800525009134271937e-01 1.301813956954149011e-02 -5.424537895009131638e-01
-3.382734431396657304e-01 1.423353770374064520e-01 -4.081003877876068220e-01
-8.741926730495851450e-01 -1.470202263835189427e-01 -3.768863641809291898e-01
1.852050754449286463e-01 4.182709237740747099e-01 3.735907986934469127e-01
-1.237179025164993201e-01 2.554146620477066865e-01 -8.564696397649762538e-02
-3.483202405240366506e-01 1.320853498980155971e-01 1.771757227397867951e-01
2.218250540603128040e-01 4.351299094329115769e-01 7.244175526443981106e-01
2.185723937232240954e-01 4.401796468505777549e-01 -1.000425133094648422e-01
3.210120438130468767e-01 4.930039661008227547e-01 1.951254161160727862e-01
-2.813931053278036498e-01 1.685733372484311821e-01 1.305753005698291336e-01
-5.725543446525407226e-02 2.870439800544083986e-01 4.260882647847561988e-01
-6.676788223489417140e-01 -3.690530011449063424e-02 -2.208763323108613175e-01
5.009605444942077934e-01 5.913468187344605997e-01 4.114044739689174529e-02
4.224115844360139538e-01 5.443507672585475854e-01 6.013348379415526246e-01
-1.639383971372676552e-01 2.299829472141163011e-01 3.669145807592674724e-01
4.195722697782142130e-01 5.465135596882834124e-01 1.536927208094031883e-01
-2.761702085238127435e-01 1.717482923359350822e-01 8.725845560769945886e-02
-3.668190024856414211e-01 1.244239767215150894e-01 -1.036465670493560282e-01
-1.060460163009627893e-01 2.660817654199527649e-01 -2.230647084115320034e-01
-6.104533273395621462e-01 -1.071279969916920935e-03 -8.223602451133735780e-01
-8.823417116676168792e-01 -1.518666799035562343e-01 -3.222997010301841825e-01
-5.098218442895953162e-01 5.068013121331093468e-02 -5.153780318473043520e-01
1.074135748612713159e-01 3.763771543559213395e-01 3.650694709860712317e-01
6.130315725709661878e-01 6.504109173700699520e-01 2.097866899031657351e-01
1.179951585809784487e-01 3.819630573605635182e-01 3.798833339501152540e-01
-3.229504903278239136e-01 1.488511914066576181e-01 -1.960533355897166041e-01
3.113303725957820012e-01 4.848137339709360227e-01 5.546891270033860177e-01
-9.705720052632651473e-01 -2.001361601451948635e-01 -2.406035918453473532e-01
6.238958892379634635e-01 6.565493889660869442e-01 1.761279133607703551e-01
-3.938749547428058717e-01 1.102369077809960962e-01 -1.530922471333772406e-01
-3.613021344425894066e-01 1.269500059882508469e-01 -4.912075468970854980e-02
9.502739909137816743e-02 3.710062543618479758e-01 2.062520314165584012e-01
3.103760951787319922e-01 4.886635521591883302e-01 2.584672459988937923e-02
-6.568637199110490821e-01 -2.866039722433336157e-02 -5.129805347101537016e-01
-5.832517414946606360e-01 1.262987889059059149e-02 -7.045196383747560631e-01
-4.271516450702873835e-02 2.949084396169575073e-01 4.235668360155636081e-01
7.188780975983072308e-02 3.564327450164321842e-01 4.596127566800948805e-01
-3.909062981279390891e-01 1.094776533676586200e-01 1.329423401375266767e-01
-4.664507343224054137e-01 7.452913121035975585e-02 -5.702360095956036101e-01
-7.895184453053000206e-01 -1.039271357685616487e-01 -6.381099407356838338e-02
-3.734860742255842470e-02 2.974385013126390476e-01 4.677793709098065356e-01
-7.771105127418533876e-01 -9.621654300587303976e-02 -1.870635948814334537e-01
-5.685902008431675814e-01 1.509290940440419053e-02 -4.464289038226832568e-02
-5.865741870785327050e-01 9.967150158263288900e-03 -5.990493866898909392e-01
-3.813262448266922511e-01 1.203073696512288182e-01 -5.530801148692395808e-01
-6.596814169570492936e-01 -2.780811683723037261e-02 -8.004196656533295595e-01
-3.331388831550180507e-01 1.422163406145521003e-01 -5.807009224229978117e-02
-7.818493061117989251e-01 -9.960900863833546670e-02 -8.574962869855348724e-02
-6.389970310959863786e-01 -1.636909271659077805e-02 -8.344640979286175320e-01
6.823351139269344390e-02 3.553145589564796203e-01 3.562456661710048378e-01
1.633844768568749883e-01 4.069727259273134279e-01 3.163062475623358294e-01
3.947992162812358763e-01 5.324267964667657171e-01 2.413090651545023446e-01
-5.849990632732396945e-01 6.751119555038544509e-03 -1.064207350672148611e-01
3.574401089126700293e-01 5.122858420868355855e-01 2.398353813748152763e-01
-5.160368807700651539e-01 4.548269313287277293e-02 -2.918528473337046458e-01
-1.479105118522997253e-01 2.412231347606274834e-01 5.260247780860589917e-02
-3.822459381119730493e-01 1.173151357030823294e-01 -2.506352882500280099e-01
-4.074449956811089235e-01 1.021928978929106946e-01 -6.539887241397633610e-02
-3.417304899714819211e-01 1.355403701375504366e-01 1.892652154255275998e-01
-1.614086772543694703e-01 2.359028776728471777e-01 -1.850334732424761819e-01
3.749426745963269636e-01 5.180793123309455073e-01 6.818709543438730147e-01
1.947797848524642772e-01 4.258492020383247700e-01 8.118404698001062403e-02
3.543921925776067350e-01 5.080785199174470135e-01 5.504023233442153495e-01
-4.821804858191001131e-01 6.602772624378260014e-02 -5.682855576911179929e-01
-1.286263866689123792e-01 2.549555212046475949e-01 -3.508447545474929763e-01
5.962684591983437032e-01 6.396591088796775848e-01 4.168674070606346316e-01
4.980747905491614280e-01 5.896309149528197180e-01 6.043054865021963568e-02
3.479511575652600164e-01 5.052299538683362456e-01 4.745513706257327158e-01
4.230579962603583377e-01 5.487488366196248135e-01 1.106876876903170326e-01
5.781783297844469427e-01 6.305482386489572599e-01 3.383846339054099039e-01
2.895518765636903025e-01 4.776186981538662057e-01 2.991186485911172688e-03
6.048207005155755572e-02 3.519242837858736483e-01 2.603803678471964811e-01
-4.184328676884527254e-01 9.582062327369021693e-02 -1.148690022478522296e-02
-3.718370613111654510e-01 1.200430020050797103e-01 9.918801600684223896e-02
-5.861505188797171417e-01 8.684336520013545210e-03 -4.159235311104554356e-01
-3.983909972018713774e-01 1.063723166222027144e-01 1.998699326095904755e-02
-9.138931693937878409e-01 -1.692023481114809380e-01 -2.840779437108926220e-01
1.637917148336828777e-01 4.110593571148342673e-01 -1.522380377632936710e-01
-8.899464773731128320e-01 -1.554308801715144628e-01 -3.875040546861847068e-01
-2.556642115975709673e-01 1.836150709997943498e-01 -1.027537470507329000e-02
-8.843084721669591808e-02 2.716070483619716369e-01 2.588261773591312709e-01
3.587105302165708998e-01 5.125815833139358846e-01 2.870392511678608871e-01
-2.018925066464877793e-01 2.150152795094582292e-01 -3.002783098516465521e-01
2.884841823615021394e-01 4.771167788527310161e-01 -5.980104568054304091e-03
1.322009111253826807e-01 3.936855395039734473e-01 -1.119656023767370834e-01
1.182137738123428816e-01 3.818372001043767172e-01 4.094222155336183500e-01
-5.588520932290708121e-01 2.157887604006338694e-02 -1.940180937136086470e-01
-2.053113876972930130e-01 2.112197327636583244e-01 -6.385184592905789047e-02
5.488858931935509666e-01 6.150837527844545960e-01 2.975369971685143944e-01
1.083196149434770272e-01 3.767498786882484962e-01 3.791287507548751767e-01
-6.960511794205911373e-01 -5.017430821843850419e-02 -4.676034830088262595e-01
5.579290995907559836e-01 6.211696337954385472e-01 1.512183226033833039e-01
-6.399123211859060190e-01 -1.904299899310129759e-02 -5.703020813832063718e-01
2.520423271262262066e-01 4.529341016962918909e-01 5.422209385798431036e-01
-1.829268072337468243e-01 2.199559607168390385e-01 3.407205373500906687e-01
2.021186954514208323e-01 4.261708410360285360e-01 5.219009063468367238e-01
3.019525010770309215e-01 4.785394656892997811e-01 7.019594959999352346e-01
-3.627562910856023670e-01 1.288734041617594639e-01 -3.772191047082544268e-01
1.395993430891092901e-01 3.945412771836733778e-01 2.679269084309398030e-01
3.923161120843819960e-01 5.269864090984094362e-01 7.381995285189374423e-01
-3.927802534776841381e-01 1.143319730208002261e-01 -5.777242165143909869e-01
5.069688219266770268e-01 5.938859585940908792e-01 1.261973859139020049e-01
1.137592751608716979e-01 3.795535838769153458e-01 3.949630877113280980e-01
-3.247428143124188593e-01 1.502667551746603158e-01 -4.847226498957639684e-01
1.887842017084339352e-01 4.196572413729012796e-01 4.395559318426600082e-01
-7.499479262988444361e-01 -7.948076840342571669e-02 -4.394655032842442743e-01
-7.518794222147878736e-01 -7.877633845011867975e-02 -6.510659128056515144e-01
-6.086327154147169738e-01 -6.275427415902066347e-03 -7.279297263986611588e-02
-9.511939570126283494e-02 2.689411229132668280e-01 1.446672525520626695e-01
-6.464471865426886232e-01 -2.511211730356472174e-02 -2.620633318579765891e-01
1.356552839562112645e-01 3.899797641071287013e-01 5.628358525936864032e-01
5.782044345584077538e-01 6.307679167545033883e-01 3.134733021177208423e-01
9.326784972609952762e-02 3.716922162008196584e-01 8.128173065618578969e-03
-2.761900158742336409e-01 1.747634893082557483e-01 -2.793767191635044833e-01
4.605105624159829825e-01 5.680202815274022488e-01 2.236253806356758578e-01
8.241934184633146468e-04 3.228887832094179400e-01 -1.208740253258712705e-01
-3.154040569516913806e-01 1.552603564058705754e-01 -4.793758158109222012e-01
2.790910806168439562e-01 4.719094527370538694e-01 1.101725461713723778e-02
-2.294738364726389146e-01 1.954423539374894880e-01 2.685208611463100192e-01
3.404280572051107678e-02 3.420796833695925465e-01 -2.749183349056859571e-01
-8.972460028709736690e-01 -1.598714375609983640e-01 -3.265721556731681630e-01
-6.934660276814346158e-01 -4.721371986802283538e-02 -6.573555915936388772e-01
9.195420074521108711e-02 3.727366306859410394e-01 -2.042829846010055239e-01
4.451806162790478139e-01 5.571926647052192205e-01 5.335667468432964133e-01
3.011695051995171846e-01 4.802643882258854080e-01 4.417783893609579793e-01
3.222446483663231331e-02 3.350025088394569805e-01 4.637462279769511420e-01
2.021422147172713124e-01 4.278560359352747700e-01 3.192492066001580975e-01
-6.677003628002422531e-01 -3.644239230226124782e-02 -2.783731340561294565e-01
-5.611872717223751472e-01 1.878312190816728774e-02 -7.899504280473779519e-03
-3.567560882241108816e-02 3.047547563855564912e-01 -3.093536354082631612e-01
4.217835371757842622e-01 5.442028519933763686e-01 5.782065296824204781e-01
-8.958090297547335323e-01 -1.598247628248455343e-01 -2.383035758406613636e-01
-6.057072306671817952e-01 -2.247227836952079769e-03 -3.696586982022593282e-01
-4.867874272890923004e-01 6.259869239802434704e-02 -4.539225987313180166e-01
-1.891564144960106997e-01 2.172690247431348087e-01 2.591048744162256501e-01
-6.647892063440726806e-01 -3.350301900520337439e-02 -4.442462457391305186e-01
-5.056766192114547920e-01 5.331815514816536788e-02 -5.640760630959256172e-01
-3.828929537491745361e-01 1.137545920505240310e-01 1.384924323730631068e-01
-1.483220060818866703e-01 2.449913954247914527e-01 -4.308802909417476790e-01
3.112754224162321837e-01 4.833433874793910956e-01 7.292540222717714959e-01
3.680843299779111288e-01 5.194610215679807963e-01 6.617648414561085046e-02
-2.866865818941646826e-01 1.658291627522041067e-01 1.170827567389381985e-01
5.769069906832478001e-01 6.318617863595964446e-01 9.612905065949887973e-02
-6.569812696124769369e-01 -2.987043997802849016e-02 -3.740473565250136412e-01
-5.320748579939725831e-01 3.642387129593387812e-02 -2.425085763570428710e-01
-3.889167601337311653e-01 1.097204716179680656e-01 2.335618771440141350e-01
8.311333894366602915e-02 3.673321269689673874e-01 -1.272986088040599373e-01
-5.136428657306474355e-01 4.837590777885264481e-02 -4.859346780685553924e-01
-4.703864986840344820e-01 6.725084351268681426e-02 5.439686202905543583e-02
4.840800027755414736e-01 5.771900690482505425e-01 6.531101858913559433e-01
3.408676401365176023e-01 5.048967853987429422e-01 5.192460221037406565e-02
-1.084417826679580088e-01 2.612126521408810187e-01 2.103151471362834368e-01
1.053899434321726586e-01 3.767524262149849479e-01 1.873297612380865895e-01
4.333792125126925132e-01 5.539755150498019143e-01 1.520092555383201760e-01
-8.406055351518597341e-02 2.721659484423624709e-01 4.767590906824287211e-01
5.528473214424451943e-01 6.181173180384397225e-01 1.888992549418934686e-01
4.850359468456460488e-01 5.803874940885530576e-01 3.281725339957941023e-01
1.830216836999687402e-01 4.188073430547266662e-01 1.658831231710128917e-01
-2.572534077186174328e-01 1.830932310566199817e-01 -5.091956234646618368e-02
3.103943092559676223e-02 3.349086945417813488e-01 3.976567255610530260e-01
-6.990307069658231731e-02 2.862431835854944984e-01 -3.035617800542980138e-01
-2.055272142499091348e-01 2.080661548674473671e-01 3.041488515296750794e-01
-2.731879071267427350e-01 1.747646440019059721e-01 -8.329164384759385475e-02
-8.323438604218837134e-02 2.759675936964122167e-01 7.012775155700459728e-02
-4.452483944369154956e-01 8.029625083565007648e-02 1.168184354588826940e-01
-6.676914838022748322e-01 -3.658695351838241877e-02 -2.602768215188015488e-01
2.693300657342127535e-01 4.636430427839343671e-01 3.746250658716072102e-01
-6.414194443681526803e-01 -2.343940968833266303e-02 -1.361140521403798875e-01
1.892537125145128951e-01 4.236610118568476246e-01 -1.487812092722639278e-02
2.700162130813257289e-01 4.651406725080295956e-01 2.380109117005704822e-01
5.951736438455090122e-02 3.534711368200818549e-01 9.898314129420413693e-03
-6.528789035559474929e-02 2.893130888359936592e-01 -3.738719128958679638e-01
5.179555496892287447e-01 5.960554492910603575e-01 5.814467606339256411e-01
2.996831188455607170e-02 3.347782029763479716e-01 3.434570226134590620e-01
-8.707992945382004857e-01 -1.464981525368678761e-01 -2.183448552092213113e-01
-1.498658800913545419e-01 2.417530714851586215e-01 -1.394155698187217740e-01
-7.005801487239067260e-01 -5.099547143867875360e-02 -6.641303352393017612e-01
-8.362132951905340006e-01 -1.261949551600376473e-01 -4.177865208568438682e-01
3.843031140231035758e-01 5.273201197932961826e-01 1.740163518733424952e-01
-6.686443959617640598e-01 -3.574531015303073628e-02 -4.245403167747564543e-01
1.992512073519411148e-02 3.341145485704607454e-01 -2.325772902389627028e-01
-3.730296180391810545e-01 1.202130139214726140e-01 6.399355419476066963e-04
-2.405445899531881704e-01 1.911462165515087075e-01 6.545745800027129302e-02
-5.440009522159432453e-01 3.067890439962523211e-02 -3.259296544959567887e-01
6.137237181010241072e-01 6.490428053379154738e-01 4.207961620471798447e-01
1.823556223961783074e-01 4.178015197087927013e-01 2.442197477472743683e-01
-2.648721750202192027e-01 1.828151387144126561e-01 -5.152049138864550626e-01
-3.924403305432475064e-01 1.094505376470837066e-01 3.595983788465455244e-02
-6.704504613392693324e-01 -3.463938250700531601e-02 -6.765903115207202445e-01
-6.680671425018462894e-01 -3.302464170100181257e-02 -7.164632171971005992e-01
3.769524888797808893e-01 5.198542653617870268e-01 5.981725642908306551e-01
1.882932736190743583e-01 4.230157656849236614e-01 5.274494846562199262e-04
1.900632172386243768e-01 4.187457180565742898e-01 6.336014219924576141e-01
-5.572307928518651643e-01 2.368793092589627572e-02 -3.435925931792630506e-01
-4.983562061182206238e-01 5.233131035555061566e-02 3.397600673399462506e-02
-1.921799179823568682e-01 2.216016792102159239e-01 -4.634906040916391690e-01
-1.507909981708644986e-01 2.404226711645849057e-01 -3.868369486894567694e-02
3.933354262352110053e-01 5.324409888767309695e-01 1.439126147550390533e-01
2.547174875880822698e-01 4.547445751122496382e-01 4.977072843863491469e-01
2.093102952157376573e-01 4.320296002570265248e-01 2.820763340426866717e-01
3.926778514452031743e-01 5.271851869605990171e-01 7.377584804958343678e-01
-1.732671959945282780e-01 2.303970511288330469e-01 -2.930134289242499745e-01
2.521684504484640321e-01 4.520272296048519212e-01 6.603470731807010718e-01
-3.916045152812868135e-01 1.134948253592542866e-01 -3.994410084046999820e-01
-4.233770053166154845e-01 9.724069285417959174e-02 -5.067122218506522335e-01
-3.170880540495758446e-03 3.164626413791144510e-01 3.966307948256133087e-01
1.400823351307440012e-01 3.964846835498714306e-01 6.402089460491652839e-02
7.696951564031640457e-03 3.248910023196693864e-01 8.574418027290742206e-02
6.918346073507058991e-01 6.931739184361398465e-01 1.791026473088546955e-01
-1.188413389119636898e-01 2.582978823523147671e-01 -1.162525233752149528e-01
3.610207089595198759e-01 5.137079178191346074e-01 3.015641607272265823e-01
1.808196067052919576e-02 3.271049570362934977e-01 4.962762444614650104e-01
-7.047984441184012017e-01 -5.775273939388388122e-02 -1.210944445748952519e-01
-7.521776600624363596e-02 2.778128539086464621e-01 3.705296398759563292e-01
6.034933946075453637e-01 6.457277796329908837e-01 1.537875103107206598e-01
3.982786771775775891e-01 5.312768206838613949e-01 6.080733342655622042e-01
5.030632212562967387e-02 3.459890270604641382e-01 3.144228276139787726e-01
-7.274191978930968361e-01 -6.968593540878971482e-02 -1.537386135162614742e-01
-5.556828613601305644e-01 2.288469203335052535e-02 -1.450905468832325018e-01
5.831359444356895017e-01 6.331989064126183342e-01 3.412543150190810448e-01
-4.900017077582812242e-01 5.588686615469611041e-02 1.492320932408967293e-01
-3.223335592925039017e-01 1.470297264682770833e-01 6.497107091753430430e-02
6.971933324424066658e-01 6.960608126254118622e-01 1.795671609560371695e-01
-1.892452388867047752e-01 2.200880544482463341e-01 -8.827253990962317942e-02
1.807762959869745611e-01 4.135640092252473865e-01 6.544350376019268944e-01
5.702256485521581958e-02 3.479318302692589460e-01 5.180100224886023952e-01
5.786001009822767660e-01 6.308650578542440712e-01 3.275647669782971172e-01
-5.992166319988512235e-01 -4.774850172457849188e-04 -1.598510353095316250e-01
-5.755892291675012568e-02 2.933023859386121313e-01 -3.520568848280418717e-01
-4.843971480740809007e-03 3.159395664067235487e-01 3.506526858054669349e-01
3.635395129688722693e-01 5.139958242627092888e-01 4.313146129481569835e-01
-2.128169997296050775e-01 2.084840501185936668e-01 -2.229637649067629512e-01
1.021650706273541098e-01 3.714214297766404993e-01 6.224819562480762292e-01
-9.615130578206981804e-02 2.667742349281462810e-01 3.397731346272498953e-01
-2.378974327037605696e-01 1.967943935647545328e-01 -4.458872269565030133e-01
-5.022594164383605841e-01 4.919138324518825683e-02 1.593064932943495382e-01
1.376672645241050208e-01 3.928032435203203110e-01 3.522329040609571971e-01
-2.731423541285890599e-01 1.761297640545510246e-01 -2.457208540217390713e-01
-2.964265985018133542e-01 1.610928439870865647e-01 5.433467508741348512e-02
-6.212388160170048135e-01 -1.355970249588791220e-02 -1.414848007013424364e-02
-5.037962743023174372e-01 4.895040416079159129e-02 8.805236379605498043e-02
-3.415344497562443071e-01 1.375154411647769581e-01 -3.723334645442590712e-02
1.943490346435420568e-01 4.216023556985203369e-01 5.676042076833843764e-01
3.623452473530290319e-01 5.151871518112479675e-01 2.089057117577523270e-01
3.188106491922486074e-01 4.930869302296417289e-01 4.118455150292391759e-02
-7.161953841800776654e-01 -6.283745849415862950e-02 -2.499285842570914684e-01
-6.111828192354540334e-01 -3.724262273320998531e-03 -5.485892978202355774e-01
-6.096249359769932707e-02 2.907572326983288158e-01 -2.661353603174101967e-01
-1.754469860317617660e-02 3.097664002378144876e-01 2.684831126041121729e-01
1.134052726729511823e-01 3.784842109057063864e-01 5.013966989075623326e-01
4.271189565771293939e-01 5.486389101240386479e-01 3.894411323033853956e-01
-2.307320779853057058e-01 1.966069923533601271e-01 4.516416854920091845e-02
1.407273799998227104e-01 3.985605124967958046e-01 -1.453381255360459978e-01
-6.074400558913434223e-01 -2.230194360646674430e-03 -4.849841710189586319e-01
6.026999507751332197e-02 3.542780994829175523e-01 -3.868469855505073107e-02
-7.019041726184661600e-01 -5.208690085880464393e-02 -6.184271357134418778e-01
-6.186606241516583449e-01 -1.219306867047200392e-02 -1.122179393525078554e-02
-6.031104245595222402e-01 -2.044407981209118551e-03 -2.245002085493050803e-01
1.559519824998320814e-01 4.005024099891462130e-01 6.144854919764372037e-01
-3.465819075411029626e-01 1.356883557302276111e-01 -1.457658830793624738e-01
2.986044676384125296e-02 3.351981466414365451e-01 2.855236450808325555e-01
-1.019998152800731250e-01 2.642372678313748557e-01 2.648957434036591230e-01
3.655411766546379781e-01 5.158965785492859446e-01 3.318405969313692472e-01
-3.707541283385531461e-01 1.223645899356970435e-01 -1.113273214652854837e-01
-4.509804809232514922e-01 7.902356402430694982e-02 -1.036375427648784792e-01
-2.492148387130316278e-01 1.886917626262449299e-01 -2.038533617349042870e-01
-5.531325543820603263e-01 2.698024451582343303e-02 -4.746396938398525500e-01
-7.320710897649417292e-01 -6.892065600141131232e-02 -5.505234971088625029e-01
-5.637442225063928891e-01 1.735314165362245378e-02 -1.762364836041540889e-03
2.835872165423693469e-01 4.708236711464626190e-01 4.364556493335528531e-01
-4.704493333193312532e-01 6.704284441617058832e-02 7.549233919639858348e-02
3.558583728775864818e-01 5.129904745078723849e-01 5.107157928186003421e-02
-4.579756795673255998e-01 7.422744870069400425e-02 2.026755475193718278e-02
-4.846996047982147018e-03 3.172499822330003272e-01 1.916766435265075674e-01
-5.190480119939837600e-01 4.715427453595801011e-02 -6.912070401881049708e-01
4.647437234207795198e-01 5.688895315755756465e-01 3.949909900705204091e-01
-1.650792177063802324e-01 2.291997448406717097e-01 3.872456292279432555e-01
-5.563912840346951771e-01 2.732818474595253774e-02 -7.297966935111733777e-01
-7.059335469327082668e-01 -5.509153886679326456e-02 -5.177355201589948219e-01
-7.199525056441680171e-02 2.807716829317719598e-01 2.226503138308892904e-01
-6.890768490015771741e-01 -4.741954966423300027e-02 -3.455287559227313565e-01
-6.449142260303706298e-01 -2.114304287166483831e-02 -6.427837811259421441e-01
5.118680487272898594e-01 5.947309361237473890e-01 3.440396571382333679e-01
1.570389998490876460e-01 4.051635395620935554e-01 1.207633142488129668e-01
-2.450778588437254046e-01 1.869532647418830629e-01 2.771970110094140183e-01
-2.959027333845579699e-01 1.650951806594390392e-01 -3.963729205437617198e-01
-5.303235056690511762e-01 3.582745772882158647e-02 -5.577073654860034702e-02
1.341252503280744579e-01 3.909441574293797683e-01 3.459771535575861812e-01
5.342120891434519736e-01 6.054895424163188045e-01 5.009179724879779805e-01
3.944524735566157791e-01 5.275499494722620808e-01 8.095550576022515488e-01
-3.663121629430055037e-01 1.284104926542601055e-01 -5.535500529937213976e-01
-3.335709814565037123e-01 1.406686725957934092e-01 1.012122725632538939e-01
-2.920509691409682307e-01 1.630191136423870812e-01 1.069371106028791929e-01
8.053990930137169130e-03 3.219600824393371585e-01 4.642100929904337536e-01
-5.576337251743082035e-01 2.150069151944307075e-02 -1.049093170414125559e-01
-5.472589988068297107e-01 2.700023268024819012e-02 -9.315199133413630539e-02
-5.996317442379375806e-02 2.885235039341004226e-01 6.983536432595971455e-02
-9.226553111570099386e-01 -1.743960598786991611e-01 -2.274891371980607979e-01
3.275702448149956370e-01 4.936144239058267713e-01 5.498181038676052124e-01
-2.512798284359367695e-01 1.850222783817742633e-01 1.057921296801328515e-01
-4.306649506088872092e-01 9.460052447789979446e-02 -6.631700424631957747e-01
3.237971407713055028e-01 4.923841025871439903e-01 4.522726150851315019e-01
2.932241078968403913e-01 4.807163203714574506e-01 -1.323107064129611932e-01
-3.225841972625565490e-01 1.480316193072014896e-01 -7.280695846598390919e-02
-8.079088052605618575e-01 -1.122571588499553935e-01 -2.565299780426101850e-01
-2.269234565552735033e-02 3.086383947463155475e-01 6.869697661285496804e-02
2.284604045059798472e-01 4.429982383697558812e-01 2.047428995053175160e-01
7.366071941386423960e-01 7.169143786152348818e-01 2.289999134087687960e-01
1.404393349260041335e-01 3.948356649950961472e-01 2.871608705152549623e-01
-9.865908122194850804e-01 -2.091283330495800896e-01 -1.980819167310029494e-01
-1.851252062337787330e-01 2.184102748554295204e-01 3.843131064378578765e-01
6.369099450962744102e-01 6.622417610533636312e-01 3.370334808857725073e-01
5.380567803119824521e-01 6.108356977909161767e-01 1.044418299869828981e-01
-4.109753822425332714e-01 9.969688334952184205e-02 6.279705496362855341e-03
4.675967289293856410e-01 5.703641662853241590e-01 4.027940743400034163e-01
-4.325719862704931473e-01 9.341814560375689969e-02 -6.445538654307838566e-01
-7.860353629571614764e-01 -9.943407570928963768e-02 -3.805562752613835253e-01
-1.819072092509355087e-01 2.266566228457100041e-01 -4.045311191022140651e-01
-7.585060702744997885e-01 -8.330308971908249871e-02 -5.357093393182481567e-01
-6.125368526348586029e-02 2.882671784145210414e-01 1.654253575838820350e-02
2.237847138322799079e-01 4.365994833996421631e-01 6.744426215899073096e-01
-2.302626355386435397e-01 1.993134067423775746e-01 -2.520784034470902601e-01
