5.611867624450606051e-01 8.380947573514760385e-02 1.262015258396605444e-01
7.819425583282562098e-01 4.207082887344570366e-01 -1.626222120353297829e-01
5.853349910189394739e-02 -8.739077342255702208e-01 3.189415933881052934e-01
1.478916982642555500e-01 -8.278733250558474310e-01 -1.830148658651831878e-02
4.409181844610405854e-01 -2.535581352622280349e-01 -9.162503639837210612e-02
7.305281765274590500e-02 -8.440855756318219605e-01 3.186380030012421205e-01
7.444269236157712299e-01 5.196735258820103232e-01 2.674801337208113083e-01
4.012269926111063922e-01 -2.880358711285282425e-01 2.395212771201024951e-02
3.131147205787375709e-01 -3.511818316326460465e-01 3.131921623346618500e-01
6.403807136106933751e-01 1.950632461595226130e-01 -8.386844327914288024e-04
6.593600495799500916e-01 2.566312068411051306e-01 5.384984014543238440e-02
7.343091384248077169e-01 3.501827293761185511e-01 -9.501239222768298465e-02
3.914964873724627870e-01 -3.391580005719728175e-01 -5.178564500344650517e-02
4.079086487255632609e-01 -3.693282003364073973e-01 -2.079335719650401704e-01
8.148480048354589389e-02 -8.522901949706362945e-01 2.562092225656818489e-01
4.818240401709604215e-01 5.935439209038621128e-02 4.657940727223912614e-01
4.756223824217555851e-01 -5.319509095315418795e-03 3.392512455533193139e-01
9.214736091186885580e-02 -9.553611984873175977e-01 -4.882117125288811671e-02
6.207212905393622027e-01 1.138973044671894863e-01 -9.990576580211525670e-02
5.442785779331986706e-01 -9.906640750714962307e-02 -2.347779257027415856e-01
3.273627220971351282e-01 -5.130024866255581406e-01 -1.531663028055901543e-01
4.939264205818844067e-01 -1.118166014674889380e-01 -1.257633715558321985e-02
7.375274969311137463e-01 5.480708643586381656e-01 3.714496503688597406e-01
5.106612612910171878e-01 -1.025012745709126677e-01 -7.404171874055759384e-02
3.207171439403569968e-01 -5.117715768328536807e-01 -1.167331209286596172e-01
7.261867231048138027e-01 4.080475241586879465e-01 8.698101737374125397e-02
4.864017504216993082e-01 -3.679220074811010571e-02 2.082626211789605220e-01
5.415394107410115287e-01 -9.157353248317594285e-02 -2.027231463947765377e-01
5.059283205512237203e-01 -1.104596971399825350e-01 -6.964309461173162630e-02
3.106281750450808898e-01 -5.769271142303241673e-01 -2.248953174788370091e-01
6.145005458750436578e-01 2.646458224757056721e-01 2.990659975120535941e-01
1.647584147195564896e-01 -7.546481460191576396e-01 7.544682916332715039e-02
4.366114813688479201e-01 -2.687622556948233155e-01 -1.070429937949042565e-01
4.205338268234487531e-01 -3.538530894347100553e-01 -2.337012453237655718e-01
2.565616139517532535e-01 -5.774309488041320382e-01 4.586085654262866962e-02
5.282330655128104624e-01 -6.567421713662317806e-02 -7.261596356008774567e-02
3.118452090582191638e-01 -4.424613358634019167e-01 9.694640933882806011e-02
3.624518471712876444e-01 -3.005271997039604126e-01 1.885462495532006233e-01
5.624676713506902015e-01 7.415254508314335358e-02 9.620443636604240900e-02
2.404514782001856976e-01 -5.144701353031111424e-01 2.804662338764698504e-01
9.643590498850791726e-02 -9.894630418885226320e-01 -1.535698631678432124e-01
4.044865506390739052e-01 -1.852680829229845505e-01 2.582069342029479908e-01
3.843265802171526024e-01 -2.409817085207390797e-01 2.237364738260034236e-01
6.655506899863067316e-01 2.947930434972510505e-01 1.157847601488659200e-01
2.500910869398019210e-01 -6.987022220065813860e-01 -2.173712631968168774e-01
6.635657396173670897e-01 3.141329303079740121e-01 1.729404499076979962e-01
6.511244024548423770e-01 1.301736434844598111e-01 -2.131521793834014467e-01
5.512095943952286525e-01 7.691081649120594388e-02 1.595663246546860092e-01
2.519841810602479470e-01 -6.776876663456358196e-01 -1.756397627543725970e-01
5.856775640569999997e-01 2.529131572522329563e-01 4.154455629772671466e-01
2.310026078604930644e-01 -6.456601265738417528e-01 8.024941498674276197e-03
4.895211188475516728e-01 -1.216107024974580619e-01 -1.430316824744937675e-02
1.954750043729979181e-01 -7.620759435690508399e-01 -9.719130407258325111e-02
5.606535957131518755e-01 2.094216265878940109e-01 4.352536082365973669e-01
6.660738602813751630e-01 1.526789710816014445e-01 -2.334654734651883112e-01
6.780343037107746662e-01 3.317060495527132113e-01 1.430165886524275010e-01
5.244825287390642021e-01 -1.326924956271421374e-01 -2.172072718831724314e-01
8.058108421280366640e-01 4.019076165765668729e-01 -3.285481524932362674e-01
7.794762325622077714e-01 5.063615336175879555e-01 5.869435891619016049e-02
4.597709935585412855e-01 -3.877189253755889548e-02 3.374017205692735888e-01
7.667035501566807909e-01 4.288907624707010702e-01 -6.600430137126801766e-02
5.843263616744952538e-01 1.034714497148620793e-01 5.775225796158885150e-02
1.732053750382418766e-01 -6.743703982939794894e-01 2.287525490978219167e-01
4.211995580469383715e-01 -3.560265060801520720e-01 -2.423512420429594361e-01
1.973239880452790640e-01 -6.585421305088446919e-01 1.460278264939062765e-01
9.671675976383861673e-02 -9.742700034932264552e-01 -1.179266668958476455e-01
3.609048194659391501e-02 -9.160380775266949716e-01 3.290859677814664264e-01
5.500201142665812615e-01 1.348420202843518823e-01 3.068451662038626515e-01
5.389406041953506143e-01 1.298957819176823625e-01 3.505173461316233308e-01
1.599336303894047795e-01 -7.902047185642164795e-01 1.299516834437636388e-02
1.777313953698464177e-01 -6.535441132674726372e-01 2.567797635121187305e-01
1.483928570883121800e-01 -6.853436339697043245e-01 3.268094990818425916e-01
3.962795193632129842e-01 -2.510117437421656161e-01 1.391430971061681232e-01
5.301735390085577510e-02 -8.525165666985259350e-01 3.988642726771099434e-01
6.168769540063576695e-01 3.041280575837854716e-01 3.834091106347354283e-01
6.655708254542425095e-01 3.666739204934139629e-01 2.910020250058948932e-01
1.764624842867503207e-01 -5.917506567735812961e-01 4.138782805392642317e-01
2.177524475705421292e-01 -6.551329621852773899e-01 5.157626591283150097e-02
2.586457218889327003e-01 -6.791051257267985974e-01 -2.126082430939182644e-01
7.258339619847231639e-01 2.341985010030307179e-01 -3.352648212819795415e-01
3.412478521869275472e-01 -4.122650310322676925e-01 2.268392253194587843e-02
6.140435314387572285e-01 1.904626028759143774e-01 1.204310293557815797e-01
7.565920032903620251e-01 4.036334199550050128e-01 -7.674061103789983629e-02
4.960962799261455225e-01 -6.120605979766154808e-02 9.994794163360207206e-02
2.036441089297305329e-01 -6.416858505073073093e-01 1.553468090072938346e-01
4.001103983629284433e-01 -4.127632183456322879e-01 -2.746426848825970213e-01
7.435412907430619667e-01 4.113066066068926663e-01 7.626790043096148657e-03
7.207886379472928651e-01 4.869804853631364283e-01 3.066551027961257336e-01
2.028349181981848881e-01 -7.704977771662154806e-01 -1.547567668457507928e-01
4.373123324026016445e-01 -2.319912517450959388e-01 -2.088362579408474876e-02
6.173870139552041225e-01 2.046564836990220349e-01 1.382305349977006881e-01
7.208873835987242851e-01 4.395745529821999398e-01 1.905345633920376147e-01
7.436130549155847147e-01 3.790885455524788394e-01 -7.131456715965048265e-02
1.617772024566401512e-01 -6.622844618109465786e-01 3.157204311656496842e-01
2.230605301272992336e-01 -7.813872943825223016e-01 -2.830626031463255865e-01
6.397205147851759977e-01 1.233104526526931366e-01 -1.725236751143696956e-01
4.882711052428129750e-01 -1.281627830540809157e-02 2.573363624092155355e-01
1.353389729590901425e-01 -9.040503211807222606e-01 -1.409511170294474314e-01
3.193161764085194337e-02 -8.963008417532172256e-01 3.981468004043958175e-01
5.387955937945689833e-01 2.316101281690656141e-02 9.091909651113436186e-02
4.439737105014920360e-01 -2.656549053593142418e-01 -1.365002480516112893e-01
5.575868183043360959e-01 1.962938274209467815e-01 4.186623106322760468e-01
2.425746236261812072e-01 -7.229897115359902315e-01 -2.387968079492968354e-01
3.907239571522195254e-01 -1.685286282765010302e-01 3.682682606613127407e-01
7.544808849686788221e-01 4.190501971564056793e-01 -2.851875022090652814e-02
4.280522181117878411e-01 -2.872556117891066352e-01 -1.090906917405022603e-01
3.207860535049859019e-01 -3.654852576779547002e-01 2.397147934825396842e-01
3.805818384252693809e-01 -3.040570017160229566e-01 8.873301489792852215e-02
7.624678378180127503e-01 3.571740057929316814e-01 -2.196145654148541071e-01
6.918699416145434045e-01 3.733154862297077270e-01 1.749016455935853698e-01
6.824508010597325480e-01 4.025810981254987486e-01 2.936644640746743917e-01
5.785962371292660000e-01 1.548110899252644612e-01 2.117961555659046424e-01
2.926307763857827204e-01 -3.245120468656740864e-01 4.812858680913049692e-01
7.050637230287847279e-01 2.170925859165970251e-01 -2.725004937310754882e-01
7.267792889952897628e-01 3.952643347121380102e-01 5.282168518412750507e-02
5.623102966874182762e-01 5.291223312556662950e-02 4.519067344863391539e-02
7.005092954975886688e-01 4.741513712085087540e-01 3.773811292634492998e-01
3.423794156145407719e-01 -5.076163350881666148e-01 -2.155717620431943649e-01
8.011978684396408035e-01 4.483612233656621981e-01 -1.920412585525283211e-01
2.597042886024440445e-01 -5.089286063729863141e-01 1.971297058694008453e-01
4.241480378104000026e-01 -2.518579065626022628e-01 -3.114937740511453286e-03
6.834907280492169557e-01 1.498675592969730685e-01 -3.279391334902969080e-01
6.282014717072402776e-01 3.133187277771748991e-01 3.488566394222428202e-01
7.394321995451286211e-01 5.266882395010199502e-01 3.097153823740578238e-01
7.792830470701672674e-01 4.639419687999610242e-01 -4.379577690800310480e-02
7.697904769110061052e-01 4.638770846210781840e-01 3.798905369864113285e-03
7.281376189157040546e-01 5.457585482699985890e-01 4.130462129676688576e-01
4.227264645148164912e-01 -2.665958238486245135e-01 -3.190963466863742937e-02
6.433919451973111325e-01 2.315034081464442672e-01 7.289124890751769170e-02
1.202794808227124340e-01 -9.813635628880007511e-01 -2.537616289637640299e-01
8.247157776395126760e-02 -9.722760090500950358e-01 -4.140205315676050851e-02
7.529440328027265927e-01 3.760323106553009054e-01 -1.257088070783608236e-01
9.144527557831384768e-02 -8.474654013905700278e-01 2.178702086004539462e-01
5.146080493901017405e-01 -1.373838688756193194e-01 -1.789754503771154026e-01
2.303692495877448509e-01 -5.044007637706098279e-01 3.557448324464846934e-01
6.081480177066511672e-01 1.856157908351986352e-01 1.382673113342994808e-01
4.655301070818934073e-01 -1.748669772613844764e-01 -2.350783225560708692e-02
4.460262693529212785e-02 -9.190786728180969645e-01 2.788490604393827899e-01
1.110855819892733048e-01 -9.866549118578351596e-01 -2.204168579588874077e-01
4.658301730500685744e-02 -9.450690858758420410e-01 2.054955748726655373e-01
5.179668401374271092e-01 1.861868031805007442e-02 1.846205556634702150e-01
7.394783010657479672e-01 3.520905165378919177e-01 -1.163630486656199864e-01
3.681063420886216409e-01 -2.104614199680519826e-01 3.797727915567175594e-01
4.439891380978807089e-01 -1.020567226145490808e-01 2.624406104307254739e-01
5.191421416702051150e-01 -6.643397728285188597e-02 -2.873659994357414052e-02
5.275499563956930205e-01 1.278481313689637522e-01 4.028244227955732892e-01
5.431055750790440007e-01 7.150490157264870195e-02 1.871489641691458650e-01
3.990631866397795768e-01 -2.759502391564752077e-01 6.431432274471331201e-02
4.811126240814633803e-01 4.965527783896366704e-02 4.457166055623335010e-01
4.372683130395771944e-01 -1.597103630176079370e-01 1.556320084615129828e-01
7.089868709776701861e-02 -8.995878330258294531e-01 1.941036301976630796e-01
7.531746947117242685e-01 3.854861302219299013e-01 -1.038111550560408269e-01
1.241328173024193599e-01 -8.377447460397119405e-01 7.714242306602792087e-02
3.593084102959627213e-01 -4.103310634453041783e-01 -6.345380702731001632e-02
6.248716152501330168e-01 2.938817119793596389e-01 3.182005007506735206e-01
2.901620520032342498e-01 -4.742537451169286378e-01 1.284826416754933642e-01
8.298773030905447490e-01 4.530225204566071251e-01 -3.249458764450250947e-01
6.757025931430400423e-01 2.186534274184443183e-01 -1.209906765112747362e-01
6.701844843550303077e-01 4.216351714337884249e-01 4.018440719477383016e-01
6.762375391558653748e-01 4.162216962542681364e-01 3.581902729686551323e-01
6.018411643620222851e-01 2.278633792869231289e-01 2.730368240946922653e-01
5.639359503407039842e-01 1.688067288123362708e-01 3.196811727177045759e-01
5.267366424357797783e-01 -1.372437037408709426e-02 6.161835144188755609e-02
6.147399638319765991e-01 1.632695840450976710e-01 5.060339649144068863e-02
7.310034217272936008e-01 5.404520217760357959e-01 3.856869231620963512e-01
1.412820585646345772e-01 -7.023232257738809547e-01 3.211673078392134340e-01
4.159401138069524495e-01 -2.379570726342674358e-01 7.207985594512464345e-02
7.201711434696622671e-01 5.275179182339899686e-01 4.086328635868801684e-01
6.534592245336910965e-01 2.250608327432922773e-01 6.533664741478527674e-03
5.917330031003997792e-01 1.614846459828093161e-01 1.619877823689658269e-01
2.401273585202811922e-01 -7.063124820846886642e-01 -1.858096785468173195e-01
6.519149839904413157e-02 -9.361696718235787973e-01 1.335903167002693015e-01
6.488703656318381974e-01 1.990271384312361780e-01 -3.387838735771540183e-02
3.182876640125347767e-01 -3.087556080291631311e-01 3.906475721026247405e-01
2.666042058914004365e-01 -3.790253543248939261e-01 4.792552807404662496e-01
6.044389070643092499e-01 2.644897188363959373e-01 3.493009276506489069e-01
6.111321743826580999e-01 1.658239535439962054e-01 7.498274100420816712e-02
3.137669152782628368e-01 -5.182601640646533614e-01 -9.759534787779629295e-02
1.460146759862922250e-01 -8.445369999775552694e-01 -4.950197276767472759e-02
6.925453303226292157e-01 4.664050713786628832e-01 3.985509835688626490e-01
5.765776907161129783e-01 1.077945372336690660e-01 1.072764821682320596e-01
4.269176298739586761e-02 -9.151752542828033299e-01 2.979822720410690295e-01
7.732326419637959580e-02 -2.997712230449248172e-01 -3.659184080850457765e-01
1.698989672007933383e-02 -4.281939949955559377e-01 -3.594131566243651266e-01
2.360752349882995205e-01 2.298951165001862085e-01 -4.055322138025701517e-01
-8.902912092439570213e-02 4.359117053082544602e-01 -4.758356427100400854e-01
-3.181668070867370024e-01 -3.549399206143755148e-01 -4.155671626734852575e-01
3.090917494932027276e-01 4.556814103828546458e-01 -4.216605113141654315e-01
4.477536849514059392e-01 6.191223768700325758e-01 -4.211590878779508107e-01
4.845590160950152131e-02 -1.375826221717180997e-01 -3.890429630767694991e-01
-5.130661562122229569e-01 -5.229297830354920906e-01 -4.235151603152284006e-01
-2.908051497736320323e-01 2.311090820093039955e-01 -4.804405379327397752e-01
2.113681422928370413e-01 -3.073736589901109317e-01 -3.460051113281227275e-01
2.912958961330724406e-01 2.689200845840661325e-01 -4.022747000842122889e-01
-1.344752748216381799e-01 -2.086075114446589440e-01 -4.066687054703549409e-01
1.100102304440496309e-01 -7.937166058836804539e-02 -3.871376101808253756e-01
4.377857173743457744e-03 5.619329997329512993e-01 -4.773659054046504591e-01
-4.253152009873377715e-01 -6.466246583501062961e-01 -3.965509845828790181e-01
-5.766441565224191823e-01 -6.205839424196597509e-01 -4.210801479464906794e-01
-5.600589776249365048e-01 -3.535437181679481067e-01 -4.500561884312857530e-01
1.474770647113449185e-01 5.941065390798901946e-01 -4.608343444650058740e-01
-3.696484182556996623e-01 -6.055721044208213222e-01 -3.934680440430280979e-01
-4.909157748978193458e-01 -1.123151157648378945e-01 -4.685458333550750476e-01
2.667165293300254869e-01 4.865859428369655459e-01 -4.312994439125263924e-01
-2.115755655835575288e-01 -7.041364242545014029e-01 -3.594733324409639108e-01
1.447421207239577706e-02 1.851191606810801693e-01 -4.317248839173805641e-01
4.946826911846625707e-01 5.844976738492737578e-01 -4.104375039026376681e-01
6.623986460318591618e-01 1.161799161077786691e-01 -3.316944247147152747e-01
-3.437378652586060845e-02 -2.303797426965243506e-02 -4.142352790302178955e-01
9.832324357249763724e-02 2.764826340407641192e-01 -4.305453444762957216e-01
-3.297906113718054311e-01 -2.619087246849929884e-01 -4.281311632503812525e-01
-2.275951772462022904e-01 -1.887746428454868397e-01 -4.222095171685818493e-01
1.395042360548128316e-02 8.148916858210718539e-01 -5.056849910885574673e-01
3.935947947662526980e-01 -4.159822588833615442e-01 -3.074044946331885853e-01
-1.518919724844504937e-01 3.134203387944887176e-01 -4.703852132497304828e-01
9.375935749682869080e-02 5.089580916803932986e-01 -4.584673144140504197e-01
-6.499823752505021757e-01 -4.748556282388642358e-01 -4.485841067231078894e-01
5.103776443726154577e-01 -1.559922904544585598e-01 -3.213350406999986864e-01
5.350067147366247555e-01 -5.433290804103995536e-02 -3.297669208237013483e-01
2.898377819734429539e-01 8.281496454384829412e-03 -3.719031327057381042e-01
2.248254420977225942e-01 -1.190095586492782576e-01 -3.661946159805654077e-01
6.350756287507007547e-02 9.038854808867619051e-02 -4.136529790697386355e-01
-1.040860385122407417e-01 2.940079149073793752e-01 -4.613239161490356177e-01
7.256698675655299802e-01 2.628450236996132672e-01 -3.399230018535779885e-01
2.809911924149106621e-01 2.456331822689701294e-01 -4.010049168626065863e-01
-1.265692645362718749e-01 2.504292938799297374e-01 -4.594016492247036676e-01
6.477249075048591154e-01 4.081176962663070618e-01 -3.680272144807233414e-01
-1.228748226643322644e-01 -2.059326809469788633e-01 -4.053363814646963048e-01
1.335108146331777101e-01 -1.452820401316667898e-01 -3.760701105992405591e-01
-9.291079566728221995e-02 -5.779892077842490039e-01 -3.574342123968571872e-01
-5.061293470867652688e-01 -3.317458052795672074e-01 -4.449607739693773323e-01
4.045405983555001028e-01 5.254553637007535194e-01 -4.163020109226104881e-01
-3.077526450271201863e-01 -7.636869830676709103e-01 -3.661345936505088217e-01
4.315433268967883707e-01 4.488625772486427579e-01 -4.034842719077492146e-01
-5.846230408387726590e-02 3.106727432044124604e-01 -4.568049125951105793e-01
2.977096635866550711e-01 -1.243184050984888628e-01 -3.552292861193763196e-01
4.701584540732880457e-01 3.095193868890462174e-03 -3.457066266794294185e-01
1.486559319073104124e-01 5.833906422590030560e-01 -4.594098559156043482e-01
-6.607495834908450050e-01 -4.835776793191610134e-01 -4.490887226811486888e-01
1.888423287451415356e-01 2.144413542004169893e-02 -3.877789480544447942e-01
-5.167501332034264427e-01 -6.525672627025063122e-01 -4.088286799899208401e-01
-5.007065643064835259e-01 -6.235077960886967752e-01 -4.099613462986118617e-01
3.833376714546464781e-01 -3.869327388913779697e-01 -3.122681407568603795e-01
3.764095433564729198e-02 -5.675450186386590268e-01 -3.401338558588953842e-01
5.242018133714991812e-01 1.376250462058659085e-01 -3.538209401665761700e-01
5.911745844394343530e-02 -9.731095520240587993e-01 -2.895048861571383747e-01
-2.140627666595019962e-02 6.976061077273951749e-01 -4.969421068858422830e-01
-2.901675536958926716e-02 2.859941152797588759e-01 -4.497311706815440013e-01
-2.265668484894010626e-01 8.738279881041606523e-02 -4.544627656487163492e-01
3.154579238754615100e-01 -1.685279728664426657e-01 -3.475240276030682751e-01
-4.924633135055878075e-01 -6.388510987788375006e-01 -4.069915069894258219e-01
3.994586726521497377e-01 -8.172300967899388813e-02 -3.457881483356025076e-01
3.529900278914410161e-01 -2.432602821127748116e-01 -3.334304125125762130e-01
-5.105977545030165876e-01 -1.117667729839229990e-01 -4.714030973677791336e-01
-2.045937919751820988e-01 5.143820615526600859e-01 -5.014408649141841590e-01
-2.006589058399431968e-01 -4.607141163667017314e-01 -3.864828662452997610e-01
-1.232993544670778902e-01 -6.618863258245768488e-01 -3.519035142016879725e-01
-1.532319968278448297e-01 -3.812154686498988587e-01 -3.890797370672987032e-01
-3.021337271652564938e-01 -4.695145867562715569e-01 -3.998499631195716608e-01
-1.683967858362026004e-01 7.763658772001948150e-02 -4.450648211361191153e-01
7.359353741147196537e-01 4.254326902894557394e-01 -3.575413047916068954e-01
2.636885170204028017e-01 8.887799307343513533e-02 -3.850694834797437349e-01
-8.250943494081360019e-02 4.535216234791616396e-01 -4.769764996528082501e-01
-5.923889091860313760e-01 -3.723336803871635237e-01 -4.524394380203012322e-01
5.505522400661582161e-01 -5.677141274779873292e-02 -3.272748756250140612e-01
-2.589989912959796484e-02 8.831799808931839468e-02 -4.260972451487380908e-01
2.799868615117546700e-01 -2.933621722663207199e-01 -3.379117570745466259e-01
1.096348047059031716e-01 -8.510098960284449843e-02 -3.865187114433273896e-01
-1.007865930594155357e-01 5.144410550149046690e-01 -4.867172345820408030e-01
-8.348287538070149616e-02 -8.004790463794293487e-01 -3.299935480583753855e-01
4.067409934700299545e-01 4.287750981512509219e-01 -4.046471063745842867e-01
4.103525577998213825e-01 6.201392206177817057e-01 -4.265857170210007321e-01
1.405997181244650063e-01 -3.218561994937094162e-01 -3.543482504554861245e-01
2.393972375853649359e-01 -8.742319253907906984e-02 -3.678325906603729933e-01
5.309577773275361290e-01 -2.719965848704661640e-02 -3.335247873412235387e-01
2.764016502723689594e-01 -1.084039767817602251e-01 -3.601200594897254748e-01
-4.135716478810762958e-02 -6.016447815701425617e-02 -4.108705086904314019e-01
-4.433177547040924038e-01 -3.484471454716570049e-02 -4.708804663166656357e-01
-6.199284325419086583e-01 -5.087822401447298359e-01 -4.403390456671439357e-01
4.073594525575838232e-01 1.255429068652827718e-01 -3.689837268653671232e-01
-4.323138049762704216e-01 1.120315225058206125e-02 -4.747213721426988275e-01
3.417578693541474533e-02 4.576301777643173585e-01 -4.609005394579656634e-01
3.509548772678561246e-02 2.240593204144550599e-01 -4.333671764920330460e-01
2.256162218940997166e-01 4.782236875138193843e-01 -4.361506289641569611e-01
-3.067081362668441780e-01 -3.477838793510096282e-02 -4.515029350315427625e-01
-4.373565609477540056e-02 -8.165838995400385159e-01 -3.224638553905550542e-01
1.823665152657992783e-01 6.391339571442790080e-01 -4.611661059434420951e-01
5.838657790472535636e-01 1.109013918307399926e-01 -3.422191893249396100e-01
1.926111301585245184e-01 -2.547525655453913851e-01 -3.548403665211891100e-01
4.687619539518750877e-01 4.662821630439769049e-01 -4.002465273795433043e-01
2.156247458797962840e-02 8.154757833713244253e-01 -5.046733454512769557e-01
3.506470852296435514e-01 -2.890094809581678081e-01 -3.283955240549621402e-01
8.009807666964389172e-01 3.879165639898701778e-01 -3.439097257309668421e-01
9.300147499067981660e-02 -2.185968293007325425e-01 -3.732171148274396333e-01
6.093009247417010554e-01 4.851048280659798206e-01 -3.825119287163478710e-01
4.492086982559889141e-01 6.397829458632677824e-01 -4.233765435546206213e-01
-2.051564325587026671e-01 2.146364184840237055e-01 -4.663541336142355553e-01
-4.612286758148862464e-01 -4.041980331395236270e-01 -4.300890394690277674e-01
-9.534604198926241447e-02 -5.351646277500173854e-01 -3.628040198334627209e-01
6.042933513736342688e-01 3.618651956070020881e-01 -3.687638749156673112e-01
-2.240518273684256323e-01 -3.327367106237203442e-01 -4.048168771713444580e-01
3.483394310655966164e-01 -4.398309661987027108e-01 -3.110284027001313234e-01
2.111968203781033337e-01 6.599415592611921344e-01 -4.595161760901276260e-01
1.241134788656804711e-01 4.695287329989016323e-01 -4.495340672792216274e-01
2.626804481521739509e-01 -1.598571390166921707e-02 -3.729097769333769574e-01
2.403454748197424717e-01 1.768687780625970499e-02 -3.800296911841665737e-01
-3.355692395553983021e-01 -7.549496203880877720e-01 -3.711069309063593225e-01
-2.417395758469390865e-01 -2.374540123648555268e-01 -4.185055188923411107e-01
-1.950094076553365169e-02 2.726785130430910420e-01 -4.468186433783384315e-01
3.633750014487632241e-01 -3.870017642580121375e-01 -3.150928050942894409e-01
-5.475391585302339381e-01 -1.786589397862710371e-01 -4.687973117790391608e-01
2.418687918057195185e-01 -2.185477270987598863e-01 -3.520981587457341910e-01
4.256858302123776583e-01 1.829396090391778862e-01 -3.731170192984117340e-01
-8.953391668834211059e-02 -2.052491395147154896e-01 -4.006854013627612621e-01
1.559924415598054788e-02 -7.445238840451828821e-01 -3.224982361174925094e-01
-5.127638226091860846e-02 2.976753134925693156e-01 -4.542603324741448789e-01
2.166352906336469486e-01 1.711181334519231989e-01 -4.013950033564721021e-01
1.628609555733025738e-01 1.405507160813628531e-01 -4.054395305823903506e-01
3.933145712811393913e-01 2.069677765091621768e-01 -3.805296153124254621e-01
2.051568585173613457e-01 -2.629650635797589064e-01 -3.520965886213506812e-01
2.768123794800648740e-01 -2.737634515428828963e-01 -3.406615744630543952e-01
3.491112234435426731e-01 3.563051154446589819e-01 -4.043226646588584106e-01
2.582474430978631830e-01 5.065097113002680063e-01 -4.348387164969216845e-01
3.624000075674097543e-01 1.881330879280369572e-01 -3.827067726187958763e-01
4.513596193979063642e-01 6.473841013917465137e-01 -4.239630994568028832e-01
-2.636916901776785727e-01 -1.824031893223004575e-01 -4.280792278514786720e-01
-3.846610459561264459e-04 -6.248260976549309120e-01 -3.388095091553683935e-01
2.047006391505142020e-01 -5.761643503811548772e-01 -3.154163558207663809e-01
-3.144454415128662000e-02 5.164294195246798003e-01 -4.771106684281074539e-01
5.889911257331640337e-01 3.838428208780593764e-01 -3.735137516973834337e-01
7.860218190137299721e-02 1.889017914600523984e-01 -4.230687169455354946e-01
-9.838842724024438047e-03 1.978672406655752614e-01 -4.366706013007322085e-01
2.105892843540805026e-01 -3.651087932963330285e-02 -3.778936279596286640e-01
4.773297447853337427e-01 -8.328016272005653309e-02 -3.345553233135057924e-01
-3.022423547248757544e-02 4.586310236335213730e-01 -4.701565155717513655e-01
-5.823009474142635394e-02 2.262709791039514695e-01 -4.468698301867062850e-01
6.646587744734449021e-01 1.713249541468157833e-01 -3.378433975524007815e-01
2.283255496774135376e-02 -1.410258985899923850e-02 -4.071658399421359542e-01
6.270413587267013034e-01 3.156705609347921770e-01 -3.601162465769540133e-01
-2.268530666599041790e-02 7.509191232903884849e-02 -4.240893822809495006e-01
1.165365875003861185e-01 9.770842825484446492e-02 -4.069867805370528946e-01
-6.185184503156803126e-01 -5.540325786196315105e-01 -4.348301329462678222e-01
6.427609984620831218e-01 2.903719021771966058e-01 -3.549175092660041830e-01
1.219323294387722328e-01 3.814746346971413238e-01 -4.395129508084322234e-01
1.282849289797429182e-01 5.189664296851538294e-01 -4.547422247156631681e-01
-2.608691168141140659e-01 1.401231810103075077e-02 -4.507224341124837497e-01
5.744814818063851414e-01 4.935768397141753749e-01 -3.884468597253517008e-01
1.137768654105553723e-01 7.973476260139762406e-01 -4.894610276242667424e-01
-2.409166436474105277e-01 -1.820583346240881306e-01 -4.248878395636930816e-01
-4.022043568760720889e-01 5.782116599138979046e-02 -4.759180411194076088e-01
-2.772366169603842634e-01 -3.112436181786905343e-02 -4.477495338076276088e-01
9.443261719706270985e-02 -5.684187464660942490e-01 -3.319724423493966015e-01
2.563949058560698879e-01 -4.728622338078749543e-01 -3.202003315927418603e-01
5.226128011890847080e-01 1.509434980085017364e-01 -3.556089648492837818e-01
3.794547809210630507e-01 4.617971247509061045e-02 -3.636324838312013363e-01
6.376666760424162250e-01 3.466435721054424435e-01 -3.622422786484860158e-01
3.771745919501748867e-01 5.213230059862926646e-01 -4.197005150563609677e-01
-4.713333253222810187e-02 1.830130941312969051e-01 -4.402200918475941971e-01
-2.286635999588170209e-01 1.558702233753395117e-01 -4.627953399201973350e-01
6.347155188813648208e-02 6.257958711790517770e-01 -4.764728136879362030e-01
-4.224979275826014624e-01 -1.683416307225181208e-01 -4.522640286051788361e-01
8.452008651865247635e-02 4.789350568682558262e-01 -4.562560507628266038e-01
1.613047556574893071e-01 -4.197277772031700049e-01 -3.399277155043408660e-01
-2.270795939266926911e-01 1.767168761335748128e-02 -4.463569221800147702e-01
1.288564419116257631e-01 5.691838751027037402e-01 -4.605527051838654851e-01
3.706949884914277349e-01 2.769445235734490640e-01 -3.919491700025873326e-01
-1.309045562386198375e-02 -6.541842663709614980e-01 -3.371681585611553400e-01
-3.968679086201922224e-01 -1.101187854547757555e-01 -4.554578367713543741e-01
1.419995168453536960e-01 -6.122917628810505830e-01 -3.200753145286050483e-01
-3.074401417977716267e-01 -2.547535567314244687e-01 -4.257990190314402956e-01
3.301528922250208664e-01 2.371382940082862600e-01 -3.930320928569925876e-01
5.490243844842283005e-01 -1.041839889669299024e-01 -3.219291741522399830e-01
-6.605036161120274585e-01 -4.245133392893006841e-01 -4.559833288960914999e-01
-3.555620844683009263e-02 -9.172612567268926265e-01 -3.094915611367319297e-01
-3.147776947688413901e-02 4.156812938940536717e-01 -4.652954743435070983e-01
2.523599271980195846e-01 -9.416283375186199067e-02 -3.652024423042901091e-01
5.897431839418876276e-01 -4.555544031943784336e-03 -3.278396012865293363e-01
1.155836292839068496e-01 -1.358962713411813461e-01 -3.797151830577400466e-01
-4.587485277308708809e-02 -3.832479400000827763e-01 -3.736069853863737689e-01
4.477368968140499339e-02 -2.980076761847994526e-01 -3.707441916582961405e-01
-2.571201282994800552e-01 1.525239191275347128e-01 -4.664408132485314273e-01
1.307248386762385750e-01 2.908661382955555000e-02 -3.969226195447790873e-01
-2.452269118098384937e-01 -4.772684598368275855e-01 -3.908650210102995737e-01
-4.661519405754792345e-02 3.742325355128033881e-01 -4.625806946766107264e-01
-1.305029816050626290e-01 4.301462387405528554e-01 -4.810444949159424777e-01
-1.987001330572960855e-01 2.010267206662051664e-02 -4.426149983770518159e-01
4.122547903268381636e-02 7.174747085303777583e-01 -4.903854853253760138e-01
-6.083092173773380074e-01 -4.102582985422775774e-01 -4.502492088607502052e-01
-3.338489821583482953e-01 1.498918683056381373e-01 -4.770200709195716593e-01
-3.477569799201887246e-01 5.792954769360685735e-02 -4.682045112233230721e-01
4.093322848737214747e-01 3.101041210701063200e-01 -3.903567519114951589e-01
2.025491492828267182e-01 3.341253236386149128e-01 -4.225180969392104968e-01
-3.414656033771479859e-01 -2.630664440606718113e-01 -4.296520542493976191e-01
3.060744826985827838e-01 5.252301504034853075e-01 -4.302482244502285891e-01
7.431355296234261332e-02 1.102787215799247156e-01 -4.144531193547063563e-01
6.404485521920271207e-01 2.637995760940585188e-01 -3.521281504037519494e-01
2.082902273232976609e-01 -7.355145761316008723e-01 -2.962117945842590583e-01
-4.316551851167343273e-02 -4.335178712212378604e-01 -3.673247851970566913e-01
8.047151135356234164e-02 5.119777132119023300e-01 -4.607071656203229892e-01
2.360698173330879612e-01 1.080916502927687928e-01 -3.912428321708977252e-01
4.236074891734470382e-01 2.254502034117127074e-01 -3.783993435792466498e-01
-1.507932709619511091e-01 4.243769253624008475e-01 -4.832468837772383452e-01
-4.151746513166938990e-01 -1.288483962505136519e-02 -4.694632386728213591e-01
3.934955042185224183e-01 3.248355986805100959e-01 -3.943323556226134285e-01
3.241517688354012688e-02 -8.482117907962968828e-02 -3.975092349888511567e-01
-4.660303445989057436e-01 -5.429339325476748579e-01 -4.144937238117761824e-01
-4.380824061410106690e-02 -8.679232609870466408e-01 -3.164509507568867841e-01
6.543340222381150983e-01 8.962464908967482380e-02 -3.297233184138513851e-01
7.942111086507640527e-01 3.891429269357716270e-01 -3.450142390137903026e-01
3.372655663272259435e-02 4.762488302974249854e-01 -4.631486525377692121e-01
5.276244582798361726e-01 2.960144800602079185e-01 -3.719177231596549893e-01
-1.718498776283781948e-01 -1.568227276934541226e-01 -4.180477353726161915e-01
6.488218762571444920e-01 1.425537720769658179e-01 -3.367152259966907368e-01
3.979401728885031964e-01 -1.584910765647669084e-01 -3.369970926484874840e-01
5.393332943965606363e-01 3.729777386498859260e-01 -3.792856398463244072e-01
3.481920174000352475e-01 3.655831048099493497e-02 -3.669399672017393810e-01
-6.333590722747218793e-01 -6.493029117305445519e-01 -4.257588148262712591e-01
-1.675712638604538729e-01 -3.621582824396105682e-01 -3.933503372139920962e-01
2.800693175504865434e-02 -6.843801067266958027e-01 -3.277936989839338455e-01
-9.304846627068878717e-02 -5.280967245503131319e-02 -4.190685346715363746e-01
-5.133455165053363300e-01 -1.689393700337964432e-01 -4.650854451729146133e-01
6.324706248562396160e-01 4.895729596760984847e-01 -3.797482864326155449e-01
-2.701258837417696013e-01 -3.081190511556841094e-01 -4.142431010762702703e-01
2.397159700732175436e-01 2.412728304861008755e-01 -4.063504316968086783e-01
-1.205144323692144831e-01 -3.737120665166557276e-01 -3.853173264384740504e-01
-4.814877974031951668e-02 1.622827287633899773e-01 -4.379320718223467801e-01
1.930009412285864923e-01 -5.530433726963958074e-01 -3.197891628408587317e-01
-3.805930485212593029e-01 -8.895825929106009056e-02 -4.556309675951059623e-01
1.364525472380242743e-01 -6.437697150255412559e-01 -3.171694093812474913e-01
-2.554514943143626829e-02 4.060708793982197029e-02 -4.204493954170801517e-01
7.101662834519859580e-01 2.605187382187531542e-01 -3.418500837211977395e-01
1.828354113050159879e-01 -3.698672040146139262e-01 -3.427221622893250608e-01
-6.238585262071422166e-01 -4.291386467559951678e-01 -4.502406337627308242e-01
-6.050740908897602743e-01 -2.948374763461363290e-01 -4.633314645781045349e-01
-4.272328257208691249e-01 -4.863644858406718230e-01 -4.156250454213765155e-01
5.894219563922986627e-01 3.229302332124271424e-01 -3.663062668615418294e-01
-1.689692970931974958e-01 -5.763389847804986088e-01 -3.684207473189047288e-01
3.142104104347835936e-01 -1.261143800766096612e-01 -3.526770746073231710e-01
4.858784771794411594e-01 6.040354875631420706e-01 -4.139790513760527313e-01
3.526822085073887392e-01 2.319771324539643687e-01 -3.892296010151282126e-01
1.918150187215009739e-01 7.028296982635842127e-01 -4.672982071620278566e-01
3.250663096397903296e-01 -1.192770515139404131e-01 -3.519387548949764466e-01
2.237507540402077291e-02 -1.310689120186596945e-01 -3.935081076470691719e-01
-1.699831990741966850e-02 -1.633639978710102747e-01 -3.953064060712112027e-01
2.921084866793736134e-01 -1.016467886393119663e-01 -3.586839751175477931e-01
-3.320533323630839861e-01 2.133271043149961421e-03 -4.594300207152301474e-01
5.693360027605436358e-01 3.445490645762506188e-01 -3.716928747355479623e-01
-5.665795305951232264e-01 -6.227596577759801910e-01 -4.193966895491612612e-01
-3.783942269626580091e-01 -6.257455682078030268e-01 -3.923423218601924667e-01
1.733375499125423824e-02 -9.059545984413275299e-01 -3.033128301016775330e-01
-1.644587659673528435e-01 -4.477558853338670652e-01 -3.828662358045279435e-01
-3.730728485628372892e-01 -1.213898052019057178e-01 -4.507589151297434760e-01
1.994611693053925938e-01 3.203815658592594762e-01 -4.213438539279681927e-01
-2.348264721196598737e-01 -8.201088776787650581e-01 -3.491666575503383774e-01
-1.328351186511834980e-01 -6.295919770523925596e-01 -3.570454850925032786e-01
2.551514321567666110e-01 4.330995253142604362e-01 -4.266654655687285858e-01
2.813332196366736260e-01 1.697059232784881300e-01 -3.920484915804605119e-01
1.279556289833008176e-01 -2.293246711306203278e-01 -3.669984108132860467e-01
-2.800807765519265358e-01 -6.981409944042761273e-01 -3.698978185424379173e-01
-6.275375201232573363e-02 8.241601944219978382e-02 -4.306344886661752636e-01
4.880933481512535477e-01 -2.343682087704246006e-02 -3.400488391386055631e-01
3.903613622347744672e-01 -1.300549699919803237e-01 -3.414087117005575323e-01
-1.170522763886399156e-02 6.255712208121481099e-01 -4.871142669133610714e-01
5.639370232640590619e-02 -8.037395446686693146e-02 -3.946283651379032809e-01
2.785400935528802857e-01 -3.266495714820626395e-01 -3.342117342462921914e-01
3.277784714437089186e-01 6.487074161561611207e-01 -4.416548865135753177e-01
-1.008083215501008739e-01 -2.539739946309079177e-01 -3.965688059714093106e-01
-2.482413663867520104e-01 -8.574455148413183403e-02 -4.372269052834615866e-01
-5.291859962070371015e-01 -3.192622497003870241e-01 -4.496971692677134147e-01
-6.666562725211136464e-02 2.687985865111928163e-01 -4.530562549145764617e-01
3.602252646584332418e-01 2.118444988939485463e-01 -3.857972305238416832e-01
-2.025669126051697078e-01 -3.005614234744477531e-01 -4.055429526086553604e-01
-2.661128109874814629e-01 -6.584715562563271396e-01 -3.725697956357042484e-01
5.377292752506870888e-02 8.485510771178272904e-01 -5.039830250055133964e-01
3.005843675643113944e-01 5.048740335031077775e-01 -4.286390805120974812e-01
3.509604722866361270e-01 -9.017110479459480854e-02 -3.516790456436498791e-01
6.503565785933870247e-01 4.134179634909231349e-01 -3.682756071450341007e-01
-3.205106881948087683e-01 -7.472825501806601434e-01 -3.698695887352738687e-01
-3.163498387735316775e-01 -5.070776811753213709e-01 -3.974603178382681290e-01
-5.537191772073517260e-02 2.903986013039783765e-01 -4.539877872903747558e-01
3.715725686131251398e-02 4.281305753725190288e-01 -4.570165259900291765e-01
-5.948032426916817494e-02 5.696296212667212311e-02 -4.271837917536738249e-01
-6.118243110824849069e-03 -5.221709823597554118e-02 -4.068023980282781671e-01
3.282106047432432061e-01 -1.908860125549106113e-01 -3.430913080949333782e-01
1.684360627449374703e-01 5.281205873066816547e-01 -4.501186373107526340e-01
3.702368551822611542e-02 2.756109076586817364e-01 -4.391416626837805204e-01
-5.673738171636290017e-01 -6.478778254882754384e-01 -4.165625031544198387e-01
5.585683440346571604e-01 3.389127058989328534e-01 -3.725595723014175076e-01
-4.935140354775540139e-01 -5.937932899749611693e-01 -4.124268517611882623e-01
4.595242125595035421e-01 -1.943637786181752480e-02 -3.445722222795871703e-01
-1.729428544071642537e-01 3.238070239174023479e-01 -4.745909764629847594e-01
4.663591035961375808e-01 4.317594708295840467e-01 -3.965372492226119649e-01
-2.559212055254203033e-01 -7.358700030240945544e-01 -3.620430840111176773e-01
1.368051169517477406e-01 -1.935871574666723771e-01 -3.699354163669433815e-01
1.616765594514100318e-02 5.524159097432764787e-01 -4.745763396457208239e-01
1.603193654404188317e-01 -4.191338509778490956e-02 -3.843932501574318095e-01
-5.092907977289874433e-01 -3.061500397155865194e-01 -4.484123237251159688e-01
7.472583523839814168e-01 4.274130065953143376e-01 -3.561668737977579657e-01
-4.681306691167523848e-01 -2.275381082463028282e-01 -4.517944386289730607e-01
3.522934211635203039e-01 4.580951047543564414e-01 -4.158132430386640155e-01
-1.470722038277606503e-01 5.712295383020393746e-01 -4.999478040461238781e-01
-4.491736574153259998e-01 -2.250581277871997743e-01 -4.493953367801641341e-01
-4.788012880928573800e-01 -3.150642611528182702e-01 -4.430399425202825592e-01
6.540664524880298591e-01 5.565852835860874981e-01 -3.845457521358380815e-01
-2.628366926767720102e-01 4.001237932429041466e-01 -4.963007690510526371e-01
4.596408880675172948e-01 3.678297863488418362e-01 -3.899902654363238130e-01
-4.709421341298904995e-01 -1.553995477638115685e-01 -4.606567891811542137e-01
-4.927518067728511864e-01 -7.035722959874150806e-02 -4.737289287539286908e-01
-4.236699415045782069e-01 -3.770352874521215036e-01 -4.279461136432531343e-01
-1.570110618786414378e-02 -4.956335849358565748e-01 -3.561400019872942302e-01
-3.234110849433616819e-01 -7.617991565653924324e-01 -3.685780554408591980e-01
4.687454476010298743e-01 -2.129933219739906514e-01 -3.205553342240936021e-01
-4.098200980436574881e-01 -5.569330939013136250e-01 -4.048749210736983239e-01
-2.969969854971059031e-01 -3.817892662315854335e-01 -4.094130995633949999e-01
-1.715662406006754070e-01 2.012602516719257106e-01 -4.600182747515989545e-01
8.536214336223539589e-02 1.295432227570888703e-02 -4.014670588129969908e-01
2.730670556967495499e-01 -5.093114425574631898e-01 -3.135582323708541730e-01
-1.633680857996328839e-01 -6.399279092821562598e-01 -3.601655785070180249e-01
-6.497465547987804069e-01 -5.108017670080076122e-01 -4.443333925884251356e-01
2.367652870028010836e-01 7.508259318196208731e-01 -4.665506140827021531e-01
5.188375394470690072e-01 5.202825973915735647e-01 -3.994760575881328157e-01
-7.296445805579775123e-02 1.296655866984244010e-01 -4.376268026525133581e-01
-1.822897200489574376e-01 -7.150516156162850523e-01 -3.540369982192015375e-01
3.583841513098095510e-01 7.031168065103351461e-01 -4.436952337560014503e-01
6.056026197678712197e-01 3.747659996698824436e-01 -3.700916259213437587e-01
-5.027836705275826601e-01 -4.668186522110220893e-01 -4.286390800390660338e-01
2.677982089214770989e-01 -6.559200563800184902e-01 -2.971055729676561619e-01
1.156796733328752623e-02 7.340646491716411592e-01 -4.965403294870286421e-01
-1.884147878725238312e-01 -4.480874224471076417e-02 -4.335399806518259180e-01
-2.797665474888003101e-01 3.633735213255707697e-01 -4.943915734898207681e-01
-3.989643522736852632e-01 1.121463741410239218e-01 -4.818317830319023831e-01
1.439137195483580767e-01 -3.590958854647446352e-01 -3.495089725091519717e-01
-2.377683261974429529e-01 -6.386186817120329540e-01 -3.708767951831798970e-01
5.212048950964930372e-01 2.682686646534346298e-01 -3.695735010688388500e-01
3.413293248732543472e-01 -3.239920692375340971e-01 -3.256135366374232065e-01
4.765573459484082064e-01 6.910309957437734893e-03 -3.452461994872873530e-01
2.289529690174169907e-01 1.047157980785001496e-01 -3.918566745687133146e-01
5.052232387375351630e-01 2.086096267954513361e-01 -3.648420653435253125e-01
3.046229029660147969e-01 5.491906359562830353e-01 -4.332652851145335493e-01
3.292158476282481400e-02 7.203679973273996451e-01 -4.919032773467924002e-01
-4.426244168745552821e-01 -1.216769234010900702e-01 -4.605948052729892384e-01
1.861659181424451248e-01 6.709765358397886681e-01 -4.643627745178145472e-01
1.092250882653075794e-01 -5.784489721319727717e-01 -3.286965866403763759e-01
1.788799280017918381e-01 2.715515845941036607e-02 -3.898626675593857005e-01
-5.300716099267448467e-01 -2.611251646735943677e-01 -4.566435633857351406e-01
-8.508932579106689986e-02 -7.621617321843309201e-01 -3.347169482440617849e-01
8.800009809581954556e-02 5.470327396177665502e-01 -4.637515406574985177e-01
-3.989361405868331878e-01 -2.143642580295381794e-01 -4.435211026459565664e-01
3.381420015204994467e-01 7.945690126601338832e-02 -3.733990162218229214e-01
1.136193040218213129e-01 6.616969977294491212e-01 -4.735686675164013093e-01
4.663432507757163670e-01 2.166406595832048800e-04 -3.459102995936315650e-01
3.197162320264050894e-01 -1.753318398421692126e-01 -3.461215219153979672e-01
2.971615065034315453e-02 -7.428356266384110729e-01 -3.206930736126842318e-01
2.246930864136889305e-01 4.425387485825872380e-01 -4.320950184619722356e-01
5.720099823405235817e-01 3.736648674373416745e-01 -3.747293351401453920e-01
-2.477476011243254228e-01 -1.724645000118943394e-01 -4.269827347191225697e-01
-3.369923959670518832e-01 -6.859873630812945988e-01 -3.793996280588363135e-01
3.836754804299428723e-01 4.329400529903513761e-01 -4.084088097937307316e-01
1.370906265540492754e-02 6.399892693056091764e-01 -4.851994485326791562e-01
-6.301286816378843803e-01 -5.404916446290339849e-01 -4.380663004680676598e-01
-1.028320850345394027e-01 -5.550025877774414917e-01 -3.615388949043411015e-01
-1.914416866428859595e-02 -3.848176368238171996e-01 -3.696296624920124563e-01
6.507380832455303965e-01 5.468904105642952151e-01 -3.838806418153967170e-01
-5.288504959695743413e-01 -5.534129657557608217e-01 -4.221786762830236350e-01
6.237705277951299809e-02 -2.232628015235079144e-01 -3.770153935056184125e-01
-2.537300099861896086e-01 -6.217933732959121489e-03 -4.473359325261145325e-01
-2.170386984937567598e-01 -4.743926816378040145e-01 -3.872024196211349412e-01
-2.795311991426492892e-01 2.247905172846227095e-01 -4.780994279547752246e-01
5.501973773337243134e-01 2.330862944081876775e-01 -3.613317371256996591e-01
-4.915927821571355189e-02 -5.454666678703776750e-01 -3.550413305903770689e-01
5.397320086398756933e-01 6.053639538690744892e-01 -4.064929319352856840e-01
4.763347936502264623e-01 3.489214884803643058e-01 -3.854030028330183155e-01
-2.503753889844093639e-01 -8.056640417007812083e-01 -3.530677833388401465e-01
3.543215734653972215e-01 -2.467390702823797355e-01 -3.328333259998980664e-01
2.145618905995133885e-01 -3.952132614967245883e-01 -3.352464457599469427e-01
5.049695350254421733e-01 2.097818137365957680e-01 -3.650155892442751848e-01
3.937207559169124127e-01 6.624302158958238484e-01 -4.339074571884925513e-01
-4.456445560006222495e-01 -3.039988506186477868e-02 -4.717321198861851861e-01
1.516626137661273299e-01 -1.894269236161325587e-01 -3.683151775650846393e-01
-5.653438066133704698e-01 -5.409128215248028004e-01 -4.288237201810273791e-01
3.326827808717997548e-01 5.392220243809939806e-01 -4.281139734046752188e-01
3.391771239983678576e-01 -4.423676240828561812e-01 -3.120309572377781837e-01
7.877588773462763927e-02 2.674954818655127520e-01 -4.322647875730690759e-01
1.247741686730809707e-01 6.755803479426875091e-01 -4.736145726788291710e-01
-4.506547197933995497e-01 -6.970969149530966691e-01 -3.942252633138866313e-01
-1.245521773442664487e-01 -4.403158897149030832e-02 -4.245688621968337073e-01
-4.605147533500686396e-01 -5.413656089071688937e-01 -4.138950428318410313e-01
-8.123050570345108357e-02 1.678879644924792802e-01 -4.432840815044528648e-01
-4.170436389563630941e-01 -5.499587793770314148e-01 -4.067181992865109286e-01
-4.049094879782478840e-01 -3.040545965372484227e-01 -4.338461444364750119e-01
4.153086701554792870e-01 4.162152368233154043e-01 -4.019577872377409489e-01
7.701651134431219958e-01 3.581133388578164323e-01 -3.447860035327092176e-01
2.764283142346218858e-01 7.165623778106169350e-01 -4.569024647256047511e-01
-3.401647111906156568e-02 -2.011074885508364329e-01 -3.932932142396071695e-01
7.978126855375028414e-02 6.475564992166018552e-01 -4.767114030391309543e-01
-2.766475267534196369e-01 -1.259358798042256866e-01 -4.365425222757371437e-01
-4.661597748215569603e-01 -3.774770986963578712e-01 -4.339237139749765326e-01
-2.380679647905274976e-01 -3.242749635753807702e-01 -4.077985527459593862e-01
7.184050267306666404e-01 3.851697637443418087e-01 -3.553052114407552198e-01
4.840549183755930018e-01 4.448771970802166686e-01 -3.955651499707864005e-01
-1.513845451461834635e-01 5.810978958505652603e-01 -5.017175074562864046e-01
2.419834066398715011e-01 3.670322051197942859e-01 -4.207829387148334654e-01
4.203906468986022271e-01 -3.597172997586432497e-01 -3.102031656921529490e-01
5.672314169149867552e-02 -9.241082613825875036e-01 -2.955935457611097439e-01
-1.084913591926231768e-01 -2.318014041545732873e-01 -4.002603708093818713e-01
-5.210185341578250640e-01 -6.984780038197991869e-01 -4.040480674522093918e-01
3.513865404091427030e-02 7.219317779241901656e-01 -4.917721334887620865e-01
-1.157182330203026105e-01 -6.628326932028302254e-01 -3.507167013045981441e-01
-3.472429008861379479e-02 7.787390640829885413e-01 -5.083506029447696362e-01
3.419011621356471964e-01 -2.885558942275733840e-01 -3.296898120799677256e-01
6.748695500435843986e-01 3.215425888998616477e-01 -3.540181978076903935e-01
-3.719226983569525607e-02 -7.570555355576666923e-01 -3.285192789895584609e-01
-6.991397225384422820e-03 -8.084634817374848348e-01 -3.182024339280229430e-01
1.920164885134818811e-01 -7.298467676209846600e-01 -2.991860418203972083e-01
3.199537313119044102e-01 6.884716287058579853e-01 -4.474304326882083682e-01
1.299598094125168080e-01 6.405723730665024984e-01 -4.687715309436710776e-01
1.086735482010413867e-01 4.514169728491695399e-01 -4.496001429031573071e-01
4.964015886548482637e-02 5.020894805508366865e-01 -4.639221255356094087e-01
4.320286689768730315e-01 6.357729180818665060e-02 -3.582132000829996721e-01
4.738680558898948347e-01 4.395900766106543012e-01 -3.963904039232700738e-01
7.707108157194959563e-01 3.248803134892871980e-01 -3.408096224425870568e-01
-8.443471394070765912e-02 2.624545650344252690e-01 -4.548334520424902605e-01
-1.817270948286650034e-01 4.642284496094040147e-01 -4.923119214732705196e-01
6.719945415218141482e-01 1.730570931708567961e-01 -3.370056472373232914e-01
9.359715461662261593e-02 3.450531150762972121e-01 3.801463133034818642e-01
4.020387541983918012e-01 1.137957019176736445e-01 4.510465356040057050e-01
