-5.039740891587534549e-02 -5.361691305421540932e-01 2.993297015076343826e-01
4.735259317648902733e-01 1.734995845255807578e-01 -2.439278050492263428e-01
-4.419160573436421435e-01 -5.770897693461135569e-01 5.810246478152889527e-01
-2.869912616317386034e-01 6.056568209904684696e-01 1.733393007749976233e-01
1.020809100892931670e-01 2.766514134674892822e-01 -1.272663991069249677e-02
5.441728584679359493e-01 6.647858555922375734e-01 -4.176330126477066362e-01
2.827215649833085265e-01 4.981335610076400022e-01 -1.941421792075455066e-01
-1.152084035298701764e-01 -6.857549078968792067e-01 3.822243609022106803e-01
2.499719735421428723e-01 3.252676408056385388e-02 -5.321873296872488279e-02
1.724038625132303659e-01 -6.796463451432136482e-01 1.813713660529242266e-01
2.080378674071586831e-02 -5.015440607154630914e-02 1.265789922903649833e-01
4.226205328250649124e-02 7.616088151148944219e-01 -9.441808764900477824e-02
-3.858391114219809626e-01 2.992922469112077044e-01 3.196300696417003206e-01
1.252916728121754864e-01 5.844401302240783691e-01 -1.069660646750885957e-01
-5.346237279411504562e-02 -6.383313012638335282e-01 3.273951739213736278e-01
9.125347330662411660e-02 -5.977262592688457055e-01 2.168031865319726414e-01
-1.819186875064637277e-01 -6.742471594992673900e-01 4.255293610537523308e-01
3.916053431529983864e-01 -1.833359866368072244e-01 -9.655095728252313658e-02
-2.701037204859338958e-01 4.892915401303262191e-01 1.911851525901317739e-01
2.331897725791052256e-01 -2.088793041783179594e-01 1.970974147791755560e-02
-2.577832487969868858e-01 6.675770934394782419e-01 1.373763659851008345e-01
-3.861302221117109412e-01 -4.247909426599289495e-01 5.036950897482609379e-01
4.767373396916944617e-01 6.744584398598857389e-01 -3.733594633922398542e-01
-4.707852826880311037e-01 -5.411788036590123863e-01 5.919109580336452403e-01
-1.208422903713602808e-01 -4.230533265432400158e-01 3.194217118912908160e-01
5.489953324663245926e-01 4.986963925101341455e-01 -3.788003872676840578e-01
1.698059618561150452e-01 4.818567537425829661e-01 -1.117638385014006752e-01
-2.245759058816204912e-01 -2.875170061645720421e-01 3.568881168170187079e-01
4.335632732508785114e-01 -6.253510803333484080e-01 -1.338687454124821118e-02
7.087129662475813441e-02 -4.673900420335572181e-01 1.978313749181495051e-01
-3.202301151140393709e-01 -3.195128416895614554e-01 4.312965818041450961e-01
5.682388869536814102e-01 4.273192758574017036e-01 -3.740107915178884079e-01
-3.467023379696698160e-01 3.585963774011344807e-01 2.774512727824187119e-01
4.512573457066035298e-01 -4.276605993971814290e-01 -7.584672447327564515e-02
-1.308131037000417607e-01 -5.973378499463716240e-01 3.705863308227658193e-01
2.970611509986542664e-01 -8.887176808434390507e-01 1.480782590164262114e-01
4.276930105896599721e-01 -2.095009025471769037e-01 -1.149140829170839373e-01
4.705870433729829050e-01 -8.237236532926696386e-02 -1.769188416069745751e-01
-3.241042593889419121e-02 4.045257110166077807e-01 4.799901362691298690e-02
-1.975557457722653953e-01 2.051889846565398690e-01 2.130537186281164230e-01
-3.937933772048278769e-01 5.371362165772274322e-01 2.647473201028799905e-01
-9.656255476105307656e-02 3.767689144559630554e-01 9.950160674507527170e-02
1.319731918830477635e-01 6.321952699920662111e-01 -1.237223003536496585e-01
2.340991615434333262e-02 7.927610565363157891e-01 -8.926478979943926195e-02
1.059362221428921114e-01 6.336784972308977526e-01 -1.060565252179721807e-01
-1.720294738460589612e-01 -6.941189260947902007e-01 4.237225488677450191e-01
2.197444570074719161e-01 -7.442248703363554263e-01 1.649646879505826114e-01
7.511983787937603907e-02 -4.145338794092237045e-01 1.814657987498801972e-01
-2.246002723457383721e-01 -7.009886455293298235e-01 4.618960560915293945e-01
-3.086320431379788731e-01 4.318050969959744134e-01 2.324807640066458292e-01
1.462239007792144607e-01 1.228654457806247768e-01 -4.265470097922741469e-03
-4.036104502917245984e-01 1.202798581368033776e-01 3.774006149136691080e-01
-1.979597186962121780e-02 -1.490288691182408698e-01 1.798194919528798563e-01
1.711579950073574830e-01 -5.180117747578302234e-01 1.411915308564461735e-01
2.904473659215274228e-01 6.482151227943961924e-01 -2.376053566127792338e-01
5.075584774355240691e-01 1.770174737517184183e-02 -2.279497035530383686e-01
1.534987516217365400e-01 -1.910000130618597913e-01 7.039188827061906850e-02
-1.578744897342813092e-01 6.833938725595348762e-01 6.412797397707331593e-02
5.354387657335382134e-01 -4.559960790907964245e-01 -1.269854137282785400e-01
-1.727960472291467098e-01 -2.594615996998006491e-01 3.138831046518443801e-01
4.745111240439124356e-01 -5.595187511850373552e-01 -5.847834053560471007e-02
-3.132681648996858415e-01 -6.882443936837848719e-01 5.201026740239557133e-01
3.880146589286324055e-01 3.971539191809257963e-01 -2.414640569249591473e-01
2.785276434225108511e-01 -4.869991177913032820e-01 5.891446766815856134e-02
-1.340215935910184231e-01 2.403127258936642655e-02 2.150281067048490091e-01
-2.291378778913485126e-01 -2.550272542828212474e-01 3.517993691193386230e-01
-3.437016563869535468e-01 4.684884988872017181e-02 3.545326338337928540e-01
-3.545682616767974471e-01 9.144746241643123552e-01 1.417502460286854948e-01
5.999844700220718918e-02 -6.250348430657409748e-01 2.453958105869399053e-01
-2.009860253572738065e-01 6.084194607961653650e-02 2.520841577296694114e-01
8.187966118111268676e-02 4.837608456769053045e-01 -5.131851447926798898e-02
-5.640862515561748634e-03 -3.900789760010909268e-01 2.312194668381044316e-01
5.701236207119988464e-01 1.870646295135097448e-01 -3.143100069827942655e-01
4.181452435257091427e-01 -1.986351664320451516e-01 -1.110570151465827687e-01
-1.048741826980316288e-01 7.516102819066018403e-01 1.007933932527414062e-02
-4.451318181584552613e-01 -3.392495820221642644e-01 5.228592959696107823e-01
-3.961770764542962286e-01 6.871661767816565902e-01 2.283026573625238642e-01
2.043073710130719756e-01 -5.326123943786852111e-02 2.084793615619009370e-04
4.638616951072161987e-01 1.547588056480577734e-01 -2.324721757471732708e-01
-1.066400115900562329e-01 -6.687257242159884152e-01 3.719627187550182401e-01
2.403755374210564955e-01 -7.543700028620144993e-01 1.532444216844228158e-01
-1.144226976338563462e-01 -4.252704939109440141e-01 3.155362294660969957e-01
2.170088946282541231e-01 1.217419926350824660e-01 -5.303089288933730827e-02
-1.078318541853946905e-01 2.064881534899596360e-01 1.505493579489710076e-01
8.767669379267600815e-02 2.624018534828366223e-01 8.731383369031853366e-04
6.268227124798062544e-01 3.744233352045965857e-01 -4.011750117339184518e-01
3.832038992384054765e-01 -2.468613828448670000e-01 -7.459842137196136258e-02
-1.898268359601359145e-01 -2.970819981772211960e-01 3.352374303197920846e-01
6.288965954870736619e-01 6.928418939888633110e-01 -4.834667551024848797e-01
-2.453192193686453970e-01 3.644898507839207658e-01 2.057010002917796510e-01
-3.951494403848605508e-01 8.184236464473433337e-01 1.942609153409060319e-01
-1.956231481116936233e-01 -4.944075140240870581e-01 3.893600137736221156e-01
9.732352995156096087e-02 6.472439278797996742e-01 -1.035329423702776724e-01
1.712817441726411094e-01 -7.642019166683602371e-01 2.036197700735347949e-01
-3.825380119323700812e-01 5.585603695720589013e-01 2.515077354328684733e-01
1.401815814259539661e-01 -6.152902150020078675e-01 1.873582305234843814e-01
4.606198647511077771e-01 -1.723717130331738345e-01 -1.471589093151793592e-01
5.286097551242175951e-01 5.104978341120188778e-01 -3.676708225269730290e-01
-1.155630744432611934e-01 3.517155210001564614e-01 1.190297791028330915e-01
1.886565857770705901e-01 5.772197123658203699e-01 -1.490415420742831620e-01
4.321199470027023426e-02 5.842780678783422443e-01 -5.004752759092954278e-02
1.370512270461785309e-01 5.512011168561223862e-01 -1.066746487528493492e-01
-2.462467412583111970e-01 -8.046065872006149394e-03 3.009401541508043287e-01
-4.353795856094638816e-02 -4.184837892652183422e-01 2.646930959383962945e-01
1.172819003802351018e-01 -8.489623468612201851e-01 2.625619882707755370e-01
-1.849503292228471263e-01 -2.790504252725247714e-01 3.272795599393970023e-01
1.399701356451432122e-01 -4.567287020684683840e-01 1.472419174687846777e-01
-4.437572929977077751e-01 -4.221331798765339260e-01 5.429530855920082777e-01
6.247987769433809291e-01 5.032512240802831105e-01 -4.324852242063866314e-01
-1.677977534718104180e-01 4.567027018307960318e-01 1.285670352062440736e-01
1.922586200509194543e-01 -7.116450222746056875e-01 1.757382308009257099e-01
1.000358123930366050e-01 6.649174782805532535e-01 -1.099001952469920856e-01
5.314945154634159730e-01 -2.445301113241287461e-01 -1.779488655654042351e-01
-4.131966409773217830e-01 1.190268400020532691e-01 3.843615710007061703e-01
-4.767965442835313955e-02 1.039030525798709109e-01 1.349156798822120085e-01
-4.726552160243416845e-01 -3.525005395030499367e-01 5.452964838275768944e-01
1.069173427792800696e-01 7.658813097272267889e-01 -1.403060810079052589e-01
-4.271176373433115819e-02 -2.304995346512864196e-01 2.163865575992663381e-01
3.633862561363777610e-01 2.020117072583970386e-01 -1.748461106409280319e-01
4.964736417038665417e-01 3.346098612847286380e-01 -3.007395284138738578e-01
-4.763066699889709210e-01 -9.957957181598958707e-02 4.836036500515685788e-01
8.979558638437663831e-02 -3.416005630057030173e-01 1.527765504112304773e-01
-2.925008500216923490e-01 8.739869315911519276e-01 1.090212907965398687e-01
4.887868449836786366e-01 -2.322895681767072895e-01 -1.514626314626207615e-01
3.885125666441734960e-01 -7.134477350004854168e-01 4.020116231437120824e-02
4.151059597395544837e-02 -1.883504006544876874e-01 1.473216477661309087e-01
-3.553270023901528712e-02 3.642373812330372829e-01 6.039284425882152779e-02
2.982597089585733441e-01 -4.591992143763058420e-01 3.818195885918838905e-02
4.553453237291388289e-01 -4.515483254558214088e-01 -7.261379606098830597e-02
-3.393803021958986532e-01 8.377481049129295032e-01 1.507085303228597184e-01
1.306759004798730139e-01 5.160069035796366332e-01 -9.332013160024543730e-02
-3.089392819812623592e-01 3.726055500072985582e-01 2.477259495841235004e-01
-3.876500287321893445e-01 -6.389604171953940925e-01 5.591313676495098806e-01
2.138185505799594655e-01 -3.576355950210712287e-01 7.090613176339199963e-02
-2.808588640020271421e-01 8.989291747485476103e-01 9.462046266841656061e-02
4.745691024732401342e-01 -6.299268425465621712e-01 -4.064009657253125907e-02
-4.221218106855461616e-01 -3.552476217502147371e-01 5.109767475652151614e-01
3.477312085164251942e-01 -5.220380322670540307e-01 1.985690671623895065e-02
5.635826727855141050e-01 -2.236290428058378965e-01 -2.054917780466097854e-01
-1.502271923507109974e-01 -3.206039040208513158e-01 3.137695410961146014e-01
1.034009651917809358e-01 -2.286490728824728813e-01 1.146673775644851262e-01
1.350179690955840561e-01 -4.710908132843297236e-01 1.543204461255811843e-01
-7.689058899066152086e-02 5.683514092960322284e-01 3.722214341253268083e-02
-1.296122670895762941e-01 4.316293646590503297e-01 1.084730391326750032e-01
5.123846953331190335e-01 6.574233926131338723e-01 -3.937357813348231761e-01
4.129030426656356556e-01 -3.445863108964942190e-01 -7.036367555642360216e-02
-1.013605466753090684e-01 -7.189323896883085263e-01 3.810530561487810997e-01
2.436799140637639031e-03 -3.519941809224543805e-01 2.159513180757248185e-01
1.960421564000789374e-01 -3.467106441337313716e-01 8.045021784796763109e-02
4.264366994780818265e-01 4.863749093610137408e-01 -2.907442352665458030e-01
4.319038638465758084e-01 -8.029525838651159209e-01 3.286059579515328982e-02
5.812109965216666341e-01 6.946535464139252936e-01 -4.508828860910634728e-01
2.712408137517642315e-01 3.386971789865268756e-02 -6.829805678463730934e-02
2.516167756256218468e-01 -5.413593116543707895e-01 9.136589031891292900e-02
2.711171402296839728e-01 6.584320794078500905e-01 -2.268047599205627318e-01
3.056495639747578430e-01 4.307240813569370164e-01 -1.929132163038257408e-01
-1.816459609923446183e-01 7.862395983271495137e-01 5.448532617872344636e-02
-2.771429974482439440e-01 6.077639589785399643e-01 1.659798570497503512e-01
-8.894256705243179517e-02 8.201695120906267178e-01 -1.836947363261937777e-02
2.604278919531913816e-01 5.184287103355148529e-01 -1.838471634769936192e-01
3.414886546483912322e-01 -4.915253344447339523e-01 1.643474852919151255e-02
4.718282319136961056e-01 -2.577886350200974674e-01 -1.332362371628200703e-01
-3.089489826620713253e-01 -3.620577955205565579e-01 4.342825386612192973e-01
1.011741436710828362e-01 7.970424681949991319e-01 -1.442389295230786239e-01
1.538081316863663950e-01 -6.405959832094391126e-01 1.843414509266421697e-01
4.487561666075151612e-01 7.324465999707752140e-02 -2.013062172977811148e-01
-3.675729295098297822e-01 1.096090301911124415e-01 3.551378922246961056e-01
2.917329430016280534e-01 5.107878552559607099e-01 -2.035998933883662321e-01
-1.723465854914671760e-02 8.022741549083439727e-01 -6.351561657514964709e-02
3.074298986431509562e-01 6.451163743097699799e-01 -2.485866072916246838e-01
-1.398520396672676969e-01 5.717550832522086401e-02 2.106521620829674701e-01
2.161882744312102755e-01 -2.940787187453492990e-01 5.312530268807167527e-02
2.400804764409451009e-01 -8.071701293972400881e-01 1.668561915780483185e-01
-2.594542611397621101e-01 -2.037514877691614101e-01 3.597869751843865149e-01
4.313643221593656540e-01 4.489895353360511820e-01 -2.846657423840295853e-01
-5.123277172608440289e-01 -6.658857468148728920e-01 6.523642174144890227e-01
-5.090645844925913155e-02 4.249518570445712795e-01 5.562917833616500690e-02
3.858674395859659073e-02 4.524101077707366469e-01 -1.335778736307386208e-02
-4.370544579806134866e-02 -6.384226633912707394e-01 3.206572781723326937e-01
-4.011564897495679960e-02 7.910251683724343064e-01 -4.480375212873275587e-02
-3.959975163253282582e-01 7.935264228722439528e-01 2.011706360375070390e-01
-2.054559459126720222e-01 -5.235814176214798055e-01 4.035816860469331746e-01
2.227580602615400474e-01 -4.741688287798315748e-01 9.430224590299365883e-02
-1.417359693158586897e-01 -1.976545483078381293e-01 2.766655249508170877e-01
-1.561230156558602866e-01 -3.595966156400723923e-01 3.277563210305234342e-01
-3.108991608968208475e-01 3.200369708015649017e-01 2.624325647842192244e-01
-2.014275815315140494e-01 -5.270815348618271834e-01 4.016789871249548671e-01
-3.250568335673454934e-01 -4.378834388203315942e-01 4.646986030948611623e-01
4.511552618918707180e-01 -4.927104194964075368e-01 -5.925816735595505758e-02
4.608506225302387849e-01 7.380471825481828008e-01 -3.784975227902573902e-01
8.620065920108817281e-02 2.570407870967124087e-01 3.257273667314904055e-03
4.940171110179498171e-01 -3.557125934860382865e-01 -1.237466898375573637e-01
4.023780674416596592e-01 4.953181962745608069e-01 -2.763436563030193249e-01
-4.016216037621525570e-01 -6.489152954659666017e-01 5.713408158534581949e-01
-4.790107223368987865e-01 -3.973878748851743525e-01 5.610985987930493524e-01
3.605539386984856209e-01 1.157205336517639765e-01 -1.509719045958988481e-01
3.945764112975539417e-01 1.115474774956267401e-01 -1.734882438804414007e-01
3.579053413510535075e-01 -4.807453660874174139e-01 2.321440542547442872e-03
-5.151245479770636543e-02 -4.868928392964185781e-01 2.875898620064596400e-01
-2.357926031500493236e-01 -3.857044832117941663e-02 3.014468480905063696e-01
2.864036443739757520e-01 -8.509753812560035824e-01 1.458796756697559593e-01
-9.432258716514918540e-02 -4.981375529337278563e-01 3.201106064900498538e-01
-1.166189835233705507e-01 5.101353064381485281e-01 7.953462793972894407e-02
7.699488933149391257e-02 1.949560607378179600e-01 2.540134689050918201e-02
3.629103520315592468e-01 1.457399455610974282e-01 -1.602274876916552349e-01
-3.322062730921190310e-01 3.199196612490484704e-01 2.772271867837711179e-01
1.769834693180154517e-01 6.472200594843933175e-01 -1.587275008776435903e-01
1.946301858564135345e-01 9.588585793292264681e-02 -3.095795660056277487e-02
-3.388310842824151514e-01 -2.013316791974406605e-01 4.141769567003358299e-01
-2.477980676051904918e-01 -5.166874222675321704e-01 4.311722375241266447e-01
1.002306958206706788e-01 -1.374731416190111966e-01 9.371231870684809673e-02
2.426684474227771560e-01 -1.193666883657774069e-01 -9.588086788355361031e-03
4.677505759073234404e-01 2.483812439470241273e-01 -2.589401270263256838e-01
3.792289378945383760e-01 -1.236503194218320778e-01 -1.031304079879070412e-01
-1.621402040375932441e-01 4.693719814902609366e-01 1.214295624909269150e-01
2.782214793902448857e-01 -4.785302132577333722e-01 5.697615296848871497e-02
-1.108225478024409683e-01 -1.815065147896683662e-01 2.511435670442361268e-01
6.143046213596650151e-01 2.549782935022010810e-01 -3.621703991974455361e-01
1.760270628598272769e-01 -1.844117351743679023e-01 5.310788750685514065e-02
-1.171679736146576667e-01 1.937338320159454896e-01 1.602575022462578991e-01
2.537257794271289071e-02 4.494147285304518347e-01 -3.440383557992518927e-03
-2.949091563507210134e-01 3.861382577812954020e-01 2.345674258678352164e-01
-1.623919351714246950e-01 7.963981801402486571e-01 3.856366061709906590e-02
-2.662320750903216515e-01 1.437326880544219643e-01 2.762485389175646788e-01
3.867137134457870329e-01 6.970832029316043066e-01 -3.167223005270386471e-01
1.122356745425234920e-01 -2.658655111369833124e-01 1.179955446500348115e-01
-2.421430634875872678e-01 -5.379356540467852277e-01 4.326490547057986191e-01
-6.364903053039008395e-04 -5.233189233202288904e-01 2.615847106325668858e-01
-9.737437853447804270e-02 9.043555159465954674e-01 -3.390360757123588725e-02
-2.745253548379137376e-01 4.262007042911793997e-01 2.102695202350044479e-01
2.459021158227183423e-01 -3.021117696486419479e-01 3.457479536744832022e-02
5.297319745933971868e-02 4.276693060447443462e-01 -1.704460391232965819e-02
2.811844488148495524e-01 -1.002743787330994674e-01 -4.112590487192360755e-02
1.654472146409549649e-01 1.900220480440301951e-01 -3.463911305160597559e-02
-2.408376981318594567e-01 -4.233617805991302663e-01 4.026512522543950756e-01
-3.728080028506191579e-01 -8.699251409652392075e-02 4.086877284341657313e-01
1.434931868090531248e-01 2.289527299622047540e-01 -2.931149529935929074e-02
-3.885949961485266613e-01 5.998762214893302858e-01 2.452137882228196120e-01
-4.309287154506988293e-01 2.487945830891368504e-01 3.636977124352929747e-01
3.979003560026075914e-01 -8.355338424506318917e-01 6.469665662147429386e-02
1.013003237626458747e-01 -8.483980119081668825e-02 7.960616133739931155e-02
-3.200142338919167440e-01 -4.350587771844836582e-01 4.604870628781667086e-01
-2.253779399630124747e-01 -1.847701176141657575e-01 3.313538186163071941e-01
-1.402859759757554836e-01 -3.859486363104646656e-01 3.234734457915244832e-01
-3.427437102831072391e-01 7.288893367747218965e-01 1.806812484879144753e-01
8.122473150841767742e-02 4.239425294665207233e-01 -3.567527401154130945e-02
-2.514357989161889462e-01 -2.996517526474017368e-01 3.785820921982070986e-01
-2.738530196841403308e-01 -6.303935136600758993e-01 4.780999960957577066e-01
-1.709728440108549963e-01 4.883574569907481733e-01 1.227292704762799891e-01
2.968007415048973252e-01 7.719782512796302676e-01 -2.734345820524283766e-01
5.577329007728308863e-01 -2.651925039927514050e-01 -1.908841302552067576e-01
5.141645094404828642e-01 2.168759585764629405e-01 -2.831028162340791798e-01
3.685912067039925355e-01 1.368192887121379708e-01 -1.618988712049901357e-01
4.663006312345415738e-01 4.476967951671100843e-01 -3.085467137938652238e-01
1.705711984483419541e-01 1.254639293939278366e-01 -2.179683244343132154e-02
2.180066051273998606e-01 6.177122582087242186e-01 -1.796618313609635864e-01
5.870599727949586955e-01 -2.478678598345218989e-02 -2.722516001410694719e-01
4.997827279018389746e-01 2.532653071426032021e-01 -2.823771019551076789e-01
-3.698330650853121071e-01 -7.759783534408044858e-03 3.865070128924582016e-01
1.406671850422980090e-02 3.188523315952367931e-01 3.754719065725014432e-02
-2.891512909751651692e-02 -6.980045940639497681e-01 3.255376595654292382e-01
-1.591691051660256706e-01 -6.131750779129070406e-01 3.942571945201784334e-01
1.608089528398862211e-01 9.954006850822889885e-02 -8.449318751530791524e-03
5.758450223661344403e-01 2.570431297765471412e-01 -3.360440073528012106e-01
1.006695426255258853e-02 -3.074901883745801978e-01 1.993632715664250543e-01
-1.865742715798391627e-01 1.128410945023725076e-01 2.288935676084738746e-01
4.097790545515368477e-01 5.393179307387743204e-01 -2.926448560167117519e-01
-1.399512071101291222e-01 -7.680243313118091386e-01 4.202602854928424447e-01
1.172575473010624425e-01 5.206102066812658968e-01 -8.519073596984753916e-02
1.087189127610386774e-01 -7.992069609234601080e-01 2.558615702789656665e-01
-4.631388861592233841e-01 1.008256807475536865e-01 4.235909566937607340e-01
-2.736224180728508704e-01 5.145273709556376085e-01 1.872154210329728674e-01
-2.562005171321617980e-01 2.220921977546031767e-01 2.493996481727758507e-01
6.306325030080449645e-01 4.888263545031964474e-01 -4.328648796678774002e-01
-2.440286179954891665e-01 1.916214943004394267e-01 2.487023834344483098e-01
3.574273843910234505e-01 6.996527004270247652e-01 -2.970807029526550402e-01
-2.776278592106294629e-02 8.322412035747910330e-01 -6.382951806649619919e-02
5.153756896891257266e-01 -2.889931734185589851e-02 -2.215334611108343843e-01
2.233843188516551059e-01 6.708569147486775908e-01 -1.968831273436116303e-01
-4.571036909806421855e-01 -5.516954039498596085e-01 5.851006882191092107e-01
9.744704731538604559e-02 6.361794719984537050e-01 -1.008089849946469663e-01
5.983146261713184755e-01 7.095864541882623833e-01 -4.665267513097464680e-01
-3.824883276713121338e-01 -6.866163795880946275e-01 5.676556209611520742e-01
5.382825832847610847e-01 -7.689955322788837033e-02 -2.252183779765206673e-01
1.686780256215970886e-01 -8.452258311937205226e-02 3.283600946225758571e-02
-2.441674750423230011e-01 -2.459852655200849697e-02 3.037024140512437631e-01
3.739059149436668172e-01 -7.498811863859431437e-01 5.957427787257503493e-02
-2.997468386159170550e-01 7.049496707319226063e-01 1.569653188389854570e-01
-3.218113257410689654e-01 -2.288127531600120945e-01 4.093612080922377494e-01
3.959821647414080714e-01 1.537780886518236301e-01 -1.851858007478561774e-01
3.499309191483030435e-01 2.900975378254382325e-03 -1.149628683728598083e-01
1.760384491115347116e-01 1.061567624332438176e-01 -2.068279702673566853e-02
-3.974938398228468062e-01 -1.041204945380987956e-01 4.301430946277700063e-01
-1.502773503139385181e-01 5.583264395737583818e-01 9.062134012248444781e-02
3.096641571626570014e-02 6.623618821120211830e-01 -6.138939622313439176e-02
5.484457057035123650e-01 3.786667233522751363e-01 -3.479409099142444783e-01
1.134380897962314616e-01 -2.869256545436284500e-01 1.225100375970421679e-01
4.532022785612093152e-01 -5.855928388830541342e-01 -3.709142570700349473e-02
-4.655826196191084621e-01 -3.654589555053225913e-01 5.436859788768599877e-01
4.061148691373493019e-02 -1.341244558818093791e-01 1.341753301427627276e-01
-1.544976438014414866e-01 -3.707212962770344844e-01 3.294548559637327512e-01
3.861530150198097533e-02 -1.620335744557546420e-01 1.426454344999661672e-01
-4.045430974144677005e-01 2.372007061838993583e-02 4.025659025644374722e-01
4.989068925466236953e-02 3.222053208123750734e-01 1.187144129380059664e-02
3.782835160490697485e-02 -1.870655555101995507e-02 1.067963477187519467e-01
-3.089142849370934418e-01 -5.982085114734491116e-01 4.942232186154416063e-01
-4.991634865543955746e-01 -4.162590251476999126e-01 5.798553927084412196e-01
-8.748847855736376078e-02 -6.699026057956452007e-01 3.589904408120914714e-01
-2.055241305813806374e-01 9.260314123684540988e-01 3.553505589248447116e-02
1.580400483417460922e-01 4.549608180096378907e-01 -9.678104174902846246e-02
-1.446548980080308855e-01 -4.151417493912829548e-01 3.339137850016709597e-01
-3.321224803548006310e-01 6.947246035030115729e-01 1.819965340424219702e-01
5.478523205161998089e-01 4.934815360641022775e-01 -3.766841475356407787e-01
-2.184900030710786312e-01 2.670285410337308596e-01 2.118575321862441463e-01
2.868102980628193799e-01 -4.954875601874564328e-01 5.533040789847843560e-02
-2.928100343097198577e-01 3.523317205184650081e-01 2.416971792061250457e-01
-2.515213258591060264e-01 7.080212032979733561e-01 1.227673488552699643e-01
7.419956441244260348e-02 7.425134049807265990e-01 -1.117004775438664999e-01
-4.654775167548340087e-01 -2.796923637418236019e-01 5.218348100049200466e-01
7.353092636832578299e-02 6.514188332372082835e-01 -8.810589432381556174e-02
-1.360016076450536182e-01 -3.922757301578514433e-01 3.221111899534797041e-01
2.076119111683834839e-01 -5.407685319181900763e-01 1.217091930299000480e-01
-1.707457040617908206e-01 -6.966343841034289275e-01 4.234716956439192881e-01
3.442740414296079354e-01 6.562717189914598626e-01 -2.769505064291316598e-01
3.810626864793712487e-01 -3.039780366598550665e-01 -5.861127748556727718e-02
-3.878707519153855032e-01 8.253908727840014725e-01 1.874479665437530085e-01
5.689243177945730867e-01 1.197732160935867790e-01 -2.963919302083537488e-01
-3.824195039927194562e-01 -7.358914048655346152e-02 4.119445896972813714e-01
-2.847011266483794323e-01 7.872360809631098189e-01 1.256447126691495608e-01
1.004044498530785590e-01 5.820247338387229963e-01 -8.910704985157640035e-02
-3.685953656545370993e-01 7.115085496875306337e-01 2.030086665011811287e-01
-2.588773335603229420e-01 -1.971504597689117400e-01 3.577110209835350219e-01
1.989107640647029829e-01 3.719948504952759194e-01 -1.040353526603970818e-01
4.497985703790411405e-01 -4.697380967033527033e-01 -6.415130544938200952e-02
-4.259128990180255925e-01 1.150272707660991711e-02 4.204764743835449625e-01
-2.789370752321960190e-01 5.119621489865018304e-01 1.915496060000676792e-01
4.806188710586873358e-01 9.709117861830729446e-02 -2.294408267935801882e-01
-2.824965116842261814e-01 -4.911826184398828121e-01 4.487403156125626680e-01
4.407587237786855794e-01 -6.749263924458573927e-01 -5.784542547290080598e-03
-4.803662360363098079e-03 -4.740042704966061782e-02 1.436244532025068299e-01
1.723167142585982636e-01 -6.325138628337014790e-01 1.694636095561908862e-01
4.903968655095808371e-01 3.934005664098387811e-01 -3.114570741525176656e-01
1.961405942031048122e-01 6.722638441650264918e-01 -1.783617534158987716e-01
-4.540395959574451412e-01 2.429772010633906021e-01 3.811896562746450723e-01
2.771998407860828406e-01 -3.883880246055330665e-01 3.479468705515421922e-02
-1.882189999594042762e-01 -3.825193005088693698e-02 2.683996819460924277e-01
3.728547053332728622e-01 7.213284360923614136e-01 -3.132751414400313239e-01
1.171419282785718663e-01 8.194438473283524038e-01 -1.609921435893109931e-01
1.695629382860472933e-01 3.810178571814580063e-03 9.792852436932831389e-03
-1.632101751863675732e-01 8.994857546676994220e-01 1.295408346391976016e-02
3.963707950993287099e-01 5.997574173098446648e-01 -2.987006940041001535e-01
-1.993095576451192185e-03 3.981173581041166365e-01 2.854846879754837502e-02
4.763869063598292208e-01 -4.177212660566024249e-01 -9.578418858195049401e-02
2.821376943818794669e-01 -1.082530182338159730e-01 -3.976047833561066613e-02
4.688895262576223133e-01 5.188101647992007237e-01 -3.283982057411483635e-01
-3.793904022785604679e-01 1.842618278861392067e-01 3.443705890721101559e-01
4.828557103222856361e-01 -6.189757461030028773e-01 -4.916309325138615988e-02
-1.313587988800159201e-01 -2.183053640666027945e-02 2.248284038972877263e-01
3.071167275991047996e-01 -8.506765577129833389e-01 1.314505969582638323e-01
-1.790867487996393448e-01 -6.638712502665682358e-01 4.209322502421729006e-01
-4.557476843886226758e-01 -4.081382283993840177e-01 5.477081899525044761e-01
5.656357404794986055e-01 1.201395093448260898e-01 -2.942061108976002370e-01
4.112536527959108623e-01 -2.695564614877705711e-01 -8.827272859397085336e-02
-1.886581357082028065e-01 4.655843951133784575e-01 1.407670165613949531e-01
-2.351048086912603096e-03 -6.177810859077328409e-01 2.867591850965053868e-01
3.501720788692576081e-01 -8.331046243938672324e-02 -9.323868548520171384e-02
-2.128088070602971726e-01 2.512423041674461399e-01 2.119292590044165037e-01
1.004944672260470878e-01 -1.866666861537963074e-01 1.060210401688148618e-01
2.853979512684022835e-01 8.167168615427364831e-01 -2.768932613776896035e-01
4.451648963197568643e-01 -5.543757082157290128e-01 -3.944872518472312961e-02
-4.383314188649184429e-01 -4.132152382144582137e-01 5.369287139819054477e-01
5.250135104863035140e-01 7.117652019743501146e-01 -4.162857399200004527e-01
-1.374012981820343406e-02 5.954128869337234065e-01 -1.340978008929653680e-02
2.959377388178977553e-01 -4.829191697395699978e-01 4.581408083740492326e-02
1.917330246962958840e-01 6.945740828785598175e-01 -1.809726553505017488e-01
4.799404505551221889e-01 -9.497703412518397892e-01 3.685427800316097569e-02
3.618977170878099892e-01 6.714621144157871535e-02 -1.395688139878252798e-01
1.140859388387575057e-01 3.229708298615825979e-01 -3.280725229528323739e-02
-2.704578388882474260e-01 -2.091779673685943142e-01 3.687898632515507202e-01
5.248188722076105872e-01 8.004305367244746172e-02 -2.557404080560465309e-01
-1.251701764495728175e-01 6.927111454669163670e-01 3.909951699782240192e-02
6.866688407310529707e-02 3.777227375151052113e-01 -1.523688128555716545e-02
-2.815580375730032947e-01 2.257629693254793457e-01 2.660391230473269641e-01
3.694214468579245514e-01 -8.381951247301131502e-01 8.510697904022708482e-02
5.406748154433754783e-01 3.766534079699598303e-01 -3.420448133082388265e-01
-2.888120422582743929e-01 9.368675736866707293e-01 9.049811135062629797e-02
1.066335215510874068e-01 6.143227487229017125e-01 -1.016248001509184318e-01
-2.642251053446089126e-01 -1.148634704297259029e-01 3.405219999971622058e-01
-1.383568433927523100e-01 9.030108818060769149e-01 -5.163235465917619983e-03
-2.014488543519797337e-01 8.144820779956644108e-01 6.103631685574024274e-02
-1.267355931464089758e-01 9.673019048596598335e-02 1.915191285977547453e-01
1.848836999531927039e-01 -4.508751116737929610e-01 1.146325373118272095e-01
-4.391195761673175602e-01 2.963153820878232023e-02 4.250247149994779150e-01
6.185528248374390081e-01 2.924269848491510282e-01 -3.746233891554578976e-01
5.419305805101693602e-02 4.014902938121017173e-01 -1.124238768033204022e-02
-4.136776367117115938e-01 5.265754438270419113e-01 2.812078347831864500e-01
-2.377547534910565974e-01 4.084192288905498236e-01 1.893043827073345176e-01
3.415926277105552078e-01 2.405070895326248126e-01 -1.695191084446616980e-01
4.265439416910999509e-02 3.564396572978303368e-01 8.192879867152237303e-03
2.048312939117108711e-01 7.070402341493511322e-01 -1.932146200194303221e-01
4.704619801471526253e-01 4.202683883356554961e-01 -3.044655583194548765e-01
2.556671560597865711e-01 6.996967569903859152e-01 -2.265768021694024581e-01
3.012542332393113864e-01 -7.521279667004715508e-01 1.104890169265347055e-01
-2.740967081134775274e-01 3.237051792534000327e-01 2.359987308005327133e-01
4.246825591728135563e-01 6.318746155339974302e-02 -1.820705505028386295e-01
-8.645854670235181283e-02 -5.051912974293086833e-01 3.164523202078762254e-01
6.358315333564693028e-02 -6.152243069171435819e-01 2.404206296781465635e-01
3.700462498140625889e-01 1.551588341275005889e-01 -1.675640291317869457e-01
2.284240870011928770e-01 -5.631991766044212033e-01 1.129830427432456236e-01
4.824323182820620115e-01 -8.684286361771074159e-01 1.447278472515710866e-02
5.138290142170062191e-01 -8.938755061323159223e-01 -8.220469274068674436e-04
-2.047418595868340518e-01 3.671637163960654870e-01 1.769038211290108742e-01
-3.090051961132127545e-01 4.195328215269735761e-01 2.358555871146531258e-01
1.870872214112609677e-01 -7.777209242430830338e-01 1.961001349515539560e-01
-1.815930828268852160e-01 3.326341596600018713e-02 2.456486500182797350e-01
-2.289966374626361545e-01 5.306622252599459966e-01 1.521947849314591039e-01
6.180760710713024270e-02 2.554283606877363888e-01 2.056995647756921022e-02
-8.651464115651585907e-02 6.746991163357654031e-01 1.688675174339634988e-02
1.991425529582439569e-01 -4.743479160612814605e-01 1.107121649020886694e-01
-6.931520282442382719e-02 -6.413190524296189521e-01 3.391391117468833816e-01
-3.700460929853960912e-01 7.372121809798421604e-03 3.828122523944811340e-01
5.176606852026779393e-01 1.718925376422468509e-01 -2.741030584651685809e-01
4.376335221972551537e-01 -9.095857780042063689e-01 5.596711307762156085e-02
-3.640109805819997102e-01 9.606402469126358312e-01 1.365709736989260958e-01
5.432763587419809914e-01 4.533262265207765873e-01 -3.633167565959088408e-01
-4.384977670748863576e-01 1.612963260200192886e-02 4.280223104723079874e-01
8.037634575676634585e-02 -4.862241224854906840e-01 1.960272756891192902e-01
-5.888524991711952677e-02 -2.588573097064445494e-01 2.347947949559936465e-01
-3.450476109475044129e-01 8.792920416448106735e-01 1.440866396220377987e-01
-4.353452043451729869e-01 -4.775980893147483974e-01 5.512078639849545825e-01
-2.851392944131521667e-01 6.693744931191903946e-01 1.558764226848982914e-01
4.236539339218650668e-01 6.113527529444684472e-01 -3.205509887086235299e-01
4.927157908384953156e-01 -2.970746964828813730e-01 -1.377346017656408406e-01
3.061012827500386169e-01 1.431398860697811193e-01 -1.202012328394611446e-01
3.743351233025288827e-01 4.933347144236789328e-01 -2.564075481953094759e-01
5.533523585543441703e-01 -3.667949195410711294e-01 -1.620491596611370322e-01
1.108459880001436693e-01 -4.888537514142565765e-01 1.755809662275612248e-01
1.217396472021166076e-01 6.787151519289719159e-01 -1.284435228325100098e-01
4.188036298695894111e-01 7.635493977088568807e-01 -3.558365862498891752e-01
5.141674242395588568e-01 1.602795184880604351e-01 -2.687335482617955185e-01
5.039049644179420806e-01 1.754108356082111353e-01 -2.654643721993575345e-01
8.979856259256008277e-02 -5.321142230428923536e-01 2.011507928447042737e-01
-4.389762086085192694e-01 2.655189338922974152e-01 3.650275078863706724e-01
-4.201412056522903504e-01 4.837143951179106310e-02 4.071150485742431879e-01
-2.558782207272293496e-02 -2.021443578941244101e-02 1.511236851595466335e-01
-3.383996005314360844e-01 -4.580970460575863323e-01 4.790772710759561015e-01
2.820980045594296826e-01 4.855676794225642356e-01 -1.905192813034838062e-01
-2.256896301732407017e-01 2.733419598033678399e-01 2.152433987161440909e-01
5.401953142153155252e-01 -3.867356848359983501e-01 -1.478684703566636727e-01
2.397432248922426179e-01 -4.915031296484175249e-01 8.693394331486628546e-02
-2.233178713080550548e-01 3.316065724074785392e-01 1.988050009597276957e-01
-1.340643462599740154e-01 -6.195141206963598046e-01 3.784704140897536262e-01
8.483711366554383404e-02 2.120807622817099392e-01 1.561865055986873078e-02
-2.943945011430043612e-01 3.627646869486326753e-01 2.401459429818155467e-01
-1.534082985728832393e-01 -4.089901452335997778e-01 3.384174328885385385e-01
1.090836275956804796e-01 -2.567576424494757981e-01 -1.419366037459415253e-01
1.121538337289571807e-01 -1.304520239818333059e-02 -2.059489528319560780e-01
1.819918324377350072e-01 -2.112706751930594484e-01 -2.040088939001828416e-01
-3.152425859846791911e-01 1.583934226919746224e-01 4.668415018657417342e-02
5.646587536872534063e-02 7.577028749681572473e-01 -3.630725032234574656e-01
-2.043923853510382083e-01 7.588643962355184902e-01 -1.826048459407511038e-01
-5.712690963178440606e-01 -1.664721684391930884e-02 2.685458780793408828e-01
-3.468490494863082363e-01 1.896960251444111401e-01 6.063742029459388838e-02
-7.314177914668788805e-02 3.179280542315140456e-01 -1.615903421150595431e-01
-8.041010370957901721e-02 5.255865126590082426e-01 -2.092835413605434181e-01
-2.443883391129474392e-01 8.359253542070940179e-01 -1.744572708511583636e-01
3.261376212480211478e-01 -6.739962522916321808e-01 -1.863973039820232824e-01
6.336551405058625519e-02 1.875644564941727210e-01 -2.230808626958167284e-01
-2.006863290365111241e-01 -3.333887644714357834e-01 9.217812296451044496e-02
-5.022811657206158187e-02 4.244461238007085635e-01 -2.045161105935235646e-01
-2.744494148756045915e-01 1.480807967172071971e-01 2.103502715555477173e-02
-5.230869198062051417e-01 3.371056462990064118e-01 1.453309535607259784e-01
-3.194143280012300412e-01 -1.281767346663035267e-01 1.223424859084270566e-01
1.281435587706256929e-01 -5.231940426448233872e-01 -8.748921040607292310e-02
-1.899003841468630549e-01 -7.660382226846780551e-02 1.949968350996693703e-02
1.632429657536186574e-01 -4.427781358574701676e-01 -1.322311222761102523e-01
3.578416022101523764e-01 4.431725115664931214e-01 -4.920444864182951239e-01
3.467312929404323119e-01 -4.685100859358848346e-01 -2.528459653074707214e-01
-3.117888246681757222e-02 -7.204557216023056432e-01 7.300360379224990481e-02
-1.367496407023987559e-01 -3.618130020248855883e-01 5.509062560766355560e-02
-7.302428957819342981e-02 7.542787469542211465e-01 -2.724723898307880310e-01
-2.736226699364528031e-02 -5.059287607471090603e-02 -9.973649049082516926e-02
-4.451142862203026906e-01 -4.558378666762986087e-01 2.926482547077179364e-01
-3.005196704361876026e-01 -4.480340728500927794e-01 1.904693525043751612e-01
-2.856916888430785506e-01 7.896575921240762963e-02 4.637547897255496487e-02
-4.295317423046684513e-01 2.293128800080547203e-01 1.078729310435175975e-01
3.256733266224944717e-02 -7.809971558277065684e-01 4.420347549032843659e-02
-4.586676980928441200e-02 -5.451174044766348148e-01 3.865872805623620651e-02
-5.406755066637095597e-01 7.549557416206936766e-02 2.239485305898405165e-01
-2.326537913751464126e-01 6.459418364927226319e-01 -1.343470765693777769e-01
3.324865697512345841e-01 -8.237168425504692859e-01 -1.527789308334978891e-01
-3.283887190402808298e-01 3.440990433376538982e-01 8.638386424959348595e-03
3.817564414384347349e-01 -3.507330231159123124e-01 -3.070233753144589461e-01
2.476348735617789065e-01 -1.367659458816387064e-01 -2.684151188175576963e-01
1.231114104256227360e-01 4.141080358913322712e-01 -3.220072053038979254e-01
2.124357538058707640e-01 -4.735433104794015691e-01 -1.585073610457669313e-01
3.557501382560455117e-01 -4.333110860730199354e-01 -2.680335329859716009e-01
-4.998626381373671990e-01 5.866242836918711401e-01 6.587842852936363902e-02
-1.543491580970661747e-01 4.195876068278085458e-01 -1.311313873062338320e-01
-5.433604263245894739e-01 -7.775909084092805235e-02 2.647243448818661915e-01
-2.677210162287403938e-01 1.823231724949044008e-01 7.677543488007237266e-03
1.098715693959857603e-01 -6.237867248807071885e-01 -4.928451259854953886e-02
4.618916935956243197e-01 -1.382801385418898910e-01 -4.165006008354239508e-01
-3.607425269725118566e-01 -5.866224973829453626e-01 2.673921364392417011e-01
-5.387358095973190375e-01 -6.617254805359702452e-01 4.098037459911894054e-01
7.229827514134679056e-02 -2.411477528232067735e-01 -1.204098230618473597e-01
-1.555561449160617060e-01 6.409022710058127625e-01 -1.864924715644272479e-01
-3.242854807552749130e-01 6.874482247113866684e-01 -8.139012994300134918e-02
1.779804641036913937e-02 4.779886447996548396e-03 -1.450910441831350650e-01
-2.399551922910972690e-01 -6.683898700252606240e-01 2.044549852667214562e-01
-1.675101534961771221e-01 5.812356399141818120e-01 -1.630580136183659434e-01
-5.020921522949637339e-01 2.601663787637146230e-01 1.503194132087009305e-01
-3.845027356108215444e-01 -5.686711714417060914e-01 2.792985497606971790e-01
-2.896888190696246812e-01 8.668663778737503156e-01 -1.509228724743161831e-01
3.105492603795464435e-01 3.847338080583979636e-01 -4.444340154983242308e-01
3.933656955869168081e-01 2.790780291143359904e-01 -4.749932268097578070e-01
-3.381387033385083174e-01 5.341142259416163940e-01 -3.285505820493823947e-02
-1.256495492972290740e-01 6.586683258559324905e-01 -2.117276032437253597e-01
-5.590225963861035208e-01 1.741307073858993915e-01 2.116162170528096409e-01
-1.215284637547547897e-01 -2.921815847372720709e-01 2.686185769649403546e-02
-1.005307260275950104e-01 7.835657978357138953e-01 -2.608484468318360006e-01
4.866760016065389549e-01 1.000769651912230690e-01 -4.941999516162383643e-01
-4.339535236535757567e-01 4.305498013537811808e-02 1.582326772454284713e-01
-4.804574716485460195e-01 -2.439781151339580623e-01 2.633428073729414121e-01
-3.826310826621038830e-01 -7.326992476462467208e-01 3.196525173771236350e-01
2.616389730351127985e-01 2.082431534376850413e-01 -3.657259655401650100e-01
-3.494205463819041735e-01 1.144655367837750098e-01 8.152229819769549191e-02
2.646682454556139041e-01 6.043847479311180715e-01 -4.684156214731351464e-01
-4.215502996544269187e-01 8.395489773733416650e-02 1.392522838904528826e-01
2.620714231513120440e-01 -5.702698275874006351e-01 -1.683412191640558109e-01
2.759669926576314297e-02 9.772076848025798568e-02 -1.754811269998362566e-01
1.008396641303633406e-01 3.390662272913986808e-01 -2.875188848422500776e-01
-3.828357865662893045e-01 5.325444434172212915e-01 -1.483458025380828514e-03
-1.235384130339664127e-01 -7.834302791069199801e-01 1.529953023562679315e-01
7.204500346683898049e-02 -1.250372391238258399e-02 -1.782929010919744039e-01
3.661913721413531109e-01 6.008434864416072330e-01 -5.378671918531432450e-01
-6.936015166906323026e-02 7.145820872735456630e-01 -2.649314662723963876e-01
-2.741592258377819613e-01 -4.699009588044079089e-01 1.777553581647882130e-01
4.202983431043655349e-01 2.235615375421395046e-01 -4.795592331088182614e-01
1.490487736610657532e-01 -3.558542463885769336e-01 -1.444674148321129503e-01
-3.597975153270147053e-01 -5.856495379722342215e-02 1.326499329127669158e-01
2.627199185688219307e-01 4.322165880530006166e-01 -4.233476101231712363e-01
3.992409549064671603e-01 -9.302155906101946536e-01 -1.719938397855526047e-01
2.176126613564047241e-02 -4.417028370510320268e-01 -3.446395502018878565e-02
-4.868600175614598013e-01 3.128838894161664053e-01 1.263779267863374689e-01
3.986273163103739581e-01 3.430761135065727996e-01 -4.948900394757516086e-01
2.934883104244261354e-01 6.851086112689406260e-01 -5.088844405258441395e-01
-4.704983780755144784e-01 -1.835703582793679345e-01 2.411025415599048205e-01
-3.177585038458804467e-01 5.222392121414464183e-01 -4.396221447879553046e-02
-5.809708129802012566e-01 -5.432756341397437794e-01 4.089931775820866422e-01
2.445462270876120059e-01 4.634700046701552278e-02 -3.127719047736761682e-01
3.315995896741047444e-01 -6.268168640358573462e-01 -2.021622499181457699e-01
2.295000311618528299e-01 -5.672001277484044479e-01 -1.465502405336691627e-01
-1.080756520728799047e-01 3.159202319540440618e-01 -1.368729613808087053e-01
-2.343078629719102524e-01 3.483625523900509835e-01 -5.763786926312884640e-02
-1.722474188278376450e-01 -3.165618148871705562e-01 6.819849167443862992e-02
-1.369799600310686316e-01 -3.337341275446691347e-01 4.812027971943933641e-02
-2.250109078858781586e-01 -5.648948349987926720e-01 1.678192498429175727e-01
-2.157094819099240335e-01 3.013844358750989438e-01 -5.859673039732819083e-02
-5.414617350883974556e-01 -4.998143073306393069e-01 3.705792853359421435e-01
-1.023741730226731261e-01 -1.372782475448905137e-01 -2.574510208266924532e-02
-1.065518766664463740e-01 3.148002587485020931e-01 -1.376444766814591825e-01
-5.433934386574886810e-01 -4.884092123799989998e-02 2.574041558973277910e-01
-4.145953243188464921e-01 -1.638132645437758439e-01 1.973475021130647600e-01
3.293782877698984146e-01 -2.197680253611241641e-01 -3.039831320105204626e-01
-4.544806940389709005e-01 8.221220199203569390e-01 -2.536805577376477841e-02
2.788972079904896706e-01 -4.255599721776673339e-02 -3.140007795678567137e-01
-6.120920886125353899e-01 -5.535116711316298010e-01 4.331579611340384273e-01
-5.325406536661251300e-01 3.341943812376472200e-01 1.526211946782790319e-01
-5.442546154888330268e-01 -4.918127823534164111e-01 3.704828286520861491e-01
2.220590223219355008e-01 -9.556760651567332010e-01 -4.274996416209254912e-02
-1.349519302072787336e-03 7.053777908397733665e-01 -3.097224526910985487e-01
-1.440005666233630244e-01 -8.041889655865317454e-01 1.724457825228246366e-01
-2.380203712461757826e-01 -3.653071117193051331e-01 1.261537584388757183e-01
-3.801716609869976726e-01 -4.485021986437484065e-01 2.457833327974263682e-01
-1.292118976140444186e-01 2.954425856023322750e-01 -1.170267302564857725e-01
-3.944095171920578013e-01 5.327318007475987521e-02 1.282358637029052673e-01
3.507484507663335416e-01 3.650795483064260272e-01 -4.672994571954507403e-01
1.473492726462041491e-01 -2.580409854395928626e-01 -1.681270357517618830e-01
-1.599748258442434956e-01 -8.245967809755349043e-01 1.886972662258802336e-01
4.087842232584151803e-02 -7.055306769378310028e-01 1.928140368564786045e-02
3.762415574692544173e-01 -9.411861075423696987e-02 -3.683627994225243119e-01
9.812655789801856543e-02 -7.105661069244969541e-01 -1.911025698685846902e-02
7.686166974207821190e-02 -2.217053355238210455e-01 -1.285089709271162450e-01
-5.446089083488490079e-01 9.223860882515033666e-02 2.224227083926178239e-01
-3.398941219056120233e-01 -5.808921082007549863e-01 2.514900721773704606e-01
-1.622116375494977447e-01 2.402590425813596053e-01 -8.014693398426819826e-02
-5.164024499445873245e-02 6.974153781092095050e-01 -2.728514666301099512e-01
-4.654569480483014554e-01 -6.046953946233931676e-01 3.445435141433925152e-01
9.937994693303081606e-02 -7.659448861767718109e-01 -5.916704603911288225e-03
2.301421129290905920e-01 -8.752086183754190785e-01 -6.878391728255933701e-02
-4.551409204557845811e-01 6.507314023085405408e-01 1.860992415670413916e-02
-1.126548597013276587e-01 1.141972030902422275e-01 -8.247713319706560797e-02
4.784946065047204766e-01 4.273203071446339818e-01 -5.716261047861703748e-01
-1.693565726065425769e-01 -6.331205303988022282e-01 1.465776475400909495e-01
-2.766326697725015604e-01 5.584722624423650306e-01 -8.166099848059898969e-02
-3.072408699629020079e-01 -6.155910175788923411e-01 2.376738359867330286e-01
-3.524529884297301630e-01 -4.971455981780472655e-01 2.389273934811496636e-01
4.813578366181981982e-01 2.993684595157254935e-01 -5.411199336180660957e-01
-5.056151555268225684e-01 -6.540345188825160694e-01 3.848997464239164445e-01
-3.904164124561644300e-01 3.375519003700354626e-01 5.328316992125245455e-02
-4.482755454758515778e-01 2.353800872011963530e-01 1.193208921198014999e-01
-2.436357404942136595e-01 -5.637435569028301785e-01 1.804330503603503166e-01
-6.138972940392480732e-02 -6.732333648142960758e-01 8.194734281626377126e-02
4.623640971314274539e-01 5.522983456253203194e-01 -5.921835443502052598e-01
3.887156899748763772e-01 -6.187288035448689216e-01 -2.437948071505588732e-01
2.704793488903620147e-02 5.456492192246802375e-01 -2.888413815554822794e-01
-4.994211998962322929e-01 -3.886543543812752688e-01 3.132207937610799742e-01
-3.051270559168695051e-01 5.177510486368648301e-01 -5.157555840222844551e-02
3.210261834612820886e-01 -8.548648678905149678e-01 -1.369281355711123582e-01
-5.423231317492760439e-01 -5.882192041893001822e-01 3.936244638377942584e-01
2.761086280987040120e-01 1.846302341040116368e-01 -3.697568351571623446e-01
-5.365326649541577453e-01 -7.252692251755101793e-01 4.244124562107412513e-01
-2.619448225348186207e-02 1.971324769435015833e-01 -1.634495318903374517e-01
2.076403927817310757e-01 3.089498889811550519e-01 -3.538794933817532296e-01
2.643338092779495274e-01 -2.463859905226651603e-01 -2.521513607301036908e-01
-1.616093486399877988e-01 -6.948422890584036171e-01 1.568819206237877240e-01
-4.749524331735721083e-01 9.976395068860022253e-02 1.722431454732726575e-01
-4.986757998820613436e-01 -5.150177335581471727e-01 3.447911694407913008e-01
-3.275955099799151005e-01 3.024631962797570406e-01 1.866113906887217205e-02
-1.613383064562605163e-01 7.796729527238999147e-02 -3.954207436757174732e-02
-1.808093234792151061e-01 7.939001983562001818e-01 -2.078432957150532223e-01
8.074700615477672927e-02 5.192348483730196973e-01 -3.193450449022279258e-01
5.203555909447021149e-02 6.904689738463563042e-01 -3.429300888701519723e-01
-2.592120190715856143e-02 -5.142378447705406863e-01 1.699626835124005975e-02
-1.180949634681498217e-01 2.800962296086686454e-01 -1.208334132516194065e-01
-3.470239276698667830e-01 7.544962246232120862e-01 -8.265865460996804637e-02
-3.032231329217658158e-02 2.570031888202863324e-01 -1.757918470569421188e-01
