-3.832345181625922137e-02 4.726591637345579633e-01 -5.182825993875361803e-01
-2.624357072272763824e-01 -2.334615611394847204e-02 -8.716470361999409944e-01
-2.364618959909509655e-01 8.671782837250405773e-01 6.787203209958224404e-02
-3.430071862539663674e-01 -1.617749266001280604e-03 -7.829015311317314429e-01
-4.379168316616197654e-01 2.760624092032302745e-01 -4.064493802352305285e-01
-6.710437338580017563e-01 1.577338466752272739e-01 -3.451224018437526464e-01
-2.307263001475081121e-01 6.210396824235786539e-01 -2.022766755554328832e-01
-1.412861897216459717e-01 5.997661356824931511e-01 -2.977200929602316082e-01
-7.711822938346326595e-01 3.742716223477806081e-01 -3.038369962284738837e-02
7.817672693681114449e-02 3.687131739364416516e-01 -7.248351974355841110e-01
-2.844707594505943016e-01 4.941364117712352955e-01 -2.955989866205361860e-01
-7.088715848246105455e-01 9.255236101374175739e-02 -3.847692959633305931e-01
-1.474844662043935384e-01 4.911061699561396487e-01 -4.099030944410275157e-01
-2.872844065193327912e-01 -9.608713080368608273e-02 -9.299684144057180912e-01
-1.826706574209552569e-01 -2.044425505530185830e-02 -9.331711743154758043e-01
-6.873205713498545810e-01 2.734014513929743373e-01 -2.071631341447596475e-01
-1.671811611190273661e-01 4.916684046666729424e-01 -3.933312961815284559e-01
-5.491105976389374366e-01 2.363508426056778466e-01 -3.591554894005570264e-01
-6.173835585711122675e-01 4.603584282557886959e-02 -5.091012339623580685e-01
-2.974305576025405018e-01 -1.016066344428253471e-01 -9.276980210004164284e-01
9.024769140867448802e-02 6.918409213095996213e-01 -3.860747114062479945e-01
-8.240432680803289056e-01 4.588075494025287138e-01 1.036487086017458814e-01
-3.916002925363966103e-01 4.625117441182069467e-02 -6.918796834459886025e-01
-1.506207126008831665e-01 3.753150080792657106e-01 -5.322601831373688919e-01
7.464602136795063514e-02 6.775623551528834332e-01 -3.888303399336382471e-01
-8.276382424240311675e-01 3.351051898673914620e-01 -2.687004005912881077e-02
-7.324169290757613915e-01 5.166850322739889867e-01 9.181020980736091797e-02
4.082886050174100445e-02 4.408880382535714237e-01 -6.167104565945701333e-01
-4.852728882181426839e-01 1.305228183909662998e-01 -5.250521085890882400e-01
-5.085897077904226737e-01 6.081644868553875982e-01 9.060136614528558133e-03
-6.824148570839931593e-02 7.305730254725452399e-02 -9.250664844767292339e-01
-1.348638502972927256e-01 1.957518117739731056e-01 -7.387195479677854948e-01
-4.748807995515139657e-01 7.735724057744033932e-02 -5.908230521168857940e-01
-5.086108745793098684e-01 3.642157535176613892e-01 -2.540602525037689574e-01
-4.895521461517940431e-02 4.998193528242662054e-01 -4.803683376215859835e-01
-4.936124960743288326e-01 5.356019137292021837e-01 -8.135006838375971605e-02
1.446363721252273971e-01 6.407335351620515596e-01 -4.852874130075231496e-01
1.872427605460056377e-01 3.362509390509357265e-01 -8.482553701992935347e-01
-4.988627228282172532e-01 3.828324880459199053e-01 -2.418805952411341720e-01
1.314611282676677595e-01 5.426327749184579607e-01 -5.804253847581553050e-01
-2.112119609089528269e-02 2.001103329438990996e-01 -8.262133515527960714e-01
4.570169853323739761e-02 5.111850789793883632e-01 -5.448336307640064824e-01
-6.458710544501863327e-01 2.581813270759011902e-01 -2.571777513803861215e-01
-8.659570191251473315e-01 3.004513784279708166e-01 -3.319005305630213370e-02
-4.975090829901432365e-01 4.579405504511565583e-01 -1.619617978923829915e-01
-1.458978188214240246e-01 6.328865779948416037e-01 -2.582564243742608290e-01
-1.907254422091599344e-01 8.160288818820652379e-01 -2.437284738597418621e-02
-1.953969866752481299e-01 5.343829713013903415e-01 -3.243862369038312821e-01
-5.535868306505128400e-01 5.850120059813135320e-01 2.055933504321202226e-02
8.506080461707687945e-02 5.445472697513523697e-01 -5.407500849085161709e-01
-2.756043209170130209e-02 3.737970360226717248e-01 -6.336452085742442231e-01
-4.615948750937035050e-01 3.315767028561721896e-01 -3.273759189825917737e-01
1.462117762756281469e-01 3.776523559802560381e-01 -7.703393062663125290e-01
-1.784278268418759139e-01 1.845757990585692176e-01 -7.154634719797713371e-01
-5.922980784794122933e-01 6.327977516857545837e-01 1.034816300863679039e-01
-3.357930510303785976e-01 7.116014264084810081e-01 -1.942858834403495688e-02
-2.219077213404792304e-01 4.915720994551041056e-01 -3.490760560819992087e-01
-2.114787849364106742e-01 3.231742494538263899e-01 -5.391732176590194880e-01
-5.020297902554174962e-01 5.230053527946965097e-01 -8.811474893922972840e-02
-4.695391619994747079e-01 2.185847721067946670e-01 -4.428163894679532642e-01
-6.478880733629343025e-01 6.012387608649842896e-01 1.144992197985693627e-01
1.814522296429564863e-01 5.908473104620250993e-01 -5.689390828645771725e-01
-6.215599932103256231e-01 3.364147148370301710e-01 -1.924961437672975950e-01
-3.477788662292524702e-01 -1.918526766100242184e-02 -7.979831670778705366e-01
-1.471498178359483822e-01 1.421251215091970665e-01 -7.866059660432036527e-01
-1.953378452779759300e-01 8.158362417997983007e-01 -2.084201432747053231e-02
-2.633225173788855678e-01 2.662831039193342408e-01 -5.585169574803404702e-01
-8.206835993196014145e-03 7.530081603586445960e-01 -2.402928764607580869e-01
-4.442419072761102372e-01 8.175433474380907617e-01 1.827508652143252088e-01
-1.965216111072919380e-01 8.082725781479881411e-01 -2.804111736279247397e-02
-4.315583229089895445e-01 -4.585577034737241264e-02 -7.588433351316860032e-01
-1.110939449927325906e-01 7.957226573039467565e-01 -1.108223914935568405e-01
-5.311266722050943523e-01 1.050136626833849257e-01 -5.154005845398703656e-01
-3.779730349839839354e-01 6.701878914769539008e-01 -2.991030196481103340e-02
-3.221679714831039987e-01 2.898412547041092635e-01 -4.854080131384439500e-01
-3.715422519508119747e-01 6.880397031092674309e-01 -1.586681186255780793e-02
9.345308389198087040e-02 2.411759212588180934e-01 -8.747868213605515253e-01
-1.983991613813180510e-01 3.520708906225865631e-01 -5.186053998492428097e-01
-7.069209076830598182e-01 4.275593055141076460e-01 -2.499211194711887032e-02
3.362976200326798226e-01 5.227651739381404816e-01 -7.678878722374106180e-01
-7.466606786850149557e-01 1.220320292861345884e-01 -3.223404802424331139e-01
-5.998501322878617703e-01 3.399942316604777637e-01 -2.062321939878571375e-01
-1.461464965508077196e-01 6.878924831667466711e-01 -1.987222305524460331e-01
-1.768867469059172415e-02 1.658870846431326485e-01 -8.659108352923323704e-01
-5.653628077838266375e-01 8.100522594679093746e-02 -5.135470887543774898e-01
-6.159397076018103823e-01 3.198560494441375357e-01 -2.149128751575315743e-01
-9.578255575837260616e-02 6.546830575843852751e-01 -2.753668420438313280e-01
3.729622303968439800e-02 2.304822043524295816e-01 -8.408032334714830025e-01
-7.942860083808823690e-01 1.943450166485267971e-01 -2.057362586083770206e-01
-2.009231871988580165e-01 4.911135564533760101e-01 -3.665798763469529375e-01
-2.220038162521915936e-01 3.137709502136371703e-02 -8.453917417532708090e-01
-1.009779185030205972e-01 2.754593741455602651e-01 -6.802088084149676694e-01
-3.747374132453089313e-02 7.538093666297682738e-01 -2.157060865768576363e-01
1.875098107546515902e-01 5.783958066001106957e-01 -5.872800405979419214e-01
-2.254651871017054332e-01 4.147784823138628285e-01 -4.290266610299540706e-01
1.002450216321119636e-01 3.946012456652941980e-01 -7.147984514384870813e-01
2.791435264048209297e-01 5.805341983676968187e-01 -6.592480021366327048e-01
-6.137539188352368891e-01 5.982889184739410560e-01 8.364958984538237163e-02
-4.433038979914903921e-01 2.803401592128340614e-02 -6.696209524888200315e-01
-5.305275123998571818e-01 4.135551234410691501e-01 -1.830751531976793356e-01
-1.171569718518386538e-01 5.413503404249391249e-01 -3.802889892406464134e-01
-1.243993919415518346e-01 5.883059046806832226e-01 -3.237695270387732638e-01
-5.679080770199125272e-01 5.848310433467700520e-01 3.197235700859339669e-02
-3.529212610772410885e-01 2.233018439480840278e-01 -5.322539969456562270e-01
-2.344906511604180621e-01 6.634451766368935077e-01 -1.534843694005377512e-01
-1.615482642500107591e-01 4.949241724638741569e-01 -3.943852290509685665e-01
-5.560672839719860150e-01 1.642647147593936374e-01 -4.312730479627003288e-01
-7.190526185749213095e-02 7.484753616875472471e-01 -1.935508720068787325e-01
-2.654979586699555694e-01 1.569005907696268895e-02 -8.270581271808257195e-01
3.731743368395227384e-02 2.234406131335377188e-01 -8.484159031214574265e-01
-7.676502181953434034e-01 1.932595919686696806e-01 -2.284969485272340117e-01
-4.223372300977699667e-01 6.067589133878655838e-01 -6.236874333627402678e-02
-3.742911839401490415e-01 6.576165580998990512e-01 -4.645484488220649744e-02
-4.373927676354498195e-01 1.208407106497294409e-01 -5.743054786989714167e-01
-2.821933282445090452e-01 4.987451864485469288e-01 -2.924736823761487359e-01
-6.332382538263129357e-01 4.472186830270899471e-01 -6.351050147165544779e-02
-2.046959595599014414e-01 7.257383890803850157e-01 -1.104415859889065904e-01
-3.088054249926098227e-01 8.015468927790051490e-01 5.571684623300392908e-02
-3.380262720328950921e-01 4.587328070855746787e-01 -2.903774935173865646e-01
-8.117864736304543083e-01 2.930877762448982349e-01 -8.504130802386027088e-02
-8.503484960202846443e-02 7.015443116305297711e-01 -2.335311719815654496e-01
-3.540767756758800289e-01 3.927709568077557556e-01 -3.485179658205411202e-01
1.909793246934192723e-01 3.991726733972666974e-01 -7.834129691353488578e-01
-2.583360396605987597e-01 7.350557780951919584e-01 -5.691283451790082881e-02
-2.039618155244524167e-01 -9.206140808769677775e-03 -9.037913334384896080e-01
-1.909176337726507799e-01 8.473167754725381418e-01 9.531909602743629181e-03
5.073737864311198692e-02 4.279357773780337881e-01 -6.387129731892123852e-01
-2.028803745645186840e-01 5.325163098095649916e-01 -3.203339990882834720e-01
-8.139783366374934159e-01 4.228822881608870210e-01 5.673937151120856531e-02
-7.311436441543566200e-01 1.645498169675755074e-01 -2.890557534601785883e-01
-5.175148216602365459e-01 6.430569667212553409e-01 5.393156487250245351e-02
-4.220181414066381809e-01 3.414045565748001221e-01 -3.488543024257917402e-01
-7.721892909322777276e-01 5.160037634800165307e-01 1.233132094731857475e-01
-5.317744241743031786e-02 5.320183558465436668e-01 -4.422142208357716653e-01
-2.963094389415551477e-01 3.849859531675234314e-01 -4.037391818225751772e-01
-5.684240681254104643e-01 6.302416128011119056e-01 8.137312699594019538e-02
-8.900927731977012480e-02 2.848752078389550912e-01 -6.797536257945561156e-01
-1.858822727915565021e-01 8.808861247411294004e-02 -8.134979934202312135e-01
-1.088196288399277539e-01 8.469047543594996341e-01 -5.745781955823488218e-02
-3.918448473061369453e-01 3.246224142884032160e-01 -3.914137578181339228e-01
-3.221520187971171345e-01 -1.148441853752452668e-01 -9.219386176331245686e-01
-4.005413341057775245e-01 7.326682864414722773e-02 -6.554917552964609762e-01
-5.781912244176626858e-01 6.764165687968949348e-01 1.390970272436067023e-01
-6.398481668416503565e-01 1.029996336277722857e-01 -4.294478203877685751e-01
-2.975042711726928468e-01 5.989418285556533661e-01 -1.719852256531081980e-01
-3.353588173085253824e-03 3.529603885480540049e-01 -6.757419318048579759e-01
-7.551559863953140050e-01 3.970507266089636778e-01 -1.880308122531807249e-02
-2.817610917934594839e-01 7.927148869371063444e-01 2.426908693277553958e-02
-8.126997633089654283e-01 3.840303741829702577e-01 1.379503751829319093e-02
-2.713767812015257519e-01 2.913994179334551959e-01 -5.248965560565193034e-01
-4.974289202934633058e-01 4.092791789027392518e-02 -6.118412880125891906e-01
-3.369891188576924490e-01 6.849812577135848402e-02 -7.121483976139202365e-01
-4.019714317391167788e-03 6.880597928289777787e-01 -3.137439410392120487e-01
-5.475966821190979550e-01 5.720482770903987380e-01 1.720519171692788890e-03
-6.075881632802078158e-01 2.784778995765241905e-01 -2.663152189314289542e-01
-4.542718297051289156e-01 7.923893333058296129e-02 -6.054981384294716440e-01
2.169596703160270312e-01 3.648074823958193380e-01 -8.415399085754524666e-01
-8.641448679841107205e-01 3.728556813185914809e-01 4.344065862557103946e-02
-3.445988940795034483e-01 8.544136692078567741e-01 1.417548092214115651e-01
-5.343504264107927781e-01 4.778876299020663465e-01 -1.105836047264564526e-01
-2.851001657071028372e-01 2.875372302587043682e-01 -5.179389238305588394e-01
-4.935244279900496966e-01 6.405847534954742795e-01 3.181925339070451608e-02
-2.490491329557497080e-01 7.723890448466418368e-01 -2.417055109420550643e-02
8.088113468939783779e-02 2.448392349373645638e-01 -8.606450444059783322e-01
-1.424128697583751657e-01 6.063614438793557548e-01 -2.896927621369791983e-01
-1.659547726614784072e-02 1.635319728558538022e-01 -8.693372995979684603e-01
-7.535621314813982785e-01 4.809953196773719131e-01 7.045261268181962633e-02
-6.039085968470411236e-01 4.346417602483422238e-01 -1.008501402576450073e-01
2.668572131245985357e-01 4.202682381210072204e-01 -8.221615698391627758e-01
1.132546606175645065e-01 5.692648348347056908e-01 -5.369410471643271121e-01
-2.265458801240575470e-01 2.843334556016399728e-01 -5.688564237158756365e-01
-7.010815104814274168e-01 5.776883747022194537e-01 1.322128125129707343e-01
-3.004601189767395208e-01 8.859195833125591557e-01 1.399618601460755063e-01
-6.859637156809261782e-01 1.292231972069540491e-01 -3.637821467031328582e-01
-8.600850752034051583e-01 3.399228720301146756e-01 4.626678170350444208e-03
-4.346039841465292319e-01 4.516254512906083818e-01 -2.197619485965016384e-01
-4.628759787274516202e-01 2.339880807622544412e-01 -4.316023738005751453e-01
-7.787708175303286184e-01 3.094170297604608155e-01 -9.418875450233743507e-02
1.599470171072021885e-01 5.269669889856517520e-01 -6.204129301234505567e-01
2.289579683217431161e-01 6.306624604836101877e-01 -5.644983216878673993e-01
-2.064910513773294820e-01 4.108762858874320245e-01 -4.486154626805051171e-01
-5.327744685542006309e-01 2.195556448506832403e-01 -3.905131848456060428e-01
-4.719449492751797148e-01 7.097750879908342192e-01 8.896059791598129318e-02
5.557713305213931448e-02 3.696985147379123204e-01 -7.054540402329250171e-01
-4.594382770939451910e-01 7.301050344971612427e-01 1.007522827428370543e-01
-2.709429194781199923e-01 8.863667837513794848e-03 -8.300080134605433146e-01
-9.188880402600625441e-01 3.473953093659130076e-01 6.035017978687967632e-02
-3.222075227537582465e-01 3.181886553821453023e-01 -4.547987698924880751e-01
-1.955475708826482917e-01 4.046646662424020768e-02 -8.570317623176153532e-01
2.260052766927198586e-01 5.390930858100325684e-01 -6.608771387440676159e-01
-8.210119579867504180e-01 2.276792174243742473e-01 -1.481170500433801052e-01
-3.730986091702093166e-01 -2.858650719348556756e-03 -7.598491591662989153e-01
-9.339183436408252104e-02 5.203054084482764408e-01 -4.222523512247047250e-01
-4.523066447303881188e-01 1.513675086957753102e-01 -5.292888857724254992e-01
-1.892036815109910952e-01 3.727875250883661562e-01 -5.037126928803054016e-01
-2.519919177970078583e-01 6.825367380957735042e-02 -7.813073470596493264e-01
-6.094700452946333336e-01 6.169402744613365908e-01 1.002957132108403815e-01
-3.935112799449724252e-01 -1.992080368782252545e-02 -7.617077279889177266e-01
-4.806581082544330585e-01 3.710173804352228655e-01 -2.693809888553286847e-01
-1.044432179602597724e-02 2.244920765662596629e-01 -8.085679988460323653e-01
-2.709575428513914530e-01 2.929987080045586834e-01 -5.235112846347683702e-01
-6.446400387817141642e-01 3.690738839259793957e-01 -1.385602856490636692e-01
-1.783785015314111599e-01 6.397475521538671384e-01 -2.245282530554088829e-01
-6.135985495097187048e-01 3.418064192778133559e-01 -1.931335541367349695e-01
-6.927629118209479575e-01 1.037344658537849851e-01 -3.857646498797104861e-01
-1.199702366068973736e-01 8.114103558319759602e-01 -8.670595068175646070e-02
-5.890444586960846829e-01 3.014038775119210478e-01 -2.566166734810318983e-01
-1.920869363563655341e-01 8.384895622631513001e-01 9.581438920633124920e-04
-5.019622946478617953e-01 5.287252026970280794e-02 -5.952825641415891988e-01
-6.307136504619989537e-02 6.751704774438996859e-01 -2.797822568895050321e-01
-2.103439703842160391e-01 1.059271616708517688e-01 -7.744286224783281103e-01
-6.207453303504816278e-01 7.383569260692970926e-02 -4.763897549055077785e-01
-4.268139938774515030e-01 3.658873302966469954e-01 -3.185584105888448203e-01
-2.989426851133591412e-01 5.647303280995833452e-01 -2.077218556866100851e-01
1.923057332554503063e-01 3.758550063314300416e-01 -8.096399180407269913e-01
-7.969071959713541764e-01 2.170845505419382038e-01 -1.790834232277481453e-01
-1.941812439456902517e-01 4.328019383569513545e-01 -4.349429843852481437e-01
-6.540559655922133508e-01 2.664847366295855502e-01 -2.415868466712415286e-01
1.695051513017092060e-01 4.077955407546525191e-01 -7.567057436430252304e-01
-4.865178337299136402e-01 4.013571152124340569e-01 -2.319050999555937465e-01
-1.336896593043967185e-01 5.682781197317501309e-01 -3.378423692569363368e-01
-4.663400132251900865e-01 2.424288863614020573e-01 -4.196898159005437723e-01
-6.692687125260514680e-01 2.087750727661669414e-01 -2.915050736261294295e-01
-8.275934919271327184e-01 1.596978644007981674e-01 -2.161110387193131699e-01
-2.017909378100639917e-01 9.092036979996154233e-01 8.510026543926536846e-02
7.826504956897040177e-02 3.125145182989451098e-01 -7.855259852126649234e-01
-4.872539684113400549e-01 5.265770152806698023e-01 -9.623882167238949348e-02
-7.423854152559739017e-01 3.507441205449046140e-01 -7.910343277103445980e-02
-6.714629293347472716e-01 6.048242661898991512e-01 1.374755761150342481e-01
-6.866095717884806993e-01 4.424451554379268958e-01 -2.539889450385227065e-02
-4.722264866160391650e-01 5.737638246957971200e-01 -5.752100012539382301e-02
-4.049748873895663848e-01 -2.346596587862266256e-02 -7.562398165481567514e-01
-3.098626349178681405e-01 8.628233624076151465e-01 1.226702053733750158e-01
1.783692574658838625e-01 4.362587449160245101e-01 -7.331885299584859350e-01
-2.659424179900804486e-01 5.403675385418219568e-01 -2.607496752005385443e-01
-4.194503741713235812e-01 8.474398870988610888e-01 1.949040359002782441e-01
-7.511105412775642698e-01 4.573806624252702568e-01 4.299328617096297850e-02
-7.995734505870589759e-01 3.597049508746783530e-01 -2.308345861170870220e-02
-3.525615458543305825e-01 6.874973849102589130e-01 -3.183677562117200044e-02
-4.569300243137289219e-01 -5.786905339308109908e-02 -7.512363057136782762e-01
-5.139927645978062953e-01 6.777678783861411649e-01 8.851797315813458855e-02
-4.918259403514176342e-01 7.170949986952764865e-01 1.129710085329909686e-01
-1.037040573510484842e-01 5.116772029429319385e-02 -9.199333676861392028e-01
5.734887087522563560e-04 5.592502683572061484e-01 -4.564085832121203556e-01
-8.281475506295262745e-01 2.317171209278178212e-01 -1.379777075217615001e-01
-1.282356709553119922e-01 6.444777086173800740e-01 -2.600697623140735826e-01
-3.867899795242139144e-02 5.989860992687221497e-01 -3.817306966846786276e-01
-8.865478901990496430e-02 4.244178528360139646e-01 -5.295220014601134118e-01
4.818412191865484306e-02 6.701706207710972363e-01 -3.753545643921919472e-01
-3.541145317713979557e-01 4.885240645201012200e-01 -2.452023915038623048e-01
-8.739530093502860808e-01 3.804404107472771912e-01 5.957207670706603231e-02
-3.295900387322096003e-01 7.847673096702217910e-01 5.446455580715277300e-02
5.349561412358258550e-02 2.676813731310273003e-01 -8.138085743396601401e-01
7.201657550426490174e-03 4.785778188311927139e-01 -5.487991869348167739e-01
-3.838320102114670118e-01 1.836359119099524040e-01 -5.499850253518129284e-01
-6.365757185698629472e-01 1.239399941690230017e-01 -4.095128210709536587e-01
5.231870097730683539e-02 7.103729219939837192e-01 -3.353413036085021171e-01
-8.988759622049917464e-02 5.833570915310923866e-01 -3.570814657647092272e-01
2.839705400982685535e-01 5.292553577180916236e-01 -7.184729761630885836e-01
-6.254337863206104187e-01 4.861483878583219842e-01 -2.784460059026425821e-02
-5.567251886583877152e-01 6.584306363873538848e-01 1.022968415063128383e-01
-1.265406451838512469e-01 3.812771768078216383e-01 -5.453473567967171975e-01
-6.947052064118530712e-01 5.829388027738487965e-01 1.327078627071727746e-01
-1.666014631908148136e-01 3.503799168029960165e-01 -5.462033032948271360e-01
-1.663850222625047615e-01 1.621050287964941605e-01 -7.494631819677075590e-01
-2.769937398925299554e-01 6.205988444844353635e-01 -1.652496873556068557e-01
-7.644747690256105122e-01 3.374213541804015337e-01 -7.556942688180641465e-02
-1.450201964209403283e-01 3.213697269571058057e-01 -5.949883073257720145e-01
-6.813935225457005140e-01 5.641276016423851791e-01 1.016270787716081897e-01
-1.152392359206663025e-02 6.145853427277893077e-01 -3.869152263822194238e-01
-3.328386160308738351e-01 -1.215671956344980681e-01 -9.205283340821249771e-01
1.869176729023687422e-01 6.503000794084727865e-01 -5.092398722387453391e-01
-5.058846428742207468e-01 3.134608636083605071e-01 -3.110172539316941598e-01
-1.390950825287853854e-02 6.716226836778089737e-01 -3.234577159463957186e-01
-6.850078730644093561e-02 2.236794718920941394e-01 -7.623863161592163706e-01
-5.787112885017056119e-01 3.194597910242825689e-01 -2.455161430891773522e-01
-1.591167784953733677e-01 8.711378900471815623e-01 9.450296062425556434e-03
7.460442614204161604e-02 4.455394943802903907e-01 -6.390702184075290893e-01
-6.267645601457315641e-01 2.942416720448930434e-01 -2.337678744892939531e-01
-2.172696265326415632e-01 9.158089008183711854e-01 1.047714228445497525e-01
-4.037608109218437380e-01 2.317431997143054589e-01 -4.819401825544314955e-01
3.975177006545361214e-01 -3.290213411891316775e-01 3.867778384494598432e-01
6.824707208924656321e-01 -1.746625306484512752e-01 3.223070783192716338e-01
2.383600203946267537e-01 -2.279913012077456336e-01 6.247615535978928714e-01
9.322954373095332370e-01 -3.480867786015374721e-01 -6.725632191061385601e-02
-7.886380378554846970e-02 -5.128255961968587462e-01 5.746511310058848299e-01
4.918550723342349773e-01 2.343223178554945663e-02 6.904890973022259626e-01
4.488891934940775208e-01 -7.973535640970148552e-01 -1.600326630702285091e-01
8.449764734017124745e-02 -2.654030293392360962e-01 7.091216212833211241e-01
8.669122172941171600e-01 -2.870153209187434329e-01 5.161594287040980472e-02
1.976982115181990518e-01 -7.403435730035464735e-01 1.050668669539450428e-01
2.466092193596667800e-02 -2.636940755671180470e-01 7.594662123485027561e-01
-3.022897912738601311e-01 -4.588024905226539829e-01 8.140236559745516187e-01
-1.785354683291855843e-02 -6.150004868365602784e-01 4.149868157678985314e-01
3.906284890257056830e-01 -2.990216810319843432e-01 4.247213622739059447e-01
3.719524866819168274e-01 -1.157176583675947612e-01 6.375819398946677152e-01
6.775893577474436658e-01 -3.219937477526092495e-01 1.673435393718500086e-01
8.052950702325616383e-01 -4.679858869611533412e-01 -9.364527387182638996e-02
4.091586089204678478e-01 -5.003489016127533884e-02 6.782734950268930474e-01
7.185035370642347541e-01 -5.237524092982039914e-01 -8.344866475206720591e-02
-3.909525005174810386e-02 -4.355654119844873384e-01 6.257537698520618807e-01
8.565101262441404684e-01 -3.314074012574869665e-01 1.216352822153038069e-02
1.557785002970032973e-01 -4.076957887054210028e-01 4.978588709941340618e-01
4.494170814066053565e-01 -1.607036124850050596e-01 5.262677813120909542e-01
5.709103774144038690e-01 -6.881204340171540590e-01 -1.411127436743631336e-01
-2.498975735336926018e-01 -4.783902505024023033e-01 7.504281407549577843e-01
-1.767469421640271432e-01 -3.126047623270154507e-01 8.699612609211798686e-01
8.286179969538195467e-01 -2.301721835712492725e-01 1.439700512603971916e-01
2.578473480730241185e-01 -7.383086404727341456e-01 5.850742554741983348e-02
1.326765348936591593e-01 -2.521463503906050674e-01 6.843692161842581667e-01
3.238155469136098086e-01 -8.418039434898438866e-01 -1.065998704003217890e-01
3.372186530396839577e-01 -5.491758493971827804e-01 1.981821041928412963e-01
-1.861711009831509001e-01 -4.290450249383395698e-01 7.520007394361000186e-01
5.144420732843956179e-01 -7.673511494729010618e-01 -1.808047767195705979e-01
6.822350542685411412e-01 -4.404928208582818416e-01 3.575781135392844257e-02
2.315016570277182162e-01 -6.094927830614939035e-01 2.188105795733069625e-01
5.312795627984937541e-01 -7.087068994999742855e-02 5.568124968489048809e-01
5.066374100656465540e-01 -3.199581654413206633e-01 3.081059245676109337e-01
-1.660133768443509961e-01 -5.690836036912391149e-01 5.846078076895924180e-01
2.287382194137952962e-01 -3.013015414753819621e-01 5.534838282865325310e-01
9.631329016009204658e-02 -7.022461106019878274e-01 2.283395330088456854e-01
5.552701614405959607e-02 -5.259472519499753806e-01 4.515656116309889612e-01
5.414537903705387567e-01 -3.963134825777811510e-01 1.975238193691265243e-01
3.594581323097424397e-01 1.246775004587410626e-02 7.859777249907965446e-01
3.319117318458093546e-01 -9.943412791279479523e-02 6.876017247990657832e-01
2.611959215825027658e-01 -7.836519316072210195e-02 7.676472805624237061e-01
8.592205926184528497e-01 -2.927620068399171549e-01 5.165174488805517050e-02
9.056630730542261087e-01 -2.797109919840311543e-01 2.808495920537956020e-02
3.849313804695897456e-01 -2.812578062864435485e-02 7.215435621968372404e-01
4.717315669093904984e-01 -5.244207897537271901e-01 1.158536880510211003e-01
2.304813616753249583e-01 -7.600758070068861505e-01 5.720982496881631824e-02
1.370869790231997731e-01 -7.057261716267416718e-01 1.915362417554266339e-01
-3.585410553943624290e-02 -3.384676385579905022e-01 7.278620369379946720e-01
1.660586520890786899e-01 1.801012122480137242e-02 9.487177958152324120e-01
8.444973143747905656e-03 -5.884305234200998269e-01 4.223302422004390211e-01
4.963839919370052201e-01 -4.016106160401533010e-01 2.283417604497459119e-01
4.658963481977413529e-02 -3.184460510502544750e-01 6.826329686936386532e-01
6.755221218856122256e-01 -2.095000270160311262e-01 2.903615436100362990e-01
2.353408222847523934e-01 -6.037773897852487526e-01 2.218636701432455394e-01
4.542955289247610495e-01 -3.019272210237756160e-01 3.699813655579868854e-01
1.597078296789799789e-01 -8.768165814705780603e-01 -1.134754336635064066e-02
1.107511833139652180e-01 -2.428101814210524567e-02 9.479300505841785629e-01
3.833410291189904284e-01 -2.475365604007729869e-01 4.861631795827117686e-01
-8.619011720722453973e-02 -3.559505455111227623e-01 7.498042592532577766e-01
3.337603737904575318e-01 -3.570874490515609651e-02 7.548412617258076773e-01
3.160314345195231467e-01 4.725556666933246330e-02 8.587018358922247074e-01
5.260935774013908439e-01 -3.804908165395238240e-01 2.270414466761428718e-01
7.420483630421161880e-01 -5.027506048018832718e-01 -7.987935198508559764e-02
9.830912332568654266e-01 -2.796509557961006087e-01 -3.461039507713709051e-02
2.005620802942670311e-01 -7.919200705071300916e-01 4.711206793040723095e-02
4.218169006566305224e-01 -3.860313557493176284e-01 3.055875198616471722e-01
1.749397208630345743e-02 -1.137419247777888970e-01 9.270227172971013951e-01
-1.597946287684185937e-02 -2.844841970530609387e-01 7.699821970666754778e-01
3.791012919397628855e-01 -6.064062440288064959e-01 1.025016512480675657e-01
8.422916661351497192e-01 -3.665482556526462599e-01 -1.421657312108648950e-02
-1.717776876171897256e-03 -3.292106157959004409e-01 7.101776921452862545e-01
1.348253717699182119e-01 -8.538460541948170723e-01 3.359853412959679791e-02
-2.148927572517269069e-01 -5.769180058735956518e-01 6.157767924939278048e-01
4.148522610687065959e-01 -4.100553318309848594e-01 2.853190901575525240e-01
2.898137639986387293e-01 -9.427043300600028708e-01 -1.878765405937920796e-01
3.829806505066149502e-01 -5.899028493454061550e-02 6.898324628602220399e-01
3.916157348992866383e-01 -6.300258579208208864e-01 6.688043964667002295e-02
2.870372897816934055e-01 -5.567274900976981744e-01 2.307114265381193796e-01
-8.154312007490031877e-02 -5.193003462203982235e-01 5.698388269623765323e-01
2.978886781682214546e-01 -9.401159889850141393e-01 -1.916297991948628099e-01
2.921707685850858938e-01 -3.193571218762983888e-01 4.825921697038224045e-01
4.856766307400720017e-01 -1.825297271917066255e-01 4.733343280659643160e-01
4.832177312487622722e-01 -7.664706060270993770e-01 -1.545457905996226455e-01
6.728503772635338054e-01 -3.742785078439637703e-01 1.147873263226345114e-01
-3.164533415539469985e-01 -5.281702089605810890e-01 7.506799251024700581e-01
5.001841411739901266e-01 -5.158644184751439710e-01 1.020205988939654890e-01
6.446889282455726677e-01 -4.987129318327757077e-01 3.391513335594648505e-03
1.125951718125328821e-01 -4.540724681159605258e-01 4.828368861183767180e-01
-5.284718592258457436e-03 -4.466609039343554244e-01 5.863800757224996163e-01
4.158638375046450064e-01 -3.937764221847839807e-01 3.020585431919646791e-01
8.469164901902117570e-01 -2.814224937223849254e-01 7.385641931924909198e-02
2.283060683767714760e-01 -1.887429027873885057e-01 6.752465237114133600e-01
3.633054125013678859e-01 -4.579034563753583420e-01 2.754890461654402878e-01
3.384444409836565582e-01 -8.136785614548375234e-01 -8.811975392716009381e-02
4.151329959985536333e-01 -5.809646051711175874e-01 1.007386774458285117e-01
-1.233604772960268936e-01 -3.242657505802486462e-01 8.141101347430226287e-01
3.286257669621624466e-01 -9.207305280865591968e-01 -1.956337256080971920e-01
-1.236858812951336095e-01 -4.019695899865753375e-01 7.305579325563152926e-01
5.716697394251342157e-01 -2.258333358990247397e-01 3.569219808068516686e-01
6.505990921090096801e-01 -3.433557983880405895e-01 1.661783768416545959e-01
1.089909141757790592e-02 -1.213682163262304603e-01 9.241420893889497057e-01
1.137015264257329600e-01 -7.080858064470942903e-01 2.079462952859310876e-01
4.781747658313884042e-01 -6.955581561821306824e-01 -7.396780167286233498e-02
7.623278045937919023e-01 -2.348145157104599978e-01 1.926946867849886336e-01
1.302410084454655448e-01 -5.503620168378330346e-01 3.646702818962195836e-01
1.884532188798668517e-01 -6.907478925192220842e-01 1.660573185598406276e-01
-1.613207053742743979e-01 -5.979773240180207283e-01 5.496376420237093496e-01
-1.027057661002376693e-01 -6.028021252755814130e-01 4.969224434675380553e-01
3.111669623048254341e-01 1.530969420647775303e-01 9.768115524637146496e-01
1.990028884516410398e-02 -3.191393297941017559e-01 7.035184539379066848e-01
3.239590892379324294e-01 -8.324862474311327531e-01 -9.666560136558194349e-02
6.906955845376614445e-01 -7.747988557819088240e-02 4.204672932516651529e-01
4.104756133443450694e-01 -8.620259326224495311e-01 -1.986556250880441021e-01
8.472195292870470240e-01 -2.714567042819711618e-01 8.436047865677973046e-02
4.479321259758354268e-01 -8.191743368639251566e-01 -1.827940804650048101e-01
5.578354895534083369e-01 -8.083077245273456723e-02 5.245438096477956780e-01
8.427271297250975568e-01 -2.648450209343325423e-01 9.513358784230808995e-02
3.378076132682268917e-01 -1.228065403826460698e-02 7.768316600578160092e-01
2.927806303498382556e-01 -2.039460173187910841e-01 6.065870905535039048e-01
4.281867889166390828e-01 2.347524556653605987e-02 7.421424117250883246e-01
-1.273257679490561456e-01 -3.085823431222737834e-01 8.342412896076144557e-01
-3.486880949169389177e-01 -5.713801971919938438e-01 7.301992517693872697e-01
7.339581027317156892e-01 -2.721932479084316903e-01 1.753710981161782367e-01
4.698379190653492743e-01 -3.904128370797850245e-01 2.619375131678818303e-01
2.121641158564042395e-01 -6.386714017002551591e-01 2.030110172939600388e-01
1.293465821362494994e-01 -2.334166527301928529e-01 7.072713009882640733e-01
-5.716789635136594258e-03 -7.706451627939462368e-01 2.372616927565895095e-01
8.472712067478959108e-01 -2.950100849879427889e-01 5.891252017288906018e-02
2.669656241913301309e-01 -3.831188197519369010e-01 4.342452909425438268e-01
2.942763055324034149e-01 -4.702971112154355482e-01 3.180726987512826343e-01
2.473215571564508775e-01 -5.324415352979424698e-01 2.890996503359321013e-01
8.025776484772295660e-01 -1.638010465218167067e-01 2.366691347964653414e-01
7.943140389148239944e-01 -4.877335672699226188e-01 -1.060455142484112850e-01
4.544899545773669058e-01 -6.037163970185913664e-01 4.429610026252449317e-02
5.579284801040020891e-01 -1.956500260106679712e-01 4.006175908667224395e-01
8.170225847525274254e-01 -1.596794468249351784e-01 2.294064592609044162e-01
-2.949266695023420315e-01 -4.585002133834774618e-01 8.083814633977889352e-01
7.221663817795713758e-01 -5.479169468610587401e-01 -1.124829182905739411e-01
5.207486542353720882e-01 -4.066083227450563164e-01 2.032019352814971036e-01
2.140701021820592131e-01 -8.592750933065423924e-01 -3.649009955549058909e-02
-2.781528779383337091e-01 -5.635679497436516527e-01 6.814530305146961897e-01
1.850728328785805343e-01 -1.613722101566458234e-01 7.398132729111434047e-01
4.181076214006097802e-02 -6.041883722692937830e-01 3.782879440234213075e-01
3.827966904367677836e-01 -5.551956945853848691e-01 1.547450421484713456e-01
-2.844659498447714707e-01 -5.746787515246266631e-01 6.745853808752910741e-01
-1.906022219690936548e-02 -7.108796528952836535e-01 3.125439529089963364e-01
4.639366150404199418e-01 -3.572452635566912837e-01 3.024973782315282800e-01
4.603986551166164842e-01 -2.235767084033299656e-01 4.495479214856490935e-01
4.234037023607511441e-01 8.147620052747525654e-02 8.085826506625549692e-01
6.615097882815235142e-01 -2.219187867576754292e-01 2.883237610074423918e-01
2.736123938598898353e-01 8.192741070825194927e-02 9.304840860718214257e-01
4.744565648059593799e-01 -8.277348088695042627e-02 5.900318495417732345e-01
4.123152224480643169e-02 -5.098634756948456914e-01 4.805018699661033899e-01
5.589481998967135157e-01 -4.080865810079502554e-01 1.706444026277173787e-01
9.303025192583591618e-01 -2.919017940554514134e-01 -5.036493113101893696e-03
2.980613213362333647e-01 -5.803497179934927752e-01 1.962954620951760654e-01
6.359898913365534534e-02 -7.185006119115235901e-01 2.373233454942442200e-01
-4.656185115533182511e-02 -3.345360385039837237e-01 7.407821559653229304e-01
5.474821477052574936e-01 -5.800365028266758483e-01 -5.537047969277095021e-03
7.523755902026763032e-01 -3.859409900162252272e-01 3.774758420771863465e-02
4.871830153576460209e-01 -7.814057847179344263e-01 -1.738698563148459442e-01
-1.737335484243711092e-01 -6.461718261293357690e-01 5.077135438092581499e-01
1.450982311452384266e-01 -6.465749345334291798e-01 2.488466733045738288e-01
1.814911201582591546e-02 -3.565510826293044611e-01 6.645833550847636273e-01
4.897063750071256050e-01 -9.235568890691843447e-02 5.673350376883175006e-01
2.520513220711010915e-01 -7.843832439911510024e-01 1.350665307357714652e-02
4.528361239566888741e-01 -7.779317545989072880e-01 -1.422823706009408162e-01
3.250042760993602231e-01 -8.827694572662910799e-01 -1.517512342628584143e-01
6.304559552755167884e-01 -5.804025098227683088e-01 -7.318703352452200772e-02
4.520541745264932132e-01 -8.461240162353510230e-02 6.062067458373590068e-01
2.927603290146219561e-01 -7.219761863517729084e-02 7.487151685908473020e-01
5.580771507426450784e-01 -5.494329548138209285e-01 1.888587280350315437e-02
-1.065002078797027962e-01 -6.391402083053813188e-01 4.608016557726475337e-01
7.122502368634701098e-01 -5.141966864542756310e-01 -6.807262593941573736e-02
2.128725793054906945e-01 -1.972792765935224291e-01 6.785484431596919830e-01
4.288303359324882047e-01 -5.093934597517824070e-01 1.668370462245469810e-01
-1.383727081178051099e-01 -3.196230483417972779e-01 8.312863310635353331e-01
6.885059663089382331e-01 -4.275618382782847005e-01 4.462298883184707271e-02
5.505611392149735162e-01 -4.943096273054657375e-01 8.443733007410107738e-02
4.323490195353604792e-01 -3.998256340914193019e-01 2.821712880210672236e-01
-3.151541163372845178e-02 -5.018384801566082576e-01 5.481238067359428534e-01
-6.261750820779692084e-02 -5.077966027925487902e-01 5.669071155648723881e-01
8.957209700941836106e-01 -2.979764793438640647e-01 1.644138688316418989e-02
-1.851077850766649421e-02 -2.037878062760515585e-01 8.590778828997096550e-01
1.333037010831623348e-01 -1.618015378068404786e-01 7.813121242720920678e-01
6.369088685914288117e-01 -6.232622083275515257e-01 -1.246485104107754593e-01
-2.329742122854925601e-01 -5.935773102648129740e-01 6.124631714712658326e-01
-2.075352073099687999e-01 -4.983993069887268090e-01 6.945079792866890589e-01
5.031669285365036881e-01 1.755025623542898552e-02 6.749755203636852441e-01
2.617856472220436020e-02 -6.232969070098245412e-01 3.703471696857167372e-01
6.891536547621782138e-02 -1.483498848764167599e-01 8.480124356767616556e-01
2.509611842856542263e-01 -7.858650756684755212e-01 1.279188298443780479e-02
3.532167125673420505e-01 -5.086798609086420342e-01 2.288960994013407024e-01
7.367825296684886727e-01 -5.357812591274805358e-01 -1.112399011791546100e-01
2.801669643223359540e-01 -8.802101493515692709e-01 -1.126473146092409339e-01
7.619573134991952656e-02 -2.210006018149943408e-01 7.637459032773040724e-01
-1.068659272816186757e-02 -3.871604205580512770e-01 6.549393587920152582e-01
3.645310707805629047e-01 -2.275327518945809979e-01 5.229870577699271550e-01
-1.361902258336599170e-01 -6.657845661202133059e-01 4.561269932561692886e-01
6.558472256434413339e-01 -2.098739203051893376e-01 3.059059096723267257e-01
1.346575808731693413e-01 -1.549678175363544130e-01 7.875859797146552710e-01
8.484924343362016952e-01 -3.261445337144500689e-01 2.433918321151509051e-02
2.014000825632054903e-01 -5.096883872104849278e-01 3.508646197364798103e-01
7.958721459859197100e-01 -4.173540399680665813e-01 -3.139292761213274136e-02
4.064715981666519595e-01 -2.172806312156762287e-01 5.000503188968065116e-01
1.311423720065198473e-01 -4.584000492499076818e-01 4.631352958896958194e-01
4.972350092995490023e-01 -6.910636184070525490e-01 -8.456918413915918975e-02
-4.720480538463029535e-02 -2.562724423102045179e-01 8.257230566986895060e-01
7.231173842794343110e-02 -6.517502054293190517e-01 3.022620859984741504e-01
3.346968377659623739e-01 -1.429009068946982264e-01 6.384583902482223738e-01
4.695784535158271655e-01 -5.890274520313332207e-01 4.791034328491881877e-02
8.596631828007289533e-01 -2.236739668575877804e-01 1.258154493957571451e-01
4.315361055864539441e-01 -7.863533989103688171e-01 -1.341015274322625850e-01
9.740209796672982812e-01 -2.863879183227100444e-01 -3.452530358904697116e-02
7.013278632795405532e-01 -2.010371856446808159e-01 2.785729824724744730e-01
2.098612373924073349e-01 -1.914404008685375025e-01 6.872874712876199110e-01
7.967982237931654499e-01 -3.050511558500224041e-01 8.899297081438391210e-02
3.213464981130699782e-01 -8.487968819977938228e-02 7.118647532492934360e-01
-8.547454970056536303e-03 -1.451823557188745284e-01 9.142173272012644736e-01
3.269948698422642241e-01 1.011782294886494210e-01 9.079794982322215713e-01
3.369520045862530178e-01 -9.439120954357023419e-02 6.889558753196276530e-01
-1.815286869364850508e-01 -3.688564237105145804e-01 8.131607762798019889e-01
3.802981746102209182e-01 -1.290424095474319854e-02 7.417179039868306845e-01
1.900104244517808461e-01 -3.059265408214688065e-01 5.798862033241638514e-01
-2.401303840650391153e-01 -5.089506855504246641e-01 7.095469603225255106e-01
3.451292446719937956e-01 -4.250809509976153505e-02 7.382919364085190894e-01
1.384639743795556266e-01 -7.088184879503349745e-01 1.870845499488686947e-01
4.683914151638981505e-01 -8.149453739665961649e-01 -1.948159371918830596e-01
4.684553650504316158e-01 -4.866954351300565446e-02 6.316827034999398238e-01
-2.421420152971378026e-01 -3.890702968388640159e-01 8.404875910967962716e-01
5.277541632702517083e-01 -4.317919146463877755e-01 1.703590418587887234e-01
6.388754483327676592e-01 -1.861831584017959451e-01 3.452167994005368445e-01
6.197611807552566576e-01 -2.683750517577068173e-01 2.720530040333251076e-01
2.458452334787488980e-01 -6.539370846520795588e-01 1.592440058507524070e-01
4.753417372405395469e-02 -1.715899411268969332e-01 8.402750582839703108e-01
1.562361561048932201e-01 -1.272039246225246667e-01 8.000430441444231766e-01
2.099495263156773150e-01 -2.174617871020678161e-01 6.591477001704094674e-01
4.090192550052351717e-01 -2.734249524751910521e-01 4.374247032619978937e-01
-2.636171038522337473e-01 -4.985323859066931873e-01 7.398221335057308945e-01
3.565783544798224458e-01 -4.743288274645194452e-02 7.236995868280758915e-01
-5.168146702868953168e-02 -2.974346494432554833e-01 7.849516627819302927e-01
2.715641218454676320e-01 -3.215664926207760788e-01 4.969119201200084546e-01
3.782565736139706369e-02 -6.118529349660621897e-01 3.732506565534332577e-01
9.160372533764644665e-01 -2.881024653185211837e-01 1.062453126417261390e-02
2.072936898662264271e-01 -8.659229518266240433e-01 -3.816818951493629319e-02
2.766400173046861255e-01 -8.936799080511870219e-01 -1.243177941871634606e-01
2.217283404096718341e-03 -3.946704169862562672e-01 6.363792756427648634e-01
2.102182182995786242e-01 1.689709469787181555e-03 8.953196878236423517e-01
-3.657217666862561806e-02 -5.397240061852736082e-01 5.113570432247105391e-01
1.700251221896520726e-01 -2.209407773419355681e-01 6.877561511244120185e-01
2.008377026089707973e-01 -3.016179276736660753e-01 5.757575778850343440e-01
9.971585943498643967e-02 -7.243308899451507410e-02 9.049351603063796601e-01
3.449387560771268180e-01 -3.412935930461465928e-01 4.161586118908774390e-01
4.700686278410956542e-01 -2.656982607360936499e-01 3.962750354404926956e-01
4.127794955045349656e-01 -8.130967888910256569e-01 -1.477451869890024361e-01
-1.270878546563609102e-01 -4.861881325648851893e-01 6.424723276548170992e-01
2.418305693240901666e-01 -8.669644671807752445e-01 -6.728581737383158845e-02
2.485073281883488916e-01 -3.767197726378938571e-01 4.561092248964926377e-01
-2.671206897119838275e-01 -4.705137466534803914e-01 7.728845605569363286e-01
-3.062259685108098539e-02 -6.747271106166738974e-01 3.609122152550188201e-01
1.955627185977660276e-01 -2.655532532477848928e-01 6.189347580049219255e-01
5.681733091260201401e-02 -5.355598543958762781e-01 4.401510129521054582e-01
3.495717246635750564e-01 -7.010690397138658048e-01 2.432822002649966467e-02
6.002293423601026134e-01 -2.982132005292319477e-01 2.556995229227726485e-01
3.844313356471445453e-01 -2.479123262796754379e-01 4.848740981980642628e-01
3.404165612948403252e-01 -1.506790324744769483e-01 6.254322685988459307e-01
-2.211563705425552140e-01 -6.209497102337132590e-01 5.733586192068430565e-01
4.462786714093125995e-01 -9.646048596675759965e-03 6.917512799575429305e-01
6.306618842726318119e-01 -5.887653508943232472e-01 -8.237460665924384307e-02
2.258786994218823785e-01 3.443976003540269448e-02 9.179520831178802354e-01
-2.922560642689131516e-01 -4.252686593294082718e-01 8.420623011547097025e-01
6.729855258232430026e-01 -3.019912334918370966e-01 1.926511140795816313e-01
-3.545646530961416021e-02 -2.692898339570772293e-01 8.021590014781203593e-01
5.916067070122532634e-01 -1.658374473550862371e-01 4.054770042160831811e-01
6.563917752041550369e-01 -3.208873725067438731e-01 1.857188382048981234e-01
7.616137818380366298e-01 -1.989056916068787095e-01 2.320068281032389157e-01
-5.290896085924021164e-03 -7.699501872391408819e-01 2.376661225704489733e-01
6.494312826007765382e-01 -4.594296610773209166e-01 4.192081554899912410e-02
1.069415727586771891e-01 -1.096180936395634159e-01 8.589683439622840533e-01
2.417147862075685050e-01 -7.338015940357317524e-01 7.644539020024507248e-02
2.785045874584635150e-01 -8.539746758643429470e-01 -8.300072473661976313e-02
4.433508739994838632e-01 -2.279446549333624672e-02 6.799417724047635003e-01
4.455625870148349765e-01 -4.468068395840170681e-01 2.207841988047684056e-01
5.399336402862018325e-01 -1.547116341099610548e-01 4.593620482030006946e-01
1.006340065015180474e-01 -6.288783856830941765e-01 3.039761079540530542e-01
9.216785575225273641e-01 -2.652145613081385855e-01 3.074016818161770526e-02
5.420716691413388633e-01 -6.093470769274930143e-01 -3.276765489675369930e-02
3.694877321122163605e-01 -8.560233300100660025e-02 6.720639423857712735e-01
9.746211854154004373e-01 -2.589645085360812171e-01 -5.431292601688941617e-03
3.437176571577558737e-01 -2.611107821768501522e-02 7.571229048978377341e-01
2.913684963817401719e-01 -6.951323172715219156e-01 7.790908644011268480e-02
4.120295427565484059e-01 -2.688914523984945945e-02 7.009128037467134975e-01
-7.775037703014785195e-02 -2.639312662540370114e-01 8.422207919730384518e-01
-1.491471695461971392e-01 -3.126430761562482563e-01 8.475486818621267293e-01
-5.831464561041814487e-02 -2.000513853283493182e-01 8.953716011267435215e-01
5.600354499350590487e-01 -6.098423308134920395e-01 -4.786257407186680912e-02
6.929581727987823569e-01 -4.777381651847752431e-01 -1.310894514750194327e-02
6.401311644418961055e-01 -2.483817669526270921e-01 2.771078655989743789e-01
5.936912722087486216e-01 -1.200793497987870939e-01 4.531447335756327854e-01
8.788248482831423347e-02 -4.662048063236931550e-01 4.897813253439033954e-01
8.178006530639825300e-01 -1.746347650868249890e-01 2.126440971162790738e-01
7.575376930151894728e-01 -2.488886009952909761e-01 1.813962145169481788e-01
2.958974110357022735e-01 -7.199346724202463355e-01 4.748484407771619287e-02
-9.028131954940971093e-02 -5.628130538301213681e-01 5.299862730620161777e-01
9.061019563215754191e-01 -2.462315088484535730e-01 6.384217087110685696e-02
3.256067682306674760e-01 -1.892450251281556639e-01 5.958369207626083019e-01
4.499272005236005234e-01 -7.997894063252191099e-01 -1.635014729227416697e-01
4.335096108307669449e-01 -3.742306152398994779e-01 3.088388626021227878e-01
4.758315587747087849e-01 -7.626919005592232015e-01 -1.444829246195779293e-01
4.980351686587294879e-01 2.315292474708226592e-02 6.851784858410107093e-01
-2.805813488528565228e-02 -6.127696739968496731e-01 4.256645259892488098e-01
5.444358475676649434e-01 -2.036695840782170863e-01 4.029037991146415809e-01
-2.974133366231950792e-01 -5.663062439210695409e-01 6.941110875982612338e-01
5.418935020341809627e-01 -4.555447485364825244e-01 1.332770569264974392e-01
1.056180660652881464e-01 -9.092048892227477808e-02 8.802094679646053077e-01
6.543387361797332602e-01 -4.328130106072253236e-01 6.665332852612369796e-02
2.583331161566823075e-01 -6.153792296793478278e-02 7.881186438729322896e-01
-7.545977776682172289e-02 -2.968422299922033325e-01 8.048644116243717228e-01
4.950321166900570335e-02 7.300512497319012750e-01 -1.811788063419713657e-01
1.418628995294172745e-01 5.955291835823521840e-01 -2.326916338814041807e-02
4.323863830367893346e-01 2.140607751662942371e-01 3.156647129421773501e-01
6.273694086137213133e-02 6.349219113154854766e-01 1.285997043176901333e-01
7.857435973550102037e-01 8.599630802712861927e-03 -2.507079368235619610e-01
2.611096748912804522e-01 2.704302894293607040e-01 7.538056282784380002e-01
3.314774201759017047e-01 3.007433142353185263e-01 3.713764035906765293e-01
3.642194445565189453e-01 1.419270059961559860e-01 8.480376978639764252e-01
1.179600983796558755e-01 5.779355765278998414e-01 1.342583642543995759e-01
8.667739499583489160e-02 6.672547753769024759e-01 -8.486761893379574095e-02
4.432369179885440880e-01 2.702936992671849392e-01 6.151561401258296563e-02
9.320877592303187242e-01 -1.805163595739211480e-01 -9.148436543111028441e-02
7.937250618414235515e-01 1.643257389538531387e-03 -2.547353368227536219e-01
7.748701885697165670e-01 4.144842544200812856e-02 -3.336973649540695419e-01
1.565299198263076508e-01 4.347251887917634172e-01 5.296734923084084334e-01
3.785822860514900801e-01 5.341296925337383206e-01 -6.913108950009260179e-01
4.325319149079613901e-01 9.287688828754618597e-02 7.738618213028923831e-01
4.652350723773145402e-01 3.020835079398309642e-01 -1.425074767837688217e-01
7.683144886735464585e-01 -1.084440895870300292e-01 2.586697156410124876e-01
3.053891352305855289e-01 4.748696059797150038e-01 -1.885526275066824464e-01
-1.380563598588688268e-02 7.173800121554630982e-01 1.076142525796504323e-01
4.242037590665986291e-01 2.864161262673541875e-01 7.288457505815210125e-02
3.077059815174178481e-01 4.062926129278253695e-01 6.223751114182433930e-02
4.509855767169715368e-01 4.682997937840912006e-01 -7.175270192375303724e-01
