-1.258071140557359968e-01 3.996098825251647724e-01 -2.230538776758893837e-01
-8.465462658563893683e-01 1.725336115883242538e-01 -4.670278686374740307e-01
2.052146374047438548e-01 4.383719568714042891e-01 -7.206878516395007761e-01
4.228452612576604763e-01 6.146587190527381672e-01 3.552048286532515364e-01
2.069574236242608944e-01 4.890781251787603146e-01 -2.534379229434931546e-01
-4.294620315054717419e-01 3.714467358527168139e-01 3.022353077319244741e-01
-4.732756594220933200e-01 2.633973543601609291e-01 -5.894525945648663168e-01
-5.817762720688873790e-01 2.716856192026899652e-01 -2.310178122860493954e-01
-3.163010281993803852e-01 3.494136977034049685e-01 -1.961639119329281755e-01
-6.243435207968456302e-01 2.202301273799945336e-01 -5.993895198447893868e-01
2.884530682470591856e-01 5.257409918821112083e-01 -1.236301174453456886e-01
-1.449177689071186603e-01 4.509087826461519732e-01 3.037797330918488026e-01
3.358112613435318972e-01 5.493492398913483177e-01 -2.677030081221066712e-02
-3.951618272266873011e-01 3.703506380841093959e-01 2.031034782950110751e-01
1.626889864345092696e-01 5.494312054143661861e-01 4.228647465120040083e-01
-8.674863091608166210e-02 4.746058803976594964e-01 3.734355241190813190e-01
-5.766512598842968851e-01 2.409439703646215625e-01 -5.303253317786833509e-01
-4.775499891771286531e-01 3.455765720364989968e-01 1.862228336360064185e-01
5.312389108799726589e-01 6.243104844216105231e-01 1.639608716578329906e-01
-3.124659176044068953e-01 3.269825179139776439e-01 -4.148066178955669980e-01
4.901307334451534548e-01 6.069944231234150056e-01 1.094382902191583934e-01
-2.854404051308988000e-01 2.986001528061462684e-01 -7.489471786058227165e-01
1.801121035640578238e-01 5.399835431810576791e-01 2.897892272571218064e-01
8.771343064549402824e-02 4.333876714915172457e-01 -4.624036767762703115e-01
7.636148365039145680e-02 4.242877068716081612e-01 -5.176360742564335427e-01
-5.236833698928321928e-02 4.429108844226547492e-01 -1.059517277764897812e-02
6.021596608337243667e-02 5.455720978754107220e-01 6.526523722621643264e-01
-6.312345791235058901e-01 2.689205672298973782e-01 -1.285079844807602567e-01
-2.017559190698056393e-01 4.271562792078744120e-01 2.301574562612633545e-01
2.437426363244304117e-01 4.565493481929288611e-01 -6.514615801972207798e-01
-5.971611267526688582e-02 3.696546003110334211e-01 -6.731180380545590536e-01
-7.060691916559663772e-02 3.708796574326523321e-01 -6.334823976692375291e-01
-5.389894775921045822e-01 3.378211818893803176e-01 2.733675849101143696e-01
1.949577595024873378e-01 5.718926940552504501e-01 5.481790852764480970e-01
-6.993476773590369122e-01 2.090196062561153201e-01 -5.092206506521439469e-01
-5.032040876288165210e-01 3.399865207568082415e-01 2.007292638261395645e-01
-5.313836499101362021e-01 2.702890497159888827e-01 -3.746697361717354902e-01
-3.909279571354060123e-01 3.365976280568722112e-01 -1.219110949446618047e-01
-5.749672414142961152e-01 3.227508816894081867e-01 2.264373295666189945e-01
-2.753615498737002620e-01 4.209628189632179662e-01 3.633788002881310208e-01
-1.325863345352483735e-01 3.655509205632676006e-01 -5.223602129633275748e-01
2.459514812914376236e-01 4.561513940639405629e-01 -6.608912393038072208e-01
1.595115231685653445e-01 4.366011930057399626e-01 -6.186636835858358996e-01
-4.088274438073615236e-01 2.949650818874305358e-01 -4.628491344986234157e-01
2.727689426092517189e-01 5.209795608183869220e-01 -1.272644337515091428e-01
-5.978635087356692912e-01 2.803794122050011772e-01 -1.084199478816525036e-01
7.763425455119235541e-02 4.364247112052734856e-01 -4.080138059382845128e-01
2.290635306787830450e-01 5.004117529704161793e-01 -2.053070406438410045e-01
6.147648246040594566e-01 6.499324224531268790e-01 1.857801218291773582e-01
-6.203525642729628142e-01 2.759459440740008040e-01 -9.135904524533747240e-02
5.820112438498049601e-01 6.467658755245935254e-01 2.412423412422840530e-01
-4.859587990901063637e-01 2.574642301530997712e-01 -6.117692818446062164e-01
-4.106060054744096743e-01 3.440639402451395323e-01 -1.423396975837212418e-03
8.076888229105087802e-02 5.407380941093028470e-01 5.543872286247218950e-01
-7.312757857174582155e-01 2.390361042516422618e-01 -1.471646885056705767e-01
4.623300372652374146e-01 5.621802089848014772e-01 -2.354299768748597255e-01
-2.573642079125691429e-01 4.790825333652231621e-01 8.574592277119715833e-01
-7.590267584502233267e-02 5.064942465779693759e-01 6.420024496862422048e-01
-9.586689148400691363e-02 4.406741084923153084e-01 8.137723798066182068e-02
1.444553438414558910e-01 4.916800443747788019e-01 -6.717399007549627876e-02
-8.168479117301850889e-02 4.189282172723124420e-01 -1.577172993417554347e-01
-1.133468314506153041e-01 4.551521870392709057e-01 2.614029269357688867e-01
-2.694731729588019098e-01 4.502518137369125317e-01 6.206152915167076900e-01
-1.097186746147326836e-01 3.737959599260036736e-01 -5.049400213965030693e-01
-3.900899586161122867e-01 3.623689475254280867e-01 1.156917036358313944e-01
-4.150413887586060779e-01 3.356222845977892555e-01 -6.846421463352804493e-02
-2.844298460013964247e-01 3.975711274217245683e-01 1.692555505369653657e-01
2.787308102110065411e-01 5.302992924967356858e-01 -5.601190105733361985e-02
3.538961212912339893e-01 5.744649252014434326e-01 1.600147349102558902e-01
-7.580670154933696336e-01 2.300214446877049679e-01 -1.615723480518726773e-01
-6.596168517347240912e-02 4.826715063032949171e-01 3.945813462211231193e-01
-9.100824986758575541e-01 1.595624381199418351e-01 -4.229741543320995611e-01
1.135966573967663595e-01 5.176459137020112955e-01 2.544222437933867376e-01
5.619070697292144478e-02 4.556026520575418570e-01 -1.739838773237111225e-01
2.055828077844293611e-01 4.495740090774394404e-01 -6.174188957458496274e-01
5.080704539173619416e-01 6.371608668320406510e-01 3.435917456702559103e-01
6.778304656351874513e-02 5.246887153539309123e-01 4.387340513626459271e-01
-3.564444226198962840e-01 3.993828203544811384e-01 3.728312996793338163e-01
-3.183239921670869554e-01 4.293388523688277947e-01 5.527024288135408137e-01
-1.401527411257236511e-01 3.669413562164416387e-01 -4.898054192129267514e-01
-5.091249067199304229e-03 3.699648816466286072e-01 -8.118628545100514682e-01
3.458653765371755284e-01 5.765015477311675740e-01 1.997855702385948895e-01
-8.209692780993154138e-01 2.132320492759456620e-01 -1.546870152782538199e-01
2.771988886667240415e-01 4.721089595294482577e-01 -5.934409993948752682e-01
-6.414178619495915223e-02 3.604061545607239458e-01 -7.476903816227824517e-01
-1.977401303969130997e-01 4.719103893915819192e-01 6.361361647044909695e-01
3.657496732816491458e-01 5.854137277309531262e-01 2.311480992510380472e-01
-2.544005451007910201e-01 4.168734452550155734e-01 2.709835774657580743e-01
-3.379894844347894889e-01 3.562793124108808995e-01 -7.605248760216168358e-02
1.371537238597510533e-01 3.954570884581962709e-01 -9.434977382992911776e-01
3.862116219924296434e-01 5.502143116279157864e-01 -1.494000485153374191e-01
-1.229609445422825131e-01 4.613347823466088515e-01 3.438531324918874255e-01
-7.748799919984211693e-01 2.334395261575183123e-01 -8.617783947949206325e-02
-6.782376625702090100e-01 2.635981722862011933e-01 -5.615751532154070885e-02
2.649827090173638156e-01 5.693007021645580812e-01 3.425021752998532176e-01
5.129141795144326332e-01 5.864912707475622433e-01 -1.403954623821386805e-01
4.168213858336002886e-01 5.795301698213054520e-01 4.398862315170910808e-02
-2.525430543303771591e-01 4.553209523199267528e-01 6.238818912635888392e-01
2.662955375745370001e-01 4.839867175271153066e-01 -4.546604310221207812e-01
-2.466987593392438727e-01 3.588240788704312179e-01 -2.890751821869666505e-01
1.822696589112385301e-01 4.909923654775048552e-01 -1.716173097826007299e-01
4.088219879050264960e-01 -3.094150362533833465e-01 2.924322204543218229e-01
-7.205854932903988930e-01 -6.842814133168303448e-01 -2.669787612647814834e-01
-6.205915213022588084e-01 -6.409497560852847053e-01 -1.230873041233687404e-01
-3.766880838801050513e-01 -5.878983454472667125e-01 -2.618928594336760174e-01
-7.360264230200404267e-02 -3.700925081515879511e-01 9.787242734133907440e-01
3.104826213685348835e-01 -3.618119254097175719e-01 5.990805283167058987e-02
3.887469074582552975e-01 -2.672132926373126938e-01 7.371267343777648806e-01
-2.339716725901377359e-01 -4.682252796278930651e-01 4.815057326638675361e-01
-1.696916618020768708e-01 -4.378808012154714047e-01 5.971642429324026669e-01
5.280144749112032354e-01 -2.751944985987689885e-01 3.017760789104192987e-01
-1.050340695351916626e-01 -3.898500053805274979e-01 8.763967126670069163e-01
-4.457825659105795202e-01 -5.818773644615128360e-01 -2.672526158381058337e-02
8.111758532443178460e-01 -2.015208459645092265e-01 2.530510128991683705e-01
1.474049772457065033e-01 -4.924134294155185776e-01 -7.323756699478897181e-01
2.170804043648471571e-01 -4.250641909274706642e-01 -2.864152736237898789e-01
-4.474724822722014328e-01 -5.553881372523578053e-01 2.241113210248459886e-01
-5.105576777978719782e-01 -6.188613590870982728e-01 -2.028739260760552554e-01
-2.306501168229343757e-01 -5.448394365109154869e-01 -2.399221826320162565e-01
-3.621614867996898468e-01 -5.914887465072549144e-01 -3.329624863010321456e-01
-1.206598174276516111e-01 -4.303833758949205945e-01 5.397900065505969458e-01
-1.553287817914774660e-01 -5.617293659889606161e-01 -5.923591646673717070e-01
4.195963478950717751e-01 -3.042224368024931680e-01 3.128081831772462906e-01
-1.130441163508328212e-01 -4.183743009486112774e-01 6.317760374716571148e-01
6.484213841280613844e-01 -3.035815971707594985e-01 -2.745283511148866595e-01
-3.373096375438408567e-01 -5.001127193403275273e-01 4.527612488030394733e-01
2.067358860670604204e-01 -3.755231857686818220e-01 2.013340464156894161e-01
4.330088956008240064e-01 -3.597508559140584206e-01 -2.386026571829127640e-01
7.371993125222457977e-01 -2.042731092656476788e-01 4.192508451553288440e-01
7.334122636854877308e-01 -2.284189655369632810e-01 2.044176211526090303e-01
3.719639464426380271e-01 -3.371683478724645244e-01 1.297820048018928085e-01
3.095853890013794962e-01 -3.166073564717672428e-01 4.828163252754543167e-01
-4.083246915340650873e-01 -5.910191865304406100e-01 -2.089014885964366741e-01
7.392974490246559949e-01 -2.381518451596915387e-01 9.860406479373275135e-02
4.116473183144169767e-01 -2.859891516034011039e-01 5.030603997104231562e-01
4.266553372036593905e-01 -2.761210244983321460e-01 5.559602728964152529e-01
2.673635803998150595e-01 -4.071939483806645277e-01 -2.505255966465081419e-01
4.875694092619698439e-01 -3.718479369386218925e-01 -4.926183456309443653e-01
-5.683221076303983377e-02 -4.765344993962193909e-01 -5.509122149479330627e-02
2.068720574769612464e-01 -4.520219883034198860e-01 -5.107615324486414199e-01
4.614104927294166991e-01 -3.666982170989789847e-01 -3.768805190367137126e-01
-3.365783347833399275e-01 -5.955578438072468561e-01 -4.371533883344200788e-01
7.834795790773910196e-02 -4.721093953346250927e-01 -3.644161175980878409e-01
7.623481452749486520e-01 -2.129742259819422390e-01 2.730898820362269719e-01
-1.737617655946045378e-02 -3.808207699232695198e-01 7.331245470586016388e-01
-2.958679349434099048e-01 -5.989196950012634080e-01 -5.739861105413823772e-01
6.029231748906890287e-01 -2.210564587898385669e-01 6.112510275142426508e-01
4.756549785320959844e-03 -5.161246782834403302e-01 -5.831247288026270015e-01
-2.292167449050816763e-01 -4.619418589300978706e-01 5.276378819527037800e-01
-1.359871738944256614e-01 -4.180566794729539959e-01 6.942180711554065686e-01
3.534617506580337021e-01 -3.477414284289878088e-01 7.938298852560193852e-02
4.501990935529996407e-01 -3.365195961878043596e-01 -6.703057447161625548e-02
2.992345483560350794e-01 -4.633327214917604131e-01 -8.554742514242850149e-01
2.297887096762106507e-01 -4.585466720380753647e-01 -6.308854191112135412e-01
8.693242890542772772e-01 -1.710774835174787845e-01 3.855275205055037069e-01
-4.320240719353591330e-01 -6.101528643355852433e-01 -3.254727486096736788e-01
-2.105572282549714735e-01 -5.412835686924147849e-01 -2.589354559901284047e-01
-8.635194608315764631e-02 -3.772064822543280127e-01 9.455925456145549690e-01
-1.655160246842509453e-01 -4.987247044188518053e-01 2.024781715498956414e-02
-6.750166362467149295e-01 -6.696776918067515183e-01 -2.492573821049452187e-01
8.454513414098249746e-02 -4.935692854518972106e-01 -5.801463517800379277e-01
-6.348821181915640377e-01 -6.532993671150211235e-01 -2.009349635858187488e-01
1.600762444782632132e-01 -3.421987506336717777e-01 6.323629594184179137e-01
-6.451272670291191558e-02 -5.224006024935961001e-01 -4.619139517055501076e-01
-4.013025557743796767e-01 -5.738659702613410074e-01 -6.751552494941123750e-02
2.297626919999707085e-01 -4.320504972187702020e-01 -3.842983623524313108e-01
-2.709939431595858039e-01 -5.873068084218656670e-01 -5.304336006901531064e-01
-1.149282241972960222e-01 -4.060278070091155045e-01 7.515325642590593436e-01
4.183525752059060743e-01 -3.058269681649637972e-01 3.011045336579704634e-01
2.264386856957281424e-01 -4.252765426548507088e-01 -3.126551939186293372e-01
1.134890487817332566e-01 -5.065750205098507042e-01 -7.761972623638364599e-01
-1.728419058372304140e-01 -5.487231185587623239e-01 -4.259413074131381816e-01
2.116931728852873007e-01 -3.295151581921552664e-01 6.165380419542546564e-01
1.253682381833873538e-01 -3.466314266500042374e-01 6.811125985501584879e-01
7.387445106091541924e-02 -4.067427253085898475e-01 2.553523103683683071e-01
4.362712440378654910e-01 -3.225482021318087367e-01 9.907105670858556978e-02
1.856129549579222937e-01 -3.588598416634771748e-01 4.111369477608617373e-01
2.110846703367901533e-01 -3.267325575108889213e-01 6.440050023119227030e-01
-4.405243269647400872e-01 -5.716435713367976623e-01 5.485604325321900149e-02
-6.683120798472223789e-02 -4.275493438765960441e-01 4.265906214894367166e-01
-1.167487892615949735e-01 -4.121164229838905069e-01 6.996046396470345652e-01
1.002912895393196085e-01 -3.786583812559594642e-01 4.481544535351967284e-01
4.245924935668003997e-01 -3.149845157156661024e-01 1.997240954092344978e-01
5.679050403917333956e-01 -3.379632136045970792e-01 -3.856506111049153307e-01
-4.549611626079451132e-01 -5.520242107204973436e-01 2.748258843047384770e-01
3.043136342796924354e-01 -4.288957080540358180e-01 -5.482424180215850207e-01
-6.274981547613842636e-01 -6.369477160844411179e-01 -6.794488722811774239e-02
5.605598963526449152e-01 -3.395117568080940895e-01 -3.810136773408786537e-01
4.460472990108879099e-01 -3.730583457019878701e-01 -3.962211823714154035e-01
3.134160635316795562e-01 -2.929685035729681086e-01 6.928192924959710730e-01
-5.205878100730527702e-01 -6.386134134099864523e-01 -3.606402483951901550e-01
-4.542789368087038482e-02 -4.180058133829130385e-01 4.598886985614573097e-01
5.117511955439184579e-01 -3.139318717344653509e-01 -1.646772735060991408e-02
-1.386140541270748094e-01 -4.921119228273956869e-01 1.202134835960235772e-02
3.196221156465899327e-01 -3.747922840530480970e-01 -8.455773991552570368e-02
-1.053503215305190248e-02 -3.634719579186700966e-01 8.767996028653314289e-01
-4.142254777654746367e-01 -5.464116104131682139e-01 2.214256245502636833e-01
2.135456990150558787e-01 -3.318413494065090563e-01 5.900919896938519038e-01
4.501860782096250846e-01 -3.922809925207471071e-01 -5.857991496934799036e-01
3.345013605656018130e-01 -4.463985725921726377e-01 -7.893594454554645479e-01
-4.219353886232811435e-02 -5.401718494611005283e-01 -6.851264087261969005e-01
-1.293068081764000010e-01 -4.459608534258100443e-01 4.172776012800850642e-01
7.864066952577950520e-01 -2.232672848481767336e-01 1.149444294884917200e-01
-3.396223806159705955e-02 -4.647463658755512372e-01 -4.712187128397432936e-03
-3.927967177526919818e-01 -5.749504882968217157e-01 -9.965983385208491974e-02
3.336871118486872123e-01 -4.255900204133580278e-01 -5.936461252920982590e-01
3.714058821126588472e-01 -3.156515727236282598e-01 3.314203733892768788e-01
-3.397965998057650427e-01 -5.192313706111140181e-01 2.813301139162642239e-01
6.072523841860907323e-01 -3.235134899338871772e-01 -3.532308473343750421e-01
-1.603640713160205677e-01 -4.037050744880057440e-01 8.909495254237984607e-01
-4.137324584186647392e-01 -5.575659926101180774e-01 1.163672912210286514e-01
2.641849249038069614e-01 -4.699315889737452623e-01 -8.259930443045749859e-01
5.671496637858181034e-01 -3.212546417286608058e-01 -2.282360259001164904e-01
-4.511774931866258664e-01 -6.274669013411638963e-01 -4.369009157844919167e-01
1.808833287535717427e-01 -3.781964922403713847e-01 2.434923461460392624e-01
9.374786157243150675e-02 -4.590001235597535034e-01 -2.823768149265583616e-01
3.069484940244761040e-01 -3.710755965458567007e-01 -1.711755337576274100e-02
4.007359195364772891e-02 -4.599390600570431586e-01 -1.519456924483494620e-01
2.672612955614894759e-01 -4.389743026418283511e-01 -5.459438333785672226e-01
4.359074995065236324e-01 -3.870535124239932734e-01 -5.001412531644948700e-01
3.593497564947960021e-01 -3.284784295372504825e-01 2.433388836632823515e-01
4.154606477524317582e-02 -5.198210094144605220e-01 -7.129033490126671646e-01
1.032581545227995029e-01 -4.484587049833072547e-01 -2.089581227063968261e-01
-2.749216567649543155e-02 -3.644243074904646718e-01 9.119055262088403557e-01
5.108987810066887292e-01 -2.431477730702182594e-01 6.443155013039002510e-01
5.193413224486157498e-01 -3.427623260036335995e-01 -3.043851149862687455e-01
4.571270497328146221e-02 -4.721295889694423487e-01 -2.799871246878859465e-01
4.962802934928861043e-01 -3.131528003510475888e-01 3.089377384656788808e-02
-1.118559033378741380e-01 -5.159014488596710413e-01 -2.786943615054272572e-01
-5.368995342064465381e-01 -6.460259366004041937e-01 -3.873130035142798855e-01
3.455358813184416511e-01 -2.972699299249210170e-01 5.695185030101516110e-01
6.114408484881444367e-02 -4.337106789527690465e-01 3.745066432689393016e-02
2.886928981562439378e-01 -4.291231387467243086e-01 -5.098568906191339734e-01
-1.840499353564870322e-01 -4.604338586267027744e-01 4.245595036909924902e-01
4.044712494637487388e-01 -3.746655618358719630e-01 -3.033760485975811050e-01
-3.732747874173309444e-01 -5.823464529417328173e-01 -2.190882367657863428e-01
7.412694915588059486e-01 -2.447780714632578347e-01 3.184073510060875939e-02
8.038989805436985714e-01 -2.178365107932196953e-01 1.201180855928159347e-01
8.776635916141288518e-02 -3.885839039065365763e-01 3.882824076007383995e-01
5.693444275179642133e-01 -3.056713451356515843e-01 -8.894010846904044920e-02
3.584007952117430618e-01 -3.197260013189827110e-01 3.272316797417600398e-01
-3.510785628398301883e-01 -5.669174053535653846e-01 -1.330873515096106519e-01
2.784498806611144031e-02 -4.598819554482137528e-01 -1.197079975425857645e-01
4.171396288097904970e-01 -3.554712527459696902e-01 -1.576394331920258074e-01
2.129072447399860124e-01 -4.484068837350073666e-01 -4.927747790896279678e-01
5.726990647522530731e-01 -3.173248791463664786e-01 -2.060621544904639446e-01
-2.207872888804129907e-01 -4.466391758819193702e-01 6.481576330825024046e-01
7.618211792184944597e-01 -2.311361591968853491e-01 1.054781330257653776e-01
-1.957281649852583155e-02 -5.009824688186051977e-01 -3.791607537091317148e-01
3.154204745202516813e-01 -2.986736145986517710e-01 6.345420659838375554e-01
-1.507211547952170549e-01 -4.452783610727861219e-01 4.791507318289273121e-01
-3.914015837328052583e-01 -5.605637121872429907e-01 3.057697826896093457e-02
5.665384261317043535e-01 -2.303631573517068154e-01 6.190003779770162362e-01
2.542289850404427232e-01 -3.295665279603423037e-01 5.057729977309034508e-01
3.583882326502776383e-01 -3.968123391416497614e-01 -3.899446711167109947e-01
-1.214085272480776995e-02 -4.293130511786850678e-01 2.683796712143944885e-01
-1.406606040908679467e-01 -5.427985650667574991e-01 -4.542593099933671663e-01
4.444204346926224347e-01 -3.875425678894513504e-01 -5.267637981455943752e-01
8.715549666060960765e-02 -3.332008115125262293e-01 9.051488486837157010e-01
8.274651248598281494e-01 -1.915152356217253438e-01 3.039079863823305749e-01
9.632965563185671432e-01 -1.439543100845378509e-01 3.942288525178120340e-01
1.042367571775421886e-01 -4.404928481892059766e-01 -1.373813620406846014e-01
8.308993588778934569e-01 -1.834526539041424209e-01 3.700176974700084553e-01
-5.469003614647682809e-01 -6.419494836229417967e-01 -3.234556068640593862e-01
3.853335450416284225e-01 -4.360854657365413334e-01 -8.252045994819523500e-01
-3.138666533430372052e-01 -5.503073143210859275e-01 -7.503082957283030430e-02
3.364557076778601497e-01 -4.223101456548353227e-01 -5.703087025103772412e-01
3.108800474559043625e-01 -4.501998252393560884e-01 -7.634807053177364855e-01
3.907317425454781210e-03 -3.662099770792560105e-01 8.138789484641101302e-01
-2.241906956837806664e-01 -4.845610064437010367e-01 3.041584574425101883e-01
2.145603258261923885e-01 -4.591217664360632278e-01 -5.967518374207976262e-01
3.037650697589472926e-01 -3.468361767473944757e-01 2.166592660684434901e-01
2.171653192892781525e-01 -3.512750431302764653e-01 3.998965267225948472e-01
-6.551284294375421535e-02 -5.201521915156125386e-01 -4.384016977033579621e-01
-2.093556042172683707e-01 -5.671498784028866647e-01 -5.027103861125109541e-01
5.854634796877463687e-01 -2.606816204343751497e-01 2.878493381386149630e-01
5.155322911658570817e-01 -3.678042204593147124e-01 -5.274980545640420848e-01
1.432732164856297952e-01 -4.181354573118237217e-01 -3.058284197248950856e-02
-3.899145580222457275e-01 -5.901343434820097711e-01 -2.484028373949650759e-01
3.663120560417000848e-01 -3.418343033227159156e-01 1.010243527278144038e-01
1.058608236329061508e-01 -4.940195594247077104e-01 -6.396031308675104166e-01
1.478159408253821860e-01 -3.903689470857819033e-01 2.159775155474940866e-01
-7.121511575353053902e-02 -4.270394053975284376e-01 4.427016950546183160e-01
1.121453121634231054e-01 -4.788857650720206860e-01 -5.150932307706812541e-01
3.045137146805221851e-01 -3.324163291945754772e-01 3.488799945823325976e-01
3.826149650704060434e-01 -3.758515353395651681e-01 -2.577412082449564990e-01
6.124372920130830567e-01 -2.778562496648749325e-01 5.811925677532006618e-02
1.712319824563312276e-01 -4.707431784457283275e-01 -5.925351173472697131e-01
-4.110078773006317077e-01 -5.983135054334969283e-01 -2.698106282980506365e-01
-2.802046435440202488e-01 -5.823008061834036297e-01 -4.599763517816762848e-01
-3.389136613799366149e-01 -5.725734065007181961e-01 -2.172518400845069864e-01
5.339315325836491155e-01 -3.345636118457523400e-01 -2.659341116948704675e-01
1.865669432477062295e-01 -3.110439859199517487e-01 8.535406968644991821e-01
-3.622099133928705084e-01 -5.477402349608639920e-01 7.419788426970452822e-02
7.327709701382266738e-01 -2.378410514885941074e-01 1.184175720442649099e-01
-1.685725095161326181e-01 -5.615852876468384602e-01 -5.566802498174754366e-01
5.858442367034618625e-01 -2.866998798220267708e-01 4.478902167466899953e-02
-3.656237227055584849e-01 -5.695283871155617517e-01 -1.196670705459959988e-01
3.274294272882507517e-01 -3.820007031693599120e-01 -1.718674934099989060e-01
2.563191232256204488e-01 -4.048941769814701219e-01 -2.004924611922961064e-01
8.139291656014286946e-01 -2.155823896882752555e-01 1.150840369960615256e-01
-1.909258648869208430e-01 -5.742620608396171722e-01 -6.166666488653936851e-01
2.002871569174561467e-02 -4.904934264259067644e-01 -3.842501082426068026e-01
3.152671086782302678e-01 -3.457259025943038577e-01 1.971666692453185876e-01
2.674668795556939815e-01 -3.018487163230960113e-01 7.293353772042778793e-01
9.859530847491322636e-02 -4.353493113125537772e-01 -7.489887162333266901e-02
4.988245847120723053e-01 -2.832003265392990521e-01 3.029738185657702698e-01
-1.797767010701706858e-01 -4.697858636610551808e-01 3.264690688998064250e-01
4.572430158840457559e-01 -2.999773177070079733e-01 2.546941410510381032e-01
-4.119111374556470029e-01 -5.454683755637830256e-01 2.242008176297679567e-01
1.409766870369464908e-01 -4.181624636588121002e-01 -2.487965326763319496e-02
-4.610089482758465418e-01 -5.518769914955805600e-01 2.918763413594400724e-01
7.519888150672044969e-01 -2.046745890312269278e-01 3.771691813988173325e-01
-4.072861510151266629e-01 -5.259604699571981401e-01 3.937100813781152508e-01
-2.190220933737799525e-01 -4.321141109181024231e-01 7.787215828845621690e-01
-2.640855054603392579e-02 -5.308370667303390356e-01 -6.392032860983697384e-01
1.795351757847518936e-01 -4.807023317570058851e-01 -7.067233423619087018e-01
-6.139871802323725314e-01 -6.330991170173093652e-01 -6.716897297411474066e-02
3.548396758659332351e-01 -2.993406609810327912e-01 5.261295520799025294e-01
-7.314311712170834534e-01 -6.955922298038743623e-01 -3.440935141068822145e-01
-1.307049451700218468e-01 -4.883536826200907677e-01 2.648111623181415020e-02
1.677363940656495245e-01 -4.542915252008239979e-01 -4.304060581328648105e-01
-3.728930768128538298e-01 -5.656495113061490443e-01 -6.473010530183226363e-02
3.041680559197161848e-01 -4.226882813305227193e-01 -4.901112537259360025e-01
6.372066168182912715e-01 -3.118437530017283410e-01 -3.223214816023723950e-01
-3.027271594783730382e-02 -3.939597045131403852e-01 6.443185249912756207e-01
6.324175486483956110e-01 -2.434105148298202348e-01 3.267963915888786319e-01
-3.840548449393683117e-01 -5.965225929181615649e-01 -3.230320124512721658e-01
-4.233583574604347088e-01 -5.460501841290597014e-01 2.484681072750165309e-01
-3.223299533341882905e-01 -4.820748360460339055e-01 5.817457493587562256e-01
-5.048509150076520985e-02 -4.953691240186793854e-01 -2.467848391793834029e-01
4.926430166523348281e-02 -3.645782087958071016e-01 7.114590176464606897e-01
-1.178371802017606634e-01 -5.319553501594902478e-01 -4.125510773970795242e-01
4.344788635425234080e-01 -3.584013108348845233e-01 -2.298578725920000232e-01
-1.257965304774271709e-01 -4.341351465371725005e-01 5.182021470590028045e-01
3.396673049442344161e-01 -4.014761214643945419e-01 -3.847966284431231232e-01
7.392986346822274513e-01 -2.108283262517266776e-01 3.528181726194004053e-01
-4.535367096416390020e-01 -5.987815132839399146e-01 -1.638959548137599864e-01
5.088723363146023804e-01 -2.671963859479035142e-01 4.258221221737201745e-01
5.822210162228076413e-01 -2.903705182431759457e-01 2.003182153270360519e-02
3.697681660437746737e-02 -4.824860255931329722e-01 -3.536926312011305917e-01
2.438358987249494847e-01 -3.600891867594422369e-01 2.487383710103368284e-01
4.324430908238524052e-01 -3.942140461198500034e-01 -5.577801000744835314e-01
6.764617255948810470e-01 -2.473159399964555416e-01 1.762624371130424306e-01
8.441117734356935465e-01 -1.854340612236180796e-01 3.173255191204793491e-01
4.856427975099821825e-01 -2.716567546802889921e-01 4.445526717676361317e-01
-3.803311615973671844e-01 -6.049256160065112908e-01 -4.108682694298270710e-01
-2.438326548708931452e-02 -3.998662030663317490e-01 5.740944421299362110e-01
7.710326609301676459e-02 -3.840815305241696564e-01 4.578196812859975928e-01
-2.116399457309315335e-01 -5.088151792023036801e-01 4.595672031416980774e-02
-5.928603144328780106e-01 -6.498799897586569063e-01 -2.780755590338498950e-01
-2.721403394704393075e-01 -5.468513733703678215e-01 -1.510650905627472507e-01
2.145544587106820722e-01 -3.377012210123123692e-01 5.329564059610489846e-01
3.319459424581091556e-01 -4.293329313582966988e-01 -6.239555398060797620e-01
-7.038454316537330613e-03 -3.624169920161761649e-01 8.775490258922742370e-01
1.019910185682937065e-01 -4.833588377166630479e-01 -5.303824499134510706e-01
6.027910306925342576e-01 -2.662519819500085982e-01 1.910958902629329992e-01
1.811960717788962394e-01 -4.734961432142046900e-01 -6.439835659539294710e-01
-2.213051050286786725e-01 -5.769331699316124773e-01 -5.627510951821743657e-01
-2.284277545303321777e-02 -4.445382653981742038e-01 1.544727525943783986e-01
-2.606407801718870210e-01 -5.274810559283779066e-01 -6.603754208219880881e-04
2.110975078193250698e-01 -3.104660965670872907e-01 7.953143709996435273e-01
-6.007834750804229573e-01 -6.663289122701774314e-01 -4.105726125818990879e-01
8.831396988536162063e-01 -1.701036709525840240e-01 3.587671677601985687e-01
4.615598670202921139e-01 -3.944769192362087562e-01 -6.357200103797893131e-01
6.594020828134834755e-02 -3.709390698926012253e-01 6.090403732754330335e-01
2.778469588831918857e-01 -4.115369822697405033e-01 -3.181144155499003312e-01
6.977269736173759007e-01 -2.738417220583436174e-01 -1.256692846573405631e-01
-1.980373080027220956e-01 -5.504300693625983065e-01 -3.764959398785947542e-01
-1.695922302283895122e-01 -5.365863703988071887e-01 -3.214471525674136299e-01
1.164778476753875192e-01 -3.872226944418185046e-01 3.265037440883979403e-01
3.455485396629218164e-01 -2.965528921169702792e-01 5.761569801570636251e-01
-1.658763893200568273e-01 -5.410373182439497386e-01 -3.724930887714336114e-01
1.344559440293704167e-01 -3.466067695597223608e-01 6.577793507196538769e-01
2.690808982578158925e-01 -3.292717500765305338e-01 4.700074750377016830e-01
1.790620768541283658e-01 -3.531538821220886470e-01 4.812101752511029340e-01
-4.120564413101241441e-01 -5.360475540417668494e-01 3.122285968479566742e-01
-5.615541019275717416e-02 -4.989427169495342929e-01 -2.653314028914640632e-01
-3.648826087192410528e-01 -5.044960235765066914e-01 4.834704808525580044e-01
4.897160780610694819e-01 -3.625198576166679398e-01 -4.113960770422234736e-01
7.447285831227832276e-01 -2.199515118289544491e-01 2.538575318446602003e-01
7.159696043364640605e-01 -2.015189407775169472e-01 4.999200553298698280e-01
-4.254342575304503882e-01 -5.792371745687111551e-01 -5.492022825856876511e-02
5.311618974462722909e-01 -2.741799926357121886e-01 3.030543558005951987e-01
3.271642988971802946e-01 -4.486674758362441118e-01 -7.914456754358143442e-01
-3.845748410608293977e-01 -5.479875837652306014e-01 1.298844732852723616e-01
-2.911515973657984868e-01 -4.838702794568708332e-01 4.842015759931354024e-01
8.925611628838313327e-02 -4.448604432500033456e-01 -1.391754396063938637e-01
7.096760590067767716e-01 -2.030864498705966525e-01 5.016539397808207346e-01
-1.991259988308010653e-01 -4.480015865382820928e-01 5.793182871245378118e-01
-1.348163571804750771e-01 -4.340366911082387258e-01 5.425048325557554341e-01
4.603494515304474843e-01 -3.726598459152091758e-01 -4.295962569212101179e-01
1.076637384520396784e-01 -4.377034821048771951e-01 -1.203146825384596025e-01
7.242672541744199499e-02 -3.402184869881371698e-01 8.780454551220662207e-01
-4.814080773895755838e-01 -6.250289828728747832e-01 -3.358365623397936428e-01
1.701935251664114107e-02 -4.475236609449184666e-01 2.334196643045030259e-02
4.139795551855735556e-01 -2.727406158281176496e-01 6.202773329366668698e-01
1.364408233047788022e-01 -3.388095996601324655e-01 7.251775738094478063e-01
1.079523337470465055e-01 -4.630164705637488942e-01 -3.565742224629807611e-01
4.153886099147738875e-01 -3.941248666031273440e-01 -5.127314191629611662e-01
8.076662556669559345e-01 -2.237713127209624842e-01 5.513305757675997926e-02
-2.861207046718509672e-01 -4.807843070934787466e-01 4.998692403507241089e-01
5.785607925892363168e-01 -2.734340499507325606e-01 1.870984522984410203e-01
-2.377520630902615340e-01 -4.893440853406540447e-01 2.948188304551698780e-01
2.225252232657664031e-01 -4.421298257098403850e-01 -4.593107744530142700e-01
2.925280054541116725e-01 -4.532016459930031105e-01 -7.438262721739474781e-01
3.294983498081708873e-01 -3.217908059096911133e-01 3.829592299140627820e-01
-3.666301996415394227e-02 -4.132794472245861495e-01 4.811370487403839324e-01
1.394726696197573675e-02 -3.635312557697412128e-01 8.127700497522392098e-01
5.388305652863534245e-01 -3.367385882402642583e-01 -2.988722658931979304e-01
3.795334406547424266e-01 -3.389156485916620665e-01 9.389894381763773390e-02
5.441524403677381327e-01 -2.510132199136346776e-01 4.849153434241458838e-01
4.732472376090997995e-02 -4.953773774931247709e-01 -5.004634878866768277e-01
-1.001627433767466047e-01 -4.201803194496280258e-01 5.815739978566936141e-01
6.633114943133967545e-01 -2.561198524749825900e-01 1.284471016479987460e-01
5.019465641515727938e-01 -3.475156127301431419e-01 -3.035083183075155677e-01
4.974061463704430169e-02 -4.327573800766230661e-01 7.588711181278130768e-02
6.018643672698774649e-01 -2.734679749705889451e-01 1.263611708069960204e-01
-8.366284183290863263e-02 -4.191301794807547609e-01 5.485634271082676650e-01
-2.329110439138290245e-01 -4.674206234317241360e-01 4.862422250282973923e-01
6.612099895053042964e-01 -2.100511651697499760e-01 5.625175494798603237e-01
-5.512315319630987087e-01 -6.555847941935437628e-01 -4.390882341750494966e-01
-3.570637007799047913e-01 -5.802236403281028077e-01 -2.413698531510712897e-01
-3.205986006747298944e-01 -4.993475702213375778e-01 4.165516990259708341e-01
6.270591194629436815e-01 -3.058145740423104386e-01 -2.399156952173852608e-01
-1.472478397997133148e-01 -4.634005863990989238e-01 3.015364717882751955e-01
-3.810942138373342170e-01 -5.703633721900049913e-01 -8.732376656928403369e-02
-2.373729863276932001e-02 -4.377422179879034148e-01 2.200222941991090420e-01
-9.472189843167937162e-02 -4.317777097668394348e-01 4.595651795357616476e-01
7.165082033928924510e-01 -2.269214500016725755e-01 2.621794057418457835e-01
4.578698471214265320e-01 -2.725190449056894004e-01 5.085398174650939129e-01
-1.708006978923987812e-02 -4.802586235547948723e-01 -1.928099410856025375e-01
-1.697657345807735696e-01 -5.318996068248379450e-01 -2.773917849060942853e-01
4.739469542244189038e-01 -3.443546049439197843e-01 -2.015008471183144245e-01
-1.164972716830495053e-01 -4.000039243966016511e-01 8.116468188139079887e-01
-3.888469468794485961e-01 -5.463498557535378941e-01 1.561985853291824322e-01
-1.110431191287961916e-01 -4.382571228787466855e-01 4.415986747177267358e-01
5.912904611734572935e-01 -3.263929151401432360e-01 -3.386347642057317975e-01
-3.971438372399087591e-01 -5.818366960679762778e-01 -1.524576630564879187e-01
-7.387771934409242958e-02 -3.775266616056218161e-01 9.102703590125604816e-01
2.414570226237322814e-01 -3.282923481820336220e-01 5.507431458490265053e-01
2.909689982749797399e-01 -3.374694124662860895e-01 3.369850823601067691e-01
6.177234708545735753e-01 -2.493798045053783052e-01 3.093571939831841200e-01
-1.674224237138128568e-01 -4.733128560238092919e-01 2.616217978386649601e-01
5.402334567800803899e-01 -2.698363567738560898e-01 3.199466187840525055e-01
5.275894062979780835e-02 -4.695579804062856577e-01 -2.743304783242759282e-01
-3.498383407990902083e-01 -4.978254932962123958e-01 5.065260245412099849e-01
3.795863183858285139e-01 -4.247995463230510027e-01 -7.052993086136574163e-01
2.407767529523029693e-01 -4.052487959489904368e-01 -1.634934770310781105e-01
-3.777587353786786006e-01 -5.362699567752430285e-01 2.212320769543464627e-01
4.029024550354360912e-01 -4.119900450113186396e-01 -6.465743161240475878e-01
9.124227119321627610e-02 -4.316392654021663500e-01 -2.131572036035152273e-02
5.106240647159507873e-01 -2.674111470252809042e-01 4.192821000950399113e-01
-4.861598849583406157e-01 -6.144624256093297321e-01 -2.252051232603106412e-01
8.478509865741105100e-01 -2.012001517984957077e-01 1.609432422995108469e-01
-3.170485108125181140e-01 -5.262029050272648556e-01 1.574857938785633182e-01
4.232661253342612784e-01 -4.086164089000974275e-01 -6.679851521470530074e-01
8.185281552913961090e-01 -1.872629922662303326e-01 3.666425549048786814e-01
7.456657217408593219e-01 -2.206332477985190332e-01 2.450848628235797466e-01
3.739038244466562633e-01 -4.035945093596123856e-01 -4.932746916090131051e-01
2.489415173890414668e-01 -3.533154113387211859e-01 2.985234919910627061e-01
1.535081977908054063e-01 -3.527598264618271307e-01 5.511327034856781104e-01
-8.052853281255747953e-02 -4.899440022698199892e-01 -1.184128631971268220e-01
-5.106327583505938517e-01 -6.119680115918477714e-01 -1.385437630801013564e-01
2.414886906640766051e-01 -3.289421906750220059e-01 5.446149221431653142e-01
2.657939512367565316e-01 -3.220013017467277527e-01 5.461739187183385358e-01
-2.453748998643134061e-01 -5.837737405464075158e-01 -5.639872501792664305e-01
4.693033853098771413e-02 -3.885769227349256671e-01 4.942272323182371196e-01
-3.051379414357376918e-01 -5.450284845689301605e-01 -4.854861450894049774e-02
3.841427834337555192e-01 -4.407805430814273340e-01 -8.658000414859767790e-01
-1.559741186278697789e-01 -5.230847547902588435e-01 -2.311376540583643391e-01
2.831044339824149159e-01 -4.364031472633930764e-01 -5.631000641505704563e-01
5.089647278687670084e-01 -3.524615720674518227e-01 -3.677221080652708918e-01
3.042051753986230733e-01 -4.287154927682547689e-01 -5.462844877107547736e-01
6.154389480612590946e-01 -3.186786472793707303e-01 -3.294737900363650107e-01
-1.940860274209379177e-01 -4.835829654838028624e-01 2.352025613452774777e-01
2.426291374008161805e-01 -3.564729322852415172e-01 2.855127895299013341e-01
-3.723488944453431926e-01 -5.865809623976142584e-01 -2.608866435760874292e-01
5.459763696604646999e-01 -3.075296748878923458e-01 -4.564111499203590133e-02
4.911939094539162221e-01 -2.644138962297749584e-01 4.975470493020316409e-01
-1.971658195143203285e-01 -4.729414101482050659e-01 3.421965687251812271e-01
7.761874664297726545e-01 -2.102267975065323924e-01 2.627691998301688869e-01
5.989528304538153103e-01 -2.855493097657703649e-01 2.150585197663189285e-02
5.440385889315128842e-02 -4.016376795870662542e-01 3.533329639731995209e-01
-8.587078858608562792e-02 -4.062746231912369166e-01 6.738959057924588381e-01
-3.489910192829079327e-01 -5.388506287361295444e-01 1.226324823399867897e-01
-4.553800182594952561e-01 -6.335119219633769116e-01 -4.822472707909387646e-01
1.814871784586143399e-01 -3.759668969828798835e-01 2.626707670161345654e-01
-4.407968522863899286e-01 -6.034293636220764423e-01 -2.401713881718333665e-01
-6.613353561864898644e-02 -5.268414019190219566e-01 -4.990285705803738092e-01
5.602214958964364389e-01 -2.858848733201790338e-01 1.188066087604197490e-01
5.272577589083295990e-01 -2.961366062009848643e-01 1.088933696578250898e-01
5.030306280109206885e-01 -2.781945226664340187e-01 3.386422107285216865e-01
-1.300539852266417717e-02 -4.191644675842639001e-01 3.650433811358966829e-01
5.741538893239283431e-02 -4.244506083249374173e-01 1.332738619623687337e-01
7.416747260920559803e-01 -2.554504803587441253e-01 -6.850572443635989661e-02
2.040483739921511788e-02 -4.480475024561241804e-01 9.690256154643805964e-03
5.502444177632409561e-02 -4.026826540220171391e-01 3.420015029623957870e-01
2.089647999855969995e-01 -3.352730454175511521e-01 5.700409769266751026e-01
1.647444630753561456e-01 -3.315792346211527963e-01 7.190628263712224300e-01
5.880991756719430308e-01 -2.654450160638737177e-01 2.366970033804336460e-01
-7.626970234554478201e-02 -3.925628146900056459e-01 7.765763992768295321e-01
3.631138308644213941e-01 -4.515252401515518210e-01 -9.112443828352073671e-01
-2.278613532600944624e-01 -5.693691207378973607e-01 -4.753763348494493002e-01
-2.551760832195388851e-01 -4.983056568131278286e-01 2.566177451594816028e-01
-1.304076757360832506e-01 -4.608716652002472491e-01 2.814022016117268543e-01
5.567364506223132503e-01 -2.699648831399486526e-01 2.759617548712806623e-01
2.189678849111998116e-01 -3.811657577747524783e-01 1.171205316689638704e-01
1.451023579190485191e-01 -3.821353773665740472e-01 2.996181892838700178e-01
5.027805520742326673e-01 -3.342645267152065669e-01 -1.823829891305988604e-01
1.200391992335737290e-01 -3.828260543972701879e-01 3.581760551730939213e-01
-1.860677342883205673e-02 -4.047801401024413992e-01 5.133980003890527000e-01
1.555191616430713908e-01 -3.878291481953204944e-01 2.196347707398034754e-01
5.047856049496639574e-01 -2.959005537114455242e-01 1.693555264387195392e-01
2.848619533230932754e-01 -4.656488797745854114e-01 -8.397583689550670583e-01
3.621848323012336612e-01 -4.140904459410597038e-01 -5.605434926065399059e-01
-1.176329376028788926e-01 -4.559822859742345691e-01 2.937704205617035491e-01
-1.260117613115566970e-01 -4.211893540108890832e-01 6.392074554827774646e-01
-1.764089537670242569e-01 -4.863416608140537223e-01 1.637025250744931770e-01
2.573523719939797005e-01 -3.241210055437067639e-01 5.483396354175917864e-01
-9.660712939568373570e-02 -5.004005924072744138e-01 -1.740119783108650953e-01
3.145796718353239263e-01 -4.174270309814155921e-01 -4.681560402025313206e-01
8.809043030809102781e-01 -1.847456280061608724e-01 2.283347955278945129e-01
-8.650319570181795592e-02 -4.800297196766571961e-01 -1.067954125132749947e-02
7.769973319811820378e-01 -2.363882658137241299e-01 1.726387686014053957e-02
7.095961710308872350e-01 -2.107940652311919016e-01 4.301496568398581744e-01
5.242988951175922008e-01 -2.564103988930108158e-01 4.861765434595520241e-01
6.410369327752257762e-02 -4.955686074905563121e-01 -5.457472957982878459e-01
1.095122455117867877e-01 -4.761920402471240821e-01 -4.832038670579212325e-01
4.732051292400541453e-01 -2.595727015732087750e-01 5.892307900260264075e-01
1.261706152011783932e-01 -3.843927007001624041e-01 3.277024549855236391e-01
6.663779103090304856e-01 -2.949301700521684277e-01 -2.405935241687384152e-01
2.542787721213022323e-01 -4.713549376992270945e-01 -8.135511065716475310e-01
6.854117769086076617e-01 -2.696525672003765028e-01 -5.476260257754977934e-02
-3.877575856959181722e-01 -6.132766854923755728e-01 -4.693110881763571385e-01
-6.562587884615521672e-01 -6.586938037989756856e-01 -1.956990818961015510e-01
-3.132904547544350660e-01 -4.879087401720793027e-01 5.040296197132018152e-01
-1.144489640308555684e-01 -4.659230526539498429e-01 1.930264070009090616e-01
1.713333051334475221e-01 -3.444472911124444314e-01 5.822552353330737729e-01
5.061508315002487546e-01 -3.372803325355092086e-01 -2.191804341223316521e-01
6.079363291279323844e-01 -2.376569438936229073e-01 4.438024876840086508e-01
4.884850889680080743e-01 -2.730158225970409358e-01 4.245384357026329436e-01
-2.359680308666498860e-01 -4.992783256894058330e-01 1.977653137586449228e-01
-2.418606283551506253e-01 -5.775417532435871415e-01 -5.151168550618240305e-01
5.081369727568373351e-01 -3.198625276162698761e-01 -6.227538991219239844e-02
6.010218191975811308e-01 -2.449748928311934748e-01 3.936444968001193145e-01
3.636702387329512343e-01 -3.822681737339011510e-01 -2.683214183127731189e-01
3.813428038614698479e-01 -2.842931293651141944e-01 5.974138601652219105e-01
-3.644693036509172868e-01 -5.877682244840229941e-01 -2.923631425198295331e-01
8.851109426207570338e-03 -5.102766508302019055e-01 -5.393312587984327999e-01
-1.980047939249227618e-01 -4.924076040901270712e-01 1.632589949856052547e-01
-3.882288391986492559e-01 -5.872828464681595362e-01 -2.262433382063639420e-01
-2.425772629810440395e-01 -5.600095357089962533e-01 -3.501395463385822415e-01
1.544618130448223714e-01 -4.558524575513672183e-01 -4.105105138749766680e-01
5.505239555945555530e-02 -4.956349269185313933e-01 -5.228960722861398791e-01
5.653273270803559347e-01 -2.693887961990660274e-01 2.590471755908742013e-01
-2.826147735850385034e-01 1.871516111943064553e-01 -7.675279289561275364e-01
-1.506565750053044384e-01 -2.164423425988672156e-01 -7.332389186401877534e-01
-1.993455513227833098e-01 1.294793644622507234e-01 -7.926754031665145250e-01
-2.399437386281453033e-01 -5.314852132537313256e-01 -6.167724548056111589e-01
-8.960487087628679070e-01 -8.415207508996935815e-02 -4.169448800348908857e-01
-7.011960868966174987e-01 -6.521207872933804106e-01 -3.729593905847797819e-01
-5.087180895353691536e-03 1.102550847175861048e-01 -8.787275897286285220e-01
4.559287014016516482e-02 2.358372966452555383e-02 -8.817862274079965035e-01
-1.865117902290535090e-01 2.696364093317435984e-01 -8.319463422862469759e-01
-4.635298290139261979e-01 -6.283694851176218066e-01 -4.894662312023261297e-01
-1.856711680066452930e-01 1.301937963947617793e-01 -7.992238838692466985e-01
-7.081787480330383744e-01 4.251843895096010795e-02 -5.346638490206624406e-01
-7.346077725687387705e-01 -2.638723327343537317e-01 -4.495741001071935083e-01
-9.327221294065746182e-01 1.025562312202109166e-01 -4.441766501995171867e-01
-1.671053885082279533e-01 5.529016309138470864e-02 -7.900964525035059083e-01
-8.030947313396208376e-01 -4.342877793267539699e-02 -4.699768975694488260e-01
-1.278948479405899730e-01 -1.012262329087354334e-01 -7.712181194404118534e-01
-5.419977200270860163e-01 -1.059726687371162213e-01 -5.769204691653497807e-01
-5.229008799102188298e-01 -4.217213149853425436e-01 -5.108453080673345248e-01
-6.032584520649193482e-01 1.537017728835027019e-01 -6.100106361993934412e-01
2.813892198155985569e-01 -3.469145196340428505e-01 -9.037950902801623609e-01
-1.112433729983940828e-01 1.171640306456255970e-01 -8.308486335116466170e-01
2.315906407832695191e-01 -1.475779944530783705e-01 -9.279031715947890779e-01
2.862468200888557690e-01 -3.460057522646641792e-01 -9.062768734323308761e-01
-2.863651923390199694e-01 -2.038967382763072211e-01 -6.729129476432766932e-01
-4.852593180048375698e-01 -2.542394466393891328e-01 -5.681776281438442044e-01
-1.122007791063667631e-01 -3.939832565618222038e-01 -7.090156464173116291e-01
3.204503521841896990e-02 2.195161441170155325e-01 -9.219961330984998149e-01
-7.401526065339650642e-03 3.414083044586413429e-02 -8.595725133696661135e-01
-5.312218827544032962e-01 -6.286605415264612251e-01 -4.578201604698949878e-01
-1.833868218479235701e-01 -3.455558560603234630e-01 -6.873092768441787515e-01
-1.056451667536623118e-01 -1.631797551140921898e-02 -8.017610048389817168e-01
2.463682423360037399e-01 -4.692961285118196213e-01 -8.583955508434114590e-01
-6.297476251902160982e-01 -4.457262165025140943e-01 -4.553028557797827447e-01
-3.742252306129250083e-01 -4.681884470738443826e-01 -5.691645068898577575e-01
1.133625057734701930e-01 8.356398751301394312e-02 -9.276433771849645904e-01
-5.901518607298954500e-01 -6.220025342367012655e-01 -4.319116695832344033e-01
-4.783768315651475422e-01 -4.313726960122384879e-01 -5.293228677658758929e-01
5.890781236882815936e-02 2.707455372704843932e-01 -9.466929342707123274e-01
-8.917729461862658469e-02 3.057305568606396573e-01 -8.859224590054426418e-01
-5.067340860967931571e-01 -1.244507362739313144e-01 -5.889820896557844687e-01
6.220698882143931019e-02 -2.785987496157814047e-01 -8.177745977620090034e-01
-4.270698605488504884e-01 -1.127508039076060287e-01 -6.289222925594850633e-01
-5.198464485853020456e-01 7.393870101954036489e-02 -6.299786238317611753e-01
-4.867744348084959705e-01 -4.907671105789835897e-01 -5.113006753195504794e-01
-5.027570903838425309e-01 -5.348870700530019562e-01 -4.933675631980442566e-01
-6.023968776772745670e-01 2.163030807443116488e-01 -6.252789936360267919e-01
-4.033409267150326882e-01 -2.489152776996485517e-01 -6.076552477047756362e-01
2.954041052383906893e-02 -1.958623160175671785e-01 -8.221844163489696600e-01
-6.976834000949825310e-01 -4.017898933280400486e-01 -4.340461360156734338e-01
-4.323096703251002593e-01 1.874908342408881379e-01 -6.977788958193993363e-01
-4.651586865721411834e-02 9.221212562184104289e-02 -8.551171479314378931e-01
-4.533425909934972187e-01 -3.656961787256237106e-01 -5.565975723635272487e-01
-6.775101821913462330e-02 -2.715074363731380114e-01 -7.588358925749487671e-01
-1.758372232124407464e-01 -1.714439382983954097e-01 -7.321788075273842900e-01
5.996839825164120702e-02 -4.831563456794889522e-01 -7.681523559226728359e-01
-9.390666692811523719e-02 -5.522778860536664558e-01 -6.799579377778467437e-01
-8.043904938099578628e-01 -1.886477938195573190e-01 -4.348860894052770099e-01
-8.308980510103605166e-01 8.474331433598174257e-02 -4.874453082206920973e-01
-5.966097933499077133e-01 -2.779291639886749543e-01 -5.106091277814728269e-01
-9.161360345044522457e-01 -1.204159611650958556e-01 -3.989626704540055746e-01
-6.459175827155587413e-02 -9.438903949238322544e-02 -8.023713940158331281e-01
-6.862584695999194295e-01 1.381676400162783203e-01 -5.676038155987394029e-01
-7.354385748207941109e-01 -3.617421486733965463e-01 -4.259445927239950414e-01
7.050674011907015482e-02 -9.071126181818334189e-02 -8.662654578677858597e-01
2.757689651615268800e-01 -4.380657297857321608e-01 -8.795269247573436200e-01
3.175770295549084077e-01 -3.140662352758741838e-01 -9.284767133720722709e-01
-7.330327929356582617e-01 7.181585697116185663e-02 -5.300274484716197554e-01
