-3.024613545156817906e-01 7.953542919189581228e-01 2.103773052580850123e-01
-3.519502276027012405e-02 -6.279361351138750269e-01 -7.231604476516417801e-01
-4.710221026148899703e-01 1.077569476460597947e-01 1.710376027674932464e-01
-2.753310730585580290e-01 -1.421812159620310101e-02 -1.479106463020691542e-01
-2.951736620190698601e-01 -5.896475735029524934e-01 -3.484678845082475052e-01
-6.334452977517850414e-01 -2.062247115230102235e-01 2.712447990407836906e-01
-2.989036508782605406e-01 -3.399994421727680627e-01 -2.443938363041935902e-01
-3.675856618783628904e-01 9.148273442629921426e-02 2.154820970920592882e-02
-5.846371009387230089e-01 4.592928328282335215e-01 4.674406048943355874e-01
-3.849578369033422875e-01 -2.731205414489059069e-01 -9.889153648840992572e-02
-4.435683707827284966e-02 -6.911844587328128120e-02 -4.890752470659102125e-01
-2.797296757801849276e-01 2.956195775429927841e-01 -1.906359543694299136e-02
-4.025586892882753176e-01 9.196370350577089958e-01 3.980443528702100608e-01
-3.003514136919300040e-02 -4.072239260832306584e-01 -6.428451369567433904e-01
-1.265430370933491866e-01 -4.335318730543287202e-01 -5.198091135092481885e-01
4.598073165019705977e-02 3.658563782736862779e-01 -4.416559037050663550e-01
-2.262817838366215917e-01 -5.055735639630348777e-01 -4.104258582818702261e-01
2.009921958240024342e-01 -2.321386749991974363e-02 -8.101775682603625794e-01
6.759698059840087148e-02 3.066686437255723985e-01 -4.950002308441764365e-01
-4.511014888160443381e-01 -1.205916534071638790e-01 5.301302921450077449e-02
7.654586700614189609e-02 4.848720976840892871e-01 -4.367675670830961088e-01
-2.391520237620027578e-01 -4.095664604559888233e-01 -3.545876834118686927e-01
3.307629847551505492e-02 -6.299383021114848269e-01 -8.183654662622146247e-01
-2.795191215264078086e-03 -6.595625188466481825e-01 -7.804968900286871625e-01
-2.503064077550695155e-01 6.852220860550265469e-01 9.461604268121362460e-02
-7.004098894710177881e-01 2.492699991570039020e-01 5.443261186398432594e-01
2.907232258511676659e-01 9.657208894968792590e-02 -8.868039629400950030e-01
-2.994600554432815809e-01 2.353661785977992082e-01 -1.565232813211516610e-02
-4.650132000562142709e-01 -3.877166363456253650e-01 -3.358919015803862179e-02
-1.674491765848773461e-01 -2.146082079307737034e-01 -3.764982288661811172e-01
3.018425931588020750e-01 1.727544925765329420e-01 -8.719957391150997550e-01
2.310418901644735734e-01 3.304344695214403993e-01 -7.116100140398099461e-01
-4.976345917323913293e-01 1.059359599293415999e-01 2.071182300519094632e-01
-2.587871240826148354e-03 6.234767999735187916e-01 -2.724162004766956802e-01
-3.661317119574300505e-01 -4.934837558540564051e-01 -2.122385729564192913e-01
-1.470358093730325666e-02 4.007087797827688092e-01 -3.439269227526376427e-01
-4.352103532022634225e-01 -2.368626880702166537e-01 -1.503171096254861568e-02
-5.368926123897597158e-01 1.972046282145803464e-01 2.975703306814885818e-01
-7.879384138565535822e-02 4.575245919302579206e-02 -3.959383742464276934e-01
1.211489344594372242e-01 6.376506156109074119e-02 -6.653002356220729663e-01
-1.137220252371422408e-01 -2.596548429009611358e-01 -4.686453936226095962e-01
3.445640851621037948e-01 9.697747155725522372e-02 -9.610993199241109064e-01
3.544469624844581029e-02 3.108420849290326471e-01 -4.488835570546643727e-01
-5.615655223459952161e-01 3.242614614200509671e-01 3.820328596527353682e-01
4.901476846759414419e-02 -5.129423517982045766e-01 -7.940503378375406429e-01
-4.803840237508198441e-01 8.029766826456540274e-01 4.594449125378444188e-01
-5.468071291327381012e-01 6.360254825647921884e-01 4.851511448052702180e-01
-5.438582474960130808e-01 3.426534737973651601e-01 3.648329542702271056e-01
-3.550159366113584403e-01 6.924987122199464107e-01 2.423009415639512387e-01
-6.035318360523800330e-01 1.508948283214040786e-01 3.713761121783256125e-01
-1.789710868305816327e-01 -7.218561297327259485e-01 -5.615470809635418892e-01
-6.150780559537630428e-03 -1.150826821078184958e-01 -5.601220203141882292e-01
-1.343526883267499028e-01 -9.469935243841323680e-02 -3.747565950359018072e-01
-3.646272639553490569e-01 2.711028299419647181e-01 8.862636265800925839e-02
-1.898456279336306896e-01 4.352104149944566736e-01 -8.805448300999088596e-02
-2.467564908397998635e-01 7.187232110719965483e-01 1.029807548508498566e-01
-1.740183081297835832e-01 -3.395232790477510920e-01 -4.169078440053533008e-01
1.291664804523693644e-01 -3.881786072108254215e-01 -8.554572855359098282e-01
-4.040756442969726248e-01 7.506521464204027883e-01 3.331867376659253810e-01
-4.464975189638420439e-01 6.901188265070272720e-01 3.678669326009035845e-01
-1.780397971526982426e-01 7.322429691544374286e-02 -2.478072240238722856e-01
-4.589191314510366465e-02 6.486170267604735029e-01 -2.025703891554048730e-01
-4.193979284530502047e-03 3.570683951074186124e-01 -3.757517902493965889e-01
-5.304559868301678138e-02 -2.651173693519975338e-01 -5.547185772283227401e-01
-3.063183362362342232e-01 2.801055462428999610e-01 1.155860514824054094e-02
-3.715120084193335726e-01 -2.155515479877261331e-01 -9.467558010577740990e-02
-1.618231098922765787e-01 5.202167301497410135e-01 -9.312523397153582572e-02
1.365074358895576601e-01 3.414729160789165691e-02 -6.982745400727964347e-01
-5.266238544222993090e-01 -3.643879227501135576e-01 6.085488988449029579e-02
-3.907652820218538992e-01 7.004877651326167111e-03 2.013115271332724041e-02
-4.218983318194773902e-01 8.841907470020217152e-01 4.107443772302630247e-01
-5.078586427235713963e-01 7.096850603452903306e-01 4.604751650205032298e-01
-8.259431907002262596e-02 6.419688096797806498e-01 -1.544491689269721912e-01
-3.034990841939700923e-01 -4.445998999275559971e-01 -2.794837780340008182e-01
-3.372973399948390183e-01 -3.827423620839515150e-01 -2.082352445047042644e-01
-7.740767966233421671e-01 -2.630120922600442945e-01 4.432223075842442461e-01
-3.721058698611900417e-01 -2.226626910756153432e-01 -9.667192085451205286e-02
2.562532745262611211e-01 2.832579565821522483e-01 -7.651669167239805169e-01
1.549086528168699128e-01 3.037485214130671296e-01 -6.168996710451636334e-01
-1.665604803743505058e-01 5.862239959322567140e-01 -6.042049372996218665e-02
-6.097856833746820859e-01 1.650294852374130095e-01 3.856249450539739332e-01
-5.638168438947492866e-01 6.155648393766343096e-01 5.005667660172032907e-01
-8.003103505621338432e-01 4.360486439637905470e-02 6.009885645096409990e-01
6.153427916481055832e-02 3.806513228773884538e-01 -4.573026759457620161e-01
-3.936760842693420859e-01 -2.285672675249142971e-01 -6.918220858116706784e-02
-1.323689604317635771e-01 3.972716717816481835e-01 -1.825705181539382382e-01
-2.226899102473350600e-01 5.923260083392200420e-02 -1.916048423020289271e-01
-7.060264005298129142e-01 2.881257643393195234e-01 5.674886130697996967e-01
1.666372792610238199e-02 -3.542846278850444453e-01 -6.864488568428820381e-01
7.725461638275912812e-02 5.647045659319254174e-01 -4.061163723107775181e-01
-7.180198357642602058e-01 -4.186403613760598941e-02 4.533252552525254275e-01
-1.644444809156649367e-01 -2.304311746656965976e-01 -3.869227870384838730e-01
-4.126721249317272799e-01 9.205661803851735714e-01 4.123982675143452736e-01
-6.406043370803433668e-01 1.862963447568123654e-01 4.366701294270554090e-01
2.043236282565394357e-01 -2.195336694588014836e-01 -8.925706416815792910e-01
-1.513886754955399150e-01 -3.892772457947718534e-01 -4.679157102793303769e-01
1.622111048314338888e-01 3.387241795088402063e-01 -6.131400603186754061e-01
-4.371417310704605041e-01 -4.532430745932186089e-01 -9.809532647715189790e-02
2.943191428670975385e-01 1.955868497048672827e-01 -8.525449718774931185e-01
1.756005608018335051e-01 1.513300144431224126e-01 -7.059057458183211065e-01
-4.149642438972474534e-01 -2.546969828609507713e-01 -5.009617598638466118e-02
-4.341776300476007378e-01 4.772095415326001455e-01 2.664707088697224058e-01
-8.374265037064308748e-02 -5.649333316041197373e-01 -6.310613789199351897e-01
-3.608899138225795666e-01 1.777069226326789819e-01 4.645257975144446300e-02
-4.947004084500726262e-01 5.814694837795076898e-01 3.914770455489561818e-01
-3.494281637639353733e-01 4.250275966206110700e-01 1.285959383511114940e-01
-4.418860810084459523e-01 -1.759547903931629742e-01 1.833308616307798705e-02
-5.349060918774659612e-01 3.211112102016397962e-01 3.439176073485000762e-01
-5.272091388577988536e-01 8.972941007289543525e-02 2.415951924831128972e-01
-2.691871652228211564e-01 -5.565769074719738585e-01 -3.713010480357210596e-01
-2.061954953692142212e-01 5.096976495942930896e-01 -3.593099503237280612e-02
-8.437617746475490899e-01 -1.247328678853691086e-01 5.943781182753764547e-01
8.954529435649649649e-02 -3.252437128586906367e-01 -7.757294092719193568e-01
-1.211602994390809929e-01 -3.898386814059411898e-01 -5.099406775830975791e-01
-7.088887336848237464e-01 2.419724446286654063e-01 5.531599804136037024e-01
8.102517276329591206e-03 -6.207684211512182193e-01 -7.801961762583370374e-01
5.059729473244251735e-02 -1.126129404691006836e-01 -6.376197939557689542e-01
-3.634514472959741727e-01 -4.224104319307616651e-01 -1.877843254272014428e-01
-1.117874242013152386e-01 -4.613462963299586050e-01 -5.512351653154129449e-01
-2.352115532852914470e-01 -4.988379064029310195e-01 -3.954081603136610501e-01
-6.983910172547574957e-02 -4.900827608519766065e-01 -6.206310716553902207e-01
-3.940548070162502303e-01 3.463329291572014301e-01 1.591291743119990498e-01
-3.535973466169452517e-01 2.452156088124941569e-01 6.311613580347232022e-02
-3.012623010783294641e-01 6.204746728378706111e-01 1.394281323015493790e-01
-1.506505466171371710e-01 -4.913395346821310822e-02 -3.341644746605085259e-01
1.804044426371436208e-02 1.319652532791156796e-01 -4.956901880549600126e-01
-5.715759664384866268e-01 -4.214210228541646619e-01 1.004209857077233981e-01
-4.739143046135855797e-01 3.036235691790919455e-01 2.526437091810972979e-01
-3.301719335876490691e-01 1.950285195258343596e-01 1.083618055734920926e-02
-2.069579373576415082e-01 -1.132613432315186103e-01 -2.817061871057354172e-01
-2.229094140252379785e-01 4.910092556313908063e-01 -2.022222452392835254e-02
-5.221073272484518801e-01 1.775836827238646276e-01 2.693496750975764575e-01
-4.755026058383785004e-01 6.399356116978176523e-01 3.880941189586842865e-01
1.140899057633559394e-01 3.813371205733716018e-01 -5.297095912440303866e-01
-2.768335526948969422e-02 3.392551374606501691e-01 -3.503265609627566057e-01
-7.413220312947090829e-01 -2.409152560274441246e-01 4.066813100504117484e-01
2.383766101750377231e-02 4.240906427290755398e-01 -3.879608252756296949e-01
-5.894087415791733342e-01 -3.137811607098686117e-01 1.677309458787950014e-01
2.328102570271963212e-01 1.711708862904801065e-02 -8.381984621287618120e-01
1.415168437705250359e-01 3.792874594561177481e-01 -5.684501447971157528e-01
-1.074121034033173050e-01 5.803868179485657253e-01 -1.445289979512567879e-01
-5.074689987121875356e-01 1.087143841433554046e-02 1.830515520441382271e-01
-2.419012377918952350e-01 6.368089541967280054e-01 6.381030876069905544e-02
-2.342700276130661452e-01 6.011824552250634168e-01 3.914121111760261729e-02
-6.371089213561842435e-01 6.381556282629169408e-02 3.833068709706316524e-01
-1.161541955878936383e-01 -1.440746078206934788e-01 -4.194866294238863702e-01
-4.444988211325234251e-01 -3.304792763113792997e-01 -3.927966067135549300e-02
-3.555490047991639035e-01 -1.252300793481712637e-01 -8.096337436772423068e-02
1.893688899198151809e-01 2.370494624100823178e-01 -6.909819651695713327e-01
2.253715312986167285e-01 2.232395986319171688e-01 -7.462414136397140796e-01
-2.694869777991726334e-01 3.685800667218357418e-01 -4.319625331477435458e-03
-5.840182935775391909e-02 -5.001648406525306401e-01 -6.404422934401633460e-01
-3.467747449324642961e-01 -4.215023124203388649e-01 -2.104865517441665557e-01
5.122704276070930846e-02 -1.135306365275907253e-02 -5.983693552890619882e-01
-5.914781862809870283e-01 5.610728034182893564e-02 3.171504053143296420e-01
-2.084636164200044939e-01 5.447970481581702051e-01 -1.888730730131785510e-02
-3.242479072271446383e-01 6.980682117490230043e-01 2.019588996818175441e-01
-1.648372213879091275e-01 6.669045175286787419e-01 -3.083623728255566881e-02
-7.380818026746552851e-01 2.235089255772050865e-01 5.862151415375156382e-01
1.250349122977805622e-02 5.342786695174225886e-02 -5.191513700432049960e-01
-4.458400854579065015e-02 -2.248339232946428706e-02 -4.702832966457947128e-01
-5.310467013116865198e-01 6.839509125494601660e-01 4.823452808635517175e-01
1.114741862994991090e-01 4.947567204633047111e-01 -4.811530883263097635e-01
-2.877497047796682139e-01 -5.348227171877046465e-02 -1.462943355078321073e-01
-3.816509634406170526e-01 7.778959250264291247e-01 3.129704368892324284e-01
-2.753511537624274697e-01 -3.592706679947341719e-01 -2.846000140416957702e-01
-1.246962668761438242e-01 3.858111549793248884e-01 -1.977219080634616821e-01
-6.088877655396337518e-01 4.474870933861489486e-01 4.962989186121674612e-01
-4.129318175332424290e-01 -2.363800362564126289e-01 -4.564923505701849044e-02
1.333208930566997033e-02 -8.130742763592573030e-02 -5.736822112485551184e-01
-7.377032822353389863e-01 6.058697684590755306e-02 5.211385579445084737e-01
-1.259486177160935860e-01 -2.895020670655535922e-01 -4.635634661590878336e-01
-4.499833821926402799e-01 8.053128470635633196e-01 4.183298116062816874e-01
-4.056648200119326170e-02 4.262213883053951879e-01 -2.980527426322808759e-01
-1.576529676807186808e-01 5.667052608707338068e-01 -8.047233948119378311e-02
2.023955931915511486e-01 -1.643593048844086413e-01 -8.680431281048291980e-01
-2.733799672972728190e-01 3.627498469124880165e-01 -1.246106387903316102e-03
-1.012200193081753685e-01 -3.663088764644415601e-02 -3.975674695875078268e-01
3.379363350963681539e-02 1.143094862629027847e-01 -5.244707030152830907e-01
-1.942459280354977280e-01 -7.144281603646292222e-02 -2.827161084361831667e-01
-6.431588020168843567e-02 -2.790852061700426767e-01 -5.446673724363911839e-01
-5.694964427398039319e-01 2.026786584859914253e-01 3.448267638270319235e-01
-3.783055108170504388e-01 -1.056387522955713615e-01 -4.173113374827330108e-02
-5.428368332021266118e-01 -3.823158644593790956e-01 7.617222303116391591e-02
1.064895234238478761e-01 3.384304270061593289e-01 -5.361996416104117813e-01
-6.271808027222459669e-01 -2.973134914189897726e-01 2.264903859055083235e-01
1.743987019552181161e-01 3.450056037622719063e-01 -6.275053312356102531e-01
-3.120176104227703195e-01 5.635665899494799458e-01 1.317533510801237873e-01
-1.414943902742244741e-01 1.426698312423622106e-01 -2.708297028952905139e-01
-1.472720479308622377e-01 -2.357046845696548765e-01 -4.127598468837155865e-01
-6.827986067153568595e-01 1.599743167639706420e-01 4.845908111223889980e-01
-1.344917359848518124e-01 3.805482880527735756e-01 -1.862611126968456710e-01
-4.434458978356569103e-01 2.906186961260009971e-01 2.053564519987675918e-01
-1.581214887561280258e-01 -4.679350607972061482e-01 -4.897708656863774546e-01
-7.454035237461714702e-01 8.384689520379833005e-02 5.410032167929933467e-01
-6.715801558252827708e-02 -7.715378470847205072e-01 -7.358571930630581903e-01
9.070828475021888715e-02 -3.599283478746738707e-01 -7.910804849134922545e-01
-7.235127106784820794e-02 3.059118600097746055e-01 -3.017670670309304803e-01
-1.585855747600396215e-01 7.328020744700245448e-01 -1.337156629770163037e-02
-1.517078952329360686e-01 -2.939145462128432418e-01 -4.296895404101352955e-01
-2.308776158701690839e-01 3.397260931834528153e-01 -6.914467656672244888e-02
-3.576231816672758024e-01 6.056494012180390074e-01 2.114949352877285027e-01
-4.049989914453988593e-01 1.474455597210094504e-01 9.546038194436487490e-02
-6.119159429269112049e-01 3.374528419447940797e-01 4.568886502528641258e-01
-1.424324883854113932e-01 5.949167060326912004e-01 -9.034261298685945796e-02
-5.112829681216404243e-01 -5.746127959700934179e-02 1.612509794985791389e-01
-5.201664980788159864e-01 -5.779390577837021509e-02 1.734041294126694721e-01
-6.541107585030639937e-01 1.115280045175800344e-01 4.257232204283611376e-01
8.602323608572054470e-02 5.005106898054137998e-01 -4.436773827641959933e-01
-6.768700508851647202e-01 2.333796090605169127e-01 5.054770050739998410e-01
-2.615719577070547142e-01 -6.466982628877527839e-01 -4.175400336690902048e-01
-4.346003822792651183e-01 -1.701102012355757559e-02 7.123466013486040582e-02
-2.058989179698485564e-02 9.030592042363234928e-02 -4.587749994236420825e-01
-3.511702025725930154e-01 1.082252429890319667e-01 5.481174542559745511e-03
-4.877076887252163595e-01 -9.578972472637627134e-02 1.134624219000581746e-01
-6.001164779203617128e-01 -3.955836156599661924e-01 1.501266982353784973e-01
3.631883961327000976e-02 -1.398740623071346167e-01 -6.286756978707859211e-01
-9.625274155826875344e-02 6.821449242094003163e-01 -1.196424463448044900e-01
-6.932158554209025825e-01 1.572238211823632770e-01 4.979069139980746850e-01
-2.679406649201249158e-02 -1.232746480649269810e-01 -5.348204602634439864e-01
-5.954185564209502068e-01 -1.213121513335008034e-01 2.523021614707323668e-01
-8.812474479682634587e-02 4.727452023339104997e-02 -3.824316897075164534e-01
-3.909875906439645998e-01 2.434935243171261476e-01 1.141403985749666200e-01
8.257791124695312845e-02 -1.005875405389118904e-01 -6.770807456168780325e-01
1.474352816419675638e-01 -3.110140098381312113e-01 -8.501467753077364131e-01
-7.418454525333242344e-01 1.042863349453602116e-02 5.069929237810140155e-01
-3.106176727652120162e-01 2.852149432224059256e-01 1.952856547007188887e-02
-5.823950007750257063e-01 1.801702486024847616e-01 3.537457395096982316e-01
-2.869471475827810591e-01 -1.985396645946973376e-02 -1.340799359439029115e-01
-4.849676325356204187e-01 -1.146824067859805729e-01 1.021875446619964628e-01
-5.749476217569028380e-01 -4.159030594879609133e-01 1.072699477617533315e-01
-5.468989494948426344e-01 -8.094722789995470458e-02 2.011983280117155826e-01
-5.465333166955976818e-02 2.319103942322945089e-01 -3.555623181405757616e-01
-3.181770741917979151e-01 -4.683035862068877786e-01 -2.685776377998617681e-01
-4.818731702595531186e-01 2.334736523205678538e-01 2.358550588701074924e-01
-1.267344181392699928e-02 1.866187111802423970e-01 -4.315614073929332495e-01
-3.763105586597297880e-01 7.798243265843023408e-01 3.063493188885649254e-01
1.026730848282184604e-02 -5.760320551677521328e-01 -7.654643470365528612e-01
-3.004589936387748808e-02 -1.155423559180766141e-01 -5.272598354284118161e-01
-4.106287683808916844e-01 -2.837572656179143671e-01 -6.760596146931630024e-02
-1.293788841693509772e-01 -5.430110773703413773e-01 -5.592654320618681840e-01
-2.463577971755794571e-01 4.550283315000720474e-01 -2.052098593700907476e-03
-3.954127229108863606e-01 1.283052706651825470e-01 7.461983996014617815e-02
-5.541358424019998674e-01 7.563035230671907860e-02 2.732455119502094076e-01
-1.263078587902434213e-01 -6.466819502824832089e-01 -6.045889205206480543e-01
-5.583875797137749508e-02 6.938917202815751972e-01 -1.708762045383908634e-01
3.772800444529806341e-01 3.561858610780037626e-01 -9.036380266436578879e-01
1.812890915106279976e-01 2.110339815260899310e-01 -6.901163792037471323e-01
-7.281934422444846788e-02 6.626859962666160619e-01 -1.597582937631915889e-01
1.165854458892432860e-01 -2.540695326980971780e-01 -7.849222408061927725e-01
-1.557182123683245878e-01 3.795610348366498799e-02 -2.926495234332581186e-01
-1.661879492826253690e-01 -3.594725970161717354e-01 -4.356407107091088138e-01
-2.075229426751188377e-01 -2.854485313255566425e-01 -3.491490628439665733e-01
-2.869365614221225380e-01 7.522222226493200381e-01 1.718183857374156742e-01
2.376697406778748300e-01 -1.280987359627567268e-01 -9.024561823759231771e-01
-4.738521694268644224e-01 -1.977683299880297618e-01 5.389567853457776642e-02
-4.551346168795480929e-01 5.108917617628309094e-01 3.087975233938571873e-01
2.148876447316598881e-01 3.884887549391097816e-01 -6.662681327396411390e-01
-4.835973692753569586e-01 2.712680199533921699e-01 2.532143662396287853e-01
3.277215899175186520e-01 2.088392401104919860e-01 -8.934859989136935132e-01
-8.522360503630275197e-01 -8.593744701712979772e-02 6.214686767623590624e-01
-5.631506664325719447e-01 2.120199959435470627e-01 3.397524901664736308e-01
-1.339583651829155952e-01 -5.299206002694974993e-01 -5.477457895584327829e-01
2.344993127119761323e-01 4.431247340999479034e-01 -6.717409757216307176e-01
-3.446309024229970985e-01 -1.254080959062456035e-01 -9.613244132465795233e-02
-4.908634694971246160e-01 2.119118790597832591e-01 2.397444206147406331e-01
1.524721651833119140e-01 5.099473629463365798e-01 -5.318299227029618104e-01
-2.644530237286512597e-01 8.100229969145954501e-01 1.636280222046756494e-01
6.823289234347534871e-02 2.762129590144390967e-01 -5.079468149662393905e-01
-2.145049449929918028e-01 1.019620395942088566e-02 -2.223530081828096472e-01
-8.202328891098868702e-02 -4.611045450405603652e-01 -5.922998990881408465e-01
1.434207757032122110e-01 3.825288866340705862e-01 -5.697987507573455401e-01
-6.283002475814101206e-01 6.764351284506933681e-02 3.726421603489318835e-01
-5.668680363313739479e-01 3.448401473941533485e-02 2.745496821563008782e-01
-2.217834657010180760e-02 7.397891684775190733e-03 -4.894282608234617471e-01
-3.029721989455561593e-01 5.493345249112779882e-01 1.136054972887611397e-01
-7.565687898108851284e-02 4.903171486377193578e-01 -2.241304889534496414e-01
1.102469024799753450e-01 1.538424089243216886e-01 -6.145333707037157200e-01
-5.629695741957070343e-01 2.137982111751000336e-01 3.402066261382490353e-01
-7.429017997004905283e-01 -1.082069409124264830e-01 4.614478048274767152e-01
-1.511249120490361086e-01 5.219338296389860465e-01 -1.072393120089548679e-01
-2.697801874775101472e-01 -1.090993096359211406e-01 -1.931808487101521199e-01
-2.941860738197768499e-01 4.929954868833083537e-01 7.913253221249140490e-02
-6.997174818891184200e-01 2.119737045457160685e-01 5.285910122724332139e-01
1.806906921883884576e-01 1.056915297102761081e-01 -7.310277724805954724e-01
-4.755191086106701492e-01 -2.858953801837660347e-01 2.128306543811367066e-02
-1.332976421938344147e-01 1.730951863733194429e-01 -2.701097316688995664e-01
1.458767998000968236e-01 4.647852746860403617e-01 -5.406034360354696755e-01
-3.850888843567621955e-01 1.351649180037290399e-01 6.306104611285452688e-02
-1.023317089963135182e-02 -3.966874387072066299e-01 -6.660543012768690430e-01
6.544808176502808772e-02 -1.527200097701986725e-01 -6.740480681868417090e-01
3.662270572430190163e-01 2.682142825673882180e-01 -9.232091679592386857e-01
-4.222907302483888126e-01 -3.119681279272621399e-01 -6.265649467784246973e-02
4.310447483600994834e-01 3.018436961980619504e-01 -9.995202085537014947e-01
-4.266562389595553451e-01 4.205579624340014672e-02 8.365231032400492761e-02
-7.734471410126292357e-01 9.566503267245737852e-02 5.844670473491963003e-01
-4.438778111352303934e-01 -2.276883079923586739e-01 5.895126561981634504e-04
-3.870710218187183860e-01 4.390518183119729301e-01 1.862085589754023940e-01
-3.174977516697968238e-01 2.359409357553468867e-01 9.519549978211649249e-03
-2.690550331390473282e-01 4.522668175573932303e-01 2.824150838249478435e-02
-4.828177129712836746e-01 -3.365044932917833909e-01 1.132382738245418102e-02
5.225110563631035071e-02 1.919891258575784077e-01 -5.192170332601461213e-01
2.786805454562145679e-01 8.575034048741428383e-02 -8.744380686451916906e-01
2.892483803665824582e-01 1.292472839592888612e-01 -8.718178088058424757e-01
-4.267082413581422262e-01 7.830738590944568145e-01 3.773312967503942295e-01
2.421527482583147872e-01 -6.385936114237632244e-02 -8.832026853186291104e-01
-5.198684755108259337e-01 2.107310583792264824e-01 2.793872830019453746e-01
-1.482069147745327664e-01 -6.324135048096967138e-01 -5.686514774300656105e-01
-6.210341803528446336e-02 -3.725425549136096581e-01 -5.847567476423531918e-01
-3.900097880391864003e-01 -1.439774266108093115e-01 -4.073600340075895360e-02
-1.179086738024228143e-01 3.082522439133406067e-01 -2.378388871906956803e-01
-4.640075657585393532e-01 -4.893167668201762188e-01 -7.523599816957506070e-02
-2.086614769797798530e-01 -9.656409357865886056e-02 -2.727345749969483091e-01
-3.649646113887190513e-01 1.296537375913230095e-01 3.304774660250176660e-02
-3.119334086817135421e-01 -2.457921423330009236e-01 -1.890481861639951300e-01
-1.666233170275385755e-01 -3.140721377153501970e-01 -4.170500201926818362e-01
-2.414829448213338947e-01 -7.262644422555435131e-02 -2.178614956950073178e-01
-3.845183358066427137e-02 -7.168351907787383626e-01 -7.538803283301948044e-01
-4.926958690365473154e-02 3.514782495312170352e-01 -3.156321239662869260e-01
-3.002132326883567570e-01 4.752944903975116486e-01 8.045391884130691229e-02
-1.233405367642233796e-01 -5.931737760037046892e-01 -5.874913265393195694e-01
-7.012176928287584821e-02 -2.756382440628516450e-01 -5.352727078279945205e-01
2.851295298467769745e-01 2.078931444608542178e-01 -8.349607342646637731e-01
-2.875117444050931947e-01 6.984395174380693128e-01 1.513039519616866946e-01
-1.898927887270841774e-01 3.744740939502667620e-01 -1.120542833882926526e-01
1.762549594235017156e-02 4.070433363053589382e-01 -3.861245895736933886e-01
-6.386919480229042989e-01 4.150314703687079110e-01 5.246552140354987515e-01
1.618749540186823488e-01 2.272024507483333955e-01 -6.568624749814706565e-01
-6.444368859094258273e-01 -1.035262271624958069e-01 3.271362724509083719e-01
-1.021870795754435852e-02 5.855031989410404425e-02 -4.856994467861796005e-01
-1.274442382528804818e-01 -5.717480173146785027e-01 -5.733270193653354774e-01
-2.138130575328844873e-01 2.676514727969706020e-01 -1.213005744216290732e-01
-8.969616240078132074e-02 -3.121193617534578912e-01 -5.226580707121092351e-01
3.480962867351474754e-01 1.918671566406376927e-01 -9.283866598922404512e-01
-1.052652727732336924e-01 -5.202082915402193170e-02 -3.980711508386669539e-01
-4.224577751084229726e-01 -1.019998946135050183e-01 2.076837724332093044e-02
-1.769727690068394893e-02 -4.104766140348046766e-01 -6.611958285260424173e-01
-1.308291442251202086e-01 -1.054029418131177155e-02 -3.462836646102775973e-01
-3.306678647913471186e-02 9.172624935530511447e-03 -4.736675607728428328e-01
1.526853509640556938e-01 1.975030339421344761e-01 -6.559218049748902768e-01
-4.719476164193364132e-01 -3.496562726369727425e-01 -8.919332785391956633e-03
-8.272572169030331102e-01 -9.044031252807870069e-02 5.851415705425342395e-01
-1.793761095584459064e-01 2.722897017598830960e-01 -1.670853157538329525e-01
-7.769517332763525852e-01 -1.014972592174397670e-01 5.111936307555953185e-01
-6.133898378728210726e-02 -2.806694389468961659e-01 -5.494117989161280136e-01
1.308939787462240880e-03 -2.040725220748540181e-01 -6.056976538999260251e-01
-4.584764169299003767e-01 3.997378319999264629e-01 2.693773203355013801e-01
7.056494062203980122e-02 -4.840720523299713030e-01 -8.124128273388465660e-01
-4.505514952147118835e-01 -2.100400948518428013e-01 1.681107902001790708e-02
-7.165288627134301924e-01 -1.463750925340070452e-01 4.098539066142118381e-01
-4.005001232177226589e-01 1.799653520757978908e-01 1.021239741564345244e-01
-2.913543007777288363e-01 -4.594715522868961788e-01 -3.021711399010411636e-01
-6.532342592575014761e-02 4.007182387163960580e-01 -2.739215047836734418e-01
-3.173995017099071614e-01 5.952756682999865712e-01 1.517597233102272736e-01
9.918219050267423897e-02 2.696486675379095033e-01 -5.533471969418382042e-01
-3.059990830185939717e-02 -2.659357074964965317e-01 -5.860827376928839927e-01
1.281617793442255404e-01 3.818702987522250292e-02 -6.851327863151316366e-01
-2.865959815144679679e-01 3.285891514156747961e-01 3.494993533862167639e-03
-1.596202595476527708e-01 -6.853798112733615611e-01 -5.738544527113307314e-01
-4.182241037986513255e-01 4.585053993062605526e-01 2.369977614068037031e-01
-6.663114628750896884e-01 -5.407175095700399864e-02 3.769813153957276564e-01
-4.657052166455727393e-02 1.502001533869523342e-01 -3.991152845277954886e-01
-1.224314296920181594e-01 6.031617259042685308e-01 -1.147350224173930427e-01
-8.595027918656016064e-02 -7.562559737389872305e-01 -7.038145600221757947e-01
-5.123453062970213523e-01 -4.335110928475424674e-01 1.372116449220489760e-02
-2.981724857044517618e-01 -1.554012553550789544e-01 -1.722632404251550897e-01
-7.907019918265667524e-01 -4.683526070455006768e-03 5.685683782260728680e-01
-2.759079835144076162e-02 -7.365008113445395410e-02 -5.140563619463474065e-01
-4.839681844200312555e-01 3.214215206327832863e-01 2.735990434219950362e-01
-2.965211667468329315e-01 8.642135991149164920e-02 -7.873158364878625470e-02
-5.891053759125589595e-01 2.584900563409299190e-01 3.940574181358609263e-01
-2.094846455151576636e-01 4.431352353687923462e-01 -5.775590290706653085e-02
-3.842393838240955595e-01 -3.299312387654715351e-01 -1.223946811448820421e-01
-1.059025601051174770e-01 1.716739419286409940e-01 -3.085572399816748357e-01
-5.110854941998250744e-01 2.718084841772717697e-01 2.914415587420760012e-01
-4.653976482875770704e-01 5.623954084701645595e-01 3.433970025902868817e-01
-4.989548289500107536e-01 3.550320538888890320e-01 3.076411282412653825e-01
2.519640134357860606e-01 3.196068311350073743e-01 -7.448331460476985688e-01
-5.192775022305485821e-01 -3.410753828105431706e-01 5.993261672340691876e-02
-4.279257109688439642e-01 -1.103435487124021369e-01 2.502399756161489963e-02
-4.743104340087565540e-01 2.126258799791204690e-01 2.171362980620417660e-01
-6.878759868082820472e-02 -5.045217785660278675e-01 -6.278062296062761893e-01
-5.139660765635312156e-01 6.092781414651046168e-01 4.291377225210649127e-01
1.157636580484989325e-01 4.409736421395171746e-01 -5.083949516181576200e-01
-1.447031471535082658e-01 6.590205740884336194e-01 -6.180322990055640148e-02
-7.381977761938656180e-01 -2.244133384387360097e-01 4.088992191040606849e-01
-6.562436977674362959e-01 8.009157607920752708e-02 4.162170608141656514e-01
-6.491761068121028322e-02 -2.111993955831006908e-01 -5.169374475079820952e-01
-2.631821561725492670e-02 -7.625684632454023948e-01 -7.887802780398666114e-01
-1.093123628881385451e-01 1.189663466368989370e-01 -3.247257254385073622e-01
-4.209276515626980131e-01 3.261165880356602376e-01 1.882812153099115704e-01
-3.221545095208553922e-01 7.109937923747837729e-01 2.041853504135635322e-01
-2.562699541358039457e-01 -6.332624847420631475e-01 -4.195485803611639364e-01
4.335530316440029952e-01 3.093871794691553379e-01 -1.000000000000000000e+00
-7.247307029124594457e-02 2.973594992312427188e-01 -3.049872588488787839e-01
-3.709895808310755272e-01 5.916677638322715982e-01 2.244393718301308238e-01
-5.406758301160099478e-01 -4.425489913337996017e-01 4.931815142613081571e-02
-3.147624635099403045e-01 6.400555085414202372e-01 1.658557123783404863e-01
-4.519509210729129312e-02 -3.155132231058938586e-01 -5.855428692437345539e-01
-2.076339528272613533e-01 5.498803791715592970e-01 -1.802051710704126453e-02
-2.705738483662942229e-03 -1.950016504125582084e-01 -5.965517243065781017e-01
-2.443745040759092158e-01 1.600911141848402608e-01 -1.216551553592573470e-01
-4.106464788554833323e-01 4.170652176212610862e-01 2.100992618484531782e-01
-4.508676138359331564e-01 6.259279300906359644e-01 3.484764978764826604e-01
-9.962788451716675375e-02 9.671429476099851000e-03 -3.814232565641318962e-01
-5.255112037660626401e-01 6.707825686869071102e-01 4.694727203334398413e-01
-3.372778807929583400e-01 2.262694527951530366e-01 3.304124321749037085e-02
1.304401398557555325e-01 1.794325473077083288e-01 -6.323190382556859168e-01
-4.586507853019332059e-01 6.598352808046825668e-01 3.726745782408116825e-01
9.825664224704842853e-02 -4.220153392524104707e-01 -8.261192147179629020e-01
-3.522300264487278065e-01 -2.378750562360922027e-01 -1.301854848032631129e-01
-2.104584727415502021e-03 5.325616053907011871e-01 -3.091070608178412837e-01
-5.303503257162005546e-01 2.927702869777432659e-01 3.263882096713640601e-01
-4.784970743200223642e-01 3.972848914735949144e-01 2.960917772863765340e-01
-5.848469439731305286e-01 2.478745278085346393e-01 3.839623782545577568e-01
3.646887545005705888e-01 1.386549656135405151e-01 -9.724160139167101757e-01
-2.655058303100920059e-01 5.083212094453882779e-01 4.554329072392112460e-02
-1.963838964967482281e-01 -6.182668748938320302e-01 -4.964228233111738220e-01
-1.393412564134664799e-01 5.483232958482809893e-01 -1.130787436428508236e-01
-4.162586729670020302e-01 5.680943053486205985e-01 2.777012359047543733e-01
-1.052369361795349595e-01 -3.614351529100811450e-02 -3.918194087303831230e-01
-2.167621134881013989e-01 -6.841213121666629426e-01 -4.943349185153247949e-01
-2.765906323305148407e-01 7.437899523002371449e-01 1.541700609940896138e-01
-4.899800076820121641e-01 -3.771008853646789505e-01 5.143340529755379038e-03
-2.861991333228638412e-01 1.846336085945938232e-01 -5.409204303960370858e-02
-4.346056649330489741e-01 6.721685441945102202e-01 3.443095257327866143e-01
-6.595499257535711868e-01 -2.063413315663616132e-01 3.072984169604135452e-01
-4.227457188235878571e-01 -1.937889967597449248e-01 -1.520221734964007955e-02
-1.909865022394134290e-02 4.216649451260227610e-01 -3.295457488497592347e-01
-2.649207911196607701e-01 -4.761020467321518401e-01 -3.453151268787342798e-01
-5.637197306999602864e-02 2.481124487996430317e-01 -3.467660287313030221e-01
-2.878155334744118138e-02 -7.505581013887570041e-01 -7.806149931845615120e-01
-5.151108245155400223e-02 3.064749180305130771e-01 -3.303636569324716055e-01
-1.364692423860579262e-01 5.584916596256923604e-01 -1.130215013166119692e-01
-7.766389527424427675e-01 1.287140559171083831e-01 6.019756953620911677e-01
2.166174677924467551e-01 1.489934206108771697e-01 -7.635534184470940122e-01
-4.474708204750241225e-01 -1.004539986016659142e-01 5.597118073149590783e-02
-2.724938419565583470e-01 -3.273246509093112877e-01 -2.758936720371026885e-01
-1.053154836992438309e-01 1.469776709701440254e-01 -3.191542883277026510e-01
8.799252730119240529e-02 1.162788470804907437e-01 -5.986415009131900167e-01
-3.489460778893700987e-01 2.170595068137052552e-01 4.552789868546151114e-02
2.359721946794420544e-01 2.465695338963010130e-01 -7.516571483352929572e-01
-2.818190535326272061e-01 1.860067089162723286e-01 -5.960515947961488731e-02
-7.015104505187493011e-02 -6.151414775406156554e-01 -6.697506043301207912e-01
2.700502001823688533e-02 3.285318508553179417e-01 -4.302033539650864657e-01
-7.081568941273726214e-02 -4.018617549994543681e-01 -5.843255248413452563e-01
8.203828452863787257e-02 -1.343068580261121969e-01 -6.896948100473982990e-01
-4.818218245901778052e-01 1.153516275431965415e-01 1.889816019847030959e-01
4.002085738279231864e-02 5.613502072951730426e-01 -3.559552527296875324e-01
1.277672861455061981e-01 7.574866740677939358e-02 -6.697045282334320726e-01
-4.462217689884260818e-01 5.957956652558822341e-01 3.301127637589282293e-01
-6.029976320328698236e-01 3.676516864520765204e-01 4.565210312707143059e-01
-1.283718956145456225e-01 -9.517124204334379001e-02 -3.832143452773392189e-01
-6.393506705893331477e-01 2.867515181245092193e-01 4.747389170073626485e-01
-1.263536977376333859e-01 -2.337770997489903857e-01 -4.409238711785836151e-01
1.733180133928584055e-01 1.642626669933286432e-01 -6.976250429304976519e-01
-2.961663475696290071e-01 4.006004896393518533e-01 4.526217516902462240e-02
-1.970961242992057272e-01 -3.423712445432322560e-01 -3.861221904617899714e-01
8.334175680763766803e-02 4.132512399572885187e-01 -4.745432369971819830e-01
-4.045445825023713526e-01 -2.843631345584538006e-01 -7.625977852596667328e-02
-8.199837013086921367e-01 -2.175338619845179344e-01 5.247259397748024190e-01
-7.647674880464698788e-01 1.140196065088647653e-01 5.797365147482633763e-01
1.351387811240704027e-02 6.174545338076187911e-02 5.258013652708440899e-01
8.894991654289916005e-02 7.723743029053827813e-01 7.030478549490997153e-01
3.227023811086261462e-01 5.586640675610696771e-01 2.951174150751618708e-01
1.532365911641563570e-02 -5.775588860200261410e-01 2.699926991309801738e-01
8.247221666363946380e-01 9.775747089418299063e-02 -5.817416227826326391e-01
3.618181591173782463e-01 -3.276402247918541732e-01 -1.101479558940321735e-01
-3.286113363030570556e-01 -3.235054813424569353e-01 8.462782625462668129e-01
-2.456840607231788876e-01 3.811141269707747983e-03 8.612887623481416677e-01
2.167834606041803280e-01 6.195348384383494444e-01 4.657099062191472627e-01
-1.389299064870694045e-01 -6.336829871420369964e-02 6.870416064480622254e-01
6.463965629865306983e-01 2.696531257782008861e-01 -2.670282502389398349e-01
3.307676497749063582e-01 2.573277292443978612e-02 7.280535491720646624e-02
2.381305252026457708e-01 4.134254358997261347e-01 3.545243504506456200e-01
4.246587765014489535e-01 1.407792641705517545e-01 -1.145187192089379240e-02
5.851699030274218893e-01 -1.314978246743660761e-01 -3.413030378992334413e-01
4.272314823863926914e-01 -5.655815579240500712e-01 -2.948847797911340884e-01
-2.323857062495719994e-01 -1.513212588272293824e-01 7.814318557082901018e-01
2.269316867689616102e-01 -3.783143312713990042e-02 1.912135682517490387e-01
8.538758293958848000e-02 -3.399391726881905718e-01 2.672519797406486264e-01
3.636189576686912894e-01 1.286688111052783356e-01 6.816105598897340134e-02
3.906295229692724469e-01 -9.313668110243531473e-01 -3.892001766680907027e-01
5.567425845513767069e-01 -3.446476605549251837e-01 -3.864456732445898379e-01
1.109433424639774957e-01 6.494610392782544928e-01 6.239325274173356251e-01
-2.504888355452815005e-02 1.494494831518621558e-01 6.138796139132496332e-01
-2.171376292890113413e-01 1.871040472323994286e-01 8.944367287195723604e-01
-7.133917788653425240e-02 5.042878278223548172e-01 8.184884703336983147e-01
3.020425571296517231e-01 -7.673701859788788493e-01 -2.017152191827535079e-01
-1.205437210187684932e-01 -5.389715020663335965e-01 4.731714607864425659e-01
1.449153525813083876e-01 1.055237571492829429e-01 3.614334916370959272e-01
2.925566548739283457e-01 -4.992549921732784557e-01 -8.236433490876456098e-02
-2.065302528161025442e-01 -1.734403869632769046e-01 7.369125437423609259e-01
2.632299884480281474e-02 -6.086251135644520360e-01 2.424727255594171793e-01
4.489765766000112235e-01 -1.616327147215863846e-01 -1.649027509202904140e-01
5.167202350407782419e-01 3.745309960997929566e-01 -4.614533519190230221e-02
4.273893878935672852e-01 -1.526164034176149230e-02 -7.705472257214888987e-02
4.677817933783323667e-01 -5.944989539415881374e-01 -3.624190791275964663e-01
-1.951614958220100060e-01 2.320102979671185839e-01 8.818389656402251253e-01
4.804457549502932565e-03 -4.802474239842360881e-01 3.230964614177336824e-01
4.759866465554188908e-01 4.221077574847167946e-01 2.903565303814837142e-02
2.418122112137844892e-01 3.368094722485353576e-01 3.190761144582651698e-01
-2.808528708466834223e-01 -4.075958254154760652e-01 7.469151873327594116e-01
-1.160681276155465375e-01 -1.112557664989100997e-01 6.364522539731347628e-01
4.742922588180040755e-01 -5.123225537362392501e-01 -3.388623030910718481e-01
3.254919936567285954e-01 2.141914838387585229e-01 1.547723445521660135e-01
6.288255167519556377e-01 -3.712322516576198606e-01 -4.966618077946226562e-01
3.343009870240106207e-01 -6.261826298448556205e-01 -1.903835704460362377e-01
1.964331576706229709e-01 4.965209357720425376e-01 4.451114164572190779e-01
-9.124656071971103122e-02 -1.129340461828564901e-01 6.014617909011646946e-01
6.907899852113212891e-01 -2.375034125102145621e-01 -5.293656403095851060e-01
-2.253566260227008455e-01 1.684967436859345358e-01 8.984300876182946816e-01
2.398573460074611419e-01 -3.514729598022511142e-02 1.744023172765243601e-01
-6.606538643054150894e-02 1.312519342194589655e-01 6.633906648217481328e-01
5.131136513997257564e-01 3.125380322564316193e-01 -6.572075435091501161e-02
4.160065421731975466e-01 -8.825059316023705636e-01 -4.049340823738518114e-01
6.411215845017496084e-01 1.010213116661079352e-01 -3.265490372848432465e-01
-1.836565128746736886e-01 -3.507701046872768180e-01 6.350188856440314167e-01
4.110695783481748689e-01 2.611754544499811370e-01 5.504401643933390376e-02
1.360840449939035857e-01 5.133786955629229265e-01 5.352469941542207232e-01
5.494242969575612312e-01 3.914255324049409346e-01 -8.467747705925053603e-02
3.273916551986018053e-01 -1.525936642175135076e-02 6.123202855430954356e-02
-1.477832666516322169e-01 4.128576784483069945e-02 7.407509892002969165e-01
8.098627035929597540e-01 9.225514008371027419e-02 -5.633727622432608273e-01
-1.682019801987462981e-01 3.282183068529809788e-01 8.826765785734288494e-01
4.886140594474510518e-02 -3.822966666412385139e-01 3.009807219104831955e-01
5.164508637578415495e-01 3.282486118836145522e-02 -1.811640423129736444e-01
7.253495379738614246e-02 -2.758737338750014700e-01 3.104098358311787598e-01
1.903190919938769488e-01 5.284652439030714799e-01 4.662235082514785689e-01
4.475402936541926779e-01 2.702368497287153670e-01 8.199351200904940809e-03
-2.352200766670944909e-01 -1.792398127221149495e-01 7.742895546254834338e-01
1.943337273037743507e-01 1.035897002199886729e-01 2.923270081661548669e-01
1.688057291819293204e-01 3.009895516100979385e-01 4.058434256052004807e-01
4.112316657232998884e-01 -3.074190964507726997e-01 -1.704693530000515045e-01
-3.587311805985828883e-01 -3.013963780286676442e-01 8.966907853294849851e-01
-2.621747363235788636e-02 -1.208049797539959003e-02 5.514940408473871791e-01
4.619975120350493514e-01 6.148873214549047811e-02 -9.450382099042523021e-02
5.107773389368586159e-01 -3.411379910555661921e-01 -3.214901958703408891e-01
7.030709040590765735e-01 -2.629510700195602513e-01 -5.564317000320000428e-01
7.505504736891940865e-02 -3.198350132754193553e-01 2.895064327171739116e-01
4.765887919285122232e-01 -3.380451379857866701e-01 -2.729857470435877453e-01
-3.949591690847373271e-01 -2.480577505870574517e-01 9.679239985618741660e-01
-1.977848627823628261e-02 -5.546128291651060502e-04 5.471564307022045437e-01
1.328976862968362926e-01 2.696321282385038542e-01 4.430758176512153979e-01
5.144602159911418893e-01 2.233537625248861180e-01 -1.029196040514521737e-01
-1.299790558644849936e-01 -4.679948376038863267e-01 5.143419494431308303e-01
1.199870628959087276e-01 -2.978062110910061899e-01 2.360986828791445113e-01
3.163107411886043607e-01 -7.605210313942577516e-01 -2.187327658682577114e-01
7.479359828353713269e-01 -1.006181014831402931e-01 -5.541553972810248085e-01
5.991703948133313418e-01 -2.861351481956865839e-01 -4.219347632662831526e-01
4.270173017312107189e-01 -2.239036138970435241e-01 -1.592085434263781074e-01
3.989880998531870060e-01 -3.457795077078122392e-01 -1.687370584892418646e-01
5.222736145578331657e-01 -4.329289699462502417e-01 -3.737578114482256186e-01
3.790141127739712901e-01 -6.698743085168652467e-01 -2.695284682202392368e-01
2.046233329014357782e-01 6.994219766211200451e-01 5.141790019483217788e-01
2.408782798927280588e-01 -1.940497882739699864e-01 1.100299405355164017e-01
4.690225365128491419e-01 3.482985328039421291e-01 9.421469924330799425e-03
3.238201601778127880e-01 -5.335143560971249421e-01 -1.391726058489111129e-01
2.867553249809000615e-01 -1.190793694508835571e-02 1.187555048305353605e-01
5.725156576045971057e-01 -1.230570955717267406e-01 -3.204592143798299375e-01
-2.479250353179789645e-01 -5.262762748789029388e-02 8.420255461845463918e-01
1.555011932585977918e-01 -1.721985072978167164e-01 2.367549885322697556e-01
-1.692930273123244844e-01 -3.166949982242606709e-01 6.286570470487244933e-01
3.006453984320531791e-01 -6.377839146581498753e-01 -1.484382734857878361e-01
2.297107548986776493e-01 2.182481572429297578e-01 2.888345880518822795e-01
3.898309737312443124e-01 -6.089745826574031184e-01 -2.603572324954673278e-01
3.845863865123125280e-02 -3.161128440430654440e-01 3.415900374868965916e-01
1.588022249349413384e-01 -2.052010882998797081e-01 2.191137027647751534e-01
-2.238751491928468174e-01 1.121356309827802045e-01 8.740499001164649950e-01
4.066379421669621963e-01 2.745473728822719339e-01 6.647071884851116219e-02
-1.708876688142641764e-01 4.022379080036907195e-03 7.579372876242986834e-01
-1.187353935993903514e-01 7.445069066640146171e-02 7.137216260430284676e-01
4.774988082951769908e-01 -3.776728919933544648e-01 -2.899455560529828890e-01
2.539014015404816860e-01 1.012476946598805799e-01 2.090235234533049935e-01
-1.792759151248145000e-01 -3.562999205566756422e-01 6.267699711232828097e-01
4.061456100155095839e-01 -6.569726825198242137e-01 -3.019364426773202270e-01
-4.934221245867582289e-02 -1.998621720124766632e-01 5.090699256532070782e-01
4.346465532947830224e-01 5.231170907369027123e-01 1.262264888006754404e-01
3.805078864655379589e-01 1.070290695850474247e-02 -1.935065495293962013e-03
2.314596734664216976e-02 9.612979554102485391e-02 5.261050524035207898e-01
-1.037358723252618589e-02 -6.083723668202977164e-01 2.933202058103763221e-01
4.390539093551297234e-01 3.504789146411401157e-01 5.172869394212967209e-02
6.715072249622749956e-01 2.299552354167802015e-01 -3.174826760768974521e-01
5.819545804425036994e-01 1.073731346885749699e-01 -2.422108605726878416e-01
1.335534227123478523e-01 -6.437627724516173933e-01 8.026257446564398490e-02
5.743660939898940221e-01 -4.956856448355554945e-01 -4.706614984250175326e-01
1.820934736425340594e-01 5.125762238152872102e-02 2.885188516307098938e-01
7.801653965072607999e-01 1.133159040574785170e-01 -5.139599361620913465e-01
-2.189386749275717275e-02 -3.998877248648326499e-01 3.918575214356533887e-01
2.494316866583539682e-01 -4.933122921411302042e-01 -2.037263003778483003e-02
1.879045931869052499e-01 7.245411321296087170e-02 2.888812125878785220e-01
5.224198325242103147e-01 -4.690920876416920099e-02 -2.210107982738630239e-01
-2.085423624822624611e-01 -1.062599416901266643e-02 8.042055853623654160e-01
-5.756900564774219270e-02 5.680541267018474061e-01 8.247113988741173740e-01
-6.911801538399081624e-02 3.893682981654287278e-01 7.698832922494683872e-01
5.418640685952087477e-01 3.254488688622041992e-01 -1.003638673511991070e-01
4.470727077000713479e-01 4.038645555355787481e-02 -8.222563002142717348e-02
3.217212980072801237e-02 -4.859624391251896602e-01 2.829855748742471921e-01
6.949864240803454475e-03 5.433963927046008280e-01 7.257189910164635327e-01
5.502932281872016107e-01 1.438636891697202269e-01 -1.839683660988751246e-01
7.315164154871123259e-01 -2.171610509861664207e-01 -5.776257325233973283e-01
2.326613896437532969e-01 5.832628549515310734e-01 4.293807500644852282e-01
-2.398141188709773663e-02 -5.014638372633926089e-01 3.544977553307230300e-01
1.709565977634079290e-03 -6.776860765524785057e-02 4.908092109164880479e-01
3.723052367645895977e-01 -6.192112401111653508e-01 -2.401770494217139451e-01
-2.640848660100696653e-03 1.989621172957464212e-01 6.025097255352050984e-01
2.060164918174722803e-02 5.487717787574588613e-01 7.089699180687971669e-01
-2.780279440977356797e-01 -5.272829158351253348e-02 8.836146681177438067e-01
-6.707402726063770027e-02 -1.196292404277905091e-01 5.653810616316281568e-01
1.186874885236482158e-01 -5.566468953197808434e-01 1.353376822228749554e-01
2.681291599236951817e-01 4.458550993031857868e-01 3.258888632506041216e-01
-1.827423138814296133e-01 -4.093292554936201477e-01 6.105522715929735389e-01
-2.772221783114279803e-01 -8.972194917381143275e-02 8.678427110457590521e-01
4.015675007428954890e-01 -4.028086995045538493e-02 -5.125904617938890212e-02
-3.805500962899956430e-01 -2.242540524783597777e-01 9.574293680079015711e-01
9.093033856826024386e-02 1.308029138687859805e-01 4.461049579239990126e-01
4.322162011039543672e-01 -5.068335867574147446e-01 -2.785009045713394138e-01
1.755738291964724918e-01 -3.187893566505302090e-01 1.509143403384303472e-01
4.385477683321883369e-01 -7.843046147276817592e-01 -3.971966708588629547e-01
4.526720574298880306e-01 -3.112025752135980650e-01 -2.292759448432913072e-01
1.734046957433966474e-01 1.486162826873232701e-01 3.391100405510120153e-01
-9.668774238807752858e-03 2.414756833411860759e-01 6.290733490678154238e-01
9.001108293983626218e-01 1.547981997119287356e-01 -6.633950932208787510e-01
1.241142916004373958e-01 -6.506465105902210083e-03 3.458103177392349847e-01
5.595556962132083312e-01 -4.925858699197389612e-01 -4.489521530135251459e-01
6.430028108762294581e-01 -3.144982689522309305e-01 -4.937882367970912179e-01
