-1.348841689088185400e-02 -9.766480637085385441e-03 6.898289090054263717e-01
2.464144605376321906e-01 -3.601380054220941485e-02 -3.082904321453682761e-01
-7.434315859478685118e-01 6.987759213581780371e-02 3.776067584095747498e-01
-3.184011717876947256e-01 2.284312054052205568e-02 9.059720729331547373e-01
1.606879834828119635e-01 -2.821203784148522409e-02 4.706340769541377256e-01
4.506248667382913853e-01 -5.913625025483629227e-02 2.210860893449507480e-01
9.399612632218218300e-01 -1.115281728352618684e-01 -9.493476280664722711e-02
-5.378732664169544320e-01 4.815495992368188510e-02 9.457486576479158524e-02
5.703552690723322494e-01 -7.153004186112479901e-02 -7.982109559676363320e-02
3.543167630184641537e-01 -4.904474434805283084e-02 3.988763231332778658e-01
-3.227107251439499391e-01 2.465577565334806445e-02 1.985939621522271326e-01
-2.745630679701530075e-01 2.050874029861282297e-02 -3.622685863929611672e-01
4.063483423641976455e-01 -5.466178343766401465e-02 3.895328410010998055e-01
7.768091255985226651e-01 -9.383667577639051571e-02 -1.068947818159813601e-01
6.302546033574241147e-02 -1.662466079427794494e-02 -6.065951559250892799e-02
-3.530355501440432531e-01 2.894321191034488275e-02 -3.287418284561734461e-01
9.079064445499891722e-02 -1.957566924962756555e-02 -9.001356396176343755e-02
3.325009609172713820e-01 -4.534983090765568048e-02 -3.013540675906931643e-01
9.183212203348257718e-01 -1.093912823905952569e-01 1.366823297906112102e-02
7.838983618040212820e-02 -1.726002509760547060e-02 -6.012193586744833951e-01
3.407571049296495569e-01 -4.692471211986496554e-02 5.643403207946160599e-02
-2.353241346769329584e-02 -8.065681251324778589e-03 3.676209508833384043e-01
-6.501637233698666085e-01 6.030846487689602020e-02 9.831357326086082038e-02
-8.333006938134530639e-01 7.995787412899524327e-02 1.948122594929760920e-01
-1.307045964855959030e-01 3.966863279596502360e-03 1.436187705475230614e-01
5.287838569142924161e-01 -6.666110415449814919e-02 -2.726579487275624381e-01
-2.329190274110936876e-01 1.491902039585078082e-02 2.052499209481432885e-01
-1.540954851730346083e-02 -8.133250499402762054e-03 -5.919038033483505629e-02
3.275360317449726999e-01 -4.475522817974478956e-02 -3.312691640918907221e-01
-3.702963547436261549e-01 2.968062083792321129e-02 2.661249263487355798e-01
1.416683910019038983e-01 -2.588268977761101763e-02 3.289425046463769764e-01
4.684480156927053190e-02 -1.511250634911469153e-02 6.555293640111527209e-02
-8.608036641968569436e-02 -1.119167638110833392e-03 2.767964722393652655e-01
5.351405350960709573e-01 -6.668387116841709150e-02 -6.224908576055747655e-01
-4.911308982382858734e-01 4.323937258776868603e-02 1.761746972585781154e-02
8.189131954701703298e-02 -1.893228293662057096e-02 7.836367163074797748e-02
2.036093711024654362e-01 -3.126361851049942742e-02 -3.684975694852112849e-01
5.094460654305766889e-01 -6.402561611557631982e-02 -5.571342151862246350e-01
4.060949926615613492e-01 -5.221534130464059592e-02 -8.818033029796698008e-01
4.197023434939936570e-01 -5.519782600581819160e-02 -8.880366624507471385e-02
1.545276727007124651e-01 -2.730667961138688593e-02 3.454344999117992532e-01
-3.323499894337461624e-01 2.628870694433994154e-02 -1.109809862824973903e-01
1.071406481771002145e-01 -2.082616408062806443e-02 -3.633827245247994719e-01
4.522392672884971154e-01 -5.893233481868645485e-02 2.203033298358068187e-02
-1.379798521332610897e-02 -7.800800504240271160e-03 -3.256374703189864328e-01
-2.535872441206518668e-01 1.682317364606309915e-02 3.808579164201723599e-01
-4.021258943744870917e-01 3.218863294648604406e-02 7.596287436079356414e-01
6.446623357112282182e-01 -7.919036635020790249e-02 -2.831299057519786611e-01
-7.790536987129867974e-01 7.412398502334988093e-02 1.733436142364954691e-01
-1.679065417353483303e-01 7.601710536010286741e-03 3.506786452096104512e-01
-2.347354098040162484e-01 1.564201048397014654e-02 -7.134415326432112792e-02
7.552149452881392611e-01 -9.185203069594491398e-02 7.911219350323969723e-02
3.975428372502122221e-01 -5.201164180763986206e-02 -5.021031838885514631e-01
-6.278994114254164982e-01 5.814039286098147963e-02 -2.943265100160158410e-02
-2.506696061186081681e-01 1.712763132221831533e-02 5.478561963904734350e-02
-1.296734875612848281e-01 3.938358436196672842e-03 9.991295150573409334e-02
-2.615951322413632152e-01 1.922216230866787001e-02 -4.241791510571387702e-01
-1.616813260629024751e-01 8.349878421653406449e-03 -3.968456316052033639e-01
8.163933319362220997e-02 -1.865234582813646638e-02 -5.441838061704017820e-02
-3.069537787260321338e-01 2.246953864785782712e-02 4.507694937595802531e-01
1.563530796308121307e-01 -2.648139228252661959e-02 -1.922001119695145588e-01
-2.534146691549894470e-01 1.837075851739584931e-02 -4.423154737403599546e-01
-1.149587287340584577e-03 -1.074326592456100946e-02 5.009095891437310710e-01
3.935646716863656080e-01 -5.117853087028239462e-02 -7.135319174383820684e-01
1.792879809080958897e-01 -2.775266774363568945e-02 -8.294355424940942356e-01
-6.218130189232885519e-01 5.759661565745059775e-02 -9.005899797804665929e-02
-5.265368352675073860e-01 4.731100242543197221e-02 -1.071008544528887912e-01
7.612414657167699827e-01 -9.248924748045382616e-02 7.100179012696043734e-02
-5.932635697436819955e-01 5.417691257437563801e-02 8.227738033746294366e-02
2.608068754571499781e-01 -3.792106910316787871e-02 -1.250659467596438035e-01
-9.778150323125205101e-02 -5.669202442942284552e-04 6.525414841783141462e-01
5.971040968055603138e-01 -7.339523332771900888e-02 -6.219915696909421587e-01
-5.001024878478196323e-01 4.467876940617393489e-02 -2.282447543804226875e-01
-1.699439604861979758e-01 7.363173869548045314e-03 5.920066039452438478e-01
4.635172794375675420e-01 -6.049162505416078028e-02 1.996309695646966698e-01
6.263821351220064670e-01 -7.724833386462916229e-02 -2.633467357137276865e-01
-1.770454463099303821e-01 7.739334538857097455e-03 7.985010723444022629e-01
3.603867033389739349e-01 -4.765832541105523290e-02 -6.752504577316071899e-01
-2.698451194833185185e-01 1.951974953272398935e-02 -1.110210925360960027e-01
1.944800066908073666e-01 -2.991478209646315431e-02 -5.577847768674678575e-01
-1.200742603689576166e-01 2.403381547233078303e-03 3.602855968768161055e-01
2.015980543599749097e-01 -3.026123047550757436e-02 -7.808375202744206600e-01
-3.416090139961632244e-01 2.527841017556688510e-02 9.469812151856360494e-01
-3.791742780797583423e-01 3.109701799255061919e-02 2.701930627996260853e-02
-5.119112366841473971e-01 4.503303207529400776e-02 2.576782861929833857e-01
-1.445705403974111292e-01 4.733544762674743792e-03 5.298782082193942422e-01
1.463179599182592994e-02 -1.277311791108605779e-02 6.695043165643034255e-01
9.304438435029593890e-01 -1.103996666270546795e-01 -1.463382323886535386e-01
2.306355536341124224e-01 -3.571826646408417932e-02 4.344646622479897968e-01
-2.869395841129100955e-01 1.982503372375971420e-02 7.014863488706822858e-01
-6.005464836834852882e-01 5.449321406338003548e-02 3.305577415354968296e-01
-5.313169430439685925e-01 4.807572175933340353e-02 -2.369420375435881132e-01
9.071128645200555729e-01 -1.079778157813861827e-01 -9.125769427443793103e-02
2.022653205630343606e-02 -1.248605941018355800e-02 2.002059360113061792e-01
-5.550970327006904403e-01 4.889935630131830857e-02 6.836612030748350222e-01
4.693827075682295846e-01 -6.019032201897960010e-02 -2.925605713553933174e-01
-1.102037954065159808e-01 7.128956166039422324e-04 6.869499710017410443e-01
3.470572880561866858e-01 -4.606499076527378195e-02 -7.539853236246464308e-01
5.914043748212350904e-01 -7.321877370055371315e-02 -3.903250778546204502e-01
1.856130797910328367e-01 -2.886568644153537228e-02 -6.044767360427238945e-01
-3.408611872352537708e-01 2.773125922816537317e-02 -3.847053834405630979e-01
-1.651521360490222912e-01 7.171609076490391074e-03 4.199529429098278199e-01
-3.543161248987787837e-01 2.787160237364805573e-02 3.073404469631751401e-01
-9.760540202057256531e-02 2.064666189815378579e-04 2.360560804707642069e-01
-6.389509779598977202e-02 -4.154559718672228008e-03 6.093791558970745870e-01
-2.389047056696959673e-02 -7.679038787227719653e-03 1.847958196309870960e-01
1.455931984112360800e-01 -2.633937718205171113e-02 3.455744583446017093e-01
-6.284827945371619373e-01 5.728176773132154925e-02 4.550316704533732826e-01
2.083517830984701058e-01 -3.272920106542784313e-02 1.318358611176101702e-01
-1.469709333617730262e-01 6.260026966718276742e-03 -1.357607091569436319e-01
-4.779861812336413385e-01 4.192859367723770353e-02 -4.163575198568823105e-02
-5.051678578987254253e-01 4.529505494768548690e-02 -2.638387839090506892e-01
-2.516118106123516052e-01 1.806653460694868443e-02 -3.850390641929637425e-01
6.156512852179768513e-01 -7.633366248021362932e-02 -1.333029356941609345e-01
1.570162995500314507e-03 -1.033002850467768484e-02 1.289298738940214961e-01
6.253724879044413321e-01 -7.660393547006402737e-02 -5.445523919313530747e-01
9.924161418066822227e-02 -1.969307212218594783e-02 -5.093087575212952300e-01
-8.255966391263451776e-01 7.909604527227721837e-02 2.092703364904226759e-01
-1.489507895443938912e-01 5.779878744324342191e-03 2.292727414552519216e-01
2.117520168909803324e-02 -1.232141266930671976e-02 5.967921194139929469e-02
-3.648608797201893794e-01 2.804960686041506682e-02 8.139561895334433972e-01
2.880973476827922153e-01 -4.090336122340430119e-02 -1.109596768436327957e-01
6.573749154184421739e-01 -8.117859843849789536e-02 3.825583959822579511e-02
-1.287965387613725921e-01 2.742910840074992088e-03 6.782815656371909974e-01
7.864730428044711674e-01 -9.492347363222411460e-02 -8.574970728151581900e-02
3.937990168209788977e-01 -5.236004895498864997e-02 -1.059095185384956728e-01
-7.276587496890931650e-01 6.845705602606652618e-02 2.264549678117140641e-01
-1.885794425838767940e-01 9.724997098709694046e-03 4.113852060936817878e-01
7.519766887111332954e-02 -1.819984303567234382e-02 7.439903002349144978e-02
6.500756013696344926e-01 -7.955440661395404844e-02 -3.999072078752168302e-01
-1.450565812989069725e-01 4.376434650148176841e-03 7.452251765991787513e-01
2.979788096423010429e-02 -1.271872690397990273e-02 -2.222784048816323077e-01
-3.505788674830526142e-01 2.864387444818678602e-02 -3.112467744589739183e-01
8.364045839918872460e-02 -1.854557190526223004e-02 -2.244312176437434359e-01
-6.960041242251449045e-01 6.468351350331480454e-02 4.080207081773339350e-01
9.287453609706853783e-03 -9.966411329406203376e-03 -5.014126761954555977e-01
3.176562566265618559e-02 -1.247477719312826451e-02 -4.624856647084052974e-01
-4.019034701824427125e-01 3.398906157089547769e-02 -1.992668272009608943e-01
-5.388134393300088032e-01 4.813302787745369488e-02 1.596126354744330511e-01
8.438592802543041227e-01 -1.012869641923225261e-01 -7.554150812379417136e-03
2.490967313962910712e-01 -3.562132183184176654e-02 -6.672269795153771277e-01
-2.822274255747139748e-01 2.047842066662839550e-02 8.989284880647360754e-02
-6.563210051486655372e-01 6.077569009358988611e-02 2.032074521247504428e-01
2.586649553203216878e-01 -3.664337135370249188e-02 -6.746646341148004877e-01
-3.046339222926462420e-01 2.350295140491457518e-02 -2.243900545397037871e-01
2.404418062614343543e-01 -3.534900671884456946e-02 -3.177393195831342276e-01
5.551169973037270999e-01 -7.031991485234230510e-02 1.514882095464723522e-01
-1.356871331782829038e-01 3.248655580006163356e-03 8.046684809839113051e-01
2.703597946050301237e-01 -3.863226507324955122e-02 -2.950051779533638951e-01
-3.955601385603766396e-01 3.130992280508324010e-02 8.477466938679580899e-01
9.613962766118741010e-01 -1.139646586193479999e-01 -3.441246155249105820e-02
-4.485571185130325378e-01 3.882975706514819186e-02 -8.799876283742456839e-02
-2.983644371179029475e-01 2.105046259687159971e-02 7.077080325923797988e-01
1.785876079018945406e-01 -2.856867655161213562e-02 -3.607100923754912314e-01
5.351713672026966462e-01 -6.790502501643670696e-02 1.754577486621378829e-02
-5.426695745083272016e-01 4.784139121217726581e-02 5.323624555342530984e-01
2.058511039784648722e-01 -3.100840056937595457e-02 -6.302213611480292910e-01
-7.632382342183190449e-01 7.209808303970045851e-02 3.379225966457821140e-01
-6.514293353299019929e-01 6.061381755622587131e-02 9.865857725632013256e-03
-1.103131310631860762e-01 2.082641789607970681e-03 -2.671294185406774754e-02
-1.236410753326964013e-01 3.065396858166722759e-03 2.153656024997825102e-01
7.797396974692581972e-01 -9.376961998107734286e-02 -3.089339311296506740e-01
6.083571765303587009e-01 -7.626039843377582783e-02 2.433457181098857558e-01
5.562726097419634641e-01 -6.901713499059977663e-02 -5.989759066170993185e-01
1.566250921788678030e-01 -2.779041000915150050e-02 4.802873049423039831e-01
1.038180003410582447e-01 -2.107151978572133558e-02 -4.532050313430265043e-02
-6.193812233104581955e-01 5.696572444529802298e-02 1.031044288874665288e-01
-8.345732681838981259e-02 -5.379720616341004437e-04 -1.779511775135482199e-01
-1.324354660884657642e-01 3.459285612866802757e-03 5.088966958229881321e-01
2.314808514819456098e-01 -3.383256780537111791e-02 -6.046971995976136993e-01
5.931086624467982737e-01 -7.394252928964543947e-02 -1.069486703765202829e-01
6.628848542540463074e-01 -8.115500009396441061e-02 -2.877516774365460606e-01
-7.912796460953819278e-01 7.558176740494733370e-02 1.030445325999109207e-01
-6.700663903692577472e-01 6.249831580384626606e-02 8.019763190851443568e-02
-1.528902289569941120e-01 5.263943593286691570e-03 7.246465819625367288e-01
-3.508801371901194011e-01 2.846204631613208705e-02 -1.985377574908601395e-01
4.728280968868139866e-01 -6.061616811157993084e-02 -2.648509378320465513e-01
-2.020534953619976537e-01 1.180900929038651223e-02 8.300132593431948369e-02
1.843618731389672083e-01 -2.987050380042180139e-02 -5.169382264127717237e-03
6.032859616197906449e-01 -7.563260878961107492e-02 2.020382424039208757e-01
3.677656706677819853e-01 -5.030261566791893735e-02 2.945035121632613162e-01
-1.434074828148073910e-01 4.705844574834985861e-03 4.782394684633136106e-01
4.968074626706079355e-01 -6.288440717558797799e-02 -4.375676729765509143e-01
9.134229498286290660e-02 -2.004154986236358557e-02 1.234374749201685717e-01
3.690751811816999073e-01 -4.996434208738368549e-02 4.218748619126985039e-02
8.869697508693782928e-02 -1.855619450296595516e-02 -5.066464292209267306e-01
4.257965150647099462e-01 -5.448591628485046495e-02 -8.098135059455768836e-01
-2.158924069590362482e-01 1.219482987040744308e-02 6.678880229362319509e-01
3.420786640288923097e-01 -4.577177521578936620e-02 -6.247234544928704780e-01
6.120238604794691062e-01 -7.567715012698982002e-02 -2.718811052553936625e-01
-7.098355659087347558e-01 6.654011553152652803e-02 2.194961021366145792e-01
5.956394113504770438e-01 -7.391518508965429224e-02 -2.653605033549605863e-01
-1.349598892332126709e-01 4.060915355038287843e-03 3.363839848847872682e-01
-3.383483121835371144e-01 2.581821963308955636e-02 4.776911663426864907e-01
4.710691028622351201e-02 -1.420818398329873160e-02 -4.246423558904567352e-01
8.051551532667525768e-01 -9.690997617994870361e-02 -1.050363321227121838e-01
-1.228300885195580811e-01 2.260352232923421630e-03 5.923077450690708012e-01
5.333790484513035723e-01 -6.690354354413362292e-02 -4.067822689949607273e-01
-3.933912222524026392e-01 3.184545849047368954e-02 4.428431275752419682e-01
-2.389488665653071997e-01 1.688218149632292678e-02 -4.833161053393170703e-01
4.735828506263482507e-01 -6.049664024602089546e-02 -3.706279486701558601e-01
-4.035371762158126430e-01 3.387689181039973962e-02 -4.733027222979817317e-02
-6.657225336140938365e-01 6.253950174590985900e-02 -1.886842138490602283e-01
4.192163134948699854e-01 -5.494627246114674318e-02 -1.933475193615716015e-01
8.981926491671184953e-01 -1.069491598169572955e-01 -1.241743588197218584e-01
-2.335977579723379771e-01 1.602649908669353737e-02 -3.381674626769386460e-01
-4.728649415887545282e-01 3.993102032103047067e-02 7.167301217829675775e-01
-2.772833320705185844e-01 1.980680386010135602e-02 1.614694704415856885e-01
3.997540149979881274e-01 -5.188283146304755594e-02 -6.956529223678089568e-01
-7.179550352221547582e-01 6.736271252130254794e-02 2.493006336936121059e-01
-2.272807993723933821e-03 -8.675439997297473838e-03 -5.219306357158360887e-01
1.311211343514646355e-01 -2.522758070008904868e-02 5.849528248267795716e-01
-8.183507564879732854e-01 7.836436669038693292e-02 1.814038777596579666e-01
2.170922917373151184e-01 -3.243071279226901471e-02 -5.225151912682376443e-01
2.642083224007037434e-01 -3.748387773459416900e-02 -5.484345631701037505e-01
5.278408912734254832e-01 -6.621707756637486286e-02 -4.523511586708408583e-01
3.190515044053192084e-01 -4.301260458038717177e-02 -7.642174830406055497e-01
-5.244354308153734712e-01 4.608877206737589660e-02 4.156523074049777167e-01
5.852162606582054227e-01 -7.281553008624865042e-02 -2.500500662233605120e-01
7.509582129783535231e-01 -9.139237102434125126e-02 7.981005589929947297e-02
-3.064389237300755298e-01 2.283052534990592103e-02 2.317451484562178254e-01
-4.192710410129760201e-01 3.474567758360675579e-02 3.915821576356788847e-01
1.389406162083547114e-01 -2.531321543258896467e-02 1.849034495176952175e-01
-4.053871510905756037e-01 3.371763352010338083e-02 1.416634168942171035e-01
-6.657493999367936066e-01 6.140026818417170656e-02 4.115822469434397557e-01
-1.570933115299797955e-01 6.919973121240029570e-03 9.352493345953377668e-02
-4.476862689098340953e-01 3.868008393196575856e-02 -5.890182862622839188e-02
8.247271711632763180e-01 -9.883902084351425810e-02 -2.051708170194192493e-01
5.228514582573855485e-01 -6.682709175556347803e-02 1.522287182135287631e-01
-1.764677181534647643e-01 7.904315227113545284e-03 6.789114414869232839e-01
-1.743202106325339173e-01 8.776760282302679267e-03 9.815978059721137960e-02
4.600704955070210799e-04 -9.373947154177615648e-03 -3.103673822743207578e-01
2.541365536306108841e-01 -3.715164293107364041e-02 -1.497969404566669993e-01
-5.661933258704921618e-02 -4.681405851429706715e-03 4.721598381809869460e-01
3.011327841477593470e-01 -4.085428100904513887e-02 -8.786826963622061948e-01
-8.665238511604091143e-03 -8.731207365520252464e-03 -1.287881876435451323e-01
1.357370946758769681e-01 -2.485232952881883534e-02 1.250120284977251361e-01
-6.931266239929827488e-01 6.441444870831090908e-02 3.856542489016799857e-01
-2.385580606873048959e-01 1.561454900667226357e-02 1.606595506775793936e-01
7.471403673122131717e-02 -1.809331828244223339e-02 4.594025277453329947e-02
-2.497259461152998572e-01 1.727812711224988029e-02 -7.801877970329805512e-02
-5.516418861171272781e-01 4.879270248079217026e-02 5.430603116773059513e-01
1.089853519342398429e-02 -1.185541178498597005e-02 3.996765421017143272e-01
1.847813178802028555e-01 -3.078829986692512705e-02 4.533156919702576171e-01
4.165543886151091280e-01 -5.511820806362070085e-02 4.852203839004821939e-02
-3.452511094456288676e-01 2.768691797856025899e-02 -1.115433558100302758e-01
4.180642594292698078e-02 -1.375451402484062675e-02 -3.613900641041343786e-01
1.536504433428210747e-01 -2.634458568423572039e-02 -1.102764353631340011e-01
-6.341950846867373814e-02 -2.169378440466112820e-03 -4.610245154693579650e-01
3.585512618132054019e-01 -4.749685076310002779e-02 -6.556488452570620185e-01
-5.690963776806072794e-01 5.195401537497938704e-02 -1.249596645538829376e-01
-1.583202064901789441e-01 7.235455810828287336e-03 -2.450352729062612624e-03
5.906618821450156931e-01 -7.289203183081598147e-02 -5.197881243761207637e-01
-9.375915506726932858e-01 9.137225567033742391e-02 1.316984425755786670e-01
-8.995989484228851252e-01 8.744494750866507737e-02 3.334352501838113575e-02
1.719656338909149873e-01 -2.825152915186565292e-02 -1.504925409949208204e-01
-2.438751391447146755e-01 1.732442815825700755e-02 -4.353589040491711581e-01
8.837228573548928656e-01 -1.054514095119610251e-01 -8.776780068049649941e-02
-1.834235072878834596e-02 -9.132282828502934907e-03 6.327867216649066817e-01
2.865666676572911631e-01 -4.058199572601840777e-02 -1.927364294125587796e-01
-6.287478955689927984e-01 5.811144197639271647e-02 3.407536787596916056e-02
-2.965411519080219938e-01 4.201685910261479528e-02 -2.797986955112277338e-02
-2.897493437882390221e-01 4.159733557806502557e-02 -1.940587914980652640e-01
2.492845627852239843e-01 -1.709646986545138719e-02 -2.664908392330130396e-02
-2.015517673670746412e-01 3.260611724294504993e-02 -4.884969259945878273e-01
1.598801183950913640e-01 -6.352224205749290066e-03 -5.848442503267433645e-01
4.565756414702180632e-01 -3.818777928584918269e-02 -7.401021248709466205e-01
4.101434903330132831e-01 -3.438046191838286386e-02 -9.833706725070263943e-02
3.248837701848216741e-01 -2.619345091530948105e-02 4.515496964136049840e-01
-4.302929689462662854e-01 5.632127545877860936e-02 6.682299992281744150e-02
-4.478876316592624862e-01 5.903597839421823035e-02 -3.584979463194313820e-01
3.282284010010735192e-02 5.301930137450771956e-03 5.218062325660925982e-01
-6.201574298502297855e-02 1.518373098640746904e-02 7.261697518789775874e-01
-6.214114480962252829e-01 7.639186646407483683e-02 3.962424199482286191e-01
7.190082154607581044e-01 -6.781157678091649654e-02 -1.076556268312184594e-01
4.329843690155391056e-01 -3.574178789790271454e-02 -6.828939949782060204e-01
-6.534616606004743922e-01 8.056002065329581630e-02 2.979930620686828402e-02
4.389165420271848306e-01 -3.697428462172111518e-02 -3.727782620667379199e-01
-4.089788843941663532e-01 5.428538542232469455e-02 -7.630959386859767490e-02
5.735422459122261341e-01 -5.122403588964476173e-02 -5.460493735197485821e-01
-6.505713518254376826e-01 7.944926166803271961e-02 4.490659162362067303e-01
2.865780853439853226e-01 -1.990923136893060080e-02 -6.709778403673551939e-01
6.512487024208868380e-01 -6.050247327561124322e-02 -9.242087137384626117e-02
7.643137903061528737e-01 -7.247844716331987291e-02 -2.335521755902530971e-01
-5.037580632725114915e-01 6.307748828996316559e-02 6.973761947036497544e-01
-4.332913429683712403e-01 5.690555453127629781e-02 -6.959535316930004489e-02
-5.399388349215747222e-03 1.065493224016206622e-02 -1.160592687914938498e-01
1.674000028077476387e-01 -8.116321549300531402e-03 -8.570628580437184008e-02
8.869463463346087817e-01 -8.628231112298902217e-02 4.144067166966414195e-02
5.468698264415584598e-01 -4.808802914004160767e-02 -6.761193926889274008e-01
-6.329942204680876205e-01 7.868543469948423297e-02 -1.499206699725211811e-01
4.586186587266700143e-01 -4.018070367120233494e-02 1.910213477165361162e-01
7.806161438644650952e-01 -7.458015072703806647e-02 -5.684670565938707010e-02
-3.835770302262165310e-01 4.972592247769370977e-02 8.741900670491270509e-01
-9.017533338515254515e-01 1.071995127957427046e-01 1.609416417257004961e-01
9.020996540989006940e-02 -1.384028272003984641e-04 1.147751400395930349e-01
-6.127847677776258051e-01 7.635342473700722221e-02 -7.455250433970030122e-02
3.937785902744367905e-01 -3.321061613538425772e-02 2.182659739377069696e-01
-3.620028307155635089e-02 1.273189310106775940e-02 5.454418748221663282e-01
8.005559557749883925e-01 -7.695895709219409409e-02 5.846279471078662249e-02
4.746463071824369440e-01 -4.190019400959098944e-02 1.824854396081969088e-01
-1.990182202625193353e-01 3.227488148510495453e-02 -4.586121920023147336e-01
-2.773269069001011999e-01 3.906783835191520587e-02 4.283089314755687549e-01
4.207809424041789037e-02 4.068186617956590090e-03 6.434398695021780190e-01
-5.284092725429865300e-01 6.586833782690587613e-02 6.336677932372674071e-01
-7.500248370155245814e-01 9.063496341540586143e-02 2.308122765354778672e-01
7.137831931030711452e-01 -6.711921785862882961e-02 -1.741440856189464814e-01
-2.192275133317982128e-01 3.353914968390123152e-02 2.717454885287299074e-02
-2.914227114249760553e-01 3.988164862981748160e-02 8.028820951897038816e-01
6.238941903523278487e-01 -5.721733940964424808e-02 -2.620442029242041615e-01
-9.386214171470214085e-02 1.921053414911648438e-02 4.224149807818043945e-01
-6.553633872075472766e-01 8.112140181250940274e-02 -1.570018587390231701e-01
2.028229120996023760e-01 -1.056315602048851429e-02 -8.158838929252707484e-01
2.378048922546568411e-01 -1.589091320684148101e-02 -6.863320033462236465e-03
-1.644444950806404904e-01 2.861001696666132937e-02 -5.003076805766323298e-01
-8.531341393432244624e-01 1.021016575171523888e-01 7.295532049831947308e-02
1.839568218896990015e-01 -8.777312620189891418e-03 -6.806671002582533880e-01
5.646534637030870690e-02 4.115280188726097056e-03 -2.001793442499165132e-01
-3.159110587494822764e-01 4.275110166936220424e-02 6.885932233239473454e-01
3.197500231404861171e-01 -2.350845565377276958e-02 -6.673868090109587037e-01
4.158377969360989024e-01 -3.564401788154127754e-02 2.416406742870526869e-01
-7.137046573138343397e-03 1.054873270934165476e-02 3.865613350847232205e-02
-3.249468253049508926e-01 4.470767884803360931e-02 1.745736114711897158e-01
3.769498443931542653e-01 -2.998180222080270435e-02 -5.208450482647639657e-01
-1.361558691342756866e-02 1.249283150109806347e-02 -6.143530814072766244e-01
3.099556582582952968e-01 -2.295771893056260116e-02 -3.993741818166021695e-01
-5.033048336488821217e-01 6.394835088716875615e-02 2.138881814508023227e-01
2.423978281236922050e-01 -1.639618416942843077e-02 -2.725093339168519271e-03
-2.922043721540535377e-01 4.216710539482509956e-02 -3.537768429727291553e-01
2.112752422471247393e-01 -1.301026092081361205e-02 -1.085476195330029384e-02
-2.861624071313797479e-01 4.152966595107720343e-02 -3.626492738159967089e-01
3.960536924586346985e-01 -3.367636135040114054e-02 3.335534230049287951e-01
2.983186397643393661e-01 -2.243281151830149589e-02 -1.290970254081598607e-02
3.858784838712754905e-01 -3.131095972522649623e-02 -3.304758052947770475e-01
-2.924007697859127286e-01 4.220039558533306839e-02 -3.600946667998951578e-01
-6.360959114756580268e-01 7.892151463689078827e-02 -9.745853715022995134e-02
-5.616859202677361163e-01 7.114051654334146990e-02 -2.432040254736308749e-01
-3.825140693433629058e-01 5.130508531368975500e-02 -1.625692662569420965e-02
-7.980338048747891433e-01 9.616836551478030737e-02 5.516012440594204869e-02
-3.461469534530096648e-01 4.567117471415603480e-02 8.748293499233676940e-01
1.703639209102223440e-01 -7.471525936504617472e-03 -5.932811986163989415e-01
5.041612736322200264e-03 9.504020597775726664e-03 -1.054471661836987595e-01
7.354307366925311173e-01 -6.988067047789796316e-02 4.507185668612788410e-02
-4.654046288026926770e-01 6.061958721134397265e-02 -1.937797748905271678e-01
-7.575039928652441135e-02 1.803663936013756922e-02 8.516199357119566896e-03
2.487544814324977316e-01 -1.661297858735569580e-02 -2.505832478522242446e-01
-4.555544969266819844e-01 5.936278442224539320e-02 -9.388529144684924777e-02
7.887416933441612210e-01 -7.562742734330085703e-02 3.108566996613614311e-02
-4.577857004900644511e-01 5.830020155679063038e-02 5.915591533783043365e-01
-8.903952569284652174e-01 1.059265664034999416e-01 1.834939830356379364e-01
-1.707511485990834132e-01 2.679687245503592843e-02 8.115624757439741099e-01
-5.786245696471586930e-01 7.258065479642906992e-02 -3.600063955493793683e-02
-3.371354131227622952e-01 4.666341694151764086e-02 -1.595582012265916450e-01
-4.036190877447345393e-01 5.238709745056679967e-02 6.162979281400274845e-01
4.538312467526320892e-01 -3.871600409912883539e-02 -3.062867904256238449e-01
5.164264049664878398e-01 -4.550642910178943207e-02 -3.001832274180559756e-01
1.292502470721776375e-01 -2.870292021699936968e-03 -6.714759933935455782e-01
1.214300297936371092e-01 -1.995832769909632910e-03 -6.859605793531257101e-01
1.071328060511880925e-01 -1.887064984974483198e-03 7.061982283417367334e-02
7.662717652939475821e-01 -7.269896849388361726e-02 -2.290952703120768819e-01
8.703190877180518870e-01 -8.426764740975815904e-02 -7.102761938021999455e-02
4.453519837520661384e-01 -3.780315248581812837e-02 -3.034385040210897388e-01
-8.111618789825181253e-02 1.871686300905090958e-02 -4.358253730838528711e-02
5.019472480905153855e-01 -4.496034130454024808e-02 2.369135557177718121e-01
-2.996543883830371513e-01 4.232381977338144780e-02 -1.211279829645367338e-02
5.707178659064172238e-02 3.761845951480395113e-03 -4.894421876939314409e-02
7.243827126142404760e-01 -6.806827653725670835e-02 -2.786404114395073517e-01
-2.294157407896620440e-02 1.213438028617887243e-02 1.048354367686422373e-01
3.863976454759764367e-01 -3.076553658406133707e-02 -6.466779632163516256e-01
3.863005897021786761e-01 -3.238836809127663280e-02 2.117438934998454592e-01
-9.926486662063749300e-02 1.960121872017586350e-02 5.245891198198694427e-01
-3.288897148736932841e-01 4.490741345607167367e-02 2.940153307254793624e-01
3.336232199980781465e-01 -2.531519479654070412e-02 -5.074447656933243067e-01
-4.396823245111137757e-01 5.695863130167167637e-02 2.662603329776086492e-01
5.860108213971058078e-01 -5.262302994025118419e-02 -5.204566620837882684e-01
-5.378563733203962638e-01 6.864443616971897810e-02 -2.876490055800931533e-01
-1.189459961871279503e-01 2.377267932328207614e-02 -5.475937115035367508e-01
2.506688678605623610e-01 -1.788632579943878059e-02 3.096793331394601667e-01
4.084625591637104369e-01 -3.286348513957879081e-02 -7.999293765078684393e-01
-2.200898655172904561e-01 3.253999306403686231e-02 6.013746923940156419e-01
6.769902171065537155e-01 -6.331348050460570975e-02 -8.017447367672618508e-02
-3.299007793875910477e-02 1.392891952191066714e-02 -2.663820423152096772e-01
2.701095612047838546e-01 -1.996095002129769092e-02 2.935303660958441530e-01
-7.506773618211789456e-01 9.052640939294874511e-02 3.250033686183044779e-01
-3.596850927812825227e-01 4.950011319161143342e-02 -3.669730860860005994e-01
5.717376769369469924e-01 -5.091813616488195804e-02 -6.041091751612011063e-01
-3.365885896990626902e-01 4.539060882202548830e-02 4.782576308452873848e-01
7.587183283024330205e-01 -7.251446955734330846e-02 1.038526031036481612e-01
6.638939988525647262e-01 -6.188775074258866249e-02 -8.409536468774857221e-02
-1.450937977271450074e-01 2.627606254590857809e-02 -3.750404367545631112e-01
-9.414511512642109725e-02 2.011223644535097693e-02 -3.537926523875465495e-02
-2.706298669876365803e-01 3.762834339548962875e-02 8.036816048748700592e-01
-8.983596871373009662e-01 1.071284539036338468e-01 5.133768221261192019e-03
6.277377920058845318e-01 -5.854142155163078592e-02 2.150789816202038351e-01
-1.549539535856279127e-01 2.703640657554303578e-02 -2.134447689540198145e-01
-7.744733193133235272e-01 9.362193203650946705e-02 5.249276780845232859e-02
6.109787619198730341e-02 4.178612111009511430e-03 -4.971304577343788056e-01
-3.264937766019876397e-01 4.429486089135010324e-02 4.795815359526410249e-01
-1.161630294548698369e-04 9.472313361208238233e-03 2.047782661694773076e-01
-3.700253266662347773e-01 5.043284329956894407e-02 -2.686526609651006536e-01
-4.725830197926109144e-02 1.570413740032146344e-02 -3.872742502624194616e-01
-1.882394603992208759e-01 2.987778025975559859e-02 1.877252426227577764e-01
-5.306968959304896316e-01 6.771450453815411330e-02 -2.064034248759388512e-01
3.256413113935573977e-01 -2.412967505497218626e-02 -6.762079113376965323e-01
-8.079609091485226990e-01 9.746492270113661649e-02 -6.124675942411437340e-02
-5.385450906219059197e-01 6.764738887694717040e-02 2.755599078450876038e-01
1.437962892032920541e-02 8.447900072612615080e-03 -8.187584769308275945e-02
9.410144951275369041e-02 -1.655585613248207206e-04 -9.244158859665373151e-02
4.475391757134822290e-01 -3.894115182433555838e-02 1.701633700535301053e-01
-1.343293943925175649e-01 2.479985782306816031e-02 -2.118736540164225801e-01
-5.849541426012500045e-01 7.337041429542405513e-02 -9.081220046715013372e-02
-3.224635331472844868e-01 4.513441896769544021e-02 -1.910442901411351369e-01
-2.298867098378805651e-01 3.495149955717078566e-02 -1.084205613121359407e-01
2.825652603967009346e-01 -2.043165678091053011e-02 -1.680161379220405093e-01
6.019466733880084464e-01 -5.538517182937379574e-02 2.420968256986077982e-02
-1.982766065260279395e-04 9.457063137652127471e-03 2.174667950007211636e-01
6.650522405519556646e-01 -6.189148317012008182e-02 -1.480565350632557786e-01
-2.281713135758606792e-01 3.476534389446483270e-02 -1.082182540320862640e-01
1.207657502490022128e-01 -1.944871489648037971e-03 -6.749355574816937597e-01
4.018781312614844725e-01 -3.346627423279173452e-02 -1.083655815939601613e-01
3.501767098427153724e-01 -2.726477405508699603e-02 -4.249837170974968825e-01
2.322422420104892048e-03 1.088804632215446648e-02 -6.780716842705420966e-01
6.406895826161390639e-02 2.619638826099853976e-03 1.531030297595536716e-01
-8.180784047679057203e-02 1.938751568092357200e-02 -3.566854985136027056e-01
2.444198030205456673e-01 -1.677377114926204352e-02 8.063683863510089089e-02
1.954727809112053460e-01 -1.212454054683561114e-02 4.230617520055320324e-01
2.178767613128868297e-01 -1.403259892599749425e-02 1.507129570007251784e-01
1.094622980705254045e-01 -1.112917408914352842e-03 -4.688283426557045552e-01
1.027942036272310872e-01 -2.018954152240783669e-03 3.868727372096774642e-01
-6.872462497915635682e-01 8.354566642278687949e-02 3.835513648783767104e-01
2.294167728294638220e-01 -1.522493051564797334e-02 1.205422221688186024e-01
-6.289682289403487614e-01 7.778563989334287554e-02 9.383246426575991839e-02
3.985937817910800152e-01 -3.323959554649755926e-02 -4.056627553581809015e-02
-6.241322172452644645e-01 7.695738175008695614e-02 2.538853588029001407e-01
-6.582072775203552384e-01 8.065622980796476049e-02 2.493382628741044049e-01
2.893730367705681372e-01 -1.984361594307789550e-02 -8.645409778641566234e-01
4.862242742558679082e-02 5.055024619947418897e-03 -2.476832147550622476e-01
-4.253173763631719617e-01 5.495249812397264705e-02 5.030075633127987222e-01
-1.059512119184895934e-02 1.086373717688630079e-02 6.992259357517036089e-02
-6.566755380385971286e-01 8.091293746174878232e-02 2.724170722987971638e-02
5.690428300533633549e-03 1.017299534418712390e-02 -4.939627134221440397e-01
8.537315046149850373e-01 -8.233667323670358640e-02 -1.417700899314211227e-01
-5.553894699997771189e-01 7.043820256686195158e-02 -2.324652473266569930e-01
-4.879192779384273759e-01 6.325551588624375721e-02 -2.976727528960536051e-01
1.595518931537164009e-01 -6.594896058813318196e-03 -4.386239061347750878e-01
7.119390626836789027e-01 -6.740274165753813718e-02 7.982612937150565524e-02
-5.138996100146642210e-01 6.590349752119212257e-02 -2.106465767602173911e-01
4.473785357049721023e-01 -3.901802964211522479e-02 2.197104225232733299e-01
3.765431858550174482e-01 -2.945110802053005697e-02 -7.766120175776075607e-01
2.337087220330910375e-01 -1.408792940518153666e-02 -7.213035326434212857e-01
5.993569983091106002e-01 -5.488396416730079164e-02 -9.181115029880296263e-02
-3.380027623796467706e-01 4.689482683537241764e-02 -2.318120588069460253e-01
-5.385307257662560465e-01 6.710404080552215267e-02 5.603051559167095963e-01
-4.774514103711233193e-01 6.079893903351298035e-02 3.976176113500495268e-01
-8.670961316377365780e-01 1.034127866806145851e-01 1.785407191497367929e-01
1.728058928721981080e-01 -8.717713466453745619e-03 -7.732089932368352292e-02
3.739135949795904801e-01 -3.102852241181980678e-02 2.020827875478037883e-01
-8.125699531308910872e-02 1.777225787211210786e-02 4.608798127062092576e-01
6.766128640011673800e-01 -6.275728232773353232e-02 -3.510133076261384155e-01
-5.505628094983521237e-01 6.904883489612675951e-02 2.230174621745203700e-01
-1.663906915257810371e-01 2.812185923845735708e-02 -1.329805283768819846e-01
-1.750683504713258232e-01 2.846768794680844261e-02 1.791651377196049888e-01
4.121461433311752187e-01 -3.511481587913473090e-02 1.736275942132711747e-01
-2.599502512527919751e-01 3.825902977910015240e-02 -1.356267256189919446e-01
2.887689890482880717e-01 -2.046876925825874202e-02 -5.016043072526019664e-01
6.389426737256346245e-01 -5.923750652397606620e-02 -5.682554697175546538e-02
3.592063485752373664e-01 -2.816590220813057488e-02 -4.653187338043280330e-01
6.271425244299455581e-01 -5.783431967880980906e-02 -1.226661515680795844e-01
-4.113855899042184183e-01 5.360341286506678515e-02 4.190896314535477729e-01
3.355871278841968675e-01 -2.647514136477344820e-02 -9.599776616942114552e-03
-6.161032789214274802e-02 1.610432475568700922e-02 2.192663723718315527e-01
4.746722916641860635e-01 -4.121021459051122521e-02 -1.816201369628054341e-01
1.397977088037717364e-01 -3.938896735953469931e-03 -7.101805878686410223e-01
2.789725579024381896e-01 -1.963058544862784568e-02 -3.845452056581513123e-01
1.375517989110092987e-01 -5.462395549490559055e-03 2.183405756789367769e-01
9.446026545378287675e-01 -9.218052234483053997e-02 -1.402681096356938606e-01
-6.130482082842689945e-02 1.535918365693544375e-02 5.934955451156406214e-01
1.068358254457747597e-01 -8.297716193893916450e-04 -4.681498660095687603e-01
-1.534250897985435513e-01 2.614024163348016919e-02 1.705278308588042691e-01
5.050323463962731463e-01 -4.466996728998132854e-02 -9.128812527830665324e-02
1.936174462896864679e-01 -1.110643369638831396e-02 -6.417323057179094743e-03
7.293428724297249532e-01 -6.847381783003300693e-02 -3.478172774703421344e-01
-4.582637854757457170e-03 1.090399188089880185e-02 -2.934418208479314671e-01
1.648235336477695337e-02 8.132999656924091644e-03 -3.605552467275525974e-02
-5.531634308777381159e-01 6.899525347426688215e-02 3.991954498315671840e-01
-1.991656724058299133e-01 3.230393455986030338e-02 -4.654889451679737888e-01
8.391319193934904108e-01 -8.077084016314975412e-02 -1.337578595963295203e-01
7.834579954798190915e-01 -7.462517533005995352e-02 -1.949310841974943032e-01
5.122849904637515328e-01 -4.436694875612853112e-02 -6.633364152024908700e-01
3.748720854290916171e-01 -3.048028913301912765e-02 -1.406012272458817547e-01
-4.836432897621156801e-01 6.142385455956542173e-02 4.216046973084437988e-01
5.304515631174480106e-01 -4.686548698553166803e-02 -3.841742992427946146e-01
-2.947490652606682970e-01 4.102470633588907456e-02 3.914585760587575569e-01
-1.772257547626954477e-01 2.772232505525008828e-02 6.936905898667304893e-01
4.267804665753011650e-01 -3.529574931750637662e-02 -5.642117613060310122e-01
6.671752282605800666e-01 -6.265841633355169471e-02 1.341814997171090484e-01
-5.628152097684991917e-01 7.026546777529378562e-02 2.809628807689192875e-01
3.555561786856291095e-01 -2.708167259842863758e-02 -8.273940686797890409e-01
4.641255634819783094e-01 -3.958407670448774174e-02 -4.359752783657451780e-01
-8.068752420140203885e-01 9.728805190993983221e-02 -3.008239393026185260e-02
-4.844504617594132534e-01 6.243060966948923984e-02 -6.156584062421410763e-02
-5.452334659888035118e-01 6.776652947475213240e-02 5.936215334907732899e-01
-5.704687014995292182e-01 7.055660954339805502e-02 5.635581268063605265e-01
-3.771912049588258542e-01 4.973872049859362487e-02 5.040066009433232797e-01
-7.854663563224200118e-01 9.470382932667573139e-02 1.095717760525076190e-01
-6.096521112905169959e-01 7.527689802383762119e-02 3.129294140697982396e-01
-1.104168297987147100e-02 1.184020778307356275e-02 -4.178561603167657568e-01
3.878789736558074797e-01 -3.162235422606182733e-02 -2.806792413129272079e-01
4.098499986717198812e-02 5.460369773562729137e-03 -2.602318706488379596e-02
1.405432635863728963e-01 -5.036586923014973495e-03 -1.757110502802331775e-01
-4.105860208753011609e-01 5.367021416572268638e-02 3.384729557126465171e-01
8.776520157084872764e-01 -8.523922831040778303e-02 2.223505455056449739e-02
-7.172132703764321215e-01 8.761168786042697332e-02 -4.778220588181560785e-02
-9.533742818536915520e-01 1.129368565826593535e-01 8.368600138194855209e-02
-6.506902581668636554e-01 8.035573277381291568e-02 -2.057271734609239858e-02
-9.780747335782031815e-01 1.156132170741521747e-01 8.295133397087856020e-02
6.689102789220442435e-01 -6.289187066333123965e-02 1.581235116856773981e-01
-7.018382444961266398e-01 8.518118382422551482e-02 3.545081695896510898e-01
-1.392687667116062344e-01 2.542851425681888836e-02 -2.611406687634260093e-01
6.223026442516696455e-02 2.345572761021456551e-03 4.017931937261240427e-01
9.288856927882903625e-01 -9.039828232596842927e-02 -1.823941460887537336e-01
4.825155918260071175e-01 -4.194346349148345143e-02 -2.426640700622996472e-01
-7.044897117568049705e-01 8.633102587752196355e-02 -9.889296410401626769e-02
-1.570959079249940049e-01 2.541073645720188373e-02 7.628569397870258451e-01
-8.855398473330238218e-01 1.053239523953359291e-01 2.238529454007477937e-01
-4.161826851973751129e-01 5.448717638018913539e-02 2.276502727158875028e-01
7.486112269822224885e-01 -7.124318747509073013e-02 1.097410104669196453e-02
-4.494287606480256159e-01 5.821251410971285678e-02 1.619985051431420131e-01
4.763117937419055758e-01 -4.226175386069821321e-02 2.777141137700766538e-01
5.569067824370367292e-01 -5.080983702448937239e-02 1.830920744490448504e-01
-1.745621288690759887e-01 2.928044655245580496e-02 -2.768017584787680341e-01
5.851369508920689633e-01 -5.402594587290453915e-02 2.665994220588797647e-01
2.364061099331007942e-01 -1.484092734535132421e-02 -4.790820281843048423e-01
6.939807783782441231e-01 -6.455622465560324763e-02 -3.940752362484393756e-01
-5.955064744550859768e-01 7.419416654247451559e-02 7.685461967234477609e-02
-1.758394127700321219e-01 2.741697252746582228e-02 7.752667233092509491e-01
-8.075779909843199267e-01 9.693272840209161967e-02 1.966598174872861149e-01
5.773004555742876631e-01 -5.291272745766400359e-02 1.275586908068385150e-01
4.540779924446368410e-02 4.796382764257285138e-03 7.121362099906600185e-02
9.642090393195308640e-02 -6.612736191315793204e-04 3.607249327494142788e-02
7.129025979207008756e-01 -6.747386112886594178e-02 6.236296109238630148e-02
3.806346013465036204e-01 -2.995335664281180421e-02 -7.455175503074026322e-01
-5.552390519955342496e-01 7.005050249028145493e-02 -3.726623403051224775e-02
-3.391371058971928004e-02 1.312289768198328203e-02 2.098017465765517620e-01
-3.943628449999828645e-01 5.211527308533974584e-02 2.323275980465311918e-01
-4.049164495650802720e-01 5.323725260488695182e-02 2.433300754949979383e-01
2.990298394909918223e-01 -2.170148839701592849e-02 -4.377438303482637516e-01
1.350292547489482797e-01 -5.364709361433872038e-03 3.105742637783132087e-01
1.078014198091988840e-01 -2.173350221991207209e-03 1.830253317294144588e-01
-2.421094704297372391e-01 3.537750581099021602e-02 3.633608138514229369e-01
6.972459036757978623e-01 -6.537992553387851624e-02 -1.470084794630462377e-01
2.631483304825802949e-01 -1.710026480288058190e-02 -8.137284772909605390e-01
-2.946150394800069461e-01 4.031674173281189766e-02 7.559092870045955870e-01
-6.033562102650619902e-02 1.571711940925388934e-02 3.502150525500749567e-01
-4.575617072636499194e-01 5.816326222530268653e-02 6.507803398353231294e-01
-2.756856911682186717e-01 3.825065178971192442e-02 7.643788804016609095e-01
1.844252597008388950e-01 -9.208958252895842883e-03 -4.804724927719730698e-01
1.816099847524320632e-01 -9.496511298142013696e-03 -1.691107422366031898e-01
-4.282734008761857059e-01 5.593056149471693772e-02 1.572209573587670384e-01
-2.955466917468059229e-01 4.110008894993266021e-02 3.972382942280242024e-01
-5.330478977723569489e-01 6.641540929187809972e-02 6.101612983976988369e-01
-9.259492993346570000e-02 2.052616704668985131e-02 -3.411560142188743150e-01
-7.762019030659302876e-01 9.396631939370612974e-02 -3.011944771380635141e-02
-5.798486295421214631e-01 7.168558323911825014e-02 5.040834511874264789e-01
3.160035219084655900e-01 -2.317483657247687914e-02 -6.294873084131048513e-01
-2.100765746416382307e-01 3.361039606481398823e-02 -5.311070529731060086e-01
6.978066798674585902e-01 -6.537025617116902498e-02 -1.840076104301955617e-01
-1.558189569840779352e-02 1.162182838667273274e-02 -4.467240425338048215e-02
5.440000954706986080e-01 -4.791539253966479311e-02 -6.035161815499190396e-01
3.060317845143523119e-01 -2.345685170326979388e-02 8.628303537043009730e-02
-2.425028554620204946e-01 3.470381608394113720e-02 7.398162218466654005e-01
5.669908872859206195e-01 -5.081660479649405954e-02 -3.873006217861348355e-01
-8.046860444450564323e-03 9.522348617228400258e-03 6.298673307894913087e-01
-5.316357153932387281e-01 6.741796242280072293e-02 2.881798697692260387e-03
1.194469152765616632e-01 -4.044094200165227089e-03 5.033982951755804347e-01
1.539019849005324736e-01 -7.137971790174690336e-03 1.683674758153112794e-01
-8.702232156418443498e-01 1.036696910112740733e-01 2.215036265620247413e-01
-2.855186728864953505e-01 4.148929694255982376e-02 -3.780718244866583255e-01
8.078784432283906414e-01 -7.713510992677122258e-02 -2.657266838438819834e-01
-4.814310548613483509e-01 6.149829974888403744e-02 2.565670236395324877e-01
1.938032246194194841e-01 -1.101565639671101167e-02 -6.470018778934205628e-02
-5.075806573212988254e-02 1.449648888255252246e-02 4.466128273037995866e-01
1.584669379221606833e-01 -6.676944521065394586e-03 -3.337507923289281808e-01
4.042503445503880521e-01 -3.389361212377897670e-02 -1.879074568542233800e-02
3.486764012278344427e-01 -2.872268072384264251e-02 4.266278992983859597e-01
-4.761693326433711348e-01 6.150185766151978345e-02 -4.478045079681161611e-02
5.877448834001512967e-01 -5.372204413671336637e-02 -4.155341431601327490e-02
-4.803381386413606013e-01 6.148111621148809325e-02 2.033933213526704087e-01
-2.132819579584458725e-01 3.162137001488240368e-02 6.966869586859726349e-01
1.422549584491757113e-01 -5.887513701099778528e-03 1.740800491753273782e-01
1.183201187296416823e-01 -2.291459500621582848e-03 -3.535860233299966682e-01
-1.011975616887631491e-01 1.966917949577891636e-02 5.988733341442092906e-01
-1.755613490909972707e-01 2.933217354022020149e-02 -2.471155908978291127e-01
-2.578290211869730952e-01 3.847799458829075092e-02 -3.714386961192143177e-01
8.410423265295810524e-02 1.377053329516479034e-03 -3.341748121086824952e-01
4.152251430995101966e-01 -3.563427759758004687e-02 2.713915234656881781e-01
4.397671805274579460e-01 -3.762857048426443418e-02 -7.732595090285608597e-02
-2.932954853113803328e-01 4.240965145806571690e-02 -4.191476374393162119e-01
4.960209955523659509e-01 -4.341471309267306428e-02 -2.381090113705803535e-01
1.413045908022354247e-01 -4.257382775974673066e-03 -6.285626725118951263e-01
3.100787418449439392e-01 -2.244442879115705891e-02 -6.761451891138230419e-01
1.787996307536136864e-01 -9.249319710393803448e-03 -1.390702795238777656e-01
8.884462845743960197e-03 9.103133811633298128e-03 -1.134771672905734441e-01
-1.881586609684326727e-01 2.985477960017188237e-02 1.952147026324301815e-01
-6.529431950837971677e-01 8.037679893912719198e-02 9.658446966662893873e-02
5.233084215134844452e-01 -4.734877629847947245e-02 2.763849054217548673e-01
7.312587883709775749e-01 -6.913416723956126997e-02 -1.098098116805166502e-01
-2.268600586252135232e-01 3.399052243883023822e-02 2.243663598373869805e-01
1.787978803451278076e-01 -9.444498116969292714e-03 -3.639239145707784395e-02
3.970564934769401644e-01 -3.275059944792551442e-02 -2.100671036968532190e-01
-8.397656110908477967e-01 1.002644291800499216e-01 2.776451630598631426e-01
-6.584667294378933333e-02 1.559469892249957905e-02 7.282230379813611210e-01
2.451172981961190489e-01 -1.719066371890225209e-02 2.600407142775333913e-01
-2.584323621441655949e-01 3.698105585471229279e-02 4.496346235835460003e-01
2.741371357314057455e-01 -2.080006421164404262e-02 5.053020048679954801e-01
5.035930561914885306e-01 -4.505574283822019743e-02 1.933796825514990381e-01
4.889397560559690104e-01 -4.191370395579293445e-02 -6.239439663047361417e-01
-1.857849214695995177e-01 2.917335885236028298e-02 4.182388465350961315e-01
-2.852608458680800166e-02 1.196314941859772350e-02 5.126772690255663179e-01
3.373431542903062019e-01 -2.741784879367797217e-02 3.859045159767905964e-01
-8.371337425210499950e-01 1.006397646327003292e-01 -6.941283761602820568e-02
1.009466474329742680e-02 9.284690565998355780e-03 -2.777765833716430710e-01
-9.185813989072491581e-02 2.011942650653871303e-02 -1.693241717400546520e-01
-6.050884529409650270e-01 7.504603038349885735e-02 1.745181788061690720e-01
-9.194642190271964388e-01 1.094305132744649439e-01 -3.548954452377698233e-03
-2.497567966602249057e-01 3.537527964170827932e-02 7.997880437121543951e-01
5.183766697064772222e-01 -4.506650470491504329e-02 -6.423923485072988715e-01
