-6.125763450097728713e-01 1.368786405780030024e-01 -5.332527869623308048e-01
-5.672049632787300455e-01 -2.043883070711507710e-01 -2.413253183331188489e-01
-6.569392805238765121e-01 -4.424033792087065375e-01 1.006956839029232442e-01
-4.573850185448461447e-01 -5.770898960291153124e-01 8.762088472907693382e-03
-1.169523483711473189e-01 -1.927319115583488729e-01 -7.665229802818126492e-01
-1.086493897729561876e-02 -5.779622847284985321e-01 -4.995621266112070802e-01
2.784095141822650471e-02 -5.588801631214782573e-01 -5.629179483987373223e-01
-2.831062901247503594e-01 -4.036931483297982459e-01 -3.645987231473809542e-01
9.630395117277434913e-02 -8.064731362835078077e-01 -3.916567728635932943e-01
-4.672114919171048153e-01 -2.677103999313397709e-01 -2.915882848445144337e-01
-7.451242248481174668e-01 2.272055270821895512e-01 -4.730602108826945651e-01
-7.813806330615614693e-01 8.377951776541328610e-02 -2.872789589896235229e-01
-2.635076786209313848e-01 -6.846558171162355766e-01 -1.040090726753864492e-01
-3.226286933608986107e-01 -4.718725179086013521e-01 -2.508690698240687023e-01
-5.188546539443127381e-01 -4.478605412802431074e-01 -5.127775755862411244e-02
-6.538441213318179068e-01 -4.858306813103863697e-01 1.408988817450861353e-01
5.638686078334591290e-02 -4.508758471379610278e-01 -7.042353781805702484e-01
-8.417397449782096364e-02 -4.745442504509798654e-01 -5.201076239573658722e-01
-4.306827495811351714e-01 -6.880916845808131566e-01 9.009414196666698516e-02
-3.113492011485178845e-01 -2.677141901389366030e-01 -4.693267677037284424e-01
-1.944925180648209295e-01 -4.816307013390796476e-01 -3.871662091900205938e-01
-6.241705452384085362e-01 -6.085047187070732333e-01 2.305968896700953952e-01
-5.920990481114106752e-01 -3.989226257089476535e-01 -1.703352970781785158e-02
-6.675307391289911907e-01 -4.522797708772245406e-01 1.227198575639653760e-01
-8.299016637677344432e-01 2.142473686506146391e-01 -3.633323500723617538e-01
-1.361296087623641293e-01 -5.440360067488334006e-02 -8.839551977733558497e-01
-7.054576455109347055e-01 -2.178151439388677502e-01 -7.014336270811113994e-02
-7.576025098034007144e-01 -2.904049875895534649e-01 6.242220383744548351e-02
-4.213749721142207028e-01 -4.494998628276130059e-01 -1.607908192001020753e-01
-6.302936246958773525e-01 -1.409351914823787737e-02 -3.610139485273414772e-01
5.171068945308525400e-02 -3.004069154569043998e-01 -8.504303954818543954e-01
-8.877873192523243195e-02 -5.152346865045084323e-01 -4.738797148505733414e-01
-6.841365220446576911e-01 -1.167483518977679158e-01 -1.962354519636088368e-01
-5.451080684310197766e-01 -3.683478424654462735e-02 -4.352566136103542260e-01
-1.505298722780983589e-01 -5.157713502432623859e-02 -8.703797723359368854e-01
-8.559974703756553782e-02 -5.800401023300377767e-01 -4.122435800136484141e-01
-6.503507959512964121e-01 -3.490038323295890921e-01 -8.744009699515809713e-04
-1.254101518460098985e-01 -2.900132336137783984e-01 -6.589120734384003031e-01
-8.110115792042252858e-01 -7.837231333235021580e-02 -9.019567740842139580e-02
-6.833749865013150071e-01 -4.194199520076439813e-01 1.076973059216690398e-01
-2.559935980038726688e-01 -1.401352353846922749e-01 -6.609298124671971753e-01
-2.939430032119351166e-01 -3.434030308227229988e-01 -4.129550669570526411e-01
2.590186218814265889e-02 -6.329519184719833991e-01 -4.861137247017536245e-01
-7.726122961909739351e-01 2.722223383090140447e-01 -4.870469029986014831e-01
-7.782898833965969931e-01 2.813722695198192514e-01 -4.897866040388368924e-01
-3.240987396382485897e-01 -4.106306035979531699e-01 -3.108654704191826657e-01
-6.658290878512068689e-02 -6.375356711879914817e-01 -3.760299016186992027e-01
-6.338891328930102986e-01 -5.573173777885417207e-02 -3.149825162729312233e-01
-5.019155739083415169e-01 -3.291515451295933259e-01 -1.901389851160498190e-01
-7.076513801508840240e-01 -1.761644751118393026e-01 -1.095853937615473422e-01
-7.398725523205484933e-01 -1.736808648488867568e-01 -7.534208586708644739e-02
-6.625228575697382771e-01 -4.726434441153719579e-01 1.375159197278687795e-01
-1.909778857507587746e-01 -8.055755560369327606e-01 -6.495009562119534452e-02
-4.051542894090943148e-01 -1.350952331541075968e-01 -4.959053489157749794e-01
-6.773826606704670683e-02 -6.870938771262838918e-01 -3.248054572595596712e-01
-2.539150242819931402e-01 -6.152083830234299500e-01 -1.848844139351865090e-01
-4.658071800094238379e-01 -2.434886011332243819e-02 -5.382635666950592590e-01
1.266313240838127900e-02 -4.884012937512191566e-01 -6.165842200901715531e-01
-6.853293160080881075e-01 -1.604180169808868545e-02 -2.962903348051001418e-01
-7.549460448481690733e-01 -5.478148044962516394e-01 3.186137761844631267e-01
6.363438996473731735e-02 -5.664020453329273730e-01 -5.961612775728195590e-01
-2.759505239858056624e-01 -3.396410768042700257e-01 -4.372617605454610090e-01
-3.071713937611751932e-01 -8.094434617620355210e-03 -7.355374979485062026e-01
-3.092839353353779019e-01 1.732113602277823156e-02 -7.587227916123816529e-01
-4.779647410799707230e-01 -4.779664951684334251e-02 -5.007865543795105845e-01
-2.717062667690045563e-01 -5.388483251600543200e-01 -2.414929572927533297e-01
-7.471928776025529850e-02 -1.727135508667763941e-01 -8.348439442752506601e-01
-6.799704412486239080e-02 -4.405526091790482601e-01 -5.727862846313584999e-01
-2.224279512039607776e-01 -4.764708706006781647e-01 -3.605053244051598105e-01
-7.762895520055540510e-01 -5.213105341625058342e-01 3.162627387414184699e-01
-6.055440272893481968e-01 -1.701655585597827980e-01 -2.320677414505025737e-01
-5.812347144284917000e-02 -8.870638027358783706e-01 -1.343930660907073360e-01
4.903477006138487991e-03 -5.031846696310531275e-01 -5.928478695045327207e-01
-6.844481503282286994e-01 -5.451572593170586067e-01 2.355431161550006480e-01
-2.854858671837429696e-01 -2.998056159061711634e-01 -4.665035854421583084e-01
-4.613545384811990058e-01 -6.895847345712609044e-01 1.265752036086255639e-01
-3.483057549712463841e-01 -5.647643962674377960e-01 -1.280419865255892353e-01
-6.140605981504613231e-01 1.124146549460055405e-01 -5.069240595057067367e-01
-6.264360975708345158e-01 -3.090293522046690389e-01 -6.840199465116651723e-02
-1.298080502596384300e-01 -7.105138734853719829e-01 -2.304375131341624139e-01
-4.871272569228934368e-01 -5.553957515665816080e-01 2.083276933041732989e-02
-5.084225744749783227e-02 -3.389443411766320802e-01 -6.946724509071907638e-01
-1.842686461289564925e-01 -2.293793051331596555e-01 -6.528515497688679448e-01
1.862987270615008156e-02 -2.252103414752986699e-01 -8.884313380447507180e-01
-3.683486097909465240e-01 -6.140747568859750150e-02 -6.120840488182494044e-01
-1.828799364699327384e-02 -9.240408474828374352e-01 -1.425834484381031664e-01
-7.088578437061593407e-01 2.000366153706600036e-01 -4.870576084792899718e-01
-1.779983613219569549e-01 -7.266635548927863342e-02 -8.178176418606607490e-01
-3.193106293864968470e-01 -1.705992008085705225e-01 -5.580460016613908447e-01
-3.553566867959079834e-01 -6.522631805157333429e-02 -6.230540712682945959e-01
-5.224271302697112151e-01 -6.081025493600226289e-02 -4.369773485390255341e-01
-6.443663159489454451e-01 -5.975187669937465085e-01 2.425645016324257663e-01
-4.585472734834363240e-01 -6.888146190405745051e-01 1.225983195941375975e-01
-4.455371302300094594e-01 -4.525605523002764752e-01 -1.301545434456915229e-01
-3.742152362643867969e-01 -6.062632533295648773e-01 -5.670447907464717247e-02
-4.474674619145407317e-01 -3.156848761751216564e-02 -5.519073967277391413e-01
-7.607398577824054930e-01 -3.231838961935123433e-01 9.900951501475781236e-02
-2.340923211976931595e-01 1.157995718006417764e-03 -8.281929695800188673e-01
-6.886156546564106140e-01 -5.630939781778472319e-01 2.583585780108098029e-01
-4.627169198590208032e-01 -2.765768828342966487e-02 -5.384555296750193065e-01
1.291559565000009561e-02 -4.125960369111348336e-01 -6.932107469962639490e-01
1.473170974337601954e-02 -5.963878131530809812e-01 -5.101968723505624359e-01
-4.891646129435687773e-01 -1.381333574399372932e-01 -3.970421229720783041e-01
6.914736940188286052e-02 -7.358393643984009191e-01 -4.318186908303521809e-01
-4.493168288708621061e-01 -2.174963252153654103e-01 -3.625623886898954318e-01
-3.920139356633343675e-01 -1.022735073522881150e-02 -6.366368037138376845e-01
-5.839900766124386244e-01 -5.739046567251687714e-01 1.499323631529998480e-01
-4.127214099376132483e-01 -2.080054544592086496e-01 -4.138527353001430487e-01
-6.546088833300656162e-01 2.135944885655515213e-01 -5.625753254184568952e-01
-4.769820718007984350e-01 -6.073738040611935673e-01 6.160716935147646928e-02
-6.258678751854632738e-01 -4.792020348693302734e-01 1.023200336790883042e-01
-7.279240938127794491e-01 5.364714383057487407e-02 -3.178953626210275774e-01
-2.687846237851623798e-02 -5.756381904885651268e-01 -4.836410651415999906e-01
-3.954068526786679305e-01 -1.312324645930517120e-01 -5.109110816117778953e-01
-2.915048439585001816e-01 -5.389829333237956543e-01 -2.187794928740884048e-01
-1.098089885904323000e-02 -4.535052177620999547e-01 -6.247626353708195523e-01
-1.243466429060319511e-01 -3.954261041560735435e-01 -5.539703224697937189e-01
-1.440477565864504705e-01 -5.160226848987582438e-01 -4.100584602702922465e-01
-5.693110924758368885e-01 -6.236904027339007506e-01 1.833287761328497301e-01
-4.890615944073088417e-01 7.381196633408465546e-02 -6.105961747799317774e-01
3.631367663399617113e-02 -4.271465522940599002e-01 -7.052405668464727384e-01
-2.463430872724703749e-02 -7.305274997742101650e-01 -3.302211431840358369e-01
-7.050674454379713962e-01 -4.016234182240751571e-01 1.145132104460074574e-01
7.995225337553510392e-02 -8.427062749100667771e-01 -3.365215423119342075e-01
-4.094086114774015406e-01 -5.537106091242903760e-01 -6.949304888196033980e-02
-8.055134666936477617e-01 -2.278261330181686681e-02 -1.524464463599110864e-01
-2.877461000718781747e-01 -1.728916865907081657e-01 -5.917329561545975336e-01
-4.895797871927525247e-01 8.514654013979106040e-02 -6.214195617791531401e-01
-5.139188160809388117e-01 -2.166520947222398685e-01 -2.897417199032036872e-01
-5.413203600878366828e-01 -5.396316350143984808e-01 6.675848847674768771e-02
-2.318446027250536945e-01 -1.337953071000912431e-01 -6.948533891231428727e-01
-5.329678889824183141e-01 -3.144418223652350464e-01 -1.695407543836619790e-01
-2.392086708261215722e-01 -3.797032388707851647e-01 -4.388174098165893988e-01
-4.850902891486869040e-01 -5.346263716000219240e-02 -4.869548655596351860e-01
-6.477055440554784216e-01 1.790918811016057807e-02 -3.733856155292224477e-01
-6.890678797673766010e-01 1.513689845961299907e-01 -4.606156389282236030e-01
-2.857025523357164531e-01 -5.314878761912310567e-01 -2.329441048196991826e-01
-6.344579642530495667e-01 -1.544893289324703739e-02 -3.549000669255501506e-01
-6.179249655561284138e-01 -2.999389066800879355e-01 -8.726232860380415957e-02
-2.944558899805181928e-01 -3.957461982276678780e-01 -3.596587269106499840e-01
1.399853457709398022e-02 -2.969329853521191498e-01 -8.109225663284433949e-01
-1.351197673587362369e-01 -8.130701341537868165e-01 -1.211022884034637648e-01
-1.966722046553562309e-02 -4.035155114877498894e-01 -6.651983585067200444e-01
4.429269451812564706e-02 -2.237451331050250014e-01 -9.191722343378009308e-01
-4.012877552529108827e-01 -6.589778998037854052e-01 2.725403748394343226e-02
2.013775769782517877e-02 -7.308797082945348578e-01 -3.809236430378488136e-01
-7.850574160195094020e-01 2.434446050116940430e-01 -4.438745189253048284e-01
-6.490074279524767897e-01 -5.085133544339178746e-01 1.582254799252869049e-01
-3.496099139101745829e-02 -7.027849623744835128e-01 -3.463825307411520504e-01
-6.995818532604319850e-01 1.888949580719773147e-01 -4.864157160482512343e-01
-3.064026766441265703e-01 -5.795314180984385555e-01 -1.609565126514895805e-01
-8.210105714068154370e-01 2.947872995607956348e-01 -4.545781874577756176e-01
-5.555737585370498222e-01 -1.797807056207363086e-01 -2.793700567004844815e-01
-5.767966469923417883e-01 -2.176450008719054696e-01 -2.170371824067942879e-01
-8.575845433905080473e-01 2.275483342973012024e-01 -3.451578883141995790e-01
-8.417083992960958660e-01 2.255161635132312825e-01 -3.612162625463792298e-01
-3.202763438139713537e-01 7.283668687988131829e-03 -7.360791735837843852e-01
-7.675991005762593522e-01 -1.940529919060260955e-01 -2.320780860592585107e-02
-4.219320160036928447e-01 -2.177872359260151214e-01 -3.934985346736189493e-01
-2.433097126794359077e-01 -5.800213206312325731e-01 -2.324131419355664196e-01
-4.726504777561534310e-01 1.226420115562764646e-01 -6.784847038825611021e-01
-1.841688009642473700e-01 -4.521875906827888536e-01 -4.285894461511341458e-01
-2.623085982679327910e-01 -2.012355752244188445e-01 -5.921980680601022229e-01
-5.188192408481449025e-01 -2.826591295239999080e-01 -2.176819111736484347e-01
-6.363468808345006389e-01 -5.196226011644893283e-01 1.549750516938224465e-01
-5.196600648863798355e-01 -6.672541129527598258e-01 1.705779425593779430e-01
6.264474680435394571e-02 -7.517818189608832524e-01 -4.083486018406549678e-01
-5.153693516289191701e-01 9.103105273660588859e-02 -5.979355643013443133e-01
-8.027602867284101551e-01 1.352969848119152663e-01 -3.147779652762341951e-01
-7.762331442526623215e-01 9.796402463488036727e-02 -3.074333633662197918e-01
-1.183355591656927719e-01 -4.967266235642879280e-01 -4.588119744200418459e-01
-5.765800170319874685e-01 -4.078226926156938159e-01 -2.576844060782604653e-02
-6.233972152741620310e-01 -2.424387681319968846e-01 -1.389265919792724568e-01
-7.826454829329505536e-01 -1.625314845672986563e-01 -3.779250197148207452e-02
-5.803228345824674728e-01 1.406971212361084189e-01 -5.738794052167989213e-01
-7.330700299314921731e-01 -1.394709266545203150e-02 -2.439572083124909030e-01
-6.791436702281105076e-01 1.033410253868097955e-01 -4.235671288355434827e-01
-5.814215268921625324e-01 -2.079533597525145827e-01 -2.215228915942066557e-01
-8.187798319067822739e-01 -1.812357326149918735e-02 -1.420095646963643876e-01
-1.360804407113779813e-01 -6.009031164904334865e-01 -3.336665805695381293e-01
-6.812988589756954205e-01 -2.548659800943764986e-01 -6.038204317671049676e-02
-2.803326591529178291e-01 -6.896350198004544962e-01 -7.980795847186925029e-02
-6.553610125721767155e-01 -1.918835755228116835e-02 -3.272969052994855743e-01
-5.158196027853328286e-02 -9.076488321064080100e-01 -1.211230114574248784e-01
-6.185544306467291031e-01 -5.132853600845507236e-01 1.283030605116124712e-01
-6.717904808621465440e-01 -1.039811511696298735e-01 -2.231716659841733452e-01
-5.937921737323882398e-01 -5.552221013864823418e-02 -3.609193040244274564e-01
-8.147448683342678466e-01 -3.697272575006070872e-01 2.074666104300485203e-01
-1.359389212510356548e-01 -6.767974522897846068e-01 -2.573996380912605964e-01
2.118580833222037055e-03 -8.983985311271526220e-01 -1.916774415205126092e-01
-7.639522789143621262e-01 2.516891049951534565e-01 -4.762449116830074214e-01
-3.174404434821604948e-01 -2.859148342388938002e-01 -4.440517305357700728e-01
3.478471365054859321e-01 -4.083046494117215652e-01 -3.235785682944057884e-01
6.430900283103023751e-01 -2.906337546901099911e-01 5.365957132835273702e-02
2.824533019976650516e-01 -6.601485792510802808e-01 -2.203533599746139993e-01
5.013987954015883819e-01 -2.980124871312980761e-01 -1.679953623184223810e-01
7.384310580644416477e-01 -1.074096868061045623e-01 5.533919014114809659e-02
3.452114298810565196e-01 -6.644255651843665733e-01 -1.159357098214348902e-01
5.247486737617855779e-01 2.573486515288535559e-01 -5.898922116461118303e-01
3.085145781033269974e-01 1.490937476697844384e-02 -7.369126706780309011e-01
5.450310474900854629e-01 -2.438862419367958945e-01 -1.426361492307191559e-01
3.397427321689316937e-01 3.294961800403084506e-02 -7.016395623640290236e-01
6.931725554170543591e-01 3.950356828735241410e-01 -4.330656967902712928e-01
5.093891830157160072e-01 -3.482721657946979965e-01 -1.135733375239507126e-01
4.203683271389058174e-01 8.194159028305361692e-02 -6.125686492802612237e-01
7.849177732971371890e-01 4.186262168464364997e-02 6.575859888911963873e-03
5.747246029003489909e-01 -4.238276588868238326e-01 5.395326894475270529e-02
7.102899955658654729e-01 -4.120913738337934618e-01 2.621564820906751025e-01
1.672257609802198786e-01 -8.696082184169293683e-01 -2.322954631254598445e-01
3.272128755060044747e-01 -7.020263035682092756e-01 -1.137614388286963957e-01
2.159534021194452758e-01 -2.286058737665240259e-01 -6.842471470105719877e-01
1.046353770509322462e-01 -1.195421301926210128e-01 -9.534078522040754233e-01
5.729978001195534798e-01 -4.673430470607112253e-01 8.717625829109174052e-02
3.801324526424775807e-01 -1.084061800897864747e-01 -5.197772690967709108e-01
4.713997311956327207e-01 -1.632408206322743527e-01 -3.277085628743657830e-01
1.567162642942430961e-01 -3.240038787810388121e-01 -7.005475249626926804e-01
2.235399252167179496e-01 -2.595831594562994504e-01 -6.464259341228137945e-01
3.981601215186267861e-01 -3.519583677091751572e-01 -2.893170839816414097e-01
7.558747658547092518e-01 -2.483374008844843051e-01 1.999631784982164873e-01
8.007943330794899950e-01 2.944758697958860597e-02 4.236686763686791507e-02
6.655595743175978241e-01 -2.020060346328099998e-01 1.645933944952160388e-02
2.733858762811233745e-01 -3.338710435840220314e-01 -5.048462502955441966e-01
7.603244967606861415e-01 3.839010150654375564e-01 -3.159121756738488829e-01
6.152320436604172826e-01 -4.797361316557334221e-01 1.653173049354824120e-01
5.636282224167081800e-01 -2.789894634089871706e-01 -8.370281918865711546e-02
6.513436838220549863e-01 -4.380225806549745832e-02 -1.372680127368406111e-01
7.732834903374473656e-01 -3.779882133285357715e-01 3.352019603069777420e-01
4.089691468856909706e-01 -2.864920531874522447e-01 -3.261002217878695153e-01
2.439530387607997397e-01 -7.077973421852133962e-01 -2.428218344228587899e-01
7.227533803166183990e-01 3.268724457878912082e-01 -3.291275345141893016e-01
3.964820366277100883e-01 1.779156638990433319e-03 -5.846487641228090837e-01
3.098052628431766653e-01 -4.089738025838418611e-01 -3.841747460406121917e-01
7.775524591125690943e-01 2.304436082219879778e-01 -1.612696214685333529e-01
7.739946726246238473e-01 3.143502310177042625e-01 -2.364014402480031085e-01
1.214113046674682450e-01 -7.475957958981087614e-01 -4.068755774100547562e-01
3.040287577759523963e-01 -1.768638890179078937e-01 -5.854762324487455816e-01
6.664910907234592452e-01 -1.285520337360095411e-01 -4.280915156551715062e-02
4.133683800648811357e-01 -7.242793506521795488e-02 -4.961162613493539930e-01
7.037193054231292155e-01 4.255206606266599967e-01 -4.413316286407431566e-01
7.313195339168678810e-01 2.373746338222383623e-01 -2.413197149110917483e-01
7.076406119763304359e-01 2.593515676699842398e-01 -2.975627067999331299e-01
1.316600858440022670e-01 -3.820623587751048600e-01 -6.927939578479335170e-01
4.920610731548371586e-01 6.954919695679713521e-02 -4.870756202947180147e-01
5.201165837467893738e-01 -2.610375879462979998e-01 -1.684957790991664373e-01
2.189396306004622594e-01 -5.958797552374069106e-02 -8.192693862350977074e-01
6.792918280476530901e-01 -3.329923896861912702e-01 1.468932888369715306e-01
2.091146706351384443e-01 -6.404228747751027351e-01 -3.545586218858102767e-01
7.970455570032722870e-01 2.187634938248594063e-01 -1.202732458523346065e-01
7.509694220481887283e-01 -1.930197849650930886e-01 1.463159046474027114e-01
2.068325097863511763e-01 -6.229889688343449583e-01 -3.726494818270714715e-01
1.714978027232953728e-01 -1.680235375760387451e-01 -8.058240998212397033e-01
2.614636717532355381e-01 -8.378515212230202014e-01 -1.070855509560692392e-01
8.244362867928067828e-01 -2.863182705294715080e-01 3.415913963824056543e-01
7.098945302609919183e-01 6.377544886267759450e-02 -1.321466291539365179e-01
4.513260417075861120e-01 -4.290807222667624710e-01 -1.400559189272638227e-01
6.218639487713021330e-01 -1.061263755827820780e-02 -2.121112706448819163e-01
5.275570214403325631e-01 -1.918818287869182015e-01 -2.137458384365871766e-01
6.626742295746578248e-01 -1.161464842330977992e-01 -5.920716105619534125e-02
1.336921782615960175e-01 -3.890669051221300467e-01 -6.837328983673308658e-01
1.212287826518370498e-01 -2.663835072281625083e-01 -8.052585075384163238e-01
5.826581101276657737e-01 3.161217585564048416e-01 -5.454275694646796291e-01
7.115875686275672241e-01 -3.087609369274238458e-01 1.787607064834777215e-01
4.008286292823196040e-01 -3.394122981997170774e-01 -2.954065478486938012e-01
3.712509039625588869e-01 -5.418001611089473535e-01 -1.755225788175325541e-01
1.012540984146477752e-01 -1.649764514858346742e-01 -9.212568570830362846e-01
7.544582590786373943e-01 -9.911420605278878360e-02 7.423928241493274460e-02
1.563665802140031813e-01 -1.029327303299292506e-01 -8.839937914536886154e-01
7.398711936231152642e-01 -3.267742398382401658e-01 2.391264790513447092e-01
6.131051688931314914e-01 -7.532359735412771928e-02 -1.726573792829364795e-01
7.857730785275979235e-01 2.323656963046315527e-01 -1.496456046902619463e-01
1.267244831978063813e-01 -6.342454301702646902e-01 -4.921056633445295425e-01
8.374850467121729425e-01 -2.729216745772904962e-01 3.514838773682975037e-01
6.993270617235000097e-01 3.761030040972198063e-01 -4.075104223090122990e-01
7.708039297588151761e-01 -4.719736584079333580e-02 5.756491871173285979e-02
5.668473448104592860e-01 -2.240670268560149003e-01 -1.239636444347781002e-01
4.503376269079627514e-01 -4.815425904312108096e-02 -4.567714276387420114e-01
7.313283013806323174e-01 -1.768229993721757987e-01 1.013451135342963161e-01
4.354681323395089287e-01 -3.506798162231329896e-01 -2.304046744205011932e-01
3.310022286490194587e-01 -1.473879306133921152e-01 -5.665025941048392744e-01
5.534678825509763422e-01 5.297835172964289463e-03 -3.352154893630737154e-01
7.401225897025845990e-01 -2.833408319610222076e-02 -7.358176484850440305e-03
5.244588249293919979e-01 -6.258736319418629554e-03 -3.722852572917190739e-01
3.457647218231958974e-01 -6.183796719625327398e-01 -1.531384340148542744e-01
8.248854332991224503e-01 -3.498490818819001702e-01 3.948701136845356729e-01
6.317409021237038180e-01 -3.906853859766443865e-02 -1.726941961456712471e-01
3.400772355523800083e-01 1.760413244298249941e-02 -6.884071050435612849e-01
3.229108447255572556e-01 -8.937082160777960749e-02 -6.275044054644524083e-01
3.139561628242604763e-01 -6.075120258419677288e-01 -2.132589563892489382e-01
2.559631878922387638e-01 -6.212249933851086148e-01 -2.951345063706595773e-01
2.265893401170541999e-01 -2.167119840293399782e-02 -8.383401741911146177e-01
6.855831991628448252e-01 -4.220366969626264675e-01 2.306693811066294064e-01
1.455257930201664940e-01 -2.454436590261780682e-01 -7.835254832607501108e-01
9.990519086614201016e-02 -1.579525662702073174e-01 -9.292357413505474284e-01
3.911055147033747348e-01 -6.147845465260075581e-01 -8.323028744939475754e-02
7.508319182042086926e-01 4.461696721122908327e-02 -5.049342181745856278e-02
7.755322274623674961e-01 -1.234003240074594832e-01 1.282052918740569925e-01
2.009330007476567148e-01 -2.744049004539060310e-01 -6.705035484213321961e-01
6.001598311027724897e-01 -3.135936310983071518e-02 -2.298361583250639884e-01
4.716478346365169938e-01 1.880674958755171045e-01 -6.179344294254742742e-01
1.212610758814332140e-01 -6.858544025871705641e-01 -4.581934837676029382e-01
6.279334318971562245e-01 -2.038283155836097538e-01 -4.251463744410406698e-02
7.984738909134265761e-01 -3.082479582854135702e-01 3.180002358097583359e-01
4.935314260066910874e-01 3.565787765236331369e-02 -4.566750635051864959e-01
8.422548442458653584e-02 -3.215327774890862078e-01 -8.191158130943635429e-01
3.530304019684443184e-01 -1.161146706672280399e-01 -5.569650303796892521e-01
2.207556526315545553e-01 -4.349128838947451947e-01 -5.058575186878851992e-01
1.313130168671665376e-01 -3.327138471732366543e-01 -7.341760882909996733e-01
3.601871078570075824e-01 -2.265732464639764465e-01 -4.540827203097543840e-01
5.109642703757804050e-01 2.728975058591250752e-02 -4.217302937959264142e-01
2.320681586819115794e-01 -1.712244328489390122e-01 -7.058133562767342495e-01
3.127261740221953801e-01 1.162052564669289328e-02 -7.274220684941177240e-01
7.953811904708272262e-01 -3.652592223262629001e-01 3.601922873116467638e-01
5.836839722062939773e-01 1.316535376025954329e-01 -3.911746717946932295e-01
1.736690495660578315e-01 -5.452622051402813419e-01 -4.902580485390107823e-01
2.315190762897749999e-01 -1.417060559342167292e-01 -7.311154557631681650e-01
4.425379550738192669e-01 7.719115653725304449e-02 -5.730026066967717213e-01
5.959227341661929023e-01 -2.797071103957377569e-01 -3.119788809453148334e-02
8.095839574205585532e-01 3.535711862742542677e-01 -2.116401463833455232e-01
5.145723243459917606e-01 2.181106115146438582e-02 -4.113982687895268442e-01
3.302118001134408676e-01 -2.587161307633342178e-01 -4.756753573649635802e-01
1.966338757062008058e-01 -3.197842146358715887e-01 -6.398734348350875178e-01
3.024898268531213685e-01 -7.700086011132318831e-01 -9.726277237877956061e-02
7.016002000945463779e-01 -2.622322763891445363e-01 1.242152061417485936e-01
1.725563616489755314e-01 -5.069864968445778608e-01 -5.237107296763354736e-01
2.719584220045768164e-01 -6.840751527709747204e-02 -7.267491714068432529e-01
3.098129272067586260e-01 -4.080227754491562719e-01 -3.849491764776636349e-01
4.197903394154107182e-01 -7.030404791060850256e-01 3.588957596139898815e-02
7.419356152138880667e-01 2.669863104216087524e-01 -2.487517509027343254e-01
3.988381726997767829e-01 -5.275133266941431920e-01 -1.429968884065393186e-01
1.383988338958245523e-01 -6.307164576557379165e-01 -4.762593240921255688e-01
1.820341800355723683e-01 -3.017642210784102774e-01 -6.782487496443205810e-01
1.451857065264952618e-01 -4.684179864003784055e-01 -5.996135452523279064e-01
3.141707687216562239e-01 -6.916656071496616320e-01 -1.432967748822983889e-01
5.052242628224185017e-01 -2.827257936051011042e-02 -3.849922605950317767e-01
4.739141985372549160e-01 -8.525785271002586652e-02 -3.881792178841110830e-01
8.194280705434349166e-01 -4.414758166512107451e-02 1.332019665187848811e-01
3.198047789623061909e-01 2.423986934578339220e-02 -7.264832159325504968e-01
6.671901308060372571e-02 -1.575617265686598822e-01 -9.829036095496376246e-01
5.862191304317583285e-01 -1.069828451790887230e-01 -1.896843194803286003e-01
2.255033721515319889e-01 -6.364470706609057782e-01 -3.315039295604694791e-01
7.848301147181245552e-02 -3.097672773470360186e-01 -8.380796238673822174e-01
2.899655333485303688e-01 -3.591092065153881907e-01 -4.573169504915979289e-01
1.909908603717762055e-01 -6.452442113330890683e-01 -3.797029059592241240e-01
7.579038388090305611e-01 -1.818972286493477086e-01 1.482612225612533197e-01
7.281578363084454386e-01 -1.947239786765294911e-01 1.110576382905711229e-01
5.412023690594813807e-01 -5.879061976539984302e-01 1.358047871978920462e-01
6.934899098515769078e-02 -3.327966861458784287e-01 -8.337105474739987532e-01
4.566664512727516834e-01 -4.687142919018452147e-01 -9.868415100174161847e-02
7.287506341488049211e-01 1.848259888009157470e-01 -2.019774526455374863e-01
2.555432356888103218e-01 -2.758263295045493280e-01 -5.815453851951685182e-01
4.887615748216939671e-01 -1.738239416878440136e-01 -2.910455375761035746e-01
2.973733422419947425e-01 -4.116748562081214979e-01 -4.019237351563149652e-01
8.204323561757097538e-01 -2.567904716966623938e-02 1.195379366340417887e-01
1.929932021405037501e-01 -4.168473711649244295e-01 -5.654287297171277649e-01
3.600027284313607190e-01 -5.103175862208855218e-01 -2.196476583173648522e-01
1.758235568341316446e-01 -1.541148592822282615e-01 -8.103768890645529632e-01
4.189644943798439547e-01 -3.020268946221850714e-01 -2.971819624195295440e-01
5.558496723392186700e-01 1.180156734523974404e-01 -4.246343177217260512e-01
8.529769242316352917e-01 -2.988648545379997135e-01 3.978478800901980583e-01
6.742940292604134855e-01 3.542441226756521955e-01 -4.296662694463392329e-01
5.067240499931127129e-01 -3.483207937978389790e-01 -1.178171307644706733e-01
6.139518779786070635e-01 -7.033305609634596389e-02 -1.754248460376316154e-01
5.689583322159976753e-01 1.028335788480600754e-01 -3.910034335616757173e-01
1.150202359982896577e-01 -5.358035675685682842e-01 -5.923568464861279637e-01
2.816264202063213928e-01 -8.351512157589668917e-02 -6.987105401193763887e-01
4.425900823769248205e-01 -1.485381591181295924e-01 -3.861811092291126402e-01
6.397072616633581177e-01 -4.715233849473805527e-01 1.978654571413553942e-01
7.455259576911822395e-01 4.583970869038711538e-01 -4.013277366815733438e-01
1.927305463612454806e-01 -5.556148985943089036e-01 -4.510535699308982904e-01
7.599097902492450984e-01 3.974977456204114024e-01 -3.278268722815705916e-01
3.350083303309855931e-01 -7.249038524841193709e-01 -8.230500184950290121e-02
2.806091082764935463e-01 -2.744861656977491682e-02 -7.467275940618323116e-01
4.940563315173488457e-01 1.307117229850315310e-01 -5.344659249007516211e-01
3.073884185692365434e-01 -3.093168496626010899e-01 -4.705022562186261803e-01
1.722653432164214515e-01 -3.855265845470370878e-01 -6.246579187777726583e-01
9.064233909356336771e-02 -4.839518355731297627e-01 -6.744377344599614688e-01
3.542439267670335901e-01 -2.396357990344923083e-01 -4.528298049918651480e-01
6.662393422486470040e-01 -2.464449859096152218e-01 5.431475914839078295e-02
1.162932794908257544e-01 -5.513381862484543205e-01 -5.774592862991246855e-01
2.246592419049966149e-01 -8.823435275534858846e-01 -1.294395583773627068e-01
4.912135802730880907e-01 -6.488329069133268179e-02 -3.772267684415696598e-01
5.429703514060528757e-01 -5.480743296677437204e-01 1.056952343748508716e-01
1.328919056035435253e-01 -6.836348106131683311e-01 -4.413338983381251968e-01
8.303039687327834484e-01 1.061343088079174379e-01 2.636146099876578511e-02
2.975981818347622210e-01 -4.484479379827985279e-01 -3.711412788932377249e-01
4.841604924864753023e-01 -3.829308808935661390e-01 -1.254548519026939812e-01
8.201439143509313690e-01 1.816520556349190130e-01 -5.244324378426223204e-02
4.365990994678424775e-01 -5.123804417799066035e-01 -9.481763646646536314e-02
2.594543280205157121e-01 -8.457631535605701634e-02 -7.334727943647465498e-01
1.104753565806455701e-01 -4.771800594965145970e-01 -6.481595432870185247e-01
6.431255555779586963e-01 -1.682505025260676024e-01 -4.752656331031086812e-02
5.164896445914953782e-01 -6.235157759794245358e-01 1.255392682224327205e-01
6.726209877574322871e-01 -4.321542539489864887e-01 2.182033905629207626e-01
3.089576813517427856e-01 1.924638925584578469e-02 -7.397882674899417532e-01
3.115638475993663947e-01 -2.009907965570497945e-01 -5.534047653895338703e-01
5.554180325839657151e-01 2.404894520748244446e-01 -5.266462810826637586e-01
2.488531721888912474e-01 -8.061392741147344054e-01 -1.535904739075775738e-01
2.177867687740256963e-01 -9.650764572359078752e-02 -7.905802246976224579e-01
1.842112458225230176e-01 -6.556593829422833197e-01 -3.819845835746152329e-01
5.243352983891248487e-01 -2.205931248564656499e-01 -1.951727229812969533e-01
2.240360338475282098e-01 -2.569315720343188225e-01 -6.478220354492535416e-01
4.742018270595245721e-01 -2.867881119491030861e-01 -2.209981730689597190e-01
1.660855627698649695e-01 -2.117390012856607828e-01 -7.783596866920866608e-01
6.193209316527089614e-01 -4.924391960820524994e-01 1.823987025602899770e-01
5.930241677535623701e-01 -1.883385448847999244e-01 -1.114430506807396332e-01
2.110721151056627609e-01 -2.772597441581099720e-02 -8.582741685313232116e-01
7.899785366573133238e-01 5.002643540659973409e-01 -3.645084939515704225e-01
5.661325057551366280e-01 -4.431929122528718845e-02 -2.738115066517300966e-01
4.647811714305414288e-01 1.543277047733714047e-01 -6.010604169849865785e-01
1.685875158847873201e-01 -7.451505851285339377e-02 -8.878583753591011707e-01
8.035470311091887918e-01 -1.480688284516850084e-01 1.936445600197632122e-01
6.643738812656175829e-01 -1.639927158097545246e-01 -1.689362718456460452e-02
3.226955385415180566e-01 1.644243065869521736e-02 -7.153859757693317167e-01
7.208493834654327026e-01 9.111762669913235635e-02 -1.371566378518165041e-01
3.380432887269050335e-01 -7.217552662869484159e-01 -8.003122268569771991e-02
4.838256656288215662e-01 -6.121391987667346157e-01 6.362269569659299850e-02
6.492005652487191636e-01 3.330278845187222281e-01 -4.524508917703521926e-01
6.995965284925647065e-01 -2.752491588859705129e-01 1.317628358326843330e-01
4.376410771663749033e-01 -6.250683990808091062e-02 -4.653069027641449362e-01
8.403472433729711755e-01 -2.098760934939960729e-02 1.476687165082871678e-01
6.773286664555249192e-01 -1.097878309749062559e-01 -4.091142706011188096e-02
3.084801086788419022e-01 3.772036658806615650e-02 -7.558387872331344681e-01
7.380569515675236003e-01 -1.760862398390964090e-01 1.115514699685910827e-01
2.529482933108085363e-01 -5.593399681179688221e-01 -3.511759911492571273e-01
1.511870701174349019e-01 -7.977403994122478359e-01 -3.175302258272298395e-01
7.379732508118453937e-01 1.851687781641090103e-01 -1.874362961642402625e-01
2.176346751234239096e-01 -8.977104565843914141e-01 -1.280185701829368861e-01
4.333996026181236583e-01 -4.588388610001921664e-01 -1.442536267874805489e-01
2.898739306813060135e-01 1.017438211719307907e-02 -7.629591647914375496e-01
1.062240227898141737e-01 -8.697626767296060546e-01 -3.302238617090187400e-01
8.321237042652822602e-01 -1.824381785594861582e-01 2.680121545614295719e-01
7.084610459629905321e-01 -2.277774121472244950e-01 1.067402885537564461e-01
5.513729015318089566e-01 8.504585161753333566e-02 -4.045556823273016023e-01
2.420618725654557768e-01 -4.721780641487337005e-01 -4.407810712841964684e-01
2.130143051939704102e-01 -6.937252696421936093e-01 -3.041950773212979686e-01
8.719499521036279399e-02 -1.803616151962429970e-01 -9.311283264470799903e-01
3.585046734631051613e-01 -4.744423885610706826e-01 -2.517339352670635022e-01
4.995582295281916219e-01 -4.392978089308568479e-01 -5.407370619091524805e-02
7.392101449595435136e-01 1.371684161837168937e-02 -4.361208044928088778e-02
1.462902954748514506e-01 -6.637181308471820085e-01 -4.362732405481065667e-01
5.026920257921384527e-01 4.091261344141469691e-02 -4.462970707583344687e-01
6.492370976591778087e-01 -7.409391513740792856e-02 -1.155950144556647102e-01
3.487345779966575243e-01 -1.058541063634608204e-01 -5.723584715286414992e-01
7.122355685234414979e-01 3.542030508351709517e-01 -3.686438289844632399e-01
4.003387512656449987e-01 -9.750125693343079936e-02 -4.963182569271024080e-01
6.611552834900044084e-01 1.428744431608181820e-01 -2.759274181344699706e-01
5.405071165895065644e-01 -4.872479604503007766e-01 5.141629332630379134e-02
6.908147928280515826e-01 -2.121892240010250178e-03 -1.083015299832081474e-01
7.472443746423710342e-01 -6.907079970430118898e-02 3.778962565494412007e-02
3.079284357864955912e-01 -3.912398730255497448e-01 -4.018622579698955533e-01
7.099788937552201640e-01 1.525643971597844262e-01 -2.054629091612218406e-01
5.807384741552983343e-01 -5.367560568136335863e-01 1.570417440892102334e-01
5.635522067712742667e-01 -5.016270127237693055e-01 1.003549905634044531e-01
1.320478447816058332e-01 -2.947605882382841602e-01 -7.643922617365213057e-01
1.050937658434227401e-01 -8.842191537744885643e-01 -3.200813523656430015e-01
4.163975826791140311e-01 -1.511096970672861917e-01 -4.261564440057363790e-01
7.339281361687609584e-01 1.514731096085045747e-01 -1.660633358592323305e-01
7.871727473646269457e-01 -2.905095389245054838e-01 2.851600570338991836e-01
5.930855412960126527e-01 -1.573344789348890028e-03 -2.658484983260037682e-01
7.714076583392543984e-01 1.733719135549881274e-02 5.148264372431965961e-03
4.994579212260749634e-01 -3.415735787642305565e-01 -1.350786694684933398e-01
6.133514020690573609e-01 3.182756193695812086e-01 -4.978719857694641204e-01
7.087254833937282061e-01 9.003259468124237552e-02 -1.557473810402734138e-01
3.962715252600982341e-01 -2.466233765085659724e-02 -5.631130541462007200e-01
6.438209145859086213e-01 3.328735851385207223e-01 -4.609706707685591320e-01
6.861669701409063293e-01 -3.976217944387234193e-01 2.114101868969909259e-01
4.451652050066187694e-01 1.413738790808443946e-01 -6.218755269601307090e-01
6.410704114748354554e-01 -4.217362822531595667e-01 1.588695573935994254e-01
5.648805421304746721e-01 -5.837814975723305544e-01 1.704536367351987269e-01
5.419904684815287643e-01 -6.048516329682669390e-01 1.510899501498025321e-01
7.385362965233835952e-01 8.871453266419856987e-02 -1.067381261621941635e-01
7.976423361999565032e-01 -5.696376283161166260e-02 1.087852327352082510e-01
2.037547628064543814e-01 -4.329161744168311676e-01 -5.348371070793225268e-01
7.008019670195713147e-01 1.540949549818503850e-01 -2.214803746033309761e-01
3.754962930794137344e-01 1.074790568000039137e-01 -7.058236383309812734e-01
1.169139004872570414e-01 -3.182941266717117523e-01 -7.692506096229901891e-01
1.373971210807551357e-01 -4.821574266700965339e-01 -6.007670281318053807e-01
6.407533106738249051e-01 -1.867605230684589168e-01 -3.602711570668279406e-02
3.060143319197639045e-01 -4.386054146098857243e-01 -3.657552496807285336e-01
2.666905068504966669e-01 -4.661356065142943095e-01 -4.061909110311470728e-01
1.617714913589598791e-01 -3.491440491246208255e-01 -6.716240341859632812e-01
3.334767094554232369e-01 -2.803790070002485160e-02 -6.612590004000604704e-01
1.774446629305442003e-01 -5.887402297958377329e-01 -4.482212061552135474e-01
5.777978429682453232e-01 1.921583737757549121e-02 -3.076205806394577968e-01
5.267155217318615357e-01 -3.798036681558373262e-01 -5.963754506567001817e-02
6.213491956031322871e-01 -1.508497665346530681e-01 -9.692559213680043695e-02
5.876652703089895180e-01 -1.117747702502639162e-01 -1.833955607857643000e-01
7.757742364663576806e-01 -3.767578085609810112e-01 3.381877971725369414e-01
2.310075871766530398e-01 -5.743304379369037482e-01 -3.740431211888481378e-01
3.749647141350136992e-01 -6.326286848640089167e-01 -9.441372394927625977e-02
1.629059714004778558e-01 -5.269204948301442482e-01 -5.227324043351663230e-01
4.400563676220227149e-01 -5.116114408385951523e-02 -4.708103705855137822e-01
3.400076459304905430e-01 -1.201596677330638158e-01 -5.745519517298728340e-01
4.801432176456789103e-01 1.184029672601864640e-02 -4.584922806297423437e-01
4.096194202764931180e-01 -7.017806709427238943e-01 1.849831623750654644e-02
4.556888597984575795e-01 -6.192403815817318913e-01 2.426923158111515127e-02
1.631655727686370516e-01 -2.680081050425247025e-01 -7.365039771998473928e-01
1.374170308670437379e-01 -7.318812873458498958e-01 -3.941474980703456588e-01
7.716738106963512145e-01 8.775333824051918807e-02 -5.267664758294796079e-02
2.447283710234463006e-01 -1.173367429313185578e-01 -7.300422582280912120e-01
3.096112240543834604e-01 6.190366096690681774e-02 -7.740265612215101454e-01
4.850753689571233318e-01 -7.990773867315870138e-02 -3.746643458641930602e-01
5.208304978124640439e-01 2.459107649487397157e-02 -4.036384836258520292e-01
7.134664816545184252e-01 -8.506233180229294533e-02 -3.276840559825076101e-03
1.024900796745410875e-01 -7.355064301695314333e-01 -4.472912647846272183e-01
8.012871211340324429e-01 1.606228716407765988e-01 -6.535758194707243229e-02
2.751212081751275851e-01 -7.195206990512706957e-01 -1.830227964982270861e-01
8.095160214667450616e-01 -1.227137051577222200e-02 9.089897904722565869e-02
1.498391450977949180e-01 -8.824514883169284341e-01 -2.496185014044691730e-01
1.455838014618968945e-01 -3.364358539845423990e-01 -7.081576836260667918e-01
6.374310737174930797e-01 -3.316837052081048620e-01 7.852232458071180254e-02
5.097641533408642234e-01 -3.002569779922474313e-01 -1.526918279276327783e-01
2.836742724603856236e-01 -1.639357593273877431e-03 -7.631516169032276364e-01
7.506759504139243200e-01 3.287810085405206695e-01 -2.858227729304821940e-01
2.724755851851771715e-01 -5.796390167442817543e-01 -3.029945181609572380e-01
6.791541527223505792e-01 -2.927619692175866817e-01 1.133908118758953365e-01
7.848016779299911427e-02 -1.934663733768163529e-01 -9.342957303309599171e-01
6.393704061262464045e-01 -4.201727269507109924e-02 -1.579909023036967508e-01
3.637957425136493783e-01 -6.358637379557354752e-01 -1.096908493683755453e-01
8.047116217839780372e-01 5.428651978771878439e-02 2.811529321906236847e-02
2.318216218569550124e-01 -5.640041243504748808e-02 -8.011994106223209178e-01
3.100902120783053384e-01 -1.273294502259011696e-01 -6.167109051586880941e-01
4.915743097713073384e-01 -5.242911077465809422e-01 3.404566700742816133e-03
7.981116343378401590e-01 -3.176116139687519824e-01 3.251641468185930139e-01
8.312423385502329953e-01 -3.260156903338398693e-01 3.853719061352017805e-01
5.370256393326530153e-01 2.281174005240564351e-01 -5.459758605028931511e-01
4.797992398463288843e-01 -6.062920383970349381e-01 5.231334355272311554e-02
6.437011796612914782e-01 2.587197762050267302e-01 -3.998183699178723405e-01
1.330453159132779783e-01 -7.024222271169232590e-01 -4.255451508111059988e-01
5.321931316074527407e-01 5.729210622414654397e-02 -4.124261970850456871e-01
9.607148438932171242e-02 -4.253504643682189390e-01 -7.141895467764783900e-01
7.164654275850299570e-01 1.620390457884721969e-01 -2.028742783416727924e-01
1.007881965716530270e-01 -3.312846046300036429e-01 -7.844250371227705632e-01
-1.132913324263233740e-01 8.057127232050161902e-01 3.784515545475174991e-01
-8.182547250397056438e-01 3.394614710577391614e-01 -3.690166988132002612e-01
-7.338700776053501684e-01 -3.746678317735294139e-01 3.573992936629716288e-01
-3.649343837132841828e-01 4.775088310253102764e-01 2.454635568593677430e-01
-6.461627453238742991e-01 -1.458200647986923615e-01 3.090654213902486180e-01
-1.451605178958350340e-01 6.297520610262008489e-01 4.727898878227561608e-01
-6.915836910256019099e-01 -3.329555171879209491e-02 1.429668534929180168e-01
-4.449351735991095014e-01 -3.698723990618556917e-02 5.424916960790646669e-01
-4.699510491213965691e-01 1.303237640930425545e-01 3.638700168152119718e-01
-8.306513227512439812e-01 2.980947611651483808e-01 -3.547222084808610010e-01
-2.393051481571044914e-01 3.100485976296313839e-01 5.859378728005860681e-01
-4.944025399044785773e-01 2.993728502015712833e-01 1.847176953969603408e-01
-3.308305779212740716e-01 3.654651683524572925e-01 3.929727961216071819e-01
-5.693880534184292408e-01 1.985014075488402696e-01 1.476308437627573966e-01
-7.751708307759941352e-01 1.662347121872864708e-01 -1.564580088156686810e-01
-1.978637845085597924e-01 7.961887609962779999e-01 2.503858764834741568e-01
-2.690511710611636076e-01 3.647655125950993726e-01 4.928578223046626849e-01
-2.797807872501156257e-01 8.072597357994875100e-01 1.095512067715455617e-01
-2.992558160442594373e-01 4.033584614502990773e-01 4.123793423150836079e-01
-1.216114968694707865e-01 3.508836981262533627e-01 7.413410695098539005e-01
-5.791548276361153658e-01 -2.651170872619023136e-02 3.180766339689959366e-01
-1.713359432180480424e-01 6.462188651616453949e-01 4.170922664765249754e-01
-1.241478059465891681e-01 6.613361611953058050e-01 4.804380190570881060e-01
-1.794975590528600506e-01 6.281953427631435938e-01 4.188832287714115421e-01
-5.657482508636881846e-01 4.737663472017016320e-01 -7.423515748796090385e-02
-4.109085184858080608e-01 3.770257322581525572e-01 2.546892753440504475e-01
-1.064355394118661341e-01 2.454047262883591318e-01 8.529943387342717731e-01
-5.307028782889093854e-01 2.934952813848074049e-01 1.312296521138724414e-01
-5.486331770698753552e-01 2.589867664816580817e-01 1.309555546153888805e-01
-3.611942806970708242e-01 6.748650142709109456e-01 8.820988085342074125e-02
-3.751087677675200571e-01 4.713620608712438820e-01 2.341939221309627117e-01
-4.714649063057474998e-01 4.003512352995035606e-01 1.380526238146030094e-01
-1.251039092290970323e-01 1.095972008943691400e-01 9.353348529109499765e-01
-5.959165365993037700e-01 2.489493903600098201e-01 6.325430449732820370e-02
-6.926763076012829590e-01 1.337478970324425254e-01 3.021536892114048880e-03
-8.505447126296170612e-01 2.158267988718103603e-01 -3.186421773169189620e-01
-5.760678542448716133e-01 5.104167615921668677e-01 -1.211427868234994792e-01
-4.640156902793959870e-01 6.054577552180984146e-01 -1.965047688154022282e-02
-7.324378396638221433e-01 -8.229925560211442948e-02 1.178355608432831159e-01
-7.529212084784756565e-01 -2.415983448677170020e-01 2.166923085964294060e-01
-7.599452381729292494e-01 1.309959877369443193e-01 -1.028321730505502019e-01
-1.789428163998205978e-01 1.833373527942325498e-01 7.877898807581097396e-01
-4.278815411590090600e-01 1.765536555948128694e-01 3.932495922929378218e-01
-3.028603370859091481e-01 1.041445277884554682e-01 6.541141935880364633e-01
-5.994185887033492977e-01 1.150448304135801292e-01 1.683993960788189581e-01
-5.533877489445643283e-01 -1.777000513962481709e-02 3.522637781158031722e-01
-3.361058475299827930e-01 4.054662461396926210e-01 3.514017100642227165e-01
-4.856500436352058636e-01 6.363080794699068621e-01 -7.994759803465900649e-02
-5.556946867361691744e-01 4.568806921799974385e-01 -4.410583954100857906e-02
-4.087632711652916528e-01 2.073280878453010456e-01 3.985223449760971204e-01
-5.637285691128192111e-01 1.336873348775215534e-02 3.098816544273430562e-01
-7.823197585719067204e-01 -1.271488016634394758e-01 7.475615222296243256e-02
-4.690468959992979969e-01 -1.323197961223179231e-01 5.825989089394062459e-01
-4.068375571967204340e-01 1.709162051748848166e-01 4.317400350174174783e-01
-1.566863728097197817e-01 6.688549195289010540e-02 9.199020280677830952e-01
-6.930395514846008354e-01 1.485621502136438288e-01 -9.817649489519960498e-03
-3.452451991967432354e-01 5.910889721472664116e-01 1.831518452489144799e-01
-2.451365760950871553e-01 7.724993610811067279e-01 1.939954396029031358e-01
-6.125421193869469150e-01 2.083886439911697697e-01 7.008424228682387513e-02
-5.429465249286501427e-01 -1.768880534795587989e-01 5.006799527372332026e-01
-9.186750977768115556e-02 3.320945998763143447e-01 8.046960630206690945e-01
-6.433543807090538191e-01 5.159818115099841229e-01 -2.339051008081139693e-01
-7.090290668531399332e-01 -2.418979778723758800e-01 2.874938389827999541e-01
-3.103599967161027040e-01 4.502882194686488870e-01 3.557068283959131105e-01
-7.593397872091713907e-01 -4.010559497943878005e-01 3.382883912780801916e-01
-6.011446456406056571e-01 3.526125194900485704e-01 -3.090628884501658499e-02
-2.582749555164622346e-01 8.714733797187657061e-02 7.398433457906373745e-01
-8.144880666845857320e-01 -2.596259969432531123e-01 1.326413651053690024e-01
-2.516756868025755156e-01 4.358545450775229146e-01 4.619783525156387904e-01
-3.852528374082895279e-01 5.452565405041942537e-01 1.567577820347728079e-01
-6.988029238509770869e-01 -2.002731289482822807e-01 2.694969401233248130e-01
-1.159694245645278565e-01 5.895323539574084393e-01 5.529849102383500581e-01
-5.314081500762558585e-01 4.966289553887807684e-01 -3.794917315514542006e-02
-4.843504747580279490e-01 1.577400744151651879e-01 3.180433892336498314e-01
-2.126030885026228556e-01 7.666664695204792324e-01 2.511161652350282214e-01
-4.927608897472813831e-01 3.462760696826467366e-01 1.485551985315506918e-01
-8.076461129488646806e-01 -3.531900437129544268e-01 2.210414989384364981e-01
-4.305098728464430424e-01 3.856310304951519607e-01 2.160625690640077534e-01
-3.640659538659806738e-01 1.548534488605074200e-01 5.137806380644800441e-01
-7.471428774379639259e-01 -1.993390230306873734e-01 1.910209757326724045e-01
-2.945858875524894338e-01 1.948995660721099532e-01 5.923364488333102695e-01
-7.232618098879109447e-02 2.592769817093664719e-01 8.963468142783796999e-01
-5.031790204572770264e-01 4.763882207132306146e-01 2.417167558649129314e-02
-2.748583127018961458e-01 5.481571820944787232e-01 3.318099326056282439e-01
-3.309512758527539678e-01 7.380271586737526812e-01 8.457170989305971831e-02
-2.559312526936346477e-01 3.944312412162307435e-01 4.894058201038329337e-01
-5.692337642818595667e-01 3.085914692132267212e-01 5.680532311029364706e-02
-2.045147921592032625e-01 5.312194694330217848e-01 4.588943511647879947e-01
-1.623814574218666040e-01 9.419147309277448032e-01 1.868674928582989836e-01
-6.751482110667796910e-01 7.323766961260179398e-02 8.125469354906973696e-02
-2.367390988971523336e-01 1.459019300483684334e-01 7.258552305910719316e-01
