2.057656156709862239e-01 1.254443793352871539e-01 -1.491766996681895829e-01
-2.183978620583244476e-02 3.905889564878881615e-01 -1.281975057865526561e-02
2.440576744684098132e-01 2.955422580786314923e-01 -4.005496818119969049e-01
3.208056428151478956e-01 2.644293014954565701e-01 -5.085489387734505318e-01
5.327100079175706160e-02 2.936694911322635382e-01 -4.779526541312026366e-02
-2.860967308083220417e-01 1.497784193779340411e-01 7.292240023504044100e-01
-2.831125758363972067e-01 3.697479808129541246e-01 4.897045390390951658e-01
-9.431300473525644490e-02 -2.439968881772936957e-02 5.619430051899009237e-01
2.657437873384770888e-01 1.195672522186072007e-01 -2.531938870139150977e-01
6.086843804598585095e-01 -4.299387057517072286e-01 -2.990532302939831188e-01
3.331663370168435612e-01 2.838806816725211735e-01 -5.519690987834201534e-01
3.248170066045544258e-01 8.923114031688837711e-02 -3.295245721083388535e-01
2.724818818417539812e-01 -7.293765132907385762e-02 -6.076939277747266110e-02
9.034243071365427591e-02 1.764459644468990007e-01 8.766880862356178986e-03
7.446607506600880222e-02 3.564256562906316095e-01 -1.535308927467353146e-01
6.328684284326948628e-01 -6.686240520396202758e-02 -7.298048838524937576e-01
4.062629675156653741e-01 -3.177880539376052860e-01 -4.622169466411309852e-02
8.240841142329489999e-02 -1.228375117770826030e-01 3.417714525046983698e-01
-1.147169846002714655e-01 3.071964549082486715e-02 5.408124569387147140e-01
2.096273088686602948e-01 2.705467624828044593e-01 -3.106557869947573214e-01
-2.120572935033969153e-01 2.119089964110127955e-01 5.269994272703382165e-01
5.937792974664173329e-01 -2.564415931223087419e-01 -4.562396556956423432e-01
3.563445996598507137e-01 2.138093758765096386e-01 -5.200311682739310326e-01
1.253749917661972912e-01 -1.988571663963880909e-01 3.436571472488131884e-01
3.456375824063988023e-01 -2.246203823971824887e-01 -3.388597718954616117e-02
-3.153356658979574179e-01 5.541381864483162500e-01 3.527677941053090072e-01
1.353352342747896619e-01 -1.747514981492051811e-01 2.996983703345976191e-01
5.881154720610661801e-01 -5.827380883569589498e-01 -9.866877478326109563e-02
-2.917505630619225410e-01 4.579006205515318007e-01 4.117969201156218007e-01
-2.751819658022430226e-01 1.867770031045573945e-02 8.486396777257207980e-01
4.927560349215240332e-01 -4.770241325714174030e-01 -3.582280818783197679e-02
-2.128964339368912828e-01 1.740802540377172081e-01 5.687894730301726876e-01
7.928265286625164887e-02 -2.266780880087351790e-01 4.579976843298745326e-01
4.422649112724808540e-01 -2.782797740424997057e-01 -1.544455849512817447e-01
4.452126176258717760e-01 -3.629933054538674736e-02 -4.173161620924790705e-01
7.043630207233437801e-01 -5.496989372628313664e-01 -3.475417432247900340e-01
2.343019085699201143e-01 6.513123126098309401e-02 -1.374715604043364459e-01
4.920255583804100663e-01 -3.416009432025797765e-01 -1.785611537242663138e-01
-2.820606226793835689e-03 -7.770812593911469168e-02 4.504505910501043764e-01
1.125772847712552122e-02 -5.498197346183079405e-03 3.477409325240962690e-01
-3.535447583536509009e-01 6.600891410883442667e-01 3.102905161965283654e-01
-7.787767117714937404e-02 3.279174907881975964e-01 1.568843821825060825e-01
4.470834300798601224e-02 3.243749676543525862e-01 -6.472139038349748741e-02
-3.697170416248887759e-01 2.912712905518555218e-01 7.324211444304375984e-01
-9.611680351995223470e-02 2.803136719761176177e-01 2.410644049975317060e-01
-1.891517408147822335e-02 3.599193063222785871e-01 1.443382267826942393e-02
3.300823306385132216e-01 -3.497860791134365099e-01 1.278804377760997535e-01
4.192040854485735157e-01 8.663091565284425366e-02 -5.002890542625552106e-01
4.787981051575194158e-01 6.506263132305493968e-02 -5.869056220905769505e-01
-3.397107969033156816e-01 3.162278121839034312e-02 9.535034311374492866e-01
6.361572423787804631e-01 -4.753610661177166130e-01 -3.012357843475070851e-01
6.421171963281900874e-01 -4.762883989585278699e-01 -3.112065580485721128e-01
-4.358170251336883627e-01 7.177874156252017634e-01 4.001611912909705526e-01
-1.009088126660394324e-01 4.793695716260151229e-01 3.809219937269451434e-02
5.555788918546483712e-01 -2.170342105638871644e-01 -4.279349387896761447e-01
5.962156100579882878e-01 -1.205398434525757345e-01 -6.053093098377146930e-01
-2.951316635649667841e-01 4.773174029323086487e-02 8.544056819558977223e-01
4.671299400372398436e-01 -4.851024828834171743e-01 1.988568123558123388e-02
8.417315302803012045e-02 6.880148892749513023e-02 1.346357300413372760e-01
6.499207911588208431e-01 -2.629478576130410139e-01 -5.525337375738191836e-01
-5.008680940450063179e-01 7.868791164967474661e-01 4.462487853516071690e-01
-1.976344019497801308e-01 4.231769922653974558e-02 6.809168335313124931e-01
3.343089801903385561e-01 2.027469441800964361e-02 -2.736104922373382986e-01
4.934020097282983408e-01 1.159742152976762503e-01 -6.679215105605876834e-01
3.783921559725296202e-01 -5.933887085471315631e-02 -2.699539782529468135e-01
2.148406066379901502e-01 1.795248315281040008e-01 -2.233991290973923738e-01
4.223108225399100357e-01 2.236534134572111809e-01 -6.517836880055983828e-01
5.821477361569816766e-01 3.320211550359264407e-02 -7.430167681470595253e-01
-2.133420662855260996e-01 4.152197496244540709e-01 3.130522730913208873e-01
3.477514841174645377e-01 -3.860251240023507280e-01 1.339515922437811146e-01
9.862011165908152188e-02 1.737641927342684356e-01 -3.598434328450837022e-03
-2.871675481652394279e-01 1.037929367066264402e-01 7.801182198208891361e-01
-1.452204270128699126e-01 5.798645858102660089e-01 1.263918796979186972e-02
-3.286718139016299167e-01 3.338338440355356762e-01 6.116756149054551894e-01
-1.607083966668690356e-01 -8.198024246417466576e-02 7.452730537881345763e-01
1.013646042655479279e-01 1.495526831463177553e-01 1.711525421869008676e-02
-1.257249811143775209e-01 -3.371456215912727039e-02 6.296044352710638004e-01
-2.790785288474117998e-01 4.021300829565105928e-01 4.478355127161394722e-01
4.592043813677521569e-01 -1.647906278337409602e-01 -3.063338112610511921e-01
-2.498907026686122690e-01 1.727734603220190401e-01 6.381938978384219530e-01
-2.975103799557396456e-01 6.007226300798826912e-01 2.704331770991331152e-01
-6.345166529622919827e-02 3.741763030921115285e-01 8.114580277865955649e-02
5.128035535946851020e-01 -9.918472134076140173e-03 -5.696498072228582954e-01
-4.795830999365254255e-01 6.371369554088969211e-01 5.664320240861060451e-01
2.139954237508269741e-01 1.730637812867229230e-01 -2.149711269127465574e-01
5.969417184400899884e-02 -1.863870336792695925e-02 2.726710053760806329e-01
8.114127541493455775e-02 -2.144185072710509676e-01 4.415372165876884081e-01
5.747473139788124019e-01 -5.327859292400226598e-01 -1.272371709967784481e-01
5.914676986407036985e-01 6.710638477592431594e-02 -7.962234524764257859e-01
-3.221467060226243517e-02 3.952294033171746546e-01 1.317378976735559745e-03
4.026687315827123803e-01 -3.310284843074747241e-01 -2.552673688130009319e-02
-6.855996618858098413e-02 3.217099282219754164e-01 1.463581880234072763e-01
5.862379095075528346e-01 -5.183221117333497441e-01 -1.637512145236023342e-01
-4.838410391990476817e-02 4.632771463497719483e-02 4.022532867773109810e-01
3.331498414942496433e-01 2.718803966955965490e-01 -5.391712610947381190e-01
3.495952424369369038e-01 1.714232165482044157e-01 -4.625263792180108746e-01
2.631870908441295009e-01 -3.663879293605067367e-01 2.685308244417841661e-01
-1.407283608290141597e-01 3.230419840143938792e-01 2.776227953910770374e-01
-4.701051353758756157e-01 7.527209668006800136e-01 4.260330016203202619e-01
4.931210696000259269e-02 1.842854106810043191e-01 7.586061065746016463e-02
-9.359131630712706762e-02 1.100538417937025892e-01 4.175665025385713047e-01
1.546412219976718017e-01 -1.839035866989324752e-02 9.784632450149556571e-02
-2.884387048304471457e-01 2.415775955767250072e-01 6.358614688614423471e-01
1.324338576343769558e-01 -2.892192362339129352e-01 4.268186735867158244e-01
1.107149514753237585e-01 4.312047165570658258e-01 -2.997345502536591377e-01
-3.376819041776248920e-01 8.800353819287783097e-02 8.897879037371148048e-01
-4.217449501356415609e-02 3.765816950079003411e-01 3.946847833274264028e-02
-2.294559101084280295e-01 -3.183668246515664046e-02 8.183161434582574278e-01
-8.557306120335386734e-02 4.299182588999234667e-01 6.251030131841406323e-02
-3.802301834547973570e-05 4.611570141997299588e-02 3.135944288723217510e-01
4.296330043674131405e-01 -1.670734997701019686e-01 -2.495379141287353830e-01
5.996461140485606078e-01 -2.570800335522935298e-01 -4.663465584902930505e-01
-2.956232805920083195e-01 7.102553207334432184e-01 1.504281904129945169e-01
-4.072466294741406562e-02 2.644376881661741341e-01 1.561167737533389333e-01
-2.913630803334221753e-01 3.864364595770313215e-01 4.871176790580722393e-01
3.299009524122696324e-01 -2.310411487362619420e-02 -2.193541309333716383e-01
5.213706796638343244e-01 -9.811062464274220019e-02 -4.915698708567843300e-01
-1.052708443378333608e-01 3.021993327752177660e-01 2.346092410418285923e-01
4.308243860789834900e-01 1.181554619282776664e-01 -5.551930496158468120e-01
-6.951100864628897980e-02 4.910827556897626733e-01 -3.209481898421566448e-02
2.785909301051384679e-01 -2.493190536388409928e-01 1.156572646163271378e-01
-6.639354343802326974e-02 4.134279246536394781e-01 4.479332240990960279e-02
6.260449267155048236e-01 -8.012844214499034723e-02 -7.031456667898956514e-01
3.419607862555791300e-01 -3.403265156375355205e-01 9.597750798985796306e-02
-2.573155230221200185e-01 3.490970343934629572e-01 4.642478171102081830e-01
2.846781412216535800e-01 1.634780873950801572e-01 -3.347229862044361348e-01
2.633152678178100614e-01 1.544015024515703327e-01 -2.857903875327200138e-01
1.250311883041573813e-01 2.442068505115510268e-01 -1.271016193425684448e-01
6.021087708928896109e-01 -3.989409038617078851e-01 -3.199435647157465867e-01
-1.331509295733040721e-01 1.044062946188172997e-01 4.963055965442624839e-01
-1.969576116344690375e-01 2.416803270495932465e-01 4.675638839074961473e-01
-8.725175331088839970e-02 -4.942407591865070199e-04 5.235270538083185432e-01
2.835570825773903736e-01 2.718024111646080709e-01 -4.479118421183013177e-01
2.049196057642081459e-01 3.210018668951324927e-01 -3.556815582459029179e-01
3.102023920888400538e-02 2.486892928902781907e-01 4.096879172200366265e-02
-4.899491831851449097e-02 -2.781540456695202890e-02 4.822596528272041772e-01
2.247328952515338651e-01 1.094324339947461422e-01 -1.670124521870848533e-01
-3.773100692394923406e-01 7.020118214737004481e-01 3.093801540467047140e-01
2.556318272933463115e-02 -8.992736000064899260e-02 4.112673613170222398e-01
-5.118751705130819563e-02 -5.067801666119622905e-02 5.106150619143263736e-01
4.794506524244431245e-01 -1.908109394197951905e-02 -4.985819662170155042e-01
-4.654946302940383140e-01 7.691034212938863135e-01 4.001267235814242595e-01
5.261223245660822112e-01 -7.638658524836475228e-02 -5.234187284438556187e-01
-3.831115509109133677e-01 1.891887472248972302e-01 8.656560767576826354e-01
-4.358450482585619207e-02 7.096087216320959290e-02 3.672211557015253591e-01
4.449072951571143020e-01 1.628119886820906040e-02 -4.726970361888180316e-01
6.783845862187929399e-01 -4.079524399039345384e-01 -4.505892185171171960e-01
5.557903185786027267e-01 -4.364964320280665944e-01 -1.948303389724515555e-01
1.965881138068516221e-01 -1.603853642130941559e-01 1.718001357334789647e-01
5.338627070669379471e-01 -7.721702754938543529e-03 -6.107043464585003578e-01
-6.105254879566816145e-02 3.254553203872417311e-01 1.285709270000525983e-01
-2.188930142641842824e-01 3.948162901457298590e-02 7.230182523541800466e-01
-1.293499784617481961e-02 3.603521155098735052e-01 2.978768956079877288e-03
-8.288645159039050025e-02 4.837108771562385612e-01 3.391679494746246558e-04
-3.183315812297221048e-01 6.957024023289581915e-02 8.738240840104475327e-01
5.686192877920799305e-01 -4.595968681315739657e-01 -1.938391020571331724e-01
-1.234812927990475567e-01 4.513843693469092866e-01 1.093661838878377812e-01
-2.120818757813199562e-01 6.478828139561062516e-01 6.319727532692015481e-02
-8.059304067668524030e-02 -3.776150843680303043e-02 5.509349004829344754e-01
-3.493600042413930185e-01 4.224055909609938375e-01 5.554764309809088196e-01
6.331780614746774782e-01 -1.234832318910463189e-01 -6.701333253147115920e-01
-2.270743845054508381e-01 1.721736237187756202e-01 5.968842096946542775e-01
6.404353076199279515e-01 -2.521188682857936625e-01 -5.466159748441649091e-01
6.580582463379721636e-01 -4.339248160325190340e-01 -3.855862841941992136e-01
4.067472698937528164e-01 -1.175016353061810181e-01 -2.602036069986388145e-01
1.622810316697430033e-01 1.884325204989790170e-01 -1.362453734050396714e-01
-3.465597065384464215e-01 3.249632873022919033e-01 6.540002498000572206e-01
-2.415396119848061129e-01 1.064765099718395086e-01 6.933759670026781174e-01
5.391510297083955683e-01 -5.029277837666679130e-01 -9.356038204413803794e-02
-1.689307584569172960e-01 5.451180824229844291e-01 9.319869360381505263e-02
-4.338474224027342729e-01 3.242467296521175379e-01 8.152413674897276419e-01
6.837200155376387256e-01 -4.636225703743055426e-01 -4.011690806573833812e-01
1.403369880927039272e-02 -1.752096016671384274e-02 3.554287276562637099e-01
4.193991137489838650e-01 -2.434999038553975204e-01 -1.494102270439459645e-01
5.564432360205444628e-01 -4.313762029686576960e-01 -2.014783153361070223e-01
5.866231487769911768e-01 -1.366259123798244379e-01 -5.705590238944294734e-01
-2.464742744507278649e-01 4.217395763761990213e-01 3.670292798257694389e-01
5.838287882675721185e-01 -3.993495085356762314e-02 -6.682943798590086359e-01
2.686204940641837013e-01 8.998374694726234135e-02 -2.270078259562552658e-01
-1.967410559636446621e-01 1.884770348872107648e-01 5.237705344809665542e-01
5.959990117823861233e-01 -3.999139334595901429e-01 -3.076755136228597753e-01
-6.755707109666289623e-02 2.209049989687864590e-01 2.517641488878916145e-01
4.189885577030494912e-01 1.284382403710691289e-01 -5.443730380036440053e-01
1.095892267554941374e-01 -9.518988219947724372e-02 2.623841838928012704e-01
2.425892069142164542e-01 2.903983044099308630e-01 -3.923770725142887161e-01
-1.120675556981080984e-01 4.483240271606492994e-02 5.209264317766371111e-01
-1.236941186223259465e-01 -1.016804593550125757e-01 6.981819136017318739e-01
6.437230875084177795e-01 -3.448905154638711168e-01 -4.539576636048724967e-01
-3.567586258268826693e-01 6.543860123143786511e-01 3.222669742648993640e-01
1.090041445654388458e-01 -2.723418873017354191e-01 4.519378922308179281e-01
6.896410398103889339e-01 -5.778193718071907847e-01 -2.905570486953836795e-01
3.622558818385275270e-01 -2.140324908956184047e-01 -7.570359164123645346e-02
-2.174191833181689237e-01 1.262103285787067042e-01 6.280350013438715795e-01
-3.587352709359543645e-01 1.933855541047641846e-01 8.163750819261701430e-01
-3.967207622739262751e-01 6.821566405203353112e-01 3.661913770476025176e-01
1.175924502880032751e-01 -1.095954035468662269e-01 2.629967548202362115e-01
2.909949864298222999e-01 2.616250066211433523e-01 -4.507583661517461371e-01
3.247762885711931169e-01 -3.796682422198423557e-01 1.694282611420701579e-01
2.546432210339850122e-01 1.020691381452540208e-01 -2.141686223393748090e-01
8.025646665328727003e-02 2.147882821106056883e-01 -1.348373517044724676e-02
5.317778837575356521e-01 -1.183143309075836563e-01 -4.892081401673606389e-01
1.863315172436574851e-01 1.623789471231615045e-01 -1.527429875714428620e-01
-3.017930540156611996e-01 3.413084770177105542e-01 5.543064121930271204e-01
-7.640035041472316435e-02 6.717816255358524669e-02 4.315777470406305660e-01
4.622755930101895006e-01 -2.595771923149541305e-01 -2.111335996728900544e-01
5.822815031530839125e-01 -6.063718675090324500e-02 -6.434238795287494650e-01
-8.872924801633404190e-02 1.650349090141157438e-01 3.501313501579099152e-01
6.509864107998079019e-01 -5.091114527481220842e-01 -2.925910761891477585e-01
3.721313942444569589e-01 1.881706319391971902e-02 -3.415962993464954911e-01
-1.880520230737554588e-01 6.393448721358971909e-01 2.810211965440106291e-02
5.297953906556710502e-01 -5.672432316999268531e-01 -7.932620738637839730e-03
-3.278333455036514521e-01 5.542070369065117408e-01 3.756715661052113520e-01
2.929203880810464233e-01 2.842788631463643440e-02 -2.061918895752408165e-01
2.388025328794097513e-01 -7.241290440854185329e-02 5.919030561599249781e-04
-2.569472352665124193e-01 4.156818729787988276e-01 3.927288484416830427e-01
-3.785626431532984060e-01 7.445317453098549976e-01 2.664446246415841935e-01
-2.800332119621445903e-01 2.821826369474182417e-01 5.772068609369475078e-01
8.874932148320988090e-02 2.655006179210973594e-01 -8.305245205806538467e-02
7.574965574958823777e-02 1.213313307620591530e-01 9.423407480186776763e-02
2.011901009464466539e-01 3.137325970620043480e-01 -3.410908286073849327e-01
-1.562985232529459922e-01 5.191802518894245155e-01 9.757042689984753159e-02
3.067276492103435670e-01 -1.723953146654051138e-01 -1.791396196531142709e-02
-3.797014485813496321e-01 5.370292479411793440e-01 4.893072741151648919e-01
2.486735440076404957e-01 2.514581639959124759e-01 -3.621334084507779605e-01
5.365576132414295873e-01 -3.663676187963989528e-01 -2.340833734516277742e-01
6.840212917249911817e-02 4.376701912080309675e-01 -2.288211277156645129e-01
4.314319895374655878e-01 -4.535366943339809165e-01 5.193256443338107459e-02
-2.652050241794138771e-02 2.081942003195975943e-01 1.898417350029961426e-01
-2.494407365469824833e-01 4.127152089847606065e-01 3.820844608359484917e-01
6.090708480726853002e-01 -8.110034706185187403e-02 -6.709047257162963351e-01
4.062138141061939489e-01 -1.186130906224032860e-01 -2.580403317626751569e-01
-1.898486174376481650e-01 2.452866651443079693e-01 4.506570695644004920e-01
6.805118576384064921e-01 -4.718813985163676783e-01 -3.864840243311904455e-01
-3.350257376458353753e-01 7.124694200215506701e-01 2.205140796261649272e-01
5.999678221918942622e-01 -1.032024075069148394e-01 -6.306536507088734700e-01
4.873348813319399730e-01 1.682567855980557636e-01 -7.123922770236094104e-01
-1.828302067784164653e-01 4.038035677644696148e-02 6.557604772793405035e-01
-3.015703562383524883e-01 1.070318157973134399e-01 8.031518755743718430e-01
2.553945298131716779e-01 1.573870053713847805e-01 -2.744044630354910419e-01
5.206890268310379044e-01 1.171172654758135812e-01 -7.193049095720386310e-01
2.136529840333308006e-01 1.250492630791703863e-01 -1.632572742897835660e-01
-3.474886052572102035e-01 1.686425490740252608e-01 8.220229738528359587e-01
3.951672933827478640e-01 -2.116229954003631675e-01 -1.387748721788314710e-01
6.341600842636350155e-01 -2.260937543298649210e-01 -5.627679587606285727e-01
1.329948625984425370e-01 2.485147477199612098e-01 -1.463261783668472205e-01
-1.137742447503527626e-01 -7.617197981302553135e-03 5.798670960494870519e-01
4.735004964038662667e-01 2.187801348792966019e-02 -5.312203701721268656e-01
3.156587738794353615e-01 -1.747350121869043205e-01 -3.184457989955527535e-02
-1.572063133065079166e-01 1.016409350356212299e-01 5.434736572193616944e-01
5.035702432863782274e-01 -1.836656526778921439e-01 -3.678188119909501230e-01
1.309558432642463910e-01 4.008606204677301332e-01 -3.046633811505902178e-01
-3.817725141096280361e-01 4.022824276225799855e-01 6.364766518026255815e-01
5.524718281525754504e-01 -2.990038629139805670e-01 -3.350122959885272200e-01
-1.859808842798769957e-01 7.116212914939701317e-02 6.288032353256017837e-01
3.365074830494564351e-01 1.458683871738277182e-01 -4.112758406910144160e-01
-3.634931922063083243e-01 5.271232087289398072e-01 4.700477138392522014e-01
4.770304935148967918e-01 -2.220137375667418644e-01 -2.782255667796279530e-01
-8.679352104870120821e-02 4.053110445784753879e-01 9.093457146134745206e-02
-3.748073214317425017e-01 4.360441756483232623e-01 5.877508525635580794e-01
2.292579441567668685e-01 -3.078331213833923607e-01 2.686112220224253222e-01
3.753341134295909431e-01 -1.763266992585993675e-01 -1.398644345808476852e-01
-7.859418866327524955e-02 -3.405838401320915310e-02 5.433201247955555813e-01
6.392322338320002295e-01 -1.052172771895732301e-01 -7.006977101242610750e-01
7.057594619348775966e-01 -5.962106510515434721e-01 -3.006237134528314536e-01
1.549796357223530985e-01 1.676276956002756002e-01 -1.006867737930776524e-01
-2.945043112465574042e-01 2.062341766563520196e-01 6.846161692165412260e-01
4.757872287940295708e-01 -2.530214140639200360e-01 -2.429497007839945821e-01
1.263533249172648365e-01 -1.139952749268170577e-02 1.424159320530245798e-01
-2.707333698461383276e-01 6.973098623700824117e-01 1.184411217508282432e-01
4.336141562617395473e-01 -2.936468588276772845e-02 -4.033703572949225435e-01
1.466417241857085468e-02 -2.032257894501233661e-02 3.572503372262246790e-01
2.473042608234312656e-01 -1.558216871652234881e-02 -7.550270044446907858e-02
-1.266717222978390456e-01 4.303490818200298995e-01 1.376119554146242596e-01
5.589011370504189946e-01 -2.076855735438410955e-01 -4.439892296453726295e-01
-1.584634445498342703e-01 4.087334803441565190e-01 2.190587118031393499e-01
4.224810824833487577e-01 -3.134475156406781315e-01 -8.065679750205945187e-02
2.847718556348644570e-01 1.321409475333191752e-01 -3.015546334076860124e-01
3.882228552990801829e-01 1.735675854023689124e-01 -5.358248371149347822e-01
-3.344157476089825720e-01 3.290765125827897486e-01 6.272973420394151178e-01
-3.676764559723771919e-02 4.962829312412517235e-02 3.773847930988874499e-01
-4.501594420810436370e-01 6.309422864936321540e-01 5.189272526179621314e-01
5.878170140117359166e-01 -2.859422841740284493e-01 -4.138911914890422983e-01
1.176528472694385319e-01 8.888287056199010994e-02 5.171794027440975577e-02
4.464958295612946326e-01 1.960694666921226903e-01 -6.669004040802350985e-01
7.056445716186217076e-01 -5.676035844063785918e-01 -3.308485166976276592e-01
9.480536709817559415e-02 3.628282388624830546e-01 -1.977366718488835773e-01
-3.955614964863874983e-01 2.558743514149220966e-01 8.175962635410914947e-01
6.141821052651369461e-01 -3.758441280486654601e-01 -3.667138729352188431e-01
4.491391998100102700e-01 1.693308870123168552e-01 -6.433121660825396049e-01
4.503161996465536721e-01 -3.964186968360590702e-01 -4.355589366591745143e-02
8.229447141600755578e-02 2.100065576179633298e-01 -1.214317447687702015e-02
4.452438234899916414e-01 -2.026327472978734223e-01 -2.404057647883773019e-01
-3.195478216744877531e-01 6.445465414341009502e-01 2.643233377243801030e-01
3.466819821639122168e-01 -3.193172274545924005e-01 6.494507905735939779e-02
2.982300871284794819e-01 -8.218499581279624377e-02 -9.826898764030757294e-02
3.798567196512373512e-01 -2.306779481054858916e-01 -9.035312176786859661e-02
5.266725471498039379e-01 -2.539284969725302266e-01 -3.355374467080001755e-01
-3.094028087699160490e-01 6.073962113458011292e-01 2.851971962148170392e-01
-1.295219501445856181e-01 1.289046373344470697e-01 4.635690875622380247e-01
3.220164063765217771e-02 4.838996881321184773e-01 -2.114515439141835818e-01
2.062405500047215234e-01 3.044086856690383924e-01 -3.404560696273339349e-01
4.348079262431546188e-01 -2.738880842703900753e-01 -1.454083617323301825e-01
3.667862393205740812e-01 -7.666865128525944539e-02 -2.301787212094064672e-01
2.270762545592979742e-01 -3.108878990898161776e-01 2.758723471140424599e-01
3.463547200388493175e-01 -1.242084919126602433e-01 -1.420360564855606411e-01
6.633722464361803128e-01 -5.677887135298778087e-01 -2.529337450913270446e-01
2.361888089808761582e-01 5.304680578030526034e-02 -1.280836023514472510e-01
-2.685097982997054489e-01 6.563431211099143292e-01 1.579389851949015988e-01
-3.768026535489549245e-01 3.862866610915358656e-01 6.443579861981916235e-01
-3.582116832677326723e-01 4.869341737258495173e-02 9.693553411203846837e-01
3.305966236060670776e-02 -2.014611337443363709e-02 3.232424218129120175e-01
1.513351243118174483e-01 2.360826181703225279e-01 -1.668178440715969435e-01
3.207871188976293420e-01 -2.411642653410128387e-02 -2.015212858210526370e-01
3.517808791077637887e-01 -4.001243673821524571e-01 1.415442002586902726e-01
2.594907438805864053e-01 -3.387580648358474722e-01 2.459302193297990824e-01
-2.052796717997198150e-01 1.070264653692887535e-01 6.261268335830566523e-01
-1.372233543229037234e-01 -1.107718657911519050e-01 7.327281131316655260e-01
-5.420965573003487525e-02 1.094405505189783162e-01 3.458156937194790670e-01
3.803850480466483552e-01 -2.901799055950323170e-01 -2.801830246401136940e-02
5.896626557179042161e-01 -5.223051874865869415e-01 -1.658098919719464548e-01
4.010512711805094277e-01 1.919301672137647685e-01 -5.789464953966905192e-01
4.429163843921329335e-01 -3.048657246962450940e-02 -4.192789205420741072e-01
4.547636659577271034e-01 -2.203156431685861505e-01 -2.390945926463278748e-01
1.762779355035910545e-01 1.135163871348544330e-02 2.642363599645808359e-02
3.284215237579604652e-01 1.090869165559023163e-01 -3.572767230206338462e-01
-2.105690927706044546e-01 4.120567561780262289e-01 3.113193684402498773e-01
-3.425464582988619333e-01 7.359261828849532616e-01 2.093845024416735867e-01
5.473761664146105099e-01 -4.013952708484436749e-01 -2.167062101528125506e-01
6.162121780574835173e-01 -5.597471452315133655e-01 -1.747855045220258197e-01
2.877716778202240588e-01 -3.455752324256964880e-01 2.011886469483049888e-01
1.414639657467195097e-02 2.899630218090604172e-01 2.807888442082299291e-02
1.672248774206225655e-02 3.050434247473784999e-01 7.298179793742581335e-03
-8.433582938043346355e-02 2.816802538840716685e-02 4.876713601524452768e-01
3.555290239814438702e-01 1.582310241575627663e-01 -4.594000343801269981e-01
-2.640511772480290120e-01 1.921872948662347591e-01 6.435729384063387792e-01
-7.091983580395501419e-02 4.886415956213257389e-02 4.409866927932833969e-01
4.869838881387750229e-01 -1.635199740102873389e-01 -3.587584159696817210e-01
9.425294875716974663e-02 -1.996434185445599141e-01 4.017116442434636725e-01
6.455542078534615147e-01 -5.810461723134093814e-01 -2.060701630668027307e-01
-2.515488942357124169e-01 5.348625116181979777e-01 2.560036531780205404e-01
4.065334353455100636e-01 -4.111314487586010813e-01 5.259225627422407096e-02
-3.137827770134662408e-01 6.861763911041615649e-02 8.664745974365317682e-01
-2.146243129544843364e-01 5.094822044416495999e-01 2.151206616845370845e-01
-1.254098579571724381e-01 2.049284280689380594e-02 5.713519817510653853e-01
-2.546062181397833468e-01 1.359796053954929473e-01 6.860096197402995033e-01
1.763072521544191140e-01 2.338762455014154196e-01 -2.103817470123824085e-01
3.566785748621212893e-01 -3.286723973499924845e-01 5.651959395448281215e-02
5.643040310512366098e-01 -3.021336523973934818e-01 -3.534359499591049891e-01
1.846683339817447866e-01 2.068619858556376978e-01 -1.970122349525248451e-01
7.772771812602304042e-02 -2.358237019000608281e-01 4.705867660025573884e-01
3.047303507055417748e-01 -1.453056774025225095e-01 -4.306350703354244747e-02
-3.288552005257603383e-01 3.988964186757017194e-02 9.247499883999502623e-01
-2.599436128317625730e-02 -1.829701609850564736e-01 6.050474675157186955e-01
-3.942557279270417214e-01 7.526279145566824313e-01 2.866826223681628871e-01
3.448819218834099365e-01 -2.008259973894057360e-01 -5.781234694591817769e-02
3.580762962469954958e-01 1.198843330887114887e-02 -3.084907450823023423e-01
-4.525591250878452376e-01 5.308627594218102708e-01 6.298170843026075216e-01
-1.484852304087842523e-01 2.382750166329299368e-01 3.820702797592071542e-01
4.824284801197457617e-01 -2.847201969203758676e-01 -2.214342514980897347e-01
5.353609597661164177e-01 -4.297142867910186959e-01 -1.644866513635267202e-01
4.980967871879917741e-01 -7.830020919245651856e-02 -4.698577179278310978e-01
5.342881658811231560e-01 -2.576956803458818612e-01 -3.455307520613693506e-01
-2.908940606819093166e-01 3.816219410437020065e-01 4.913777146419032182e-01
2.245576066663231563e-01 2.011810597880404339e-01 -2.643046615605430527e-01
1.085306653544435562e-01 -1.118018701905069967e-01 2.820044104782373218e-01
-5.598781623857360112e-02 4.782571979476527707e-02 4.146389578964284062e-01
-1.371391523738908491e-01 4.110554145163691081e-02 5.709857775137340274e-01
6.569165686441836849e-01 -2.823324538497600233e-01 -5.447715670104111840e-01
1.399274275606073037e-01 1.078901687998259744e-02 9.385275478299852370e-02
-2.460135859567756933e-01 4.897228115650523739e-01 2.938526304767830610e-01
3.904713929551612700e-02 -2.137578029375284405e-01 5.182244760934087147e-01
5.809376488453652509e-01 -6.302418785066898899e-02 -6.384135875286901518e-01
5.439824369717016772e-01 -7.618102894136923042e-02 -5.564733011486059366e-01
5.285426664505539218e-01 8.088373014415951856e-02 -6.951937629610431824e-01
-1.153521175520770131e-01 5.340558545850544458e-01 6.463668944963220191e-03
3.050982439620241182e-01 2.997898988152409849e-01 -5.172921752663232065e-01
2.011527100558261616e-01 3.658767851655486680e-01 -3.965000574416250867e-01
2.300905465527738891e-01 -1.990547816817296312e-01 1.513475110081659858e-01
1.278778495795123704e-01 1.279961446671261105e-01 -8.694699796460347505e-03
-4.216794145226810953e-01 4.013611098680752165e-01 7.108258384061777457e-01
5.428985352201929349e-01 -4.210269322101748979e-01 -1.875872796817676380e-01
-1.060848801321128271e-01 2.956608247795793898e-01 2.430623891301363915e-01
1.466691322291919231e-01 2.938605848596656522e-01 -2.197113429713342114e-01
2.397750399113867115e-01 -2.960300459101904980e-01 2.367178147622206463e-01
5.041811969612478572e-01 -5.027368863727467163e-01 -2.947133375596360655e-02
2.534260530374685683e-01 1.076079560231050225e-01 -2.178237914371910222e-01
5.736678821901333158e-01 -3.076991320747810010e-01 -3.647301177499390201e-01
2.662284281595560520e-01 -3.035789143446659955e-01 1.961146724110966744e-01
3.205415265857708973e-01 -2.287033697457163950e-01 1.659723139635402994e-02
1.331588607402551250e-01 1.504964950156724157e-01 -4.234274254158517520e-02
5.775609669365395771e-01 -4.999149593400197267e-01 -1.673826219536719562e-01
5.698127241128004838e-01 -8.177458281297390885e-02 -5.980111956505992366e-01
7.814136941820372384e-02 1.181277850514067251e-01 9.324526254095763522e-02
4.457229435531004369e-01 4.377318118311520484e-02 -5.034462617850294919e-01
-4.320462270809968253e-01 4.706547984613250191e-01 6.561613488606179434e-01
-9.131315161799440083e-02 -1.001867832557905291e-01 6.370602284138664473e-01
2.896241343236337085e-01 -9.883877389913083011e-02 -6.472839566917605592e-02
-2.398761779539947681e-01 6.044417137940782947e-01 1.605156510474746723e-01
6.076651077199303197e-01 -2.236539276945708477e-01 -5.166526731629439428e-01
-3.101153815156256766e-01 3.654151851200279633e-01 5.439590929805063757e-01
1.588398710555592175e-01 8.753998073628863064e-02 -2.257578996881742794e-02
5.030334858830035616e-01 1.480739551590102565e-01 -7.197810136734679176e-01
3.318138895437463542e-01 -2.118275735077433108e-01 -2.208177690694512058e-02
1.831033297460873122e-01 -1.669344640281579806e-01 2.035597644501674075e-01
1.903438742469810707e-01 1.902822585067674710e-01 -1.898069992335749412e-01
2.633841959135360677e-01 -2.103206937802178655e-01 1.021232154520913815e-01
9.369389955289210425e-02 3.071537078831073839e-02 1.576529209670558818e-01
5.540951388536108357e-01 -3.002102518044314494e-01 -3.367132398584229969e-01
-4.887017170308782799e-01 7.916972295500155354e-01 4.187547078362762187e-01
5.311687310874175783e-01 2.075450788242483302e-02 -6.360482702278642542e-01
-1.539076136756861377e-02 -1.644304124241074139e-01 5.658276468564150674e-01
-3.768735640908801865e-02 4.521044786886537215e-01 -4.913239417654090280e-02
5.478584561104387074e-01 -1.021630415963566407e-01 -5.359562294628311685e-01
2.236025451607330239e-01 -3.011883239198300255e-01 2.719390657277535595e-01
-2.588214311840338344e-01 2.700990347670039794e-03 1.050970299688938625e-01
4.680373144303198174e-01 -8.201643986413403864e-01 -3.557606975797988347e-01
-3.791443756265972520e-01 3.519943596519792273e-01 -4.531392257129335938e-02
2.358459378699922226e-01 -3.241332545524730491e-01 -4.566204767717343960e-01
4.309538605795877331e-01 -7.449796704551682192e-01 -3.675742328110683244e-01
-9.521753685720554805e-02 2.117513642119962097e-02 -2.153445296556419086e-01
-4.190849124290421668e-01 1.226798747230606473e-01 2.720923495372208900e-01
4.557728928962740955e-01 -7.191261505914200436e-01 -4.407105414794418863e-01
-5.498480323756177457e-01 5.331035032841745513e-01 7.583713509759273941e-02
-2.694915018881387514e-01 -1.002079459829436497e-01 2.342023007335919393e-01
2.683401770599930236e-01 -6.062740935265032993e-01 -2.161820227770661629e-01
-4.102975827647516449e-01 1.861107969141948260e-01 1.884505038469909133e-01
2.250988150063674142e-01 -2.929423823201066091e-01 -4.700468846101145126e-01
4.618928178609591484e-01 -6.782253014064557606e-01 -4.954778454043533564e-01
1.891436778553843012e-01 -1.471968072581869569e-01 -5.590069143920949335e-01
3.486135982550985224e-01 -6.164158270803302697e-01 -3.529748323820705025e-01
-8.271868293498514657e-02 -1.329846171651483666e-01 -7.430791715329247704e-02
-3.461728276903490720e-01 1.610718683759706227e-01 9.719670061663963911e-02
2.334376266112168918e-01 -5.310518414550552402e-01 -2.320450788957296451e-01
-3.324360532064478679e-01 -1.575646932294660560e-02 2.600752684405833182e-01
1.838202350367037496e-01 -4.082787174771899119e-01 -2.714458391097389067e-01
-7.239791246790450163e-01 5.599436531494098590e-01 3.674215642727304276e-01
7.131965670170685445e-02 -5.368508586873107502e-01 7.217910396949157870e-02
1.439351073457226515e-01 -3.053326028194751074e-01 -3.076447695458922049e-01
1.454901236959066889e-02 -1.877342211912095549e-01 -1.948849267150306319e-01
2.867439451772863523e-01 -7.390701693129547722e-02 -8.164208174902533033e-01
1.788752198985728570e-01 -1.275524354526429149e-01 -5.610286353809286197e-01
6.468679134191787639e-02 -1.801693543474165438e-01 -2.951119140456995860e-01
-1.583785933136852841e-01 -2.073157047964362121e-01 1.438764403628679245e-01
-5.627031475071680999e-01 2.397025403347525369e-02 6.411554556267372584e-01
3.135225854621452313e-01 -6.900083455326925241e-01 -2.101623129964476089e-01
-8.759568389573602065e-02 6.761601854385858312e-02 -2.787673621919387612e-01
2.598757421040936988e-01 2.306157419067145914e-02 -8.701917156621933325e-01
2.651886621559682022e-01 -3.681902561718500277e-01 -4.636934303561453530e-01
-5.304837727274464010e-01 5.244636192634993810e-01 4.942814710931391076e-02
-2.331732593546340659e-01 -7.463842339977209972e-02 1.402268112721425930e-01
3.869418970141478772e-03 -1.798256230852519639e-03 -3.730740457046120562e-01
-3.394481576106223031e-01 2.420443775959233990e-01 -1.316028768862762205e-03
1.135314001570338627e-01 -8.952166409884795839e-02 -4.813560404874763221e-01
-4.203056023682747999e-01 -8.776338666015746914e-02 4.982343226282346937e-01
8.523176822675503084e-02 -1.738435246545961543e-01 -3.396141854202383015e-01
4.741041416273554243e-01 -7.686491924955398680e-01 -4.217233558334609334e-01
-5.239887034035288771e-01 -7.033512791066177938e-02 6.703135227195694545e-01
1.982550067313940401e-01 -2.071914937698507986e-01 -5.119277380712339287e-01
-5.395866088419641604e-02 -3.894346715595277397e-02 -2.272368829807629720e-01
-3.833538130863271554e-01 2.986090622277437490e-01 1.922357225229327782e-02
-2.697818221016712315e-01 1.262053692616436629e-01 -6.152757822571033874e-03
-6.452533277927586797e-01 2.043752004882543327e-01 6.009852812449411052e-01
-2.754875662110575774e-01 2.445066143034197170e-01 -1.215274399689286883e-01
-4.289800648065207334e-01 4.230798842569101215e-01 -2.932115007734182807e-02
1.642901062195979422e-01 -5.573311833376435320e-01 -7.695765515565526627e-02
-2.279082737467887643e-01 -3.245961299136635447e-01 3.964856086694165671e-01
-7.303547062374312615e-01 6.277908371387203035e-01 3.069581689959987036e-01
1.698222685829826883e-01 -6.140175492825566267e-02 -6.147647100718930391e-01
-5.063871381273999939e-01 1.258900185519147841e-01 4.291823925819659435e-01
-5.759818222206195548e-01 -3.627532673748470361e-03 6.949305642657547244e-01
-3.649539151853462005e-01 -1.712871265894671535e-01 4.853338095636361427e-01
-5.249374647903093383e-01 -6.185572909094446542e-02 6.630363033006377860e-01
-6.570942074608323580e-01 2.456565830587431054e-01 5.788341122871352162e-01
-4.638876847900475497e-01 4.433460770984993804e-01 1.329473142659186313e-02
-6.424406670273209441e-01 5.319312685367887372e-01 2.473161734549347013e-01
2.637443282390005139e-01 2.168246790902216350e-02 -8.758368457760800085e-01
-7.403119041238842568e-02 -3.005082611083721988e-01 8.795419227581467714e-02
-4.124355413874526977e-01 2.297842809737365641e-02 3.659432134897422362e-01
3.307065995808223385e-02 -1.606871233635838170e-01 -2.577133613310778060e-01
-4.076438254796391214e-01 2.414916633637807092e-02 3.558880401482794054e-01
-3.240294986084372719e-01 8.264070355947025770e-02 1.399316976658466216e-01
-5.472353930471865469e-02 -4.409702508519351000e-02 -2.203476062800115154e-01
-7.746777205037058689e-02 8.631911701319341934e-02 -3.172864223105071324e-01
-5.819854581381701114e-02 -3.074845182296261359e-01 6.626810082699262361e-02
-3.642275778454609481e-01 1.870831632373795225e-02 2.818558336325239222e-01
-8.008477645392717004e-02 -4.513810019511426130e-01 2.596023611441560242e-01
1.181332002495305289e-01 -3.222469191450071935e-01 -2.422121645648563915e-01
-1.510218293940884249e-01 -3.792232681164251495e-01 3.132492992951750321e-01
-6.718417190934039551e-02 -8.261261447072115738e-02 -1.564606497540246832e-01
-1.297043164098908574e-01 1.276964472189340283e-01 -2.652721131456023396e-01
-4.977217441764440475e-01 -1.941740948397633129e-02 5.678485439242162425e-01
1.306164849613105326e-02 -1.909785219793445898e-01 -1.886986816693785596e-01
-8.962680739616644965e-02 -1.410199338515645273e-01 -5.305826177317182757e-02
-1.914683574836817948e-01 2.490530170448461422e-01 -2.808340989479145011e-01
-5.292839895214616064e-01 -3.155545758129706113e-02 6.387899154591810680e-01
-1.068349665168936147e-01 -2.783759463673768919e-01 1.247167195630245334e-01
1.954010533306152764e-01 -2.621281296768966929e-01 -4.482317833876799384e-01
-2.982091785167254039e-01 -2.270568933911512044e-01 4.219587438989883532e-01
1.487141705392638347e-01 -1.335998287973337584e-01 -4.991434215729401713e-01
-4.051954392563247298e-01 3.016901080660995271e-01 5.610144327049660512e-02
1.259429816185704265e-01 -3.915855332223973084e-01 -1.827987671671700287e-01
-4.236742767189445313e-01 3.712832667252594088e-01 1.603232135398884387e-02
-6.203397965347734466e-01 4.434431953756714506e-01 3.008291169949147137e-01
-3.103935944763842603e-01 1.336619662213982818e-01 6.057879025121817168e-02
-4.598882258010190682e-01 1.358553136478460044e-01 3.330915762223902177e-01
-3.881382590228689422e-02 -1.363113647261446626e-01 -1.514876990028029280e-01
2.212746382139413881e-01 -4.596844206962553275e-02 -7.257800834387591049e-01
-1.134250167421873429e-01 -3.287662335949270154e-01 1.904444856148353737e-01
1.224634658433166462e-01 -2.459902549378438219e-01 -3.313054259456112427e-01
3.514017704716395074e-01 -4.079161215740567115e-01 -5.799308116205473818e-01
-3.189822673975052994e-03 -2.077356814716753708e-01 -1.409917884902369412e-01
-6.103700429130885091e-02 -1.409611245492937703e-01 -1.056832763796675956e-01
-1.402556643243242640e-01 -2.797253186185477691e-01 1.875964234288618471e-01
-4.576005356489621367e-01 -6.940106707389132046e-02 5.472648827394244186e-01
-2.945871372735959365e-03 -1.343866596129383029e-01 -2.194788084257547622e-01
-1.393494298977811519e-01 6.299069077557720164e-02 -1.786968896801122142e-01
-6.169735288813197327e-01 2.490082212091021263e-01 5.015061934510747221e-01
8.375093752191595155e-04 -8.288553271696171010e-02 -2.812283636121700736e-01
-1.274540579518999850e-01 -3.724207008988148493e-01 2.626823931204367857e-01
-1.567583802103660329e-01 1.120600732796159099e-01 -1.988970603105498225e-01
-8.555513431876124453e-02 1.547553077458566073e-01 -3.752293674924981337e-01
-2.049195577086347919e-01 1.577235435405685837e-01 -1.589354962156670770e-01
-4.352651209119409170e-01 5.085387487417438734e-01 -1.086886415176490095e-01
2.116756644864106057e-02 1.869719745024029378e-01 -6.057158032892856481e-01
4.314020689885235127e-01 -7.889423176919210245e-01 -3.216249124172072538e-01
-1.882807457544067864e-01 -9.596772336504028056e-02 8.038474635198436524e-02
2.865612765727588163e-01 -6.760827056673458513e-01 -1.754098205327242199e-01
-2.319347189029439815e-01 3.354600123675990919e-01 -2.983678987046570752e-01
-4.075387885263575538e-01 1.513034660514993579e-01 2.204111527980214813e-01
-2.894886857102709210e-01 -5.067276134012471678e-02 2.182650230638282229e-01
2.743338088007999387e-01 -2.153756627265361323e-01 -6.430914462967376455e-01
1.912666778028938308e-01 -2.537749183813137743e-01 -4.495179857233163601e-01
2.323633820120809823e-01 -5.518213150625723706e-01 -2.079727285988275942e-01
-4.613710086017299566e-02 1.989740301053515292e-01 -4.947453494005183972e-01
1.717475604213242468e-01 -6.710181704575281236e-02 -6.122398757244212897e-01
-3.319014093939344212e-01 -2.816246972316170383e-01 5.419585584154016367e-01
-1.289036805143385818e-02 -2.755274248135642368e-01 -5.103136708078676032e-02
8.030430551768823200e-02 -1.965960323992685388e-01 -3.063478638310611624e-01
-2.636099696847947205e-01 3.263432515388031141e-01 -2.304332164117478821e-01
-5.533745420083113764e-01 2.040778188334029519e-01 4.323822311230979820e-01
-4.669694723532168967e-01 2.961558344792187270e-01 1.755613043023406816e-01
3.519757634918370681e-01 -4.594748864468500837e-01 -5.261309791868193919e-01
-1.228382395675939043e-01 -3.001622765997511433e-01 1.773180051968685500e-01
4.437216218719876315e-02 -4.717044249589251170e-01 5.241065703617390353e-02
-4.733371079817329519e-01 4.068370216347894086e-01 6.951075015182758832e-02
-1.431626158940175753e-01 1.495032387566381515e-01 -2.637299719497219752e-01
3.314750207598727294e-01 -6.229149843597553415e-01 -3.145508281885871504e-01
-2.704165019686351479e-01 -3.179333428930875560e-01 4.675483582918454339e-01
-4.173757491440517886e-01 4.894641659455492566e-01 -1.212842130689949088e-01
-1.381403621225057166e-01 -1.139215577078389191e-01 7.303182942110413196e-03
-2.177880913029786314e-01 -1.184263780127031152e-01 1.585286216820992466e-01
1.264873450501112218e-01 8.496162523105174613e-02 -6.908142825624385974e-01
-5.874479196423688654e-01 4.475010038480442542e-01 2.360400548384152253e-01
1.289157057887374558e-01 -4.866307612673198002e-01 -8.714228509548857526e-02
-5.642895865399117916e-01 2.375927002590640658e-01 4.167919555290901523e-01
-2.267724819516275525e-01 2.229990425058878123e-01 -1.882076439432763537e-01
-2.403651568576009034e-01 2.022493909868715856e-01 -1.411412084682515389e-01
-3.950183220519446481e-01 -2.284644542022163383e-01 6.014402188527360194e-01
3.881679441544244602e-01 -3.639758639235505244e-01 -6.942750727033107916e-01
-6.261288964614516450e-01 5.387723443622438602e-01 2.100484777229711664e-01
-3.517574497451659843e-01 2.803654685853191886e-01 -1.945646517336730927e-02
3.988256060048472329e-01 -2.603581397367331074e-01 -8.241116332151879886e-01
4.800402247795515498e-02 1.592670009887949267e-01 -6.255784524660567003e-01
-1.785606022998492692e-01 -3.505274451866512431e-01 3.333489619838680973e-01
5.991983904258072618e-02 3.760093506952615072e-02 -5.180410614228617705e-01
2.100154672759487751e-01 -5.400381702540852924e-01 -1.794225029611918321e-01
1.291148032728741402e-01 -5.241375542059446557e-01 -4.760357603645071906e-02
-2.389324038970203345e-01 3.589153713162078763e-01 -3.104575849656467934e-01
1.809431167647649608e-01 -2.973734078449256635e-01 -3.841521722118425020e-01
1.917919509298898484e-01 -4.082373840688642286e-01 -2.861458405555555307e-01
2.016509397548993388e-02 -5.064186955173670679e-01 1.338491212217320370e-01
1.186468624024325652e-01 -4.737741965239249953e-01 -8.194151907990716854e-02
2.294883376389249274e-01 -2.700286057946005847e-01 -5.024957809616132920e-01
3.469642142877371049e-01 -2.489351113840426732e-01 -7.409176446545292505e-01
3.730899580975371443e-01 -3.952363812010351585e-01 -6.332950209354566429e-01
-2.417259747527427949e-01 2.794867627990986203e-01 -2.208148025822149196e-01
-3.901142763273751091e-01 -2.228443394721210322e-02 3.730621912286282704e-01
4.047409215420720296e-01 -5.816788529246111894e-01 -4.931229437983198349e-01
-2.855222872180815941e-01 -2.599033284937424804e-01 4.335802907482491642e-01
4.300008837244486543e-02 -2.411358229595581340e-02 -4.212738748032294200e-01
-1.987179142872860793e-01 -6.685095394511034184e-02 6.859519487642362634e-02
2.027759891803870146e-02 -3.670534060887969269e-02 -3.661017053352516593e-01
-3.926840624909818667e-01 2.296792718482635609e-01 1.097140102011028573e-01
-1.330868932384378367e-01 -2.374664849873182881e-01 1.294560067626195632e-01
3.212049606123864032e-01 -1.968371059592618488e-01 -7.489880103217112506e-01
3.239708864510158493e-01 -3.384830695816863910e-01 -6.033712240939042015e-01
-1.520633525080228865e-01 2.329056447639834271e-01 -3.361005903282346940e-01
3.314047413913490669e-01 -6.370736657385117629e-01 -2.993577175122192346e-01
-4.822977019711450208e-01 2.901356430751892423e-01 2.101473900169273101e-01
-2.851175634407192017e-01 3.483607799266223992e-01 -2.143166317764574613e-01
3.704295199677486439e-01 -7.411626453237832868e-01 -2.603610996501418140e-01
-6.605946094062019602e-01 5.500991819965882490e-01 2.613627952194813031e-01
-8.473849757317758469e-02 1.068812087421308482e-01 -3.257958774507602184e-01
1.636923134700352112e-01 9.345010628577254952e-02 -7.682469204188208112e-01
-2.915152759683692363e-01 3.993795992063932099e-01 -2.568350706285247864e-01
-4.335095282310093556e-01 4.743243352685507230e-01 -7.551442820273436551e-02
-2.097328786904379683e-01 -1.555428267231395434e-01 1.832085372141591118e-01
-3.330248166171202451e-01 4.331817821474535646e-01 -2.164829360849591378e-01
1.016286031943813839e-01 -5.824179484770684034e-01 6.493638181035955859e-02
-3.518115522562832997e-01 -2.302873212495399058e-01 5.239438431065068791e-01
-7.056387899235967431e-01 6.225031728254992736e-01 2.671436025742632836e-01
-1.193575732327322031e-01 -7.051262170315916733e-02 -7.341327594906996157e-02
4.276500210680653224e-01 -4.280135022118309318e-01 -6.987311811291687658e-01
-1.345267713790841702e-01 -1.652272271115089730e-01 5.524542827693714603e-02
3.364706612870517755e-01 -1.494707546101328444e-01 -8.274487197102848857e-01
3.314465293047385019e-01 -4.472038001985939037e-01 -5.014435410796654891e-01
-8.211927517670974605e-03 -3.123248084651726320e-01 -2.048270931911063547e-02
-1.889967107140369529e-01 1.382274737190236635e-01 -1.674671712602317231e-01
4.293094638274297381e-01 -6.787756269297100520e-01 -4.349877337154488544e-01
2.581867112455215052e-01 -9.929043349366196980e-02 -7.369119719361130194e-01
3.524109467526450601e-01 -4.671797790083934143e-01 -5.187335682275946436e-01
-4.203081961860207771e-01 2.590602601814923078e-01 1.292416382414481868e-01
-3.955867058567409389e-01 3.417228200992675213e-01 -4.156405645150145281e-03
1.085289480910898302e-01 9.987450164356914684e-02 -6.736640272555255438e-01
-6.395839125240324607e-01 3.433203408927605338e-01 4.427335906524668130e-01
-4.042956314363317927e-01 2.627834759406731946e-01 9.584123055055886187e-02
2.060278413207227433e-01 -8.611050345905470194e-02 -6.550402960785494111e-01
-5.053473635735264979e-01 3.574501147518491795e-01 1.809061154974855312e-01
-4.064383977608223564e-01 3.914762261036928703e-01 -3.713987287451749747e-02
-6.532303673940137445e-01 6.110494304612393845e-01 1.829765737769039613e-01
-7.654481095481048547e-02 -1.027494233828111642e-01 -1.178268499404611230e-01
3.307970298309587664e-01 -5.182204893364771719e-02 -9.209095032538265890e-01
3.889135430709418917e-01 -2.215479948839211566e-01 -8.471797042609536810e-01
-4.702020811995981653e-01 1.778040877626754224e-01 3.074229076875996114e-01
-1.758049888541977357e-01 -2.388110514420243025e-01 2.094238934925805040e-01
2.530425658200270433e-01 -5.187746284001146790e-01 -2.811509667838367199e-01
-2.033579048101840370e-01 2.175106799170290622e-02 -1.714086688191851157e-02
