-7.792451553445011170e-01 -3.739962619919910969e-01 1.861803682674620375e-02
2.232631041810293274e-02 -2.876151848445054893e-01 3.542775361568857861e-01
6.927285834132761444e-01 -4.026196266472097940e-01 -1.132415788940708129e-01
-2.493757862006261428e-02 -5.094349894896178510e-01 -5.315528958160008477e-01
-4.770707753211669844e-01 -1.994252672116748060e-01 7.126150371880389800e-01
-3.326657166593257609e-01 -4.264896790828052731e-01 -1.964490378477107280e-01
3.874276293011061356e-01 -4.558471374731201675e-01 -3.223130058578693169e-01
6.891897147057831630e-01 -3.591052006348141035e-01 6.068405134802277306e-02
-5.467410741009868236e-01 -3.158035257091523218e-01 2.483950117070296559e-01
-1.596064038856934153e-01 -2.588276340957810784e-01 4.714731341926108876e-01
1.470123971197612733e-01 -2.502789672596060222e-01 5.019922939439200871e-01
-3.244115572942303793e-01 -3.242372592204166293e-01 2.120535082390554993e-01
4.283355049230723743e-01 -5.133288436269587418e-01 -5.524956559877158835e-01
-2.932999096368047454e-01 -3.183802948487319817e-01 2.350884603920604665e-01
-5.117041091718462775e-01 -2.535720461331426590e-01 4.966558557071935054e-01
-2.337857048307345753e-01 -1.660280226129922376e-01 8.431812200434498639e-01
-2.654045926621412255e-01 -4.303574895015447321e-01 -2.127035756021850021e-01
3.260238884493186357e-02 -3.227672125144276372e-01 2.136880326157060694e-01
4.309341242687699802e-01 -3.204656537484495415e-01 2.181546018230422213e-01
-4.030257211999593303e-01 -2.105757557987646411e-01 6.671783608594679116e-01
-3.820743627795173403e-01 -2.561437369414316656e-01 4.848399412937431929e-01
-3.059838233898319881e-01 -2.871396832412041467e-01 3.600765438372587335e-01
3.922053777823176768e-01 -5.464525394371108069e-01 -6.844288424856719288e-01
-2.732476524120887040e-01 -2.216204227568295271e-01 6.215026806085387490e-01
-7.532156572255069293e-02 -2.639874237505064891e-01 4.498536806145690403e-01
-8.738939320655089160e-01 -3.560279538525979448e-01 9.154339648838341614e-02
-5.889869034996656483e-01 -2.756890693752863108e-01 4.091940376400943213e-01
-6.577362377906558200e-01 -3.217950343687359105e-01 2.257710912127030844e-01
2.976886576142389051e-01 -4.338080616485787133e-01 -2.331791697452490486e-01
5.662217365210493458e-01 -3.043159622143570830e-01 2.810821219791960757e-01
5.247198594442515907e-01 -4.015517843065034564e-01 -1.069792653049850273e-01
1.317189819986667176e-01 -5.211344733959540898e-01 -5.801644241272777558e-01
1.009498213889111901e-01 -3.824569033889265723e-01 -2.564358549965853329e-02
-7.374028647927466373e-01 -2.908065996147888854e-01 3.505469409859394703e-01
3.680348206238384656e-01 -4.839982105115309685e-01 -4.345743635406683625e-01
-5.423280631867695156e-01 -3.962404411526596060e-01 -7.308323122412221928e-02
-1.328890742601725461e-01 -3.823421173825127806e-01 -2.240790650871235870e-02
2.226738515342932632e-03 -3.148218879430283446e-01 2.457982731192701886e-01
-5.348840715458373918e-01 -2.409124895607755723e-01 5.475187090408235591e-01
3.426346066091975340e-01 -4.106201366391870056e-01 -1.410540074676135402e-01
8.737645463163498660e-02 -2.750673493559333549e-01 4.036461602686102212e-01
-7.947458361434174279e-01 -3.394802997900337460e-01 1.567278690483931702e-01
3.294898393214701904e-01 -3.317324061695007820e-01 1.743373893050083057e-01
-4.522935838588372781e-01 -1.648455021224948802e-01 8.505014988510471996e-01
-4.100170698711810280e-01 -2.431640686588175393e-01 5.370385215065792694e-01
-5.905729715387185719e-01 -2.532177609396629725e-01 4.990081998004866626e-01
5.153266211303490080e-02 -3.712797828423559654e-01 1.960703929108038174e-02
4.536556544802591295e-01 -3.859849544298237789e-01 -4.393029309108743147e-02
-5.308468474501583101e-01 -3.243097743036572611e-01 2.142152960054724831e-01
5.686212530957504008e-01 -3.565400864008317350e-01 7.236607692340686626e-02
5.869487712045837746e-01 -4.551790668183344213e-01 -3.220128439801535625e-01
8.775683568272554802e-02 -4.849823789492301862e-01 -4.351786100024555015e-01
8.362193999636392816e-02 -3.736228872851133920e-01 9.862914463263587617e-03
-5.443454443810606946e-01 -3.945165009542960233e-01 -6.617041011815663620e-02
-1.578459058100094292e-01 -4.269660088258971919e-01 -2.004285539146000994e-01
4.217615969982521085e-01 -2.759068761117539625e-01 3.963203636205989144e-01
-4.597562016349603931e-01 -2.817725638234676033e-01 3.833496982378970519e-01
-5.735696954725347796e-01 -2.113519667865435825e-01 6.661019469542954763e-01
5.818824434561912368e-02 -4.620124822048821134e-01 -3.430397781560682868e-01
-8.769332630823193364e-01 -3.516029078118992346e-01 1.092619702408022947e-01
6.498073274713372927e-02 -4.290117137212726139e-01 -2.112494049352618419e-01
-5.466249126451074858e-01 -2.806081846738135988e-01 3.890341805731576952e-01
-2.312161084301128933e-01 -3.024508309223817304e-01 2.980052957535077041e-01
1.634980714912206701e-01 -3.564667926128580744e-01 7.747006919236031075e-02
1.978726477740312406e-01 -2.256556127790447230e-01 5.997831946731472241e-01
1.369673042669665719e-01 -4.239659937680778645e-01 -1.919416019083438896e-01
7.681338941575376333e-01 -3.811344554410586172e-01 -2.828234456414615780e-02
1.365958239304118638e-01 -3.729107294293292352e-01 1.207959604402963905e-02
-4.378568794353961957e-01 -4.017067900564771921e-01 -9.616742169777182936e-02
-3.765300366335155302e-01 -1.993095213531062837e-01 7.118835686061378842e-01
5.694751487371700893e-01 -2.991166724489360829e-01 3.018198423386254103e-01
6.429851409879518975e-01 -3.810012415254659390e-01 -2.626379623895762697e-02
-5.231957879255416666e-01 -3.446797419056282785e-01 1.327260639069172410e-01
3.008143968737230223e-01 -4.560605406857951016e-01 -3.221371744752815069e-01
-7.404846635159335611e-01 -3.780783391683693040e-01 1.845753501582042934e-03
8.977696445850340545e-01 -3.725289462226401560e-01 4.565750097583804248e-03
8.799838164589781631e-01 -3.534963086535500842e-01 8.083136988865147199e-02
5.442413378620084563e-01 -3.297214408139494957e-01 1.798228863612083839e-01
-8.759390070140649076e-02 -3.030802915050483937e-01 2.937843615294102317e-01
-4.297344010797909952e-01 -2.647373460043294657e-01 4.510658829039406181e-01
4.909434630486924633e-01 -4.006937508031875317e-01 -1.031494468315147656e-01
-1.217246113682869113e-01 -4.630508251898680649e-01 -3.450524094948986820e-01
3.121792478293791695e-02 -3.212318250227778060e-01 2.198398809732220460e-01
-4.301933708027613212e-01 -3.184079132473951468e-01 2.366037992564961889e-01
3.018017267530402892e-01 -3.841903779534288632e-01 -3.495579968135900661e-02
2.179990863781856303e-01 -2.306113922277013839e-01 5.797408898420468581e-01
5.658486874096964048e-01 -4.617286905798563823e-01 -3.479345564346634223e-01
4.741440909587106289e-01 -3.870432344583094597e-01 -4.840249301866411669e-02
6.239612388480547667e-02 -4.271499361074241885e-01 -2.037790494415927245e-01
-1.161031632346362780e-01 -4.932312538335908991e-01 -4.657201313223022221e-01
-3.386773652952386748e-01 -2.137406284329500805e-01 6.537673528856258187e-01
1.459490540013518300e-01 -5.053417198870516769e-01 -5.172255882281583395e-01
2.653372966200288618e-01 -4.938223799166976402e-01 -4.726121326808289114e-01
4.504495653552976764e-01 -4.357024004807474871e-01 -2.425630844290129207e-01
-3.246494640101124651e-01 -1.678475986093039274e-01 8.369892644183118957e-01
8.936444286143547799e-01 -3.498353006946249288e-01 9.529852515188647066e-02
3.071582084669265827e-02 -4.789770501699276428e-01 -4.105039216421038639e-01
4.084399822395047286e-01 -4.566714977492423722e-01 -3.258566845442116278e-01
-7.611562177147992436e-01 -3.152827398635512646e-01 2.530223955339029329e-01
1.249360216894874337e-01 -2.353444567636056028e-01 5.619327550943415961e-01
-5.180603873134920212e-01 -2.591781775707815982e-01 4.743292450440024233e-01
5.750870211633936080e-01 -3.330491840300465745e-01 1.661589144803505558e-01
-5.530513485447132727e-01 -2.831994750540449690e-01 3.787557049978960699e-01
7.480940527106130222e-01 -3.341425093826845272e-01 1.597354125349613185e-01
3.047605524967567092e-01 -3.023609983301607240e-01 2.919991832301352397e-01
-8.331144630458091616e-01 -3.285675218777794893e-01 2.007909721750811838e-01
-4.012755901181448703e-02 -4.206873097594444055e-01 -1.767368631582805216e-01
5.462170304969863333e-01 -4.555754994836363481e-01 -3.231132716962781259e-01
-2.491779354768117183e-01 -3.739314726671322253e-01 1.258203002015794054e-02
-1.998011549289556155e-01 -4.102428359916051037e-01 -1.331045248090849120e-01
-1.992421757257075918e-02 -1.896979527003909705e-01 7.460564535044059697e-01
6.169894851402295960e-02 -2.702302014912836836e-01 4.232803360677144799e-01
-6.367320951280225350e-02 -4.695803081387941447e-01 -3.718336164302068481e-01
7.594873363995281214e-03 -2.067469157236903055e-01 6.776020062138039535e-01
1.644261201044401044e-01 -3.229565107764733600e-01 2.113661014409354000e-01
-3.829030443450828769e-01 -4.533390278353232605e-01 -3.031424071403744369e-01
-4.862932305050731707e-01 -1.977656308271596719e-01 7.193564654182204032e-01
-1.708082385182900509e-01 -3.586018078596706626e-01 7.290866271921259134e-02
7.316067675654107372e-02 -3.874515303393074594e-01 -4.527209511929687624e-02
1.825471248937956537e-01 -5.199212096635186242e-01 -5.759198418348437931e-01
-9.604651560673330146e-02 -4.111995722928233898e-01 -1.381597982852420803e-01
-1.470018460662876891e-01 -3.124069081324303832e-01 2.572207199295301616e-01
4.350693744328414381e-01 -4.296459752174871527e-01 -2.181789648836952034e-01
9.322256621229600970e-01 -3.510446320516044660e-01 9.000786012509683076e-02
8.942630693361907079e-01 -3.783015238050727591e-01 -1.845982133668454261e-02
-5.013313316170672218e-01 -2.953519793732936605e-01 3.295800996212457923e-01
4.778131723400872444e-01 -5.270452574891072439e-01 -6.078940129593537467e-01
-2.354389909105738254e-01 -4.214036756906125447e-01 -1.772800060519544862e-01
-3.356427582984747304e-01 -4.129642150440933634e-01 -1.423659424023127340e-01
5.069721242260702976e-01 -4.262887606487472669e-01 -2.056174322825579937e-01
-6.283281109323641811e-01 -2.593574448280048239e-01 4.749223966697381227e-01
6.329135021266933947e-01 -3.046700762015857600e-01 2.788750732431689583e-01
-6.344828407552387528e-01 -2.532192706255538273e-01 4.995236263383240893e-01
3.167876767664647986e-01 -4.803539947299949042e-01 -4.194034865267946000e-01
-2.257783814567209876e-02 -2.631766161888754452e-01 4.524672995850347323e-01
-2.902053291263654300e-01 -1.668653071035380020e-01 8.405054530377503719e-01
-2.167609393446056354e-01 -1.941034507858500902e-01 7.307896559731084096e-01
6.154020484935399660e-01 -4.758628847255852445e-01 -4.050032619241866749e-01
8.081521639256465939e-01 -3.425979569820645221e-01 1.252342217159019000e-01
-5.342907147662849798e-01 -2.696265578886304359e-01 4.327702735696750680e-01
-4.467409833317819157e-01 -3.676767583427540953e-01 3.992205646545374242e-02
-3.500335210763113047e-01 -2.048149383154136138e-01 6.895692638581023548e-01
6.392184263784191078e-02 -4.863918593651083144e-01 -4.405278357865485828e-01
-3.710580288808827953e-01 -3.935972978295926850e-01 -6.455517998412833858e-02
-1.210644387846691317e-01 -2.196997318903277097e-01 6.273704813764436894e-01
2.562022375461888157e-01 -5.219461846458426368e-01 -5.848863439048119783e-01
-3.097042342472750703e-02 -2.888674971752422382e-01 3.499062318822895867e-01
9.319894730807346539e-01 -3.576701623637442706e-01 6.353505238033098357e-02
1.038411647256987230e-01 -2.696605017764733825e-01 4.250563883986135938e-01
2.174256399637165826e-01 -5.324357754086942451e-01 -6.263422401492926284e-01
-3.279854294022375161e-01 -2.062495918748305235e-01 6.835745537141165729e-01
-3.269596231009727072e-01 -3.959132027661286246e-01 -7.433323208565222051e-02
-2.117101992326572701e-01 -3.232288841480562835e-01 2.147445695854183212e-01
4.538387844896510925e-01 -4.364410840009690373e-01 -2.455551123111154310e-01
-6.098420236795399907e-01 -3.842444418519385119e-01 -2.434545604186681353e-02
4.322756876337885412e-01 -5.459441374438172012e-01 -6.828731305079286384e-01
-3.825516592665086923e-01 -1.902163020884432287e-01 7.482915747163034759e-01
3.865965428695580242e-01 -3.899730851659689024e-01 -5.907048754263907742e-02
-5.174566019444619691e-01 -3.239419531081049186e-01 2.155260909683789361e-01
2.212069115103647565e-01 -4.407354667991795760e-01 -2.599528017582924400e-01
-4.693781492867705185e-01 -1.717760726575241204e-01 8.230098364797080457e-01
8.283137016422648102e-01 -3.624392066892709874e-01 4.570917546176422874e-02
-1.834732207942510462e-01 -2.678618337954671857e-01 4.356559155360190116e-01
-2.802804530589361742e-01 -4.565786482634983101e-01 -3.173066395234266923e-01
3.681509071256623411e-01 -5.673569760194437928e-01 -7.676772876035320436e-01
3.595388386529242974e-01 -5.161625604735491368e-01 -5.630021790347721211e-01
5.531811302367282135e-01 -3.652808082782731391e-01 3.762152269588927428e-02
2.470307221927547370e-01 -2.375828215513014485e-01 5.515382948730385149e-01
-2.391749582485403758e-01 -4.364183678121316134e-01 -2.372343339616416746e-01
4.524167810722891370e-02 -3.428499500568565339e-01 1.332873329698080755e-01
-1.695522078828083923e-01 -3.709937102942150733e-01 2.337571649924913286e-02
2.448561259270517765e-01 -2.505956872920793166e-01 4.995647208912811221e-01
-3.674354984122605861e-01 -3.819742751580166851e-01 -1.815261274073379574e-02
-4.245044493348544834e-01 -2.717584368220192781e-01 4.229475016661188302e-01
-2.108061818745438354e-01 -3.684932376767468543e-01 3.385752133197306862e-02
-3.033997941156332118e-02 -2.174667861200169083e-01 6.352159164931956425e-01
1.572301408721155369e-01 -5.092287900411871515e-01 -5.328922872600621030e-01
2.601051851616550947e-01 -4.394224235129293721e-01 -2.551678252422424076e-01
1.519421526633830677e-01 -3.349649136743152456e-01 1.635287907165853816e-01
-3.959454203768842939e-01 -3.372076025542281585e-01 1.610735417149663506e-01
6.072947495094324633e-02 -3.602850016139668154e-01 6.343295598809904623e-02
7.539378124735681697e-01 -3.198511285309284524e-01 2.167743578647129965e-01
3.632877770355971148e-01 -4.074715881055426259e-01 -1.287176809010220913e-01
1.912610354172793875e-02 -3.671608286829676771e-01 3.645122577169421230e-02
1.615718529203593046e-01 -3.315780710957307309e-01 1.769482511790159418e-01
9.074150536656049315e-01 -3.793575600964858019e-01 -2.283592998759840023e-02
6.163293800423133018e-01 -3.540047531893950050e-01 8.193069984980369536e-02
5.320381404184761909e-01 -4.579374793431923441e-01 -3.323833570456300457e-01
2.929637280667958255e-01 -2.981806530468159022e-01 3.088439341221044243e-01
-4.794570533228540432e-01 -2.980931350403575597e-01 3.183666724834955386e-01
1.113557107728231077e-01 -2.727752427137845048e-01 4.125206463684739089e-01
1.104309529322676786e-01 -4.137441736952370275e-01 -1.507800818658734665e-01
3.506952301709317377e-01 -3.832059522344611890e-01 -3.160267872148251472e-02
-1.550930704206492927e-01 -1.986190420697408199e-01 7.120130101822698121e-01
-8.444453666760890487e-01 -3.687058795513749598e-01 4.053269626501779938e-02
6.996076068292138572e-01 -3.287932957580348425e-01 1.816866741167235955e-01
5.228866295840489675e-01 -3.173198815510857029e-01 2.296331065778544900e-01
-4.122775275709750220e-01 -2.434271003434988756e-01 5.360142916079045916e-01
-5.702445971539450431e-01 -3.440589518178483464e-01 1.357654767564688003e-01
2.032990290883919804e-01 -4.863620309933799901e-01 -4.420638395096767592e-01
2.534336580864215427e-01 -4.323843835425531523e-01 -2.269645955298653650e-01
-7.457615168131196404e-01 -2.719148278308816113e-01 4.261377071779427483e-01
1.674129276050776438e-01 -5.259458048873747460e-01 -5.998143896825752774e-01
4.364646655392014352e-01 -4.964153527341928496e-01 -4.850059021709463014e-01
2.168049292177640919e-01 -3.771209479008353349e-01 -5.696969944193844282e-03
-4.301967132227032531e-01 -2.616045991297587525e-01 4.635898266191380568e-01
3.776534856181806843e-01 -4.031259503675916345e-01 -1.115231192047508452e-01
8.946638851574088835e-02 -2.290998968163742988e-01 5.873072362965171545e-01
5.813487681531622764e-01 -3.653767598638941183e-01 3.690359060105494193e-02
-7.412887869694552156e-01 -3.117504986323992866e-01 2.669012889319306581e-01
-4.187119831507781775e-01 -2.019051156268724945e-01 7.020125154227755404e-01
-3.375250605960168349e-01 -4.372882239524192860e-01 -2.395423046085695951e-01
-5.544556364979132956e-01 -4.002484294719673152e-01 -8.895512553591494731e-02
3.526391347292514022e-01 -3.875079389369354699e-01 -4.881649855245066144e-02
-1.575507183284701185e-01 -3.268367300535091058e-01 1.996844405988466575e-01
-2.833563199263608445e-01 -1.558798725654339523e-01 8.843219021174213434e-01
-5.395692906805488187e-01 -3.728649856730233414e-01 2.029230373517964398e-02
-4.290478959379631640e-02 -3.366568248417433629e-01 1.590818538857296516e-01
-2.748125838710404611e-01 -2.883558669801487562e-01 3.548464953631927932e-01
2.087158736708950024e-01 -3.501829452391729824e-01 1.020433253278228702e-01
-6.689273888533311951e-02 -3.159698211902247644e-01 2.420319732863293327e-01
2.372376618068041676e-01 -4.721317154446583175e-01 -3.856025565907861830e-01
-1.175530522760971919e-01 -1.786984565301880934e-01 7.911698375452264065e-01
-2.211835041538003088e-01 -2.171412199910122964e-01 6.387832736894604180e-01
-4.262809994424033438e-02 -5.068229096266638756e-01 -5.209049403942677126e-01
-6.625913234743833514e-03 -3.570225892643090204e-01 7.726944310117231374e-02
-7.046119032122984960e-01 -2.907823939608032426e-01 3.502542520238195456e-01
5.613512291417737110e-01 -4.009587283646385281e-01 -1.050444365033509353e-01
3.806482311705726707e-01 -4.158008056037938993e-01 -1.622073929529669056e-01
1.067826471014103780e-02 -2.218012774633989215e-01 6.174081740759237436e-01
4.617771840774063108e-01 -4.889981425213327793e-01 -4.556673406021187755e-01
-9.218726622299213691e-01 3.901611196799128489e-01 3.493157133603051745e-02
2.037825773089763440e-02 4.059402318728309589e-01 8.679502457249330116e-02
-2.753023519491203941e-01 4.470304323475646768e-01 2.545028316747636188e-01
-5.548277115716047092e-01 3.391954065818237884e-01 -1.730862741182009334e-01
2.813936019284346002e-01 2.638249095113502918e-01 -4.841973974504450995e-01
4.806196932910131170e-01 1.963358020448691121e-01 -7.562497487743629065e-01
4.129051907481215422e-01 3.090901771606516801e-01 -3.048792207895639761e-01
-2.138624026547318036e-01 3.115766505094682004e-01 -2.874999888342827936e-01
-6.492588073653823288e-01 4.694961669739138865e-01 3.487168697938498041e-01
2.559142985105501422e-01 3.232139932401417171e-01 -2.465760930720643229e-01
-8.512466156484078672e-01 3.642132594515897770e-01 -6.959478458637854970e-02
1.683698895412198970e-01 2.960243509682109475e-01 -3.541862282436766263e-01
-4.204598839802106691e-01 2.959004535881447628e-01 -3.476885723055729849e-01
-9.231366275691101075e-02 5.170894099248071196e-01 5.322853237605760235e-01
-6.028407483339746076e-01 4.364901834859319929e-01 2.162737463678195970e-01
-3.451787612741145095e-01 5.794001958030413624e-01 7.842821063817932981e-01
2.786491432872062815e-02 3.752016933979305247e-01 -3.612505420004561568e-02
7.104159592112201382e-01 3.890837357686781073e-01 1.124182063460210310e-02
-4.345159159525887049e-01 5.513626567871938722e-01 6.733050667121263100e-01
-1.618690870178853825e-01 5.435964713851481056e-01 6.390335328989039665e-01
-5.548563486803215206e-01 4.572134007468843797e-01 2.985138552468398210e-01
-5.294812477285639751e-01 2.884412446934900287e-01 -3.762008617064093730e-01
-3.461441418246044566e-01 3.338048896520377506e-01 -1.971050322995379911e-01
-4.081367232409469636e-01 3.101682663782574512e-01 -2.908207521732840140e-01
2.122618644855098768e-01 2.992492623483085090e-01 -3.418207322569332129e-01
2.226827150414641826e-02 2.154041853560736408e-01 -6.746092761787042535e-01
5.416429369790097814e-01 3.621956212081045012e-01 -9.419876566106934190e-02
-3.788186490910956938e-01 5.008550830873441662e-01 4.708154090769526290e-01
-2.756194760226776119e-01 5.109290044906319439e-01 5.098452295372155607e-01
6.770062348752430292e-01 3.556422620407316826e-01 -1.219935127258192920e-01
5.843468754771905527e-01 4.059835668564406030e-01 8.027068432929025665e-02
6.073425577087323418e-02 5.122997280853767155e-01 5.113282128047915709e-01
-3.832825738205120937e-03 2.558178329645082183e-01 -5.128064117621746743e-01
-7.772123484368360646e-01 4.038310768937036221e-01 8.783876843595045392e-02
6.551113835473105773e-01 3.528982674103414152e-01 -1.326984964944433742e-01
-5.245184096898211079e-01 4.402573904180876463e-01 2.303973711153076698e-01
1.240058457504174538e-01 5.026435197080391104e-01 4.719906208686936444e-01
-4.581170019766004353e-01 4.721062595537888762e-01 3.568768596442719598e-01
-9.326331362984286999e-01 3.650606298472121591e-01 -6.524217362139604626e-02
1.167502408139719228e-01 2.545279661078240774e-01 -5.193927235083859451e-01
2.285346939355676343e-01 3.239552127281757898e-01 -2.432890294963089006e-01
1.026879719156060244e-01 2.082435845179853029e-01 -7.041780681775645645e-01
7.632864282112122867e-01 3.685625962142988765e-01 -7.138850535081682491e-02
-1.640047033683292646e-02 3.743403644368600292e-01 -3.904124265989332432e-02
1.791813697637121006e-01 3.457525516470532634e-01 -1.556007805595855664e-01
-2.780950843715795581e-02 3.643909403265324087e-01 -7.866364167187633871e-02
4.737592919749694653e-01 2.370126898823307071e-01 -5.936234728700487961e-01
-6.171291499095704625e-01 3.724101705629266901e-01 -3.962023822960537844e-02
-6.891193116340329494e-01 4.070756005243871822e-01 9.975771760712794090e-02
4.362233317203768057e-01 2.413711897660283656e-01 -5.757611468130878762e-01
-8.779537028974455648e-01 3.645533793359280739e-01 -6.791850123051883237e-02
2.501062828032378782e-01 2.091461676951989201e-01 -7.023220383144592738e-01
-4.767349558696877820e-01 3.424640035554651352e-01 -1.609523678254603796e-01
1.978835289998475411e-01 1.777392073667968808e-01 -8.272040407366936243e-01
4.266990182918621866e-01 3.090927428773310726e-01 -3.050327791713172698e-01
-3.847473170198167369e-01 3.652710842249990431e-01 -7.090771087595960920e-02
-1.565103924535154178e-01 2.735865187328930803e-01 -4.399896119747208068e-01
-2.975466031271251643e-01 5.062843684280636802e-01 4.915456677607060176e-01
1.994954173797210406e-01 4.022815351068832479e-01 7.004773908572382857e-02
7.321341994398151698e-01 3.690759612783346966e-01 -6.896714537985418336e-02
3.113162388739189046e-01 4.051414157381182379e-01 8.014787179905777381e-02
7.558322134323164354e-01 3.449429930694524749e-01 -1.656838926052988659e-01
-7.930365626076141261e-02 2.880482579215659644e-01 -3.831173982580698967e-01
-6.595314594465495617e-01 4.085912258466506963e-01 1.054627792602820940e-01
-3.229917948833001540e-01 5.480381737074949688e-01 6.586960116011036925e-01
4.798468792297422292e-01 2.043726753120498618e-01 -7.241252333705802124e-01
2.412705280618270276e-01 4.604498846100043563e-01 3.019922992732442801e-01
3.100397982538260697e-02 5.032995001034501481e-01 4.757163776203698902e-01
-2.975893247993945390e-01 4.593345800951148528e-01 3.039348668405293941e-01
4.932198295037888980e-01 2.201531010023010659e-01 -6.612254805255048939e-01
-2.071549797038668705e-01 4.839908037281326902e-01 4.013871436723824293e-01
4.919639065813993795e-01 4.276117435420609958e-01 1.677939671304163327e-01
5.756240889762590518e-01 4.001895154133635057e-01 5.722124938716884740e-02
6.169324458839443859e-02 4.214284415874926526e-01 1.481952521799588529e-01
2.674407137241504584e-01 2.260694739166642930e-01 -6.349023812323305593e-01
-4.108574689092258092e-01 4.840670916844472260e-01 4.041110943893345686e-01
-6.467513440125584046e-01 4.520049224618864492e-01 2.787920960131073933e-01
-1.699222371649500019e-01 4.446288876019951486e-01 2.436548014529875683e-01
-5.510959960268256852e-01 3.102825347240289466e-01 -2.886663984225348312e-01
3.742775262788103352e-01 4.072748841355455784e-01 8.792550177828438451e-02
-8.902005325785861123e-01 3.613090850559813605e-01 -8.073725865816643033e-02
-8.774060695168890422e-01 3.679862698284072642e-01 -5.420717769427409877e-02
5.683956034995029105e-01 3.047521546086964239e-01 -3.240605079365597163e-01
5.183177933683216221e-01 2.837614427380576454e-01 -4.073446643563709002e-01
6.905527388231617048e-01 2.876938996243069702e-01 -3.936759763477739038e-01
-1.741191347121535116e-01 4.953112792946351428e-01 4.462314300793862598e-01
-5.325187833612458066e-01 5.137495823474087508e-01 5.241671080211005584e-01
-1.795348715691908736e-01 2.901617266862840938e-01 -3.734816660197321503e-01
-5.923348665490454218e-02 5.054320934165245083e-01 4.853098490437286472e-01
-4.624056986095284039e-01 3.116196717746501643e-01 -2.843764570318120799e-01
1.720696964155414566e-01 3.306471440726747590e-01 -2.158775185500179106e-01
4.325459685945027277e-01 2.902050060259226405e-01 -3.805775936291338479e-01
-2.607117395920874880e-01 2.515649491670587379e-01 -5.267503213181705668e-01
9.889283603827352109e-02 4.731086866610404451e-01 3.542676907807408848e-01
-4.189337858682906646e-01 2.704114291846021478e-01 -4.495608123396735989e-01
4.779177887959492610e-01 2.824693317851111329e-01 -4.120281612238984037e-01
4.266372779123187575e-01 3.963476558098347757e-01 4.363850079360975104e-02
-6.062958568077442267e-01 3.724192069832896745e-01 -3.971278134730804599e-02
1.020174716763347783e-01 4.447649740895508463e-01 2.409691359102908159e-01
-1.359289970853682639e-01 3.560737687255426942e-01 -1.106150595819014731e-01
1.752047445888780045e-02 2.788230724289638696e-01 -4.211310821649564828e-01
4.916906335491730839e-01 4.391480292683201947e-01 2.138961989129581909e-01
3.434962493391310878e-01 3.150796625872985812e-01 -2.801209650012651542e-01
7.333079053492955746e-01 3.062705299576419793e-01 -3.199515260706635167e-01
9.908035776435655806e-02 3.857972336753459630e-01 5.368983080430604800e-03
2.597170976534978748e-01 1.671411562532909012e-01 -8.702881578547423391e-01
6.922090574456854495e-02 3.987057842147668785e-01 5.730613949668928592e-02
-4.831232845674096055e-01 3.630714576089327794e-01 -7.852913587713281074e-02
1.544173626742794958e-01 3.603728019195463483e-01 -9.688418552070718337e-02
4.094800472736201402e-01 3.563025993014808379e-01 -1.161777521979828059e-01
4.651232057654701157e-01 2.147117579365736828e-01 -6.826354157839810144e-01
3.860354063952989856e-01 3.015870799300336413e-01 -3.345424932180312005e-01
-3.969989167749264913e-01 4.535485493140947177e-01 2.819944492886965470e-01
1.913825555290224745e-01 4.842171355087332429e-01 3.975586638642008008e-01
4.087149222344291233e-02 4.245572133322709774e-01 1.609450933316376453e-01
-3.160904282664708242e-01 5.401024712724926680e-01 6.269029940586556826e-01
4.150217310642891344e-01 3.465022968775602341e-01 -1.554055623244490481e-01
-4.625743812840855673e-01 3.335471910876810497e-01 -1.967521080784309928e-01
9.691583091518876647e-02 5.069099909243007795e-01 4.893611478302848927e-01
-7.789732399844866151e-02 2.552030020906360108e-01 -5.143837095826983008e-01
-3.128661198026840284e-01 2.668412279829085465e-01 -4.650869577514326614e-01
-7.943708003268226125e-01 3.545340625636678178e-01 -1.089482844609081513e-01
-2.085685533204669206e-01 5.098612239499590304e-01 5.047821047193051802e-01
-2.100724087407004545e-02 5.204474277750387179e-01 5.448571480689367030e-01
4.999762236464652121e-01 3.777056222093232440e-01 -3.172599657082084829e-02
1.599264709643531401e-01 4.636605510470317437e-01 3.157881346254830524e-01
-7.114650068951849926e-02 4.283543975492267175e-01 1.774489267853488761e-01
-3.661112925074689883e-01 4.586393594671859253e-01 3.019705103618707809e-01
3.114663204456615264e-01 4.362303741959963621e-01 2.043775370768663446e-01
-2.872786632417554387e-01 4.592332591084138937e-01 3.034075422333455951e-01
-4.623491265327692168e-02 2.240986234620657713e-01 -6.390527886055608064e-01
-8.382956188817997090e-01 3.563666751684402278e-01 -1.011035295096179010e-01
7.452324783830238664e-01 3.482091735322965231e-01 -1.525063596839803248e-01
3.544181289784456013e-01 1.520559871691445630e-01 -9.316931172294615759e-01
-7.993874602638367799e-02 4.181706944968471840e-01 1.368592731752714120e-01
4.460771052163763767e-02 3.993162571435084907e-01 6.003788697696078869e-02
-7.462121019949226053e-01 3.700663559895825960e-01 -4.745317206485073075e-02
-5.482753595439582295e-01 3.150510577331072648e-01 -2.696448820972068838e-01
-2.001577185912885304e-01 4.983723554791651966e-01 4.587727132228229254e-01
3.362214444236170663e-01 2.840513632211711381e-01 -4.040236257242603157e-01
-3.368647192622556408e-01 5.120792382949141963e-01 5.151688911659810799e-01
-8.399513569899228482e-01 4.200273928856659844e-01 1.533042992420875772e-01
2.610958820868669594e-01 4.337206485690177082e-01 1.949468587722483770e-01
7.445322233482536411e-01 2.925665721547917597e-01 -3.748458243788735378e-01
-8.056959522018177777e-01 4.033992827128892178e-01 8.645158127120847191e-02
4.785336318039727921e-01 2.880796845606009016e-01 -3.896165105691876129e-01
7.853389575947693491e-01 3.381133348091686641e-01 -1.933256127752275289e-01
-2.562243539108526313e-01 3.066299455562375709e-01 -3.067639403163715528e-01
1.144880924307382641e-01 2.380075685873724867e-01 -5.853813513115878608e-01
1.529403792793957995e-01 2.470175658832411136e-01 -5.498340577061836543e-01
2.089752321292226434e-01 4.319264948990466091e-01 1.883963902484587782e-01
9.652429143760685171e-02 4.652513469800461099e-01 3.228978971595392045e-01
3.593291989379560764e-02 3.733641499493431382e-01 -4.356368901831255552e-02
-5.592936314417571442e-01 3.215859494639355387e-01 -2.434006117386380008e-01
6.639842220123928218e-01 3.808191338166546092e-01 -2.123211256389243365e-02
4.688142454516527891e-01 4.183125694679888373e-01 1.309093944254789144e-01
3.267190775397380009e-01 1.582870014793302527e-01 -9.064650452661215940e-01
1.154868960983328058e-01 5.038133571076899297e-01 4.767664582327695300e-01
-6.330280414351309171e-01 4.870702602510444956e-01 4.187501780783988159e-01
-1.869756158691696091e-01 5.320948144142766401e-01 5.933710798128949415e-01
-2.615105773175105397e-01 4.086104707388194535e-01 1.008129160516583189e-01
-1.820948237734125452e-01 5.526956377458017711e-01 6.756339870111074397e-01
8.060372436794087658e-01 3.584541040509953147e-01 -1.122897248488887445e-01
-7.743956294834256071e-02 3.034693905888989351e-01 -3.215167045612253305e-01
-8.069661414631145169e-01 3.741181883365222172e-01 -3.054055887223037710e-02
5.151853122800322815e-01 3.454020383000429573e-01 -1.609917044451384671e-01
2.743363804752336765e-01 4.662496625851843546e-01 3.247755271453951487e-01
-2.241555711549745589e-01 3.437138953451723267e-01 -1.589573515945228999e-01
-2.559730631266158296e-01 3.640053546525950923e-01 -7.749484591880743956e-02
7.489755368853451278e-01 3.430754221512955504e-01 -1.730652765206275867e-01
5.675922458657814973e-01 3.064119960290406230e-01 -3.174182428315041604e-01
6.463723272189114688e-01 3.070434526843461853e-01 -3.158305091266824238e-01
-3.866205566409527394e-01 4.736990827176003060e-01 3.623927110554301390e-01
3.360340423115126263e-01 4.416826768878360787e-01 2.258731750746858224e-01
6.337202887251668360e-01 4.076333933230960049e-01 8.627704677413318424e-02
-9.358155354282793326e-01 3.840754374894271850e-01 1.077877225424006026e-02
6.965215871994683283e-01 3.965475325471636281e-01 4.123215027928592985e-02
-6.967681753467700467e-01 3.234980605888465588e-01 -2.341272148462563707e-01
-3.357661325857920764e-01 5.442264719808378448e-01 6.436161590839193369e-01
2.935046397945360597e-01 4.096515458697773671e-01 9.838187211834355239e-02
7.191995575498159043e-01 3.648216880316354493e-01 -8.581360953827399385e-02
-3.153022650611025379e-01 5.687735846231752879e-01 7.414633750036668802e-01
8.228054583781579945e-02 2.778647468843010726e-01 -4.257296195250047655e-01
-8.520821933407775051e-01 3.804945856372561885e-01 -4.524698021787321688e-03
-3.032022025535865417e-01 4.274592729677134106e-01 1.766278274284784344e-01
-5.531250463096414327e-01 4.267291125797081919e-01 1.766781091592184438e-01
1.297730540215979445e-01 1.739926439511067513e-01 -8.413664467645358691e-01
3.612853355821978307e-01 4.349524483275832853e-01 1.986793122314230442e-01
3.599247695826699456e-01 4.315282061866929086e-01 1.850122016214932608e-01
-7.371554011397349893e-01 3.760038870029963620e-01 -2.383435835759187271e-02
-3.651930942648449196e-01 2.589826188983547772e-01 -4.958685339394741098e-01
-3.077057505971070306e-01 2.692694178531458982e-01 -4.554451962607705129e-01
9.824810026387623130e-02 4.517009625731177036e-01 2.687301029299919986e-01
-2.302069356455806876e-02 4.842573633896735674e-01 4.002655972787707017e-01
3.190719904360208581e-01 1.700839906045024663e-01 -8.592334739529687848e-01
-3.459671468358324065e-01 5.655852327094770260e-01 7.290868899778244483e-01
-1.864710736372958144e-01 4.050519334896242607e-01 8.570186008793509447e-02
-6.281196420729793228e-01 3.612100561223587358e-01 -8.424536509285986130e-02
-3.582057469520408821e-01 3.884542222086405094e-01 2.141688683438724289e-02
-5.196665976790985075e-01 4.228378981823844862e-01 1.607314786429150100e-01
4.601406931190840099e-01 2.624544552491939187e-01 -4.917964733176766745e-01
-6.104668489820600508e-01 4.231599060608382534e-01 1.630965358884364502e-01
1.199856680881228183e-01 4.199911190902697600e-01 1.417594511361120746e-01
-7.221081718677780925e-01 3.583679222623727401e-01 -9.448635218781296918e-02
1.850413583676271956e-01 3.339377009496021231e-01 -2.028825037009856225e-01
-1.148473305195250593e-01 3.072568585775963812e-01 -3.059377437726718552e-01
-4.758341972854028268e-01 4.634212348316364416e-01 3.223819129622683133e-01
4.871677439996204700e-02 3.339718796367017184e-01 -2.011269795417618966e-01
7.828435189492909396e-01 3.462564327473291459e-01 -1.607561663640963978e-01
-6.404277954789609761e-02 4.061127844308540236e-01 8.848710104500268070e-02
6.875990659326920718e-02 4.796244083556248095e-01 3.806623571126680483e-01
2.236557932783191649e-01 4.204562306080860679e-01 1.423868838166506279e-01
4.053688502055831644e-01 2.449582641218429335e-01 -5.610607834668004390e-01
2.661476282164167428e-01 3.790725470096656391e-01 -2.348689450576635709e-02
6.323161236108589822e-01 2.631404376586136684e-01 -4.910999873637069135e-01
-7.951514476931173525e-02 2.119998910290709637e-01 -6.870040864285180682e-01
1.318323848362549511e-01 3.913168200517840312e-01 2.703629248507742611e-02
7.882353809114519549e-01 3.261074972729689492e-01 -2.413353248057259204e-01
3.333812352463481621e-01 2.080190545479443098e-01 -7.078149274395709734e-01
-1.210638441624106859e-01 4.923504128253746726e-01 4.337697432905927575e-01
2.393397955887770490e-01 1.652760428476241772e-01 -8.774991550273474328e-01
-5.834413534538389623e-01 4.739208863874721511e-01 3.656164176940395749e-01
3.938653897666038461e-01 2.393813402171517390e-01 -5.832095546038915668e-01
-3.038239146542839539e-02 3.947852660542266467e-01 4.282260893210117214e-02
-3.179588718884415188e-01 3.217168027238459516e-01 -2.457437348889160156e-01
-7.622509338537736268e-01 3.925252380357544535e-01 4.248297055017574014e-02
-3.156985661051203707e-02 4.034020099743916288e-01 7.726921115879763213e-02
6.069148504186282489e-01 3.142191184745003474e-01 -2.866879715604270795e-01
1.587500050037357335e-01 2.310808408300246974e-01 -6.135861886495804773e-01
-8.081004901674315732e-02 3.213549153937045322e-01 -2.500061381406649130e-01
3.990150545789156178e-01 3.655112562634282858e-01 -7.925568915319738950e-02
5.237229617244545249e-02 2.392073143992640150e-01 -5.798495013459924463e-01
-2.868354004027024451e-01 3.187438833433771657e-01 -2.579931299911625842e-01
-6.187724531666513039e-01 4.041359658117185671e-01 8.717552389346587549e-02
6.371100537790318555e-03 3.803556391409294024e-01 -1.527463855016465005e-02
1.440835235460716512e-01 3.098982520309456201e-01 -2.984577162265480976e-01
-2.225301276543164564e-01 2.755870235190321371e-01 -4.312115680293903686e-01
-5.351768418800955107e-01 3.608269001128019404e-01 -8.688021442013234286e-02
-7.666006227509489790e-01 3.605890938027536130e-01 -8.508217509396019673e-02
2.457846607493197888e-01 4.714005584651801972e-01 3.456975729275048592e-01
-4.132320181062577036e-01 3.342303065986775290e-01 -1.946083529266315337e-01
4.490738421864013952e-01 2.637162959020801223e-01 -4.866227330016051345e-01
-4.888009250717622045e-01 3.289789394983606008e-01 -2.146953791086095298e-01
3.657550219105313305e-01 1.818659765022509478e-01 -8.127070622354228835e-01
6.977477194036041386e-02 2.796210088885429101e-01 -4.185630837940146343e-01
1.803436433099983305e-01 3.465176143535189102e-01 -1.525573935130465908e-01
2.891016281818534761e-01 2.447916675703693812e-01 -5.603457516330301313e-01
-8.243806615017978956e-02 4.923476887879587038e-01 4.333001509369504567e-01
-9.453114052725380967e-02 4.745448747740593221e-01 3.623037369407364205e-01
3.936310530665745010e-03 4.978663344641039989e-01 4.543268998233797040e-01
-7.562196296849761114e-03 2.090267863642915891e-01 -6.997390994375349837e-01
3.881391715774715756e-01 3.238798617785501599e-01 -2.454855423773085465e-01
-1.609604240325595292e-01 5.185055628141288508e-01 5.387594957998330658e-01
3.908846112109885286e-03 2.030903015047174076e-01 -7.235975134781839069e-01
-6.570442955884205904e-01 3.249384692423341048e-01 -2.288430910752904390e-01
-6.029692174701100083e-01 4.608783443096239885e-01 3.137303388288463779e-01
2.582694588872593844e-01 4.686450215034034805e-01 3.345381845446008251e-01
-1.341140368303654282e-03 3.117677034285666893e-01 -2.892603745384472735e-01
6.220053551579304285e-01 3.077011504778553452e-01 -3.129129751986950425e-01
-7.146839160374331978e-01 3.892187549358810950e-01 2.870537697484150733e-02
6.453473722044306138e-01 3.956081552855184591e-01 3.808612789534841087e-02
5.301995868387168187e-01 3.880967037112871276e-01 9.437832176805268508e-03
-2.814178663761586763e-01 3.073130504451251910e-01 -3.037350639366666605e-01
-4.741324527632258534e-01 5.075284504789300266e-01 4.986140941975700236e-01
3.474430605143092876e-01 2.765889870551386798e-01 -4.339765378280763808e-01
1.452144177189122476e-01 3.245510231927051792e-01 -2.399186871215281958e-01
1.985965632082525023e-01 2.909079327212434340e-01 -3.749903926429421497e-01
-3.700700829916237500e-01 4.875710310415603543e-01 4.176284549829636372e-01
3.707337652861710242e-01 4.617263243369505998e-01 3.055554881241165366e-01
-7.739138924182699386e-02 2.859139079472929890e-01 -3.916689681256940725e-01
7.109455522501564317e-01 2.746484044224870025e-01 -4.460479407982636535e-01
-6.155985605343561318e-01 3.924925420121252451e-01 4.061072166524714450e-02
2.009354713838049089e-01 1.784869641802923346e-01 -8.242522491104298243e-01
1.481230224562035958e-01 2.399889968081541647e-01 -5.778630035037928270e-01
-3.530218697321308441e-01 3.665410957298727568e-01 -6.620950717699260191e-02
-6.986890635172340325e-01 3.436215046638688153e-01 -1.536911401606344263e-01
-6.976343178586333349e-02 5.343793666061157355e-01 6.011081745867258297e-01
7.206346279529776133e-01 3.522325312398553732e-01 -1.361369101945728577e-01
2.636764614675718987e-01 4.274514785505098557e-01 1.698646153921185842e-01
5.899577384825025472e-01 3.498631271441030033e-01 -1.440531706574287862e-01
4.182548349980067526e-01 3.516551793872420562e-01 -1.348530441390569656e-01
-1.523114871401176906e-01 3.408795422345333725e-01 -1.711366206901901998e-01
1.519520575287362230e-01 3.919609553752931297e-01 2.937132195744799820e-02
-1.340422130387738664e-01 3.925947128483626147e-01 3.530019059095782646e-02
6.559090521580810407e-01 4.069663231895927491e-01 8.334792867773434255e-02
7.035254347830136590e-01 2.691148947492761345e-01 -4.680717211540312839e-01
2.072699505255294616e-01 1.716655308554312365e-01 -8.515859162081477196e-01
-7.459692764834484624e-01 4.113451254677748525e-01 1.174938666893765998e-01
1.385563612150206292e-01 4.116656685838562812e-01 1.082704195775434503e-01
5.870790241449066471e-01 2.881730519336153096e-01 -3.905324642054494033e-01
-2.726376194156421851e-01 3.409142494825906922e-01 -1.695689767801089043e-01
-7.660134843781134517e-01 4.081296908274995028e-01 1.048830314662942964e-01
5.746471928784874228e-01 3.976611797392666237e-01 4.712962380425583797e-02
3.352937749899367326e-01 2.043406828958652943e-01 -7.225364096606808895e-01
-1.447432519388718031e-01 5.317696509400031690e-01 5.915701891504409060e-01
-1.152256430477667931e-01 5.164802509769785832e-01 5.301232203827250800e-01
8.855120569677318310e-01 3.589454570279653756e-01 -1.112700957148681780e-01
-5.292014877809225748e-01 3.767402376906208161e-01 -2.336149437034242687e-02
3.466879174121226814e-01 2.696395885584954022e-01 -4.617373595927908303e-01
-2.207308808073931428e-01 2.546837427014712052e-01 -5.147624250030742310e-01
-4.481780032679148068e-02 2.590629754072695246e-01 -4.993521015846578148e-01
-8.023848239811098848e-01 3.423434236991423352e-01 -1.575668935199436571e-01
4.100439845664115013e-01 2.861856897831398516e-01 -3.963715512044932443e-01
-2.356806667787216258e-01 5.502863343653603412e-01 6.666427809990794762e-01
3.105102022146146168e-01 2.154253044702976738e-01 -6.779479510862670422e-01
-5.455253645935563833e-01 3.296704479290102907e-01 -2.112584712102347217e-01
6.111059412602487528e-01 3.498188804414500419e-01 -1.444811295752667368e-01
5.177209640439456306e-01 3.502137456070087973e-01 -1.417942393223936559e-01
2.760251264554852701e-01 1.876859938741026745e-01 -7.883846756263620525e-01
-1.965792734168310407e-01 4.522377301296497953e-01 2.743762989945776054e-01
4.555269697187155353e-01 4.353687661939476539e-01 1.992237352035834408e-01
1.191592930755381308e-01 4.641101999968698655e-01 3.180690690564904055e-01
6.347964318665862971e-01 2.646757442789446912e-01 -4.849943589395411259e-01
7.122430953215929117e-01 2.986519655376683180e-01 -3.501451432508057016e-01
4.200310009147206203e-01 3.451782597048372869e-01 -1.607559020218466417e-01
3.034721074171674582e-01 3.095898111457477953e-01 -3.015830923783778261e-01
-1.920159004490337440e-01 5.582780798479439754e-01 6.980592396532983024e-01
3.776904650107976158e-01 4.524442890448962529e-01 2.683818686835097722e-01
-2.187428544353803850e-01 4.780994297599685527e-01 3.779828328656584246e-01
-1.605259305868587394e-01 4.650419245278020752e-01 3.251136895848882324e-01
9.156834434134650258e-02 3.720935406527216549e-01 -4.930175062410130371e-02
-3.213219531799651474e-01 2.778637221594573714e-01 -4.209406630894878543e-01
-3.952938704001815462e-01 5.354547390135172558e-01 6.092712546629924786e-01
-5.716302839430199567e-01 3.066677482366989005e-01 -3.028672232059427816e-01
3.966658215986839098e-01 3.191251354877029378e-01 -2.645866836921987320e-01
8.792034292903609660e-02 4.260810902986729154e-01 1.664757674408721133e-01
1.205316123702258324e-01 3.208173055994765765e-01 -2.545454940520188170e-01
-5.632692941270064368e-01 3.519862483730553104e-01 -1.218738333552545766e-01
-5.393910530436960560e-01 4.697321590217765075e-01 3.483551402805593611e-01
-2.689134828213622375e-01 4.963746946656540926e-01 4.516065835271708129e-01
-2.895044551991460824e-01 3.187029009988020523e-01 -2.581251985784605019e-01
4.967403598762010902e-02 3.029435395318211266e-01 -3.251275643853481778e-01
3.809079265811236570e-01 3.992977355219692326e-01 5.597008325408358437e-02
1.642578969804481537e-01 3.271482628699636797e-01 -2.297662740403147164e-01
-3.353462045459438823e-01 3.066303179679676361e-01 -3.058228269469719929e-01
1.786836602909502164e-02 2.930837439663975807e-01 -3.641495840925893512e-01
5.148068674503545328e-01 3.988987321293632204e-01 5.278552607225792115e-02
-3.928799250367576712e-01 3.501425094343329492e-01 -1.312649007539080648e-01
-2.873440149315203973e-01 5.581526271513448378e-01 6.986900163002321973e-01
3.902221296666796846e-02 2.611318575674797526e-01 -4.920805070641252610e-01
-2.343615704105670716e-01 5.602460322103972601e-01 7.064260586918812423e-01
2.405038799328071686e-01 4.797610807459187776e-01 3.791689246113357781e-01
-1.747884293431735403e-01 4.788789189339291985e-01 3.805756824704008556e-01
4.579474006310224055e-01 3.939856576732971294e-01 3.382812977574756186e-02
-5.059271358419061837e-01 3.151470123381925337e-01 -2.697643612390768220e-01
1.370101716421208149e-01 2.867824603413181017e-01 -3.907443964015244187e-01
6.643283575060714430e-01 3.874421749456471442e-01 5.229466470709510754e-03
-5.181534999599451963e-01 4.545033686483799240e-01 2.872486986075800108e-01
2.720360422442291148e-01 2.914297825550380416e-01 -3.737772244438226643e-01
4.958709871010730241e-01 3.482586562775902839e-01 -1.493472911932785530e-01
-6.289746270239366943e-01 4.761345665144968153e-01 3.750030195771587582e-01
4.695983801450951955e-01 2.591183022466000963e-01 -5.052400538507230143e-01
-1.883792141805981923e-01 2.513666884670252566e-01 -5.284015682889787735e-01
-5.296147389467253941e-01 2.866628353754364644e-01 -3.833057983043064998e-01
8.215130288990423191e-01 3.698663575783500135e-01 -6.687015627519236893e-02
2.764430038200338946e-01 3.300811584084335504e-01 -2.193786999626489986e-01
-4.120152943846034366e-01 2.689636957915023663e-01 -4.554281153042331054e-01
-5.294464214432184068e-01 3.339231672233434756e-01 -1.944555573370222723e-01
-4.412614075658541357e-01 4.800411244678557399e-01 3.883844005570893931e-01
3.281107682338410547e-01 4.515053608716284583e-01 2.652187048795965896e-01
6.149310090086360647e-01 3.768051653213182473e-01 -3.668938683691966296e-02
6.661544935315851790e-01 4.039419609233514397e-01 7.114090850936190258e-02
7.790266772815106489e-01 3.255121104916487429e-01 -2.436051302501120452e-01
-2.189368613866070901e-01 4.741510211999362401e-01 3.622073000837874868e-01
-3.212746106776104837e-01 5.384654203920544724e-01 6.204229059954569081e-01
-5.685822192516502005e-01 3.474128575299152977e-01 -1.400860041317743276e-01
6.341381200227197423e-01 3.028958860592238511e-01 -3.322588918628919252e-01
-4.260696504407568419e-01 3.217097651386319201e-01 -2.444879688361859815e-01
4.026608765859882588e-01 1.764663869591422130e-01 -8.347220986256536079e-01
-3.344991985502272502e-01 3.472121436579942433e-01 -1.436679499385165315e-01
2.977011054489973052e-01 2.822023890400765511e-01 -4.109546698006247278e-01
4.416537362214279505e-01 3.548653264761624793e-01 -1.223031772064630818e-01
-6.566612388181246596e-01 3.278517297738566261e-01 -2.172062538969301015e-01
1.310718876649489828e-01 4.484568417409176555e-01 2.553767946962892110e-01
-6.228439655960177346e-01 3.248917596431398214e-01 -2.294358945179418852e-01
2.495192853278889455e-01 2.055637112184242332e-01 -7.166305599025847295e-01
6.374190414132754334e-01 3.170947827720423384e-01 -2.755590776318519453e-01
-5.105354129916860328e-01 4.237351073597401818e-01 1.642082866763233950e-01
-4.979839184948244846e-01 4.399802366474160342e-01 2.289747499823594490e-01
-3.540434617093992653e-01 2.872965933022971763e-01 -3.828583292965335727e-01
6.291040916999528498e-01 3.270120195563945842e-01 -2.358310635166540048e-01
5.900297153255752436e-01 3.557750897655869715e-01 -1.204298285764109216e-01
5.745257163800351341e-01 3.172051092681619222e-01 -2.743713125094430771e-01
-4.705002577237291095e-01 4.945182294035604387e-01 4.465821287424181496e-01
-8.847210221608926839e-02 2.855081664408352093e-01 -3.931587198666507965e-01
-1.557893806199438513e-01 3.786472847012028464e-01 -2.017545639929929982e-02
4.689602742354023746e-01 4.343756330983674085e-01 1.950956467952011109e-01
7.131923826052425364e-01 3.240845924429883729e-01 -2.485276644315605188e-01
7.611965311255110000e-01 3.276225033291702560e-01 -2.349602575526114623e-01
3.117845811931425071e-01 3.804320029213082988e-01 -1.859647953506277096e-02
3.436097959225143383e-01 2.498944760702584977e-01 -5.406022550243307911e-01
5.711083720849547962e-01 2.592752293723462609e-01 -5.058184726637716677e-01
-5.614135640633172164e-01 2.923645415965170913e-01 -3.601441533765397107e-01
-6.179296526701181236e-01 3.946293547227672782e-01 4.917710645505758704e-02
-3.148021981209729314e-01 3.270303969875955064e-01 -2.245481050317713889e-01
-4.627357712316702565e-01 2.814540629644518566e-01 -4.049142805055578886e-01
3.020265038574705962e-01 3.443578849491434890e-01 -1.626327359429175501e-01
