-7.103364256890573047e-01 4.931229385838053342e-02 4.042693204299754317e-01
-2.252659877120831156e-01 7.313047294134216170e-01 1.881828143524681418e-01
-8.160307139513442998e-01 -1.066333394969697784e-01 4.735852949710479542e-01
-4.913614935119723914e-01 3.703689072410976113e-01 2.668016853968691038e-01
-8.267045285070728777e-01 -8.851849287639471445e-03 1.368624442175888634e-01
-5.400366940292051776e-01 3.420353224167156925e-01 1.670724417314727595e-01
-7.884672005741095724e-01 -1.994122183777580909e-02 3.161673676352679818e-01
-7.293373969564387327e-01 1.663679791752792000e-02 4.307805894607870667e-01
-1.883283103693739746e-01 8.547698421146278092e-01 -4.484180973177362417e-02
-3.476754688411519689e-01 6.014475839417050551e-01 1.148081988460058350e-01
-5.303038094013636794e-01 3.048230778295927257e-01 3.168301440176428674e-01
-8.537748047257608386e-01 -1.477714120105826645e-01 4.542836832876062658e-01
-1.229979688025171075e-01 9.418065251294972517e-01 -5.936530791244028216e-02
-4.184960129741614465e-01 4.960725180784703037e-01 1.639285057288695779e-01
-7.933550390316361778e-01 -3.981313990962137561e-02 3.577028389429585120e-01
-3.148276490154429119e-01 6.432604160543149430e-01 1.134061544461013732e-01
-6.672944668419242831e-01 2.089435158378049329e-01 8.501316661870196578e-02
-3.725918496955703541e-01 5.156805584347247118e-01 2.795141234783949380e-01
-6.396022867767002795e-01 1.571356112053564069e-01 3.474073939098982211e-01
-4.803704919877271884e-01 3.993212454335763328e-01 2.210348802474687013e-01
-3.224385744196840986e-01 7.528862660839746868e-01 -2.475032643169426116e-01
-5.121609534388842366e-01 3.545204353776831296e-01 2.355131312364287799e-01
-7.059446292708740911e-01 4.066109411193181283e-02 4.471997328167587327e-01
-8.875911837546826000e-01 -1.180321212501816708e-01 2.353635894050673250e-01
-7.358645300901627273e-01 -3.745334113383440994e-02 5.696672166473731869e-01
-4.160405198375213276e-01 4.836588919549197341e-01 2.108703412221316353e-01
-4.588942758562539748e-01 5.481021860372958798e-01 -1.475627882515284650e-01
-4.492457751479632666e-01 4.193803383173079213e-01 2.789271950719823256e-01
-3.873473026506509820e-01 5.178044897542227742e-01 2.168474678775172693e-01
-8.321628590420729887e-01 -3.146564450941380375e-02 1.845249352300730727e-01
-6.834647524542039054e-01 5.652744736886764626e-02 4.848385852664895967e-01
-8.539534418293220908e-01 -1.007690538074639680e-01 3.112988205058759283e-01
-4.271815487980105130e-01 5.107350069599868592e-01 8.643397406046617049e-02
-3.013735713571877306e-01 7.788354796821332915e-01 -2.457836080437590109e-01
-3.702922039116161579e-01 6.925201923502839474e-01 -2.471199636733161786e-01
-8.696013943885271269e-01 -1.535596154376206446e-01 4.114894200176588135e-01
-4.568796956462699010e-01 5.128226309196579624e-01 -3.307262851402228282e-02
-1.047178773949845182e-01 9.440561776749272216e-01 3.493080432027796754e-03
-8.702552075536702514e-01 -1.272244074383615808e-01 3.292652886472323681e-01
-5.490729257428555998e-01 3.481523279846305274e-01 1.141135817960804294e-01
-4.871614910697275591e-01 4.049975479568472814e-01 1.779673620860150185e-01
-8.512354625155974519e-01 -9.330948197024524493e-02 2.990730816832811167e-01
-4.565169346027462272e-01 4.849580101583588765e-01 5.267267988925879857e-02
-6.257049861191860129e-01 1.469155342722208712e-01 4.313152820777576557e-01
-3.761837314271717636e-01 6.552783169575502331e-01 -1.568205994375035661e-01
-6.440674191569440987e-01 9.652981264369062120e-02 5.138795253227855797e-01
-3.097401823880073790e-01 6.931994780296155678e-01 -1.839958202558849079e-02
-5.888979119105307580e-01 1.957847994534139824e-01 4.236388096670882231e-01
-7.208172457394352861e-01 4.493801373028290247e-02 3.775681679268513835e-01
-6.178017731316870487e-01 1.482015237769105931e-01 4.575426997961266617e-01
-4.685773116908308333e-01 5.437038426168939731e-01 -1.711505569500141599e-01
-4.031119600569806338e-01 5.543646398364383554e-01 4.607563892705031361e-02
-5.162518235869646421e-01 4.391011087314912742e-01 -3.615397191743859734e-02
-8.394246436815530066e-01 -8.822696429707953258e-02 3.286988946692138147e-01
-5.823449604813928371e-01 3.459460081621031913e-01 -6.013571691764049362e-03
-5.601574710277112956e-01 3.045593131806046960e-01 2.038498896954304973e-01
-5.984935222998090110e-01 2.405883707067830724e-01 2.514208376456410488e-01
-3.577645598621836398e-01 6.673176300404073391e-01 -1.230712595832293837e-01
-7.798509411925222956e-01 2.954369965429886474e-02 1.991855840818188006e-01
-5.009904584978247533e-01 4.344291860543290085e-01 3.615510761736124429e-02
-4.602550943540687500e-01 4.468939365310160006e-01 1.536682812063237535e-01
-6.345856617245198006e-01 2.609992003216862755e-01 5.207011275596211408e-02
-5.604352355557316034e-01 3.194562470487364303e-01 1.576894071152897536e-01
-5.622393562977606729e-01 2.898913877650249882e-01 2.403238868712014031e-01
-4.858758562659529906e-02 1.000000000000000000e+00 4.804272785264144391e-02
-3.504603193593182620e-01 5.663568901242980180e-01 2.104348843049876072e-01
-9.612656114112152483e-01 -2.060255011094462019e-01 2.209824418160825921e-01
-2.140109626575187329e-01 9.144514821802459670e-01 -3.234157584670805385e-01
-6.075236342579768412e-01 1.562114935606046806e-01 4.724639994102385887e-01
-3.627143001725155469e-01 6.360295605424475252e-01 -4.720824303940444194e-02
-6.434624413038763091e-01 1.709685099125970720e-01 2.908151064290190879e-01
-2.609942478779754826e-01 7.599532765250436306e-01 -3.472154776066101872e-02
-2.721233668618570078e-01 6.577318073378904950e-01 2.323480118965667862e-01
-1.499884045545515909e-01 9.116542979109308886e-01 -7.094306563612064187e-02
-2.703908321152700966e-01 7.239394167730526242e-01 3.850134730641600889e-02
-3.218479150738783878e-01 6.316931087073058837e-01 1.216714922210967165e-01
-8.705707264221440589e-01 -1.248515424633717258e-01 3.208787065541592320e-01
-3.119340074629692316e-01 6.089492733462132934e-01 2.283146498151196468e-01
-6.536588032720396235e-01 8.470249484495245840e-02 5.131329764543781646e-01
-5.549359297476206265e-01 3.539692702445448869e-01 7.415705564648991666e-02
-5.558995807743914996e-01 4.086717921172816625e-01 -9.513263275622210746e-02
-8.303200318225006926e-01 -1.420297293508645253e-01 5.262914653648596008e-01
-3.486542933728609683e-01 6.456354081129653810e-01 -2.270508788407495787e-02
-1.858579467541668084e-01 8.530759039738501359e-01 -3.029815806964566635e-02
-3.999953401670554576e-01 4.661741735710902002e-01 3.249586473359367678e-01
-8.323894288508415507e-01 -4.009074465287775640e-02 2.097747259779091100e-01
-2.735927000861588798e-01 6.748028312478724366e-01 1.750639396528012592e-01
-4.312215719233103428e-01 4.879626607496115320e-01 1.399819724183487823e-01
-3.199649812452229347e-01 7.504163396470452385e-01 -2.305979269184464941e-01
-8.924335184664569098e-01 -1.635624691737676273e-01 3.547557828189137896e-01
-2.688516757656490008e-01 8.392485040611639135e-01 -3.047416435222440323e-01
-3.022641859830282329e-01 7.110847209966379978e-01 -4.405617318505301860e-02
-8.061542231679524884e-01 -2.383740476780078082e-02 2.605543189204936327e-01
-1.824903539757544990e-01 8.751020859893083870e-01 -8.414985345974096420e-02
-8.898207829484965359e-01 -1.544021909689455296e-01 3.369798892251671396e-01
-2.341479395748334302e-01 8.539750241696387745e-01 -2.170640409774476642e-01
-4.829661990971677588e-01 3.729182714099389395e-01 2.910795479206421121e-01
-1.159549215008990469e-01 9.494260256071664905e-01 -5.559146667572483630e-02
-3.520442960517022324e-01 6.082317914112506108e-01 7.761782095155404793e-02
-4.433240403337047053e-01 5.069263613864645190e-01 3.644244309817855354e-02
-4.256839876792445354e-01 5.451306947672839298e-01 -1.199465679756255877e-02
-3.768410277054491386e-01 6.117446429800803553e-01 -2.752342747612975329e-02
-5.419401963591468085e-01 3.162508950600825819e-01 2.378825451272867930e-01
-4.550933906815689545e-01 5.351954728912847736e-01 -9.400050267673992765e-02
-6.070104753841215617e-01 1.984963475089158158e-01 3.463984078093309549e-01
-4.070413120015438646e-01 5.540475392285355571e-01 3.206007199850803568e-02
-8.835299768703103185e-01 -1.479727871396330219e-01 3.414899037873913024e-01
-4.760991613708370762e-01 4.215247556276863761e-01 1.700906495416015518e-01
-2.968610549533565179e-01 6.657998546220252889e-01 1.136405100984395761e-01
-4.670404514958929054e-01 3.692098064097759091e-01 3.630037760807675040e-01
-1.827714145979086879e-01 7.992552773563864621e-01 1.444122736860815881e-01
-3.857059182315034640e-01 5.397666578237327872e-01 1.566106235233200306e-01
-2.165805981470155517e-01 7.972328768016350153e-01 2.168109593858015202e-02
-4.785738689994383233e-01 4.640474782671846765e-01 3.191747623011005619e-02
-2.623312286375104607e-01 7.565338919884228019e-01 -2.946456686354309920e-02
-1.961287063862048596e-01 8.169859282345652840e-01 3.982351186430341250e-02
-4.762876497349491922e-01 4.190421834189440586e-01 1.768884988788119172e-01
-2.027088209080417924e-01 7.809257455855238561e-01 1.239208352264348501e-01
-7.250876458887085541e-01 7.183130647650354250e-02 2.798707796624980149e-01
-2.594638776102358713e-01 8.384058942371259704e-01 -2.664116137434329734e-01
-3.097939581678604837e-01 7.720114828218752612e-01 -2.572152526936236638e-01
-5.887160644760092154e-01 2.660016703526356663e-01 2.117437227044320358e-01
-2.328154119481065931e-01 8.044300404730168053e-01 -6.198341271528948898e-02
-4.001877330335470995e-01 5.408794251730629776e-01 9.804825624478916146e-02
-3.921567833258368108e-01 5.628336407256580021e-01 6.218751809955831017e-02
-1.585232509071109741e-01 8.291884473969065583e-01 1.462018495952037700e-01
-7.214390447782987881e-01 -1.332095191830919532e-02 5.515828260911904701e-01
-7.344284061579874345e-01 1.334062360709664663e-01 5.784724034981499063e-02
-5.478741651540476321e-01 3.192512053546771034e-01 2.061831735033020085e-01
-8.686908478668230460e-01 -6.853725416110106883e-02 1.575465569162706470e-01
-1.285787857003419798e-01 9.178219469292587807e-01 -8.019465448108364578e-03
-5.554262788497980052e-01 2.335323092504717479e-01 4.369223975151146910e-01
-5.581620887560767574e-01 3.452729630232611036e-01 8.819034273633036269e-02
-7.973146558915262805e-01 1.865860172252874509e-03 2.164248011437085450e-01
-5.414219859275871682e-01 2.686866900560503924e-01 3.838626398125274952e-01
-6.867481003607337486e-01 1.192581478498249969e-01 2.824019632978195249e-01
-5.245063583070210811e-01 4.314738972901396297e-01 -4.452171071097106581e-02
-1.243278402341507077e-01 9.355193390005753784e-01 -4.539869413537283432e-02
-4.651826142411317200e-01 4.806986962835178012e-01 3.254135295355473773e-02
-1.938281593009260340e-01 8.190729900996596147e-01 4.227262430294059098e-02
-6.758428070027926449e-01 1.633019592856330415e-01 1.906176581580024953e-01
-3.420841523566636178e-01 6.379408836314319764e-01 2.563104777437479748e-02
-5.320473750684553416e-01 4.198064651428289329e-01 -3.793793042942509436e-02
-6.640486820909482502e-01 7.080447660932238929e-02 5.156124291661082770e-01
-1.881099760892000761e-01 8.062035666907085840e-01 1.030292533936574134e-01
-2.107945853244604928e-01 8.050137304395509341e-01 2.017559236439366716e-02
-1.461634369423783775e-01 9.519328275112159954e-01 -1.783122959089588344e-01
-9.087214810877579652e-01 -1.799229238363903860e-01 3.422116063345101988e-01
-7.730909977659878862e-01 3.205875531937803224e-02 2.173346389256942679e-01
-4.858723606426081920e-01 4.751099990526829187e-01 -2.939148676181392930e-02
-3.413837231314884590e-01 7.267033965593007183e-01 -2.404362773606378567e-01
-5.695018853490555477e-01 3.283383331246219616e-01 9.624307724980611656e-02
-2.186649534019425301e-01 7.606037484349019717e-01 1.246352764390998014e-01
-6.638845626141376410e-01 1.554694833325585834e-01 2.599066938773089697e-01
-6.373730701777879926e-01 1.609686818983998291e-01 3.442984451704957927e-01
-3.791281977247945578e-01 6.214169097571595746e-01 -6.552402484948462169e-02
-8.358590175425424373e-01 -2.512312525531968516e-02 1.512354971489367206e-01
-3.431851147957108994e-01 6.886212616612276127e-01 -1.320045475577045213e-01
-2.132061599105029848e-01 7.645971342831794360e-01 1.333495816569303105e-01
-3.106182509761193367e-01 7.324734547322061529e-01 -1.406517328131174915e-01
-3.499720469195155559e-01 6.792166444837561823e-01 -1.293976700464418428e-01
-6.928481570418029145e-01 1.282793861749302045e-01 2.318406714281377179e-01
-5.921185702781979199e-01 3.422655119398446133e-01 -3.211988711333419594e-02
-4.175993689990326052e-01 4.638239652096844412e-01 2.649813233063263440e-01
-3.196769207605216212e-01 6.933194041691419507e-01 -5.663375041602150550e-02
4.131023273711003641e-01 -5.176438770646877296e-01 1.457832681673133443e-02
6.356191817766301266e-01 -2.186204243219370125e-01 -4.268281319975992388e-02
7.996566832727520779e-01 3.366636312413440885e-02 -1.813219153087764768e-01
2.088639145307712996e-01 -7.088435800270246334e-01 -1.849438913153056696e-01
7.470134832252109947e-01 -1.775302062330677902e-02 -2.262796555417347644e-01
6.791878916497717800e-01 -1.374579721463414089e-02 -4.969100464962587504e-01
6.635458753504792639e-01 -1.531559265673719528e-01 -1.344479758059966557e-01
6.831587377900423252e-01 -1.465923421391470208e-02 -4.790107683682228168e-01
6.196623405885348657e-01 -2.636947664276905745e-01 3.296896760225215967e-02
6.828796845361323475e-02 -9.341710984053183120e-01 -3.850938578776551963e-02
4.531527515392147487e-01 -4.740377104511424577e-01 3.519749307785401821e-02
7.119918292442565244e-01 -4.905664713570640628e-02 -2.649801713814641801e-01
1.932322730942807598e-01 -7.864899374652392083e-01 -9.437878835923009871e-03
6.765614816585657776e-01 -1.088234863521317930e-01 -2.190632678988667370e-01
5.099024092749037118e-01 -3.345780580957422590e-01 -1.707443109858595987e-01
6.941575213557851232e-01 -2.386327090719837438e-02 -4.092259189687680876e-01
5.801022092977481392e-01 -2.318936582453558215e-01 -2.140841661485416991e-01
1.510563628480180720e-01 -8.320827018216235826e-01 -3.214312632372689355e-02
8.426708184388519152e-02 -9.298753444073064589e-01 9.384709032874024442e-03
3.188763065649266593e-01 -6.261842182644034027e-01 -1.592158393625578774e-02
3.754593641441361651e-01 -4.627975027636714311e-01 -2.949397602648309857e-01
3.699922959821642099e-01 -5.283032912487785060e-01 -1.174510469905759580e-01
3.089070665378797487e-01 -7.053075500637163708e-01 1.856367554464102565e-01
7.169260684627881686e-01 -2.505621277018724516e-02 -3.188382686612052375e-01
4.413164462508125108e-01 -4.239294450969337547e-01 -1.616207145031206827e-01
6.276817835458861072e-01 -2.042719014204070482e-01 -1.163754676738386201e-01
2.709892951034059694e-01 -6.805441215174693470e-01 -3.384975243522852367e-02
4.145116183108404351e-01 -4.919675640823771845e-01 -5.778799777053432452e-02
4.837884776349688498e-01 -3.287787107500584338e-01 -2.878282762504190684e-01
8.427684040583705016e-01 1.627070363971914180e-01 -4.076964423813200233e-01
6.622482212406116675e-01 -5.996193338777358606e-02 -4.215471541872938821e-01
8.688662314759958427e-01 1.509079663222453460e-01 -2.725091318331581136e-01
4.152048714447451050e-01 -5.120739316497286975e-01 5.728050659412673058e-03
3.781739636807122662e-01 -5.020300755734353748e-01 -1.658135429724019727e-01
1.206546111448571074e-01 -9.200205497820116429e-01 1.182292197496830205e-01
6.083124603148230003e-01 -2.093980005374119491e-01 -1.746764452964194303e-01
4.088498302810704699e-01 -4.133158038467267259e-01 -3.174918728948935009e-01
1.660684717916174058e-01 -8.047763261107220290e-01 -5.760130718562771895e-02
8.346274370463666603e-01 1.270942304229173148e-01 -3.309023435995808171e-01
2.029715313257538234e-01 -8.219841595526007350e-01 1.351426407623584069e-01
7.029009499772675973e-01 -1.260409592034644928e-03 -4.443350800648020460e-01
4.679144170355963861e-01 -3.452271896616862512e-01 -2.985284800547579054e-01
5.606754102854856203e-01 -2.569709510861907242e-01 -2.122000905774713841e-01
2.015068837452043404e-01 -8.223499493410237893e-01 1.306680116702511607e-01
3.445307672171258329e-01 -5.410800427406828872e-01 -1.758076848625024502e-01
7.291968714646142047e-01 6.087270183565920978e-02 -5.322293875190585721e-01
6.114536439392630474e-01 -2.134459362519839087e-01 -1.504492040950909937e-01
5.658662453781861945e-01 -3.472138952982594118e-01 8.080227416188383305e-02
1.150015516231474438e-01 -8.526558570427984485e-01 -1.072687360791815953e-01
8.201404825648280772e-01 8.479090278293850702e-02 -2.580380090337248133e-01
9.113681774798660928e-01 1.767714285785230433e-01 -1.888289825474953887e-01
5.256673812310075355e-01 -2.795813736086188994e-01 -2.771681674009359719e-01
4.102072598526713132e-01 -5.150698343756552333e-01 -4.248563080623957502e-03
5.215613845228810330e-01 -3.161850213189121295e-01 -1.819960492109783390e-01
2.711733200207434025e-01 -7.617328777680675289e-01 2.126581635978920248e-01
5.938042080984379245e-01 -1.954866304648447684e-01 -2.720885387236791075e-01
2.626688645699633007e-01 -8.077216252368271121e-01 3.194810623433872454e-01
3.133186833787464654e-01 -5.514704593156832813e-01 -2.633057966864847388e-01
5.883389698848845439e-01 -3.004134545380263144e-01 2.475802299054812722e-02
2.199199884678693373e-01 -8.509612854255629300e-01 2.874678737435460429e-01
1.506322742567166861e-01 -8.296331799205718394e-01 -4.117557736623144587e-02
5.808257789174139374e-01 -3.237009882846949016e-01 6.662879840688022692e-02
2.142998803475217040e-01 -8.379924509971106161e-01 2.267840540881525258e-01
4.897917581203540260e-01 -3.707964381057861081e-01 -1.377358613842916135e-01
6.883421249846323198e-01 -6.743981882093778857e-02 -2.994575884787137876e-01
3.362001821598194495e-01 -5.342915272143710093e-01 -2.281102304667854686e-01
6.878869241119968114e-01 -7.428382274421961584e-02 -2.804715961379811717e-01
5.524719702367929947e-02 -9.573495842803284583e-01 -1.803557974002674077e-02
7.300603020610705318e-01 -6.085496195437557765e-02 -1.603967719699931904e-01
4.737642261538798083e-01 -3.465782744951362848e-01 -2.721430437560014570e-01
2.201484652282979237e-01 -7.513958418494425251e-01 -1.310504877326337456e-02
6.640712049675033812e-01 -1.962504110536274771e-01 -1.973245475902638685e-03
7.401977538656554501e-01 -5.835120392680752388e-02 -1.293410901706215088e-01
3.549632836835465155e-01 -5.035869234810950168e-01 -2.495610124705038846e-01
5.146036721663662661e-01 -2.705941556727954889e-01 -3.465440229834818586e-01
2.694247123656967613e-01 -6.519466060545099362e-01 -1.263943731633229706e-01
8.191653325889568515e-01 7.662803484218322359e-02 -2.370406720898617370e-01
7.359072453876095432e-01 -5.012725265555345588e-02 -1.705919373506672998e-01
9.010058977525404744e-01 1.897618189200440952e-01 -2.676515167460265521e-01
8.567687635986594996e-01 1.590470893741993130e-01 -3.432571814701552704e-01
6.416823763563322958e-01 -7.730300941144099824e-02 -4.474263516160993936e-01
4.223574812283575342e-01 -4.134933586871967770e-01 -2.654737002729247730e-01
1.774013262367083454e-01 -7.726807751307193106e-01 -1.115816070139111216e-01
1.800947663587612046e-01 -8.026703213458449282e-01 -1.052016081381958353e-02
7.605489659425294091e-01 -1.875828994414753537e-02 -1.716494269203169554e-01
4.148284659820597464e-01 -5.526794342907046520e-01 1.272304461563301958e-01
3.908896853325600773e-01 -5.557085727044566159e-01 4.516552328496699353e-02
4.903331274696031694e-01 -3.361830583936036287e-01 -2.404678305844768216e-01
4.333362358877760889e-01 -3.736087921309780846e-01 -3.443855252654219878e-01
3.300099789639904801e-01 -6.119758262466885590e-01 -1.650596248893941922e-02
4.869919196950474038e-01 -4.384084915426989526e-01 5.629516135388816511e-02
7.470983555901389295e-01 4.099326586471320477e-02 -4.038160680037785055e-01
1.249721265309138019e-01 -8.637144609962346120e-01 -3.578773858114156492e-02
7.082303685124026194e-01 -3.722063060042863497e-02 -3.151505676111781562e-01
2.274302194789039056e-01 -8.076447625080525050e-01 1.849461783386399938e-01
1.545728615645633186e-01 -8.051783583535269129e-01 -1.001963989294867852e-01
4.899343121756551400e-01 -3.133978922723028582e-01 -3.109720253749888585e-01
2.144399414268466642e-01 -7.927425068909451644e-01 9.031941736871094972e-02
1.639583593486292901e-01 -9.140558999011110242e-01 2.652107289042365812e-01
5.852808851563500170e-01 -2.593213621614647302e-01 -1.113071609033299686e-01
7.400709135708473108e-01 7.817724086998834032e-02 -5.431771486561423057e-01
5.197785304034706622e-01 -2.949036101924131792e-01 -2.532223593690839936e-01
4.620558815814084230e-01 -3.514103387250339106e-01 -3.021365761798320837e-01
4.607243148484260753e-01 -3.548430093662489626e-01 -2.968187363198197537e-01
8.705404269296014297e-01 1.509729823088206413e-01 -2.663252491873597250e-01
6.995631328307284902e-02 -9.537828533818669685e-01 2.722546421614696274e-02
6.881120047472294443e-01 -1.382962605780732879e-01 -8.581011909298887075e-02
8.855167977582359962e-01 1.571691920570316425e-01 -2.280066329554721605e-01
2.320769049536949014e-01 -7.387527348651801162e-01 -5.921348503428089903e-03
6.701759166244171118e-01 -1.654963817136062831e-01 -7.181755734399294933e-02
6.430928771384364362e-01 -1.516536894036069338e-01 -2.169469838710323673e-01
4.813893163235276607e-01 -3.604238495037134227e-01 -2.011633853413487827e-01
7.095793613233583041e-01 -1.105856267817559579e-01 -8.788987015526937563e-02
1.722837081355978184e-01 -7.754231826026406482e-01 -1.227830723798522955e-01
4.232153834032313378e-01 -4.199027136419616335e-01 -2.427991257741879405e-01
1.652282974893524992e-01 -8.480227185992769146e-01 7.012910508328092096e-02
4.813665686957098178e-01 -3.888088056809954618e-01 -1.153119705424213437e-01
2.676209083163774705e-01 -6.567242049353225752e-01 -1.188044367854202699e-01
1.201578204250352139e-01 -9.311794252017698836e-01 1.501203813209170401e-01
3.084656434632096489e-01 -6.459319460630833509e-01 4.189198427736394795e-03
6.133588115135168994e-01 -1.778440288073334097e-01 -2.509763005282809045e-01
7.471270342967761824e-02 -9.146559965187799346e-01 -7.310711431264724225e-02
2.147961045822416037e-01 -7.386631514121035913e-01 -7.205347627980221437e-02
5.603218915907880460e-01 -2.646118815946156833e-01 -1.904137954327369542e-01
1.822660002526022283e-01 -8.455528801014254858e-01 1.275858453091689992e-01
1.387812079320098757e-01 -8.804132738227807842e-01 6.739890589923093478e-02
6.053162470899352554e-01 -1.663486684600564702e-01 -3.164315497179240322e-01
3.704821977397638189e-01 -5.808956255117333489e-01 4.364428899745500384e-02
2.447579368297235769e-01 -7.045091027085080837e-01 -6.126696638224654601e-02
4.118529842278293995e-01 -5.329264706721175138e-01 5.608628938914296536e-02
6.309751270197071493e-01 -1.366630205678048826e-01 -3.085160295619951420e-01
2.789454057247873764e-01 -6.591893607231974483e-01 -6.818081331286461599e-02
2.805438312983278837e-01 -7.031683352182068747e-01 7.106159641145387562e-02
3.505033297775574375e-01 -4.995077537948764412e-01 -2.789089390936822510e-01
2.322883518256809443e-01 -7.436056805625356203e-01 9.577268937859874723e-03
1.787272509883066074e-01 -7.973225042741158841e-01 -3.192307725887134212e-02
8.673879399415492797e-01 1.270938909329935029e-01 -2.060438821604084481e-01
3.573293723479802342e-01 -4.970841135008858824e-01 -2.602311973817494906e-01
7.637169854463757845e-01 1.021725249730814217e-02 -2.473015786430739771e-01
7.950207949857526213e-01 1.436849440900323793e-01 -5.320818473321178299e-01
6.309314340625333806e-01 -9.013485123982893643e-02 -4.495509395288791454e-01
3.409652073623045121e-01 -6.465003972889339368e-01 1.297731757885794146e-01
3.972410260389085401e-01 -5.542871449266386641e-01 6.506836466229733162e-02
2.147766353397847494e-01 -7.035235216815654002e-01 -1.785161950523072583e-01
3.312459115456319880e-01 -5.889936542056513069e-01 -8.137622984518046165e-02
2.661264932930074156e-01 -6.480894804586525559e-01 -1.506424152752327550e-01
6.857526901037046541e-01 -2.292900905970810151e-03 -5.065648806916452918e-01
6.313482039426822345e-02 -9.642045455242690410e-01 3.277991273179139270e-02
4.870761930323332933e-01 -3.918289660243248207e-01 -8.440752678061803904e-02
6.364707269572507098e-01 -8.386382692082791634e-02 -4.474255971012185973e-01
7.706209800186361036e-01 1.211951611743478097e-01 -5.569849504290246278e-01
7.414671775997687675e-01 -2.050968837968309214e-02 -2.390717683711025832e-01
4.026370068084856868e-01 -5.612477174796952628e-01 1.067074109625830158e-01
3.779972436871973929e-01 -5.715172884680994603e-01 4.389197790080890532e-02
5.911312109188402442e-01 -1.738048416050241296e-01 -3.479195596038700544e-01
5.462061191307365782e-01 -3.413181861618221902e-01 -1.197657315114301381e-02
5.276461300127874843e-01 -3.858909826441474511e-01 5.223556588234411907e-02
3.411736882829952133e-01 -5.177636104798437611e-01 -2.591949266180935685e-01
2.290961156006401933e-01 -7.252508768982214304e-01 -5.815992637533293902e-02
7.644091226069872347e-01 1.272926861384043595e-01 -5.991205235175912636e-01
5.512936545752200601e-01 -2.587747871913416153e-01 -2.424947285832396437e-01
8.455375222587981909e-01 1.373119049222816801e-01 -3.202565910445062669e-01
5.920829590135334719e-01 -2.194000608425575316e-01 -2.062484468289675910e-01
5.480801124106202682e-01 -2.976088975384236779e-01 -1.371683368058884134e-01
4.147699640289593259e-01 -4.145456863837009287e-01 -2.912053653633535633e-01
2.378884854303690566e-01 -7.816035084576578029e-01 1.459625811844146304e-01
4.481196850416440530e-02 -9.772628875961206774e-01 2.482873821975732295e-03
6.620651983075384051e-01 -1.948483528429659772e-01 -1.386343753383453142e-02
4.981291794163681952e-01 -3.685255616643272614e-01 -1.128354183051338694e-01
4.453814444273305195e-01 -5.079831604079254603e-01 1.083523701297008091e-01
3.366609825861234806e-01 -6.863436720108587741e-01 2.339980774341536562e-01
2.930960019983102072e-01 -6.143219240304845785e-01 -1.500901625887137436e-01
8.138568664819890719e-01 1.151411341562255247e-01 -3.738744082208968478e-01
7.643388909743286108e-01 2.312538048499035784e-02 -2.840119261846371645e-01
7.421747037037517147e-01 -4.812846620885552484e-02 -1.527567974848588472e-01
2.851768401847498136e-01 -6.379122157895981138e-01 -1.088500025442372399e-01
4.269951483646068913e-01 -4.644140280609479476e-01 -9.363144615943928828e-02
2.993834041615605623e-01 -6.872101364760059283e-01 9.454838440947088696e-02
7.737034530616705430e-01 -2.481275432944972381e-02 -1.031843452170089770e-01
4.955577511238953847e-01 -2.817679944721104834e-01 -3.853023464011934851e-01
6.687739761246815906e-01 -1.359555589216710769e-01 -1.665982641807361997e-01
6.813422972325172688e-01 -1.316208482681690273e-01 -1.318213888117722443e-01
5.040218801170932572e-01 -2.982914087268376258e-01 -3.030175188289505050e-01
4.518334643452321386e-01 -5.037500019069401924e-01 1.201261441023038362e-01
3.406548517022763289e-01 -6.209495119272957497e-01 5.123264618325222564e-02
7.278646208446225563e-01 -3.729068198998519018e-02 -2.401080554122572153e-01
6.459030454477974192e-01 -2.008584526707792584e-01 -5.726479333919450715e-02
2.988181981417790678e-01 -6.437016622850132430e-01 -3.933171617378793117e-02
3.639872627980918485e-01 -5.212198724250717285e-01 -1.617832536798320675e-01
7.852802618708107918e-01 7.021122708671770352e-02 -3.467565934060390931e-01
3.532172717661079542e-01 -6.447056665738030157e-01 1.710347547116710665e-01
6.413641232951313720e-01 -1.281885776452575121e-01 -2.945784640627659989e-01
4.013445665651143579e-01 -4.795276187949326085e-01 -1.456336069698715430e-01
7.649224656784262555e-01 4.920185052851674956e-02 -3.607367486851028038e-01
1.656874609951123900e-01 -7.983967515029233297e-01 -7.836818166950676456e-02
2.835814406932297138e-01 -7.119139767546052155e-01 1.091168375647496303e-01
4.965086354224995113e-01 -4.088723236821542040e-01 3.141931998513435281e-03
2.008365431021359171e-01 -7.921141209534924288e-01 3.657139724070126302e-02
6.508676710495351347e-01 -1.933715965113645963e-01 -6.101067818012159694e-02
6.327354790055338407e-01 -8.900228744541888171e-02 -4.461042729963524689e-01
8.391230962936629956e-01 9.614721693610231434e-02 -2.200734248278942706e-01
5.563130239754330297e-01 -2.239137443320149135e-01 -3.289098846501019580e-01
2.994506489316343112e-01 -7.484213849381690098e-01 2.801274515435500101e-01
6.540110437745370042e-01 -9.266950190590522718e-02 -3.539156127238148319e-01
4.848590066819779554e-01 -3.178206867607912267e-01 -3.169246992135233421e-01
7.763601696991632162e-01 1.208385309586557377e-01 -5.340319133865579770e-01
1.229551189658318333e-01 -9.121249218497031741e-01 1.030922052324563382e-01
7.152000217717525699e-01 1.930825297120991602e-02 -4.597341811663972488e-01
3.425684307943366869e-01 -5.252766234335378703e-01 -2.311329084478302986e-01
2.356014398456222625e-01 -7.574760137430897045e-01 6.419790281495932338e-02
4.966894779523314818e-01 -2.962860742872275854e-01 -3.370342430292839753e-01
3.246654309691276441e-01 -5.698733155548477702e-01 -1.643444934065612373e-01
2.487637840849294679e-01 -7.386890802248365917e-01 5.748327300741424423e-02
6.050260662812613210e-01 -2.080997074953248038e-01 -1.911323145989181349e-01
7.321601468539418178e-01 6.853192496108370668e-02 -5.441247123662050766e-01
7.775993150950931687e-01 5.471444816965852220e-02 -3.291124112984611938e-01
3.576448783747969151e-01 -4.916717596137475943e-01 -2.754151428459768458e-01
4.169615630916969629e-01 -5.014313776849564919e-01 -1.979814171226795122e-02
2.340333411274471420e-01 -8.365565426057235410e-01 2.976452371964495303e-01
5.759282086969050862e-01 -1.627076388209429403e-01 -4.394593422773079294e-01
8.062510885233227231e-01 1.132288914213579467e-01 -3.970721958081806502e-01
-1.917661928433626040e-01 -6.516456593715207468e-01 3.563013784077787016e-01
7.590398646239822009e-03 -7.725559691601182610e-01 3.781633570264091304e-01
8.776882134991711992e-02 -8.415757459935921947e-01 3.465778974300899873e-01
-2.981796770697847099e-01 -5.796213354664893069e-01 3.594517876021198766e-01
7.509879998642990384e-02 -8.311413953909899677e-01 3.506337947982990366e-01
1.643479282180944356e-02 -8.717594980643263991e-01 1.933166848743154420e-01
-6.131145081842886979e-02 -7.950872360132640315e-01 2.432429484191381275e-01
-6.856259019928079290e-01 -2.296663458819307169e-01 5.446175467697923489e-01
6.884277826032003667e-02 -8.686759921653633976e-01 2.681101088472990224e-01
-1.737743227282416703e-01 -7.209738476179911038e-01 2.426015069632167231e-01
-8.957728749568026894e-01 -2.422508559293264641e-01 2.442728321534257951e-01
-4.432601985285043455e-01 -4.768252736991908658e-01 3.728567543551773444e-01
-8.452020349100176910e-03 -8.510353236364301965e-01 2.017363114365074428e-01
-3.712893504529534150e-01 -5.645908974878627307e-01 2.933944882221106165e-01
-2.708783506029520116e-01 -6.567366824779146128e-01 2.425334051722983775e-01
-5.039387927868069772e-01 -4.740441427618764525e-01 2.988364960493977152e-01
-3.717933529439389484e-01 -6.126269544710615245e-01 1.976150598645323997e-01
-3.812671406335689239e-01 -5.611502574979729818e-01 2.871302758373406316e-01
-8.858166452479108999e-02 -7.879919561132445738e-01 2.215514814945986899e-01
-7.852589850003542649e-02 -8.870384750828436138e-01 3.860337660768393964e-02
-6.157462196350877992e-01 -3.021619927768086078e-01 4.926514611241274433e-01
-8.151897995118636553e-01 -2.982263964977209802e-01 2.390473407952136697e-01
-5.857378303422089427e-01 -4.382898290680022346e-01 2.624271328245189605e-01
-2.245839476038883620e-01 -7.211553487163930853e-01 1.756493670997734680e-01
-8.828874857255850639e-01 -2.054983491480879554e-01 3.339365219333549906e-01
-6.196931159397691541e-02 -9.023191138421782220e-01 3.004493333108123818e-02
-4.938947389671344279e-01 -4.903941161563467044e-01 2.796250671034488100e-01
-6.655471288443292055e-01 -3.416166847365550985e-01 3.492543485640779988e-01
-1.916998064080977643e-02 -7.570840419238673569e-01 3.737271605806147257e-01
-7.444747453520018654e-01 -3.807825155231719383e-01 1.682548204333507991e-01
-8.159453176271747044e-01 -3.100285305602786812e-01 2.146870726475259838e-01
-2.178594096474291975e-01 -6.041346044111084446e-01 4.161820443199767405e-01
-2.583054722408265058e-01 -6.610184824597278297e-01 2.505331964968074421e-01
-7.226006490775787050e-01 -1.926836799700936409e-01 5.693886784349855290e-01
-8.365833701960465607e-01 -1.878170716525555395e-01 4.296358752879513854e-01
-5.803944665468324660e-01 -3.075933260179259943e-01 5.282297284874054588e-01
-1.674543893084489699e-01 -7.059794895388410430e-01 2.805757781763585923e-01
-5.744434688627242380e-01 -5.187905767591630690e-01 1.178258837634563738e-01
-4.088636352951335873e-01 -5.164613884686025669e-01 3.394523298922211274e-01
-6.305300086131492288e-01 -4.387764880541227819e-01 2.027573932162692605e-01
-6.921762198834436886e-01 -3.064048262863072192e-01 3.840783577293276907e-01
-2.175743508078059330e-01 -7.223472112451195803e-01 1.824762983746061606e-01
1.482850690787342399e-02 -9.373868302176076028e-01 6.125910645017396822e-02
-5.269915922346722903e-01 -5.539428951845366544e-01 1.104107900932726205e-01
-8.020358826683027242e-01 -2.512693694086147733e-01 3.492695094078131501e-01
-5.333100868218023649e-01 -3.598113836758428108e-01 4.865401626745032293e-01
-9.179230816030745643e-01 -2.024518564543412447e-01 2.940502651247292043e-01
-7.602712536810379840e-01 -3.542563960669428136e-01 2.000772486771362491e-01
-3.603687126554040443e-01 -6.814003095248497566e-01 7.640662042240070617e-02
-6.646063316014137745e-02 -8.542556607869894458e-01 1.193315767281660777e-01
-3.098070570374911181e-01 -6.371234280887613233e-01 2.303494772659577805e-01
-1.427085977202591505e-01 -8.588841076247638595e-01 1.023348081573544413e-02
-5.137593132492811188e-02 -7.838332858282606175e-01 2.785493342333868472e-01
-4.692331642897723532e-01 -5.851181860470728857e-01 1.243789296077284084e-01
-3.726554177004036128e-01 -6.388086521867273326e-01 1.446413750042093715e-01
-2.592741300274654104e-01 -6.060044561563333598e-01 3.581999735141846442e-01
-6.998390290570266625e-01 -3.850599435613898391e-01 2.182858623954777866e-01
-5.818198691264141464e-01 -3.530299121041611254e-01 4.363900401480654279e-01
-2.823981064903800520e-01 -6.088460477301084195e-01 3.222661478488096365e-01
-5.791208473189557449e-01 -3.898536657996674037e-01 3.670107040845936308e-01
-8.475645366751997090e-01 -2.528643289628855206e-01 2.864399132981780283e-01
5.907011787111311751e-02 -7.958239585157277363e-01 3.995601048213788253e-01
-6.848050137879337917e-01 -4.009892006659930286e-01 2.064475221974171881e-01
-3.080629006847380169e-01 -5.076139934025971634e-01 4.890842550741626438e-01
-1.838741537537437742e-01 -6.587447109791696453e-01 3.525877136949850943e-01
-1.943792277376572009e-01 -5.972577972620558562e-01 4.605730790231698513e-01
-7.100091541469530920e-01 -2.168748943957369835e-01 5.379891310907963797e-01
1.760183248108121781e-02 -9.608271439538915715e-01 1.847844865003705692e-02
-2.001413327584765922e-01 -6.510511199117112735e-01 3.465019294990822618e-01
-7.556542362549096836e-01 -2.958795432458280472e-01 3.217237121790278986e-01
-3.062143050984481585e-01 -7.289651192753342501e-01 5.319741681432348102e-02
-2.409290358035711954e-01 -7.257705180065207040e-01 1.450882120603769199e-01
1.487135614056339095e-01 -8.688650324194631125e-01 3.724170141388826183e-01
-5.573624420994953421e-02 -9.334128344920019638e-01 -2.335621125551155808e-02
1.423098315744367875e-02 -7.580832561989850893e-01 4.155249454495468786e-01
-7.867312756384193806e-01 -1.645719343262793122e-01 5.410026329329719053e-01
-4.152990669644485155e-01 -4.266347988949655834e-01 5.088884675432814308e-01
-9.680154081241121311e-02 -7.135927290899046760e-01 3.581002901829132279e-01
-4.804780302691666338e-01 -5.718509276934466978e-01 1.359122798618874750e-01
-1.049370056641961285e-01 -8.311452292323557867e-01 1.146654472021721993e-01
-9.950775855179971874e-02 -7.143032727145219862e-01 3.531464466685543813e-01
-1.145645262205269299e-01 -8.741245035839991795e-01 1.694165702655592992e-02
-6.489342488513084595e-01 -2.481099778294425795e-01 5.561855546067950851e-01
-4.853673533579738741e-01 -4.172518713977737548e-01 4.356343590199329152e-01
-3.772546526920688703e-01 -5.787963199727329533e-01 2.574472233373177321e-01
-4.274343681004751927e-01 -5.201823830712425378e-01 3.077447779706043995e-01
-6.509774776973862309e-01 -2.432987178533401740e-01 5.630346760248310378e-01
-2.302345333086401880e-01 -6.908519720513510709e-01 2.282489269813228472e-01
-1.838940863376953561e-01 -7.975363707164585536e-01 7.773250963546249337e-02
-1.892698460531205273e-01 -7.299048387779882852e-01 2.046078203887987668e-01
-3.284406252208414007e-03 -9.244806281970096018e-01 6.307602398589710890e-02
-2.087065365330292577e-01 -6.089929553072869206e-01 4.185578055242090145e-01
-7.587733765688968735e-01 -2.830481671753409256e-01 3.430437868448244498e-01
-3.187951319560285990e-01 -6.682056833190362921e-01 1.570217140697154901e-01
-7.948704480500610181e-01 -2.976252870535054940e-01 2.668688309320929597e-01
-6.094261246587810987e-01 -2.700924138341033176e-01 5.644375379860314679e-01
-9.024259629264108629e-01 -2.472998828733196097e-01 2.255552207631211226e-01
-3.049139271915411384e-02 -8.675758676362105293e-01 1.400979458975186165e-01
-7.178040070307992737e-01 -2.777220239991457507e-01 4.072861611880266852e-01
-4.452716836382281662e-01 -5.680527692665007233e-01 1.895758022602327675e-01
-6.510115280159158857e-01 -4.142163231770454868e-01 2.245465983239620100e-01
-5.423471711373870630e-01 -3.847197937341569896e-01 4.253733401556087923e-01
-3.067985705302538890e-01 -6.709291939635870783e-01 1.673518210873618517e-01
-5.100597233853578771e-01 -3.543912331041614849e-01 5.277455831928081764e-01
1.509624564148491777e-01 -9.008374933141926055e-01 3.120540418392329651e-01
-2.521105460010844568e-01 -6.402836434671086430e-01 2.997106745767655345e-01
-4.006475401136750936e-01 -6.244719012104054112e-01 1.363429905287348032e-01
-4.537976271317695209e-02 -8.971318373214142161e-01 6.205934778044504968e-02
1.207942138715068781e-01 -8.796709606803335690e-01 3.144275941372713934e-01
-1.452771890135429178e-01 -6.735476276491781933e-01 3.738620672818317447e-01
-8.299734031937284762e-01 -1.433720934137701353e-01 5.263070838086036929e-01
-4.813974629184361587e-01 -5.021319994937732956e-01 2.727615665113805044e-01
-4.541804080238739938e-01 -5.802546659415147579e-01 1.537380858257186289e-01
-7.272612148454139502e-01 -2.676274937872089588e-01 4.148799787727683319e-01
5.026093695185038929e-02 -8.833956578526661607e-01 2.146089178184810708e-01
-4.952168176963021584e-01 -5.757440821989656676e-01 1.088860962290431056e-01
-2.168971395137319347e-01 -8.065556931933753892e-01 1.661797783792475988e-02
-6.777487962146474532e-01 -2.593741283698869915e-01 4.961155053199782783e-01
-5.092048601907088468e-02 -9.302446879707515492e-01 -1.077109962958892886e-02
-2.218164678834338432e-01 -6.928994767255538534e-01 2.352275382735732889e-01
-4.823403299926674048e-01 -3.660212123392742045e-01 5.410463493562956971e-01
3.311951497129538707e-02 -9.561552276707024900e-01 4.806754685235647279e-02
-1.449925240537238147e-01 -7.294195005630790263e-01 2.636001573653217744e-01
-6.772325249609593145e-01 -2.550953079049508854e-01 5.052648773688285244e-01
4.239153114878748546e-02 -9.685032363079536522e-01 3.576877322906396595e-02
-6.939124507142048204e-01 -3.663640296608187685e-01 2.630742461309160674e-01
-6.729320525398704289e-01 -3.596102374924692868e-01 3.039453945330004569e-01
9.060629291678261310e-02 -8.564702442537807103e-01 3.208033556642166384e-01
-3.907632232989333709e-01 -6.581894909097460999e-01 8.253162271939117056e-02
-7.758419756044865334e-01 -2.360277863416362643e-01 4.137807978879232129e-01
-7.857719342676079410e-01 -1.527958168266405070e-01 5.655785215963152757e-01
-6.812149077461109314e-01 -3.983805025558969093e-01 2.163184595390318654e-01
-8.897344723184621440e-01 -2.719241254335267866e-01 1.934292679134031745e-01
-6.270186832036681590e-01 -4.190180352566776345e-01 2.464842605852179125e-01
-4.142743635767224819e-01 -5.058219909933093783e-01 3.534285165208158608e-01
-1.186751480667006947e-01 -7.805308481961671374e-01 1.968841421032358208e-01
-3.957048704348423152e-01 -6.522614025836401819e-01 8.779347717469859758e-02
-8.566757890276700538e-01 -2.879529512799691715e-01 2.050174796181941095e-01
-3.060002869714087068e-02 -9.181559818790197003e-01 3.979906850920184730e-02
-5.657089986001131304e-02 -9.201260365340914182e-01 1.859789169276891696e-03
-3.004385505480183099e-02 -8.737247347230675532e-01 1.285087897652937849e-01
-1.320064315268638100e-01 -6.877421799950708126e-01 3.631477296554280199e-01
-2.921930585021165205e-01 -5.271584910880319219e-01 4.711826378743951271e-01
-6.413665900534814002e-01 -2.733330612045027919e-01 5.161583439076176116e-01
-8.132311814148334150e-01 -2.258879297308637180e-01 3.848557878530575738e-01
-4.797830303820115883e-01 -4.438911292707989342e-01 3.902034783398872220e-01
-6.033415770507049025e-01 -3.062452535523224051e-01 5.008238957088825272e-01
2.243621883782608711e-02 -8.321694241609318698e-01 2.795768539552868082e-01
-3.154032477921936417e-01 -6.142861572445637020e-01 2.682362778129546710e-01
-7.095387299222244426e-01 -3.419224715000778181e-01 2.909920264869289008e-01
-6.199791278369818498e-02 -8.994552832160652711e-01 3.567827788611722256e-02
-3.720262710440642995e-02 -8.642243351763710946e-01 1.379385405280077748e-01
-6.014043667450961195e-01 -2.824832100314121908e-01 5.504154093760752486e-01
-5.115431479563838923e-01 -5.393233893552602520e-01 1.596069174208267494e-01
-2.230040211388721882e-01 -6.853881327385616951e-01 2.485447222514765853e-01
-5.129981817528118659e-01 -5.328079083123210546e-01 1.706015691737448881e-01
-7.414583876367505377e-01 -3.175369103221418743e-01 2.974442946954869993e-01
-9.055827828895829379e-01 -2.484979936094001696e-01 2.190453446475172372e-01
9.448010150667290885e-02 -9.531840965994060610e-01 1.343720200433877465e-01
-5.446847652712393240e-01 -4.398889629929234601e-01 3.130660751339932046e-01
-6.926268987645380903e-01 -2.133991404938589131e-01 5.676534112794481279e-01
-8.619571627883543252e-01 -1.982472322703065781e-01 3.757268204078495488e-01
-6.643895302353820531e-01 -3.632372867808341121e-01 3.079593789560229888e-01
1.959928331445539434e-02 -8.658379407988123777e-01 2.091897732459333803e-01
-8.092805295761519302e-01 -1.698726907681522014e-01 5.009525281764504179e-01
-6.840807737645293596e-01 -2.268665931736866259e-01 5.521865878067184763e-01
-3.729338725018886413e-01 -4.618251956693071314e-01 4.947312024777235639e-01
1.918615472321412788e-02 -8.912408352196689032e-01 1.583466303507088668e-01
-6.899534695612521418e-01 -3.854754028758300977e-01 2.304195226596729984e-01
-1.734378704667525750e-01 -8.168851597465714987e-01 5.312315209825014400e-02
-2.978848293210137332e-01 -6.554076991072983471e-01 2.097694336020977379e-01
8.582365254089337203e-02 -8.620166449694010025e-01 3.035523360003951066e-01
-2.699151761614079770e-01 -6.689494067875848549e-01 2.196126785668292281e-01
1.205392193217865449e-01 -9.167231147174024208e-01 2.407243603811518029e-01
2.493001168780735119e-02 -9.431240557419722226e-01 6.313786652865252536e-02
-5.226444322626919159e-02 -7.387589770135388756e-01 3.666389659738452100e-01
-6.784243009795569712e-01 -3.275136461304398172e-01 3.603033204527468780e-01
-2.493075048911403968e-01 -5.494862319898066172e-01 4.831774321826212693e-01
-5.577197049956552632e-01 -4.113693420191479322e-01 3.524553477614399410e-01
-1.911377425228982796e-01 -7.239475641394258476e-01 2.139560254270085060e-01
-3.021389184472367262e-01 -6.924491764353964962e-01 1.308459985582230978e-01
1.060980394690417689e-01 -8.615123095815045984e-01 3.311232664758112509e-01
-3.799768266660100702e-01 -6.380615458906255810e-01 1.365250860676226197e-01
-5.506156253958012226e-01 -5.214200911005155703e-01 1.438485793959528303e-01
3.117727421403801782e-02 -8.931343269048943601e-01 1.703131716677210861e-01
-6.946118373011574976e-01 -3.816033175080528195e-01 2.319814465286305916e-01
-3.686719163456858572e-01 -5.962381200384735402e-01 2.341585577193413259e-01
-7.454997573699506663e-01 -3.382892952804199549e-01 2.510545937579214959e-01
-2.580283454638623297e-01 -5.620364156457323679e-01 4.468962999471271513e-01
8.432815040549104801e-02 -8.958608795846061401e-01 2.345754323878986025e-01
-6.446505694330499914e-01 -4.623555768950324829e-01 1.375602646295631393e-01
-6.473141009938100376e-01 -3.065990128453766062e-01 4.424915836701225347e-01
-4.801218940311146981e-03 -9.564786983369327755e-01 -2.273117035854171041e-03
-5.188538177794244088e-01 -5.517575672415283572e-01 1.254037100999953191e-01
7.613177361314804603e-02 7.895118272077967791e-01 -2.133490945442269304e-01
1.424776235797193813e-01 6.416204882524965125e-01 -4.192419358337092783e-01
3.131193496957963562e-01 6.979833997692287406e-01 -8.398603077470651046e-02
-7.637343411164537743e-03 8.420951632368481876e-01 -2.190164251899879566e-01
1.410272124243512615e-01 8.236575732719157994e-01 -6.068114161480393093e-02
6.868331575355758611e-02 7.192511623202441085e-01 -3.622383323524489551e-01
1.275986106265705744e-01 7.535001787506528936e-01 -2.172036582982184716e-01
6.113646901173699355e-01 4.012091471492812422e-01 -2.807552241134242399e-01
-5.916194141416451779e-02 8.638134575356993805e-01 -2.435406298817353044e-01
-2.086068811793561351e-01 9.082166886589466692e-01 -3.514827006210979876e-01
4.364694519537455353e-01 4.600454402007565502e-01 -3.934735718074963140e-01
-1.038416340461376375e-01 9.434649613512096078e-01 -1.443769117633338928e-01
2.073052521922557900e-01 6.202659993522890991e-01 -3.765619572154219052e-01
2.439913097399952768e-01 7.012004880823993203e-01 -1.682171427521624019e-01
3.974086439527374504e-01 4.242720747266272574e-01 -5.155047607966705137e-01
3.986726048257417387e-01 6.408506375777609509e-01 -8.498892257237919412e-02
1.669086494939455712e-01 7.858395949580233575e-01 -1.016455730751336245e-01
1.310394988902670033e-01 7.391119758538047257e-01 -2.411847990142250708e-01
-6.927146781288284760e-02 9.168305493335281442e-01 -1.518084122339265485e-01
3.607573671022324402e-01 6.737546326785599504e-01 -6.952683116283335518e-02
1.843724641499251138e-01 7.574072153388773376e-01 -1.350574673660517588e-01
8.108259194536806547e-01 2.390874906922142162e-01 -3.403609818940132592e-01
-9.362901782878836621e-02 8.651930005665718904e-01 -2.859825863550173874e-01
5.577645020993905467e-01 3.339492571661042963e-01 -4.841904125672000792e-01
5.943988367365742320e-01 4.587972361298877644e-01 -1.889578450120303343e-01
-2.758396259970964659e-02 9.635058898306031461e-01 -4.746982135652461771e-03
5.760156134222745861e-01 3.627453933745719561e-01 -4.032490852877683163e-01
-8.144016817997615232e-02 8.555251754768070649e-01 -2.891512831785911231e-01
3.185370317566078580e-01 5.702889824879796565e-01 -3.297402544298748128e-01
2.168207666757043517e-01 7.871955133032288998e-01 -3.354420698744491752e-02
7.801645091058698744e-01 1.582546844665458641e-01 -5.406083514953072822e-01
4.360409562926139682e-01 5.355244005955820397e-01 -2.445750873420702853e-01
4.563646431136541004e-01 5.317795695673731560e-01 -2.253535534286983943e-01
-1.457805302578730200e-01 9.089579573543505875e-01 -2.676726235986689462e-01
3.836201442960729957e-01 5.477430510060831148e-01 -2.890846719838396361e-01
8.502104774303852475e-01 2.025858204461803980e-01 -3.610212911280248349e-01
-6.186499493656028026e-02 7.966964427721969777e-01 -3.799854707802099996e-01
8.114016056918035846e-02 9.037210318255878283e-01 1.936705360382734095e-02
-5.696915215327609788e-04 8.246748060570655570e-01 -2.442483493012945484e-01
5.605210628541998918e-01 4.724334458517971402e-01 -2.063573355409259180e-01
2.053105045818426344e-01 7.443289776207079322e-01 -1.335123390756251527e-01
1.973661835280761390e-01 8.053502391532610938e-01 -2.309283181897724482e-02
5.141046902727968160e-01 4.884311785299174646e-01 -2.355141366292993199e-01
-1.214826759210460155e-01 9.550003277685130687e-01 -1.446560122151782368e-01
-5.914704889183778702e-04 9.486965417101572706e-01 1.305438626874730204e-03
9.446113414766520167e-02 7.546244051991978230e-01 -2.584085646023190908e-01
