-4.752031463099506414e-01 -1.349559905477155375e-01 -6.926037274077349870e-02
-4.928991021360247526e-02 -5.448075995816064054e-01 -5.404076961644646016e-01
-4.412111146646338633e-01 -8.397713212902119251e-02 -1.524929509959366825e-01
-2.230035768209852054e-01 8.461360492774841133e-03 -5.587645321638197160e-01
-5.849720740773909355e-01 -1.434614567831078713e-01 1.143972298463575704e-01
-4.826496615931027967e-01 -4.994176284987629499e-02 -1.034689707120435981e-01
-6.547979890755831756e-01 -4.076178633169484922e-01 3.723031049112953128e-01
-7.101634002890672842e-03 -4.860556994633977168e-01 -6.412455341473523029e-01
-7.326230654929710706e-01 -4.271698454885417551e-01 5.098870547121407970e-01
-1.208807950523248242e-01 2.183056482413911759e-01 -8.397297387941610181e-01
-7.665360080046087488e-01 2.124853188831873907e-01 2.164307868699538728e-01
-2.552300105701436062e-01 -6.181462670903111745e-01 -1.645567993121468953e-01
2.927860175688042424e-02 -8.581113504674746650e-01 -4.977185321472715196e-01
-3.144301005459033682e-01 -2.689472019792580326e-01 -2.584050486439932182e-01
-1.823541579266163282e-01 -2.588814512822519842e-01 -4.792934725423644848e-01
-7.126962150578288746e-01 2.090521578358247590e-01 1.304963609319403361e-01
-4.439415805989622710e-01 -3.691995969501876140e-01 7.474219750662855488e-03
-2.484777864056140206e-01 -6.357248423767646317e-01 -1.659843700377594544e-01
-5.150068451810351222e-01 2.532686915138493977e-01 -2.160200814484473097e-01
-4.187192468923426891e-01 1.144576763552860449e-01 -2.973687023364462445e-01
-6.664373389411246684e-01 1.791566926911679625e-01 7.135376281692715206e-02
-6.908942296232375435e-01 -2.618114530975932386e-01 3.516726068504625879e-01
-4.313194230057535994e-01 -2.059688493335598003e-01 -1.021106160060730600e-01
-4.005612480916179163e-01 -1.983601743395501382e-01 -1.564220887584139019e-01
-2.902398854537932005e-01 -2.448184877320235819e-01 -3.110123099653023804e-01
-1.759264613297898891e-02 -2.550080813079109721e-01 -7.501118616206052803e-01
-7.534535963968322925e-01 -3.703063668048481860e-01 5.128550544997294569e-01
-1.955520590830301941e-01 2.285881291658829473e-01 -7.235561636083888137e-01
-3.969559517231227019e-01 -1.146756633437962386e-01 -2.079298685358037246e-01
-3.471361390077996600e-01 -3.532931256933806718e-01 -1.590767832950224780e-01
-3.461237729474428981e-01 -2.653104554295958040e-01 -2.086993207646552495e-01
-5.754174973110176561e-01 -2.567290826766839840e-01 1.605726537969735801e-01
-7.229886174750451699e-01 3.480499370912412127e-01 7.149518767980080070e-02
-3.971494994210962304e-01 -5.518256262915866017e-01 3.073652324662601992e-02
-1.961080302705889844e-01 -5.723785427165728468e-01 -2.859320348675203904e-01
-1.532657013036759219e-01 -2.115787299797212695e-01 -5.525245322524484637e-01
-1.433454854222387248e-02 -5.276807407953307966e-02 -8.656943540694181927e-01
-1.307898441066231709e-01 -6.679100341871802016e-02 -6.681237486463322828e-01
-3.905276459098178110e-01 8.292902774076051087e-02 -3.261552443759367925e-01
-6.392902624266852962e-01 -4.085501487398153775e-01 3.475201597225653360e-01
-4.794866378702249410e-01 -5.160408605943938437e-02 -1.077211255333750811e-01
-7.848278725494628461e-01 6.026587058555746834e-01 3.352532040037616706e-02
-6.015228078899674813e-01 -1.468146357299229821e-01 1.432177936901360416e-01
-1.757236732043306604e-01 2.529139955582189736e-01 -7.691572937317436853e-01
-3.812263921848013659e-01 1.477009421714952329e-02 -3.041616503952939143e-01
-3.771204933356575029e-01 -3.271874769857338605e-01 -1.244096480017481549e-01
-1.990333529615132824e-01 -5.018766414170184875e-01 -3.196014909059405329e-01
7.197892504535624569e-01 1.802029436625995629e-01 -3.283900987344615663e-01
7.468029990446430899e-01 4.043590853332366675e-01 -4.946647476007006716e-01
6.725526755889058572e-01 -2.542456680081275344e-01 -1.447498929364840828e-02
4.822174612124734971e-01 -9.553332351913648712e-02 2.094031775221674996e-01
4.628901877490639860e-01 4.947325570465282985e-01 -8.091167572046817358e-02
2.396058678885011617e-01 2.907101110579536907e-01 3.944793378122740668e-01
5.762307777592790003e-01 2.700782832992239535e-01 -1.432667030560613175e-01
8.785301067612757975e-02 -1.821619733458043067e-01 8.997980400213924090e-01
1.070004938055987426e-01 -2.993145590719900259e-02 7.855689150529895359e-01
1.675610871563734672e-02 5.698700362340889392e-01 6.057122812554908142e-01
6.231146698840364095e-01 8.603367919274514108e-02 -1.193806715628785015e-01
1.725295421382048722e-01 7.639960441536071123e-01 2.458194283643833078e-01
3.773011335511765318e-02 6.801493773739598625e-01 5.113776886667060761e-01
6.557253152272187746e-01 -4.455507530790528969e-01 1.172752268179050039e-01
6.490720695375059579e-01 -3.711305612890192784e-01 8.754917039080568897e-02
1.805674908151090607e-01 6.351476225517106444e-01 3.029635335310731370e-01
1.730839752444881807e-01 6.930606329645686570e-01 2.835918901005187731e-01
2.140703729173834002e-01 3.133712824114818218e-01 4.237689709245870406e-01
5.439902050823081092e-01 5.190532753362473439e-01 -2.264367614476816004e-01
2.866703402951543689e-01 -1.735890023748138666e-01 5.708762512542379097e-01
4.748546823206460377e-01 5.386936875611038067e-01 -1.243936226323026223e-01
3.713066801984793441e-01 -2.084931172813815903e-01 4.518754680366272036e-01
2.209971084780573414e-01 2.933165665816242496e-01 4.234068785437010707e-01
6.898029592952206190e-01 -2.879603152834289137e-01 -2.422565139873610746e-02
5.672914747861851348e-01 -3.077083374341962330e-01 1.863434174981576097e-01
1.022666415533305256e-01 1.678387419550608217e-01 6.854574543329562397e-01
1.612654446967100030e-01 9.797290866946083143e-02 6.273309070758903427e-01
5.182597015117527128e-01 1.115757891186217182e-01 3.769881641319801358e-02
2.672288684781284548e-02 -7.357116011914902054e-02 9.402861908020397896e-01
6.168123346762313108e-01 -1.878446418387948180e-01 4.022653684127486251e-02
4.837023709068594690e-01 7.640588395567458890e-02 1.132336893527361998e-01
5.255550134823553377e-01 -1.290500526972965245e-01 1.569993625440935792e-01
4.620421137223107433e-01 2.652984580654872970e-01 4.556760432792127807e-02
7.398042203084859159e-02 2.476965808606488018e-01 6.880474005850243380e-01
1.633906987344647399e-01 3.747342698707919473e-01 4.729640797150016507e-01
5.524159379623556632e-01 3.095504962416764094e-01 -1.259492718426963864e-01
5.493116591717938091e-01 -2.123328790249328912e-01 1.636640469253259345e-01
6.557873233066250362e-01 -2.511650105694500645e-01 1.118762021834724535e-02
4.655322131075627090e-01 6.873045534499684639e-02 1.470519960498471723e-01
2.328662575436248050e-01 5.683790814221031384e-01 2.540751897273130777e-01
7.966303559364966702e-01 -4.455570611472280951e-01 -1.125207402964724657e-01
5.953244468772240783e-01 4.819998765518017092e-01 -2.899539020370298648e-01
6.066763119722885511e-01 3.957634959140245989e-01 -2.614481022039378266e-01
1.221084817693545987e-01 5.562870836448779999e-02 7.142789324934264439e-01
3.044203089116900851e-01 4.673194809471154509e-01 1.924805468606221315e-01
1.503123612402935683e-01 -5.003281070627319665e-02 7.258924181128134645e-01
1.545054839485310028e-01 -1.534949667963612374e-01 7.754654236254840960e-01
4.208800892324086051e-01 2.019315423540041579e-02 2.463386905371162672e-01
5.245684743468936873e-01 -4.487398021359941813e-01 3.329152662797224549e-01
1.932931181773790696e-01 5.778444308275511032e-01 3.134534181997691293e-01
7.691996246942346682e-02 3.062147000867271318e-01 6.513470609669135269e-01
5.551213003287949199e-01 -2.812534185557796773e-01 1.917673032898578322e-01
1.702648686743487849e-01 -6.104370846862514771e-02 6.993558043991242590e-01
6.879725695386004203e-01 1.478754801537779662e-01 -2.588747073168717328e-01
4.244432611500074115e-01 6.286707924891090649e-01 -9.123750470036108562e-02
5.475837385823604242e-01 -4.445996224297885796e-02 7.495139972362116487e-02
5.721103687669614191e-01 3.853376757302615641e-01 -1.993905966698478194e-01
6.620662102520441517e-01 -6.446347865205245831e-02 -1.008492552994610103e-01
1.672144762096205162e-01 5.281321602782327318e-01 3.830896048770718876e-01
3.565593697506134196e-01 3.619475313443988873e-01 1.649007067280692518e-01
6.368168897356082936e-02 3.349437608641363529e-01 6.572729411781470521e-01
1.279376098244798532e-01 1.002667865183712731e-01 6.804339430352551732e-01
6.687786781221150001e-02 5.360331238873067283e-01 5.424188057270575847e-01
2.915841541623300226e-01 5.483805916548489812e-01 1.692172008144099959e-01
6.253200734466975164e-02 3.916812183744587395e-01 6.282125219653558190e-01
5.826151417798154375e-01 4.547527680501741720e-01 -2.543703761814669062e-01
5.670862606989214294e-01 -5.931887052317373621e-02 5.124673995097573515e-02
6.492117971655626540e-01 3.705828641294090509e-01 -3.170889973658124750e-01
4.524161026418055398e-01 -3.755888962826179900e-01 4.107025773682854153e-01
6.387480603715350869e-01 4.611724021298679310e-01 -3.494167355885146042e-01
6.502661647406283718e-01 -5.070025959247623781e-01 1.596843289122721055e-01
4.137541227264260879e-01 -1.777143020849075439e-01 3.658669472956076474e-01
5.087551030300483390e-01 1.943472217212947190e-02 1.034384931456183709e-01
1.291711010286210881e-01 7.415888018546389071e-02 6.926572858636381724e-01
1.068241719106309551e-01 7.869779359501281046e-01 3.404464939130332213e-01
2.013820149521983530e-02 1.671269735693852940e-02 9.017988484461315624e-01
2.435423288940095354e-01 3.489171280106263540e-01 3.563227637671927406e-01
4.192287175781534980e-01 2.481541513300300206e-01 1.247389009122498033e-01
5.814549462525105128e-02 7.990339907177824719e-01 4.132622237712038071e-01
7.759072797982309311e-01 -5.196396599823804863e-02 -2.933257436483298064e-01
4.964952633349282163e-01 5.415594771283814834e-01 -1.612493803044008633e-01
2.699307594760533835e-01 2.516815265384353961e-01 3.663029013438731107e-01
7.808890752011313219e-02 6.533762058697784036e-02 7.807759691161293425e-01
6.934394596119679566e-01 -5.356101070110040885e-01 1.048717063833228824e-01
2.592521771645318607e-01 2.887352086323115574e-01 3.635153296292906178e-01
1.128322642139384657e-01 2.834380437885799520e-01 6.051970537291636587e-01
2.129328333876377710e-02 -1.668492827274552504e-01 1.000000000000000000e+00
7.125363399985484847e-01 -3.209028694428536777e-02 -2.008111417410305966e-01
5.793008984320432431e-01 -1.014766218995382385e-01 5.431211962931249693e-02
6.696590830662342286e-01 1.946849014435653169e-02 -1.589952226104486555e-01
2.530725810135959764e-01 -2.935444003725680151e-01 6.910744433267198561e-01
2.354270109090110530e-01 1.698767134381049537e-01 4.671775087439493102e-01
6.522703350534838629e-01 -2.177275166628810654e-01 -1.307978918672308370e-03
4.918896838485955492e-01 -3.699078006108746930e-01 3.432283001679592993e-01
5.342287819354516465e-01 -3.602592796531420838e-01 2.689175141305512051e-01
1.055009604516489868e-01 -1.723675092105123874e-01 8.656760141328850855e-01
3.573000799113761339e-01 -5.944904088765337602e-02 3.934540887133776699e-01
3.587713650863370574e-01 5.245064702837716197e-01 7.265990627479702868e-02
3.155035079192816672e-01 3.400137552897931625e-01 2.438170736465090083e-01
7.873304358465558206e-01 -2.724431716885348242e-01 -1.917419316066521495e-01
6.331400313227517618e-01 -4.548923214060427433e-01 1.592025230081351994e-01
4.286562325478121549e-01 -3.137719095838921723e-01 4.157471414530329312e-01
2.755116923490971703e-01 1.480192701998107319e-01 4.137216553511446349e-01
1.466801768622668090e-01 -1.847535930748354926e-01 8.052709597162850397e-01
4.545486208621732360e-01 8.112936857573183752e-03 1.980159020335873488e-01
5.014107358417994043e-01 5.113955490281056893e-01 -1.528194153153734358e-01
6.070038547086659131e-01 -1.600366866491584328e-01 4.106105236652243112e-02
4.811935261180668721e-01 -2.869154648083588333e-01 3.154218956793267692e-01
7.161721858224836534e-01 -1.279890737400348755e-01 -1.544531195126000456e-01
5.582462383529033234e-01 -2.176695618195826840e-02 4.518903991574085149e-02
3.847131054034315101e-01 5.701293435493132167e-01 5.476684436775737866e-03
4.690941092012910762e-01 -4.097473062892280082e-01 4.021271876737443907e-01
3.428928598653082083e-01 2.785283216052106270e-01 2.326724799317400616e-01
6.838634553467406452e-01 2.804621222418224868e-01 -3.244644950488044244e-01
5.309882706621721349e-01 -2.188761642669497798e-01 1.971149672335121839e-01
7.680608387615184274e-01 -5.093594214034744688e-02 -2.810896466973602514e-01
4.072730058740527403e-01 4.779963420272914099e-01 1.891856945930530873e-02
4.648654562495945775e-01 1.772401314206816236e-01 8.897580683085171138e-02
7.237390248875456011e-01 4.366813329284685574e-01 -4.746734569089183231e-01
3.215656926297943419e-01 5.552323454425805993e-01 1.165850321254004590e-01
1.058816290575750885e-01 1.975078476117921311e-01 6.633851169551329141e-01
6.928920973647630932e-01 9.109918574345828024e-02 -2.359412847024388304e-01
6.487120787290922008e-01 -1.427766945180133640e-01 -3.637091565025991208e-02
4.784221140543482020e-01 5.650659469107680716e-02 1.326950090833629581e-01
1.059791252937768435e-01 4.806119272239240958e-01 5.088670314041405796e-01
2.898412689452377622e-01 -3.109258253840640474e-01 6.405860870983631772e-01
7.093069331532273480e-01 6.070890852390213588e-02 -2.461420029877767479e-01
7.625365917768497370e-01 1.267827888808055192e-01 -3.689792472080539176e-01
3.928896667024858180e-01 2.318652778430281003e-01 1.765760799868400788e-01
5.326232473468153206e-01 6.215547107236358421e-02 4.121940866872626785e-02
6.575253329825174742e-01 -2.743313316586197259e-01 2.098428943516953207e-02
2.121352034304861411e-01 -1.706281017900710129e-01 6.908198224480419647e-01
1.397077963903194109e-01 2.475688418840260030e-01 5.809234980601849507e-01
1.671667284985453306e-01 1.666698100667098753e-02 6.620376884756993263e-01
1.605309320376429039e-01 -4.109972611274236021e-02 7.043564848198234918e-01
4.255249718480204613e-01 4.972660684940884424e-01 -2.135480756406417727e-02
5.587666484528308608e-01 6.537621281215802438e-02 -3.173447810990824656e-03
7.125822118078525280e-01 -4.307493852695669090e-01 1.647810609129383638e-02
4.968743580437523510e-02 7.848425541992364307e-01 4.347940237609283498e-01
2.455332799571283420e-01 -9.958503249366905397e-02 5.976161458398405735e-01
5.424962308853917975e-02 8.029901875578475678e-01 4.174588595455842599e-01
6.775901460823500200e-01 -1.148759207379184688e-01 -9.868017782261627457e-02
7.297993636452938526e-01 -1.875119110473155160e-01 -1.442233217478365304e-01
5.439357680538245976e-01 5.586345272143026230e-01 -2.479291807307424655e-01
1.617731319484933261e-01 5.115267639772349550e-01 4.010176836994799876e-01
6.162516861218069186e-01 -1.453751584559413168e-01 1.798491515674878125e-02
6.828463101104038646e-01 4.298357015057670538e-01 -4.042497921445746822e-01
5.129379819581066924e-01 2.162711212880567488e-02 9.542133965923971228e-02
5.179041466141877104e-01 -3.719897315724947640e-01 3.019369450836011382e-01
-1.602830928726817900e-02 4.951083816092074485e-01 6.999426673530075860e-01
1.398473901601600400e-01 1.858426708427672602e-01 6.143512865602481776e-01
3.268505894363005204e-01 -2.830977889883548593e-01 5.650553748100238804e-01
3.004256818061102341e-01 6.003863179901961500e-01 1.264422237714288300e-01
3.275915577042881055e-01 3.572000897414269738e-01 2.147322570697746402e-01
5.897509622412679120e-02 3.538823730779931953e-01 6.546227860177169511e-01
5.046339645186878053e-01 -4.346393457836522090e-01 3.577379835203400305e-01
3.339489209285644300e-01 -8.598635127602971898e-03 4.038114892879177686e-01
5.785818602993063331e-02 -2.033786950263599125e-01 9.602842021697126640e-01
5.010202149756015633e-01 -5.042225768526930468e-02 1.541418527119050030e-01
5.183560446577467618e-02 3.801123916835598138e-01 6.519648492508423043e-01
3.146086946358352954e-01 4.017795181274609884e-01 2.115993716361961041e-01
3.351784552728275801e-01 -5.735225327236428278e-02 4.283885861901037262e-01
4.396832169112554478e-01 1.738497856398861421e-03 2.257351983566363851e-01
4.894704435972485612e-01 2.453579180927417114e-01 1.170759061824107328e-02
2.465799168799094887e-01 4.195228143463587966e-01 3.128719202284581113e-01
4.411725897500167193e-01 4.677425689559721600e-01 -3.077688455186459657e-02
3.579034686109334173e-01 -3.512895606757485654e-03 3.619715255699176848e-01
4.852733544380716801e-01 3.146483623940161262e-02 1.351751651484403849e-01
4.108187832380500448e-01 4.717261190136844973e-01 1.655459057849733087e-02
6.826652547067696419e-01 3.824074097171596964e-01 -3.780948088865917489e-01
3.861169839784243107e-01 -5.111613550475684747e-02 3.419137205550318304e-01
6.033813037890360942e-01 -3.765734044217513010e-01 1.650330337441842932e-01
4.628159550929147881e-01 -2.424792096431477584e-01 3.211652024447248510e-01
4.053331377735149843e-01 1.078228921420034264e-01 2.239148676954008932e-01
2.691663021090595631e-01 2.203460223696124543e-01 3.846349458784101838e-01
2.761642444921803552e-01 -2.708367829744608157e-02 5.081301884088376131e-01
1.401733885074545327e-01 4.951569082896536966e-01 4.451697691162988524e-01
5.075392874828811296e-01 5.978364802250072524e-02 8.342157949452881638e-02
2.563157463729935359e-01 5.221713815305124157e-02 4.972629217455247219e-01
2.954131690156934220e-01 1.744147744859569915e-01 3.668728777536686136e-01
2.389796980816251137e-01 3.145316288277721917e-01 3.825121515830530727e-01
6.114441748857138981e-01 2.541101989644772852e-02 -6.729370570910053750e-02
5.173021605644408938e-01 -1.374487915904902824e-01 1.750380976187830007e-01
4.852557634691101462e-01 3.364742188046866422e-01 -3.109882873857375274e-02
5.653377336139469023e-01 -4.367719575314153446e-01 2.599001179238107362e-01
3.206417367288708631e-01 6.197154120948648037e-01 8.293328117531484356e-02
4.239426168075458579e-01 2.606188739006099486e-01 1.102548509936770726e-01
5.351354854549982276e-01 -3.940589986520039445e-01 2.858676768800776924e-01
5.239800744525932030e-01 -2.462394568436696574e-01 2.234640087519889906e-01
7.594182158347388689e-02 2.239858742516384268e-02 8.076896008969951524e-01
2.153284328741477405e-01 1.874175073476787579e-01 4.903919992580855758e-01
1.877158536811537881e-01 7.476431790400276389e-01 2.299685579490539644e-01
-2.427618820553108236e-02 7.399375710556529429e-01 5.799038203777533429e-01
3.152108586413860380e-01 5.862010430417357032e-01 1.100637041170744734e-01
4.807117294920303929e-01 2.209516247498038433e-01 3.929925104435907923e-02
2.544069053571452743e-01 6.444581820933671379e-01 1.774637374666983292e-01
6.777464237606595221e-01 -4.293691260718187075e-01 7.253857433486822492e-02
8.006479986555860018e-01 -5.274465944467829903e-01 -7.442375981189425227e-02
6.112635497148265484e-01 4.454597121403571780e-01 -2.960256045856505813e-01
-2.901011120079113968e-03 7.360177341107505544e-01 5.471806859452063021e-01
5.565388195476153044e-01 4.262640968859010004e-01 -1.963098839945572049e-01
2.268501230467857011e-01 4.872372709647918021e-01 3.081283837420117910e-01
7.283238169832539910e-01 3.826239207905737794e-01 -4.526765577530865725e-01
3.016055700705614906e-01 -2.054477267317526279e-01 5.638892479269499436e-01
1.369929100326940374e-01 1.633665433434167702e-01 6.312614421411195664e-01
2.071027797237651180e-01 1.866498834528610706e-01 5.042256014359792760e-01
3.499393950162071887e-01 6.162770353280095925e-01 3.702700936001990240e-02
3.438952002087343751e-01 5.991120835647254506e-01 5.624335676910929838e-02
3.203379217164199488e-01 4.607956516262452507e-01 1.700778477636515629e-01
7.513720361324114361e-01 -1.086423057897934197e-01 -2.224084913807798103e-01
1.486230087717140269e-01 1.063279388404333725e-01 6.433937410497715392e-01
1.349590104080518882e-01 -2.270180212776242712e-01 8.474309608867394150e-01
4.854529585555754090e-01 -2.211000219773956998e-01 2.725901912074081279e-01
9.579780544729342429e-02 7.976811716119367457e-01 3.525933796135899412e-01
7.082567156924109153e-02 6.223594074822378364e-01 4.889120424202683668e-01
7.378911412182985463e-02 3.311071365400725663e-01 6.428808028394830121e-01
2.558901857303676891e-02 7.673319612934366152e-01 4.836431229172626911e-01
2.083015253614791673e-01 2.337041165634055062e-01 4.766148371071180501e-01
3.747202271428250464e-01 -4.756580263983039257e-03 3.352234913363545399e-01
1.750498556525157123e-01 2.465514479655280533e-01 5.238395136097561133e-01
2.560056622946722538e-01 3.485362763975351497e-01 3.362042001987836093e-01
3.146140132590247163e-01 7.956125104131406278e-02 3.872763167406501617e-01
1.899880958745479298e-01 5.017589399167927677e-01 3.603282126575501620e-01
4.557131258787266437e-01 2.295074887927765483e-01 7.540402652185601573e-02
6.904254532079470152e-01 3.381174490334990512e-01 -3.666022058524822658e-01
7.222393534005953075e-01 -4.902066448785303843e-01 3.314680655295650091e-02
7.167136630749499915e-01 2.621330388113051191e-01 -3.680455755863226153e-01
4.121358855373224994e-01 -1.003141850567271093e-01 3.263046210310586726e-01
3.058652357754544915e-01 2.149541241910071787e-01 3.277232058572252527e-01
6.539774362388933726e-01 -4.593427975442299083e-01 1.276457558027669914e-01
2.123235235150967293e-01 6.741150051085211814e-01 2.299267164778306949e-01
5.416804307495957094e-01 -3.623725889208350148e-01 2.579170152265121141e-01
6.168108508906095661e-02 7.772531970741980434e-01 4.193718098526377225e-01
2.680257628383971857e-01 1.854132753876028272e-01 4.055416885900544610e-01
5.179880733328662279e-01 -2.598448379657903873e-01 2.406544215397275199e-01
4.605874624975734299e-01 -2.540466615936217143e-01 3.311066230044191760e-01
7.183749641828764132e-02 -9.525868346727031644e-02 8.785344745364213059e-01
3.599527950741118754e-01 -2.369673667412807230e-02 3.696343128200503814e-01
6.747024380250824516e-01 1.378698040162005534e-01 -2.317772229005219120e-01
2.887230592574878130e-01 6.635828304536768307e-01 1.110706776380969985e-01
4.274170767771411916e-01 5.060902073209391228e-01 -2.925186139070904551e-02
6.737692762991231987e-01 4.332182905458756839e-01 -3.912905425903655532e-01
5.442786142055733301e-01 4.907576180734296578e-01 -2.114792570797967564e-01
5.680871711711908689e-02 4.924776518266154590e-01 5.825884912384187153e-01
4.133365096133340133e-01 -2.789147956408235540e-01 4.217263717977325910e-01
5.136477611297288748e-01 -3.356494542729187014e-01 2.890645075275689035e-01
8.237005137991439824e-03 5.324607643006642466e-01 6.400028823925973942e-01
6.157812363878455847e-02 9.154902102041269016e-03 8.383360478455774700e-01
4.129692919987920652e-01 4.710616958214719485e-01 1.340963461643665013e-02
2.470628655990896594e-01 5.488677087455404724e-01 2.415605464041498673e-01
8.023112611010052575e-01 -5.162236179803612046e-01 -8.325553594965945381e-02
1.225632313913004312e-01 -1.837425588765143059e-02 7.538865124326402656e-01
3.366748653592482876e-02 -5.052266261020352950e-02 9.163934575728672760e-01
3.898299244411199682e-01 6.001822742676772293e-01 -1.925423799700838948e-02
3.080738058850095995e-01 -1.689029042611421561e-01 5.334146994579294088e-01
7.606569544255673554e-01 1.279548125250579982e-01 -3.665528133995464843e-01
6.698939767910688792e-01 5.063667907837524768e-02 -1.763723850528571280e-01
1.303163295610085259e-01 2.855954623513387927e-02 7.156520401770807283e-01
2.067819464825053632e-01 4.574808453258528695e-01 3.570815308802556820e-01
1.943259371206609576e-01 2.404565174862020871e-01 4.957256986075336269e-01
6.634431520591906883e-01 -4.018930488147340330e-01 8.088451441777380624e-02
5.673515569412754811e-01 -3.867732925374171571e-01 2.293546426432635787e-01
4.831041974212901824e-01 3.854080985195449532e-02 1.348547137606137813e-01
6.934390174791409400e-01 -8.490066247695537971e-02 -1.408714545931012418e-01
8.930862358108414278e-02 2.649038574169177429e-01 6.536668624130926863e-01
4.863770619746873303e-01 -1.619203894427988788e-01 2.388161081431857125e-01
2.639317820687464011e-01 6.361477032607903981e-01 1.664609816695955813e-01
2.550771014477988541e-02 -4.749942400093939976e-02 9.280527005676966201e-01
3.985804092834093204e-01 -2.990616821854160667e-01 4.567766675935041043e-01
2.252382522845139401e-01 3.123438804065877261e-01 4.061156630050562488e-01
1.094312712592070136e-01 5.870848383542092153e-01 4.451839217770400259e-01
4.710108092754840547e-01 5.519861893385640261e-01 -1.253722977548870077e-01
6.936438724364265562e-01 8.629051370978366511e-03 -1.922014957751129183e-01
3.159969390596126249e-01 6.235589312027705056e-01 8.841276280319639025e-02
1.124550043510312708e-01 -1.073145156441377979e-01 8.188654342698741262e-01
6.709729741470310538e-01 -6.564706473275855325e-02 -1.147297946278143382e-01
2.546050819805470433e-01 -1.944194249625245952e-01 6.345284201946107538e-01
5.193391754715322994e-01 -4.187838109123454000e-01 3.251104899410133253e-01
1.784875814772604319e-01 4.851902229080315987e-01 3.881180802607789859e-01
7.144413978078858474e-01 -1.693849681630092696e-01 -1.290597980221895313e-01
2.938969403227962296e-01 6.419884310640471270e-01 1.144067768748432412e-01
1.244354015077554915e-01 4.854359956254458708e-01 4.761367692356695547e-01
1.789593330980043528e-01 2.897841696113040433e-01 4.938915002425360856e-01
2.875022766385208484e-01 1.969926643525797549e-01 3.674642829818027256e-01
5.276447748746831978e-01 3.936683307732925519e-01 -1.314146768346981520e-01
3.669976963919425739e-01 -2.114871079937643006e-01 4.605353467528258138e-01
6.006198041739836402e-01 -1.303959620782136342e-01 3.531143433690434735e-02
2.954700717817326794e-01 5.254948645724958345e-01 1.753578964774386850e-01
7.300549521077951409e-01 2.909662206093313608e-01 -4.055245795834459543e-01
5.403967589604617983e-01 -2.469401310457010612e-01 1.970723778992437003e-01
2.622962803428602330e-01 6.501045807260489307e-01 1.615184720726630663e-01
3.921080005704458693e-01 -3.600508476161164984e-01 5.005860043837321305e-01
5.199097355399944637e-02 7.738941891202401058e-01 4.370066908000311834e-01
2.688127908075279571e-01 -1.708844177532096165e-01 5.985251540082746624e-01
7.317323500193777530e-01 -2.521912315071991317e-01 -1.121101747843538526e-01
4.688839248248012903e-01 2.046511604525126649e-01 6.747662870138343427e-02
1.082682796205871600e-01 -2.235594189339790383e-05 7.671937311944690974e-01
4.641024117931868975e-01 2.869082740212188648e-02 1.712149560162594397e-01
9.528114019837460869e-02 3.538845719622238373e-01 5.954107361912956975e-01
1.002021862410652497e-01 6.571092226938034242e-02 7.445082964792253399e-01
4.818743743445492722e-01 -3.394757492613255101e-01 3.429693733883762419e-01
2.882575656772640160e-01 -2.986880772044295806e-01 6.364964348446353615e-01
3.112381175114204424e-01 1.590149328514374738e-01 3.494608416831539999e-01
1.800484642331032781e-01 6.908745976056154259e-01 2.734255441055482572e-01
5.610325323025494582e-01 4.714152184568071169e-01 -2.282567002398059874e-01
6.571718667545856096e-01 -3.941532409443231910e-01 8.689220003882433541e-02
7.140147990916765330e-01 4.580873347899843129e-01 -4.704857621983490890e-01
3.768833230149876146e-02 6.992599204611624764e-01 5.010260357619611415e-01
2.598918263803605133e-01 3.290857089656804013e-02 5.019585226005602863e-01
6.773935533412961396e-01 -3.945880967507863213e-01 5.415012789424213102e-02
2.492583560939543308e-01 -4.877316253977419247e-02 5.638364300402178841e-01
2.627552400452616288e-01 1.830684708403473027e-01 4.154157624134501847e-01
3.882023770427642240e-02 -1.641801608955470171e-01 9.699603101202111111e-01
4.997223537179269759e-02 7.522440712760122272e-01 4.521034786183268372e-01
2.751864468751146209e-01 3.159463906134236111e-01 3.226918575530939304e-01
4.010878902205556873e-01 -1.855600855306119845e-01 3.908018886598761399e-01
4.373065562919373206e-01 3.780824251908217470e-01 2.441426809678329951e-02
6.291167447993509798e-01 3.436458981485766007e-01 -2.696292953146642857e-01
5.421096600652431929e-01 7.922937522130502064e-02 1.643885479282032602e-02
7.462444252619566676e-01 4.381701928606612784e-01 -5.121888781117722722e-01
4.976542831765877195e-01 1.662816756155689191e-01 4.147608539085093082e-02
6.984254758073746849e-01 3.729673146085953905e-01 -3.986507620796881368e-01
2.507498886626791101e-01 1.193754843539853588e-01 4.697228981318826713e-01
3.171586045032482315e-01 -7.156461242647810077e-03 4.304081757278140352e-01
-1.176421990947451764e-02 5.680089959591172466e-01 6.532402637509463483e-01
5.318530197142141980e-02 8.841740963805461151e-02 8.088068192939296130e-01
3.235138420544315108e-01 1.949015867608495378e-01 3.098738264723964186e-01
5.967378581154129114e-01 -2.184113946009906826e-01 8.963177960529934707e-02
1.247463490923074875e-01 2.641527173882478041e-01 5.962816859406740999e-01
4.498965400095837341e-01 -3.092320018360772416e-01 3.786313897406143325e-01
4.139012102003490901e-01 6.320736841376159987e-01 -7.590005573342829825e-02
2.067322534255752742e-01 4.289327677102035552e-01 3.727280689458630780e-01
1.000238395007067849e-01 -2.037241960914524808e-01 8.917054035503093612e-01
2.036684535769616444e-01 7.244065779203080480e-01 2.166212360633637812e-01
1.526072952699484286e-01 3.177362077117996120e-01 5.216280366886166808e-01
7.648437438424439128e-01 -4.315031131836893352e-01 -6.834329208053065152e-02
5.437684696697249187e-01 -1.366590633743868521e-01 1.314440972651067241e-01
6.155450198616291280e-01 -4.341699544706510705e-02 -3.645405317531385386e-02
6.994715739041250657e-01 -1.526543429095478244e-01 -1.137679624200808731e-01
4.558318654140232074e-01 9.153440127947652660e-02 1.504385362832987572e-01
3.659273678022798015e-01 4.753310229715786983e-01 8.780163355079306786e-02
7.379484273834455710e-01 4.238652929496730115e-01 -4.908595157499477946e-01
1.612047806668420180e-01 -1.009062037411516954e-01 7.358662773684515601e-01
2.586362985446583607e-01 7.084994461039295643e-01 1.356483730256504983e-01
3.014359993747693367e-01 2.502199597101077977e-01 3.157184940473578560e-01
4.107730315071894678e-01 3.914749967174921963e-01 6.038516157530679496e-02
2.224676367152716716e-01 -6.650804998892505260e-02 6.171986485153397872e-01
-7.124513834218550862e-03 6.969478596529027348e-01 5.753710951139785479e-01
2.732015949902903001e-02 8.433079359806594510e-02 8.532179764569094438e-01
7.929649397009329581e-01 -4.326878863793259256e-01 -1.135596433660105986e-01
7.607127667236666113e-01 1.638439928582948735e-01 -3.862119788301069945e-01
7.345845405067686906e-01 -2.009896554937512236e-01 -1.446788001589913719e-01
4.796788971493198273e-01 3.164344133720081165e-01 -1.107715940833537034e-02
2.341765719809123514e-01 2.249133358711281200e-02 5.495769248981562383e-01
3.124508049698969114e-01 3.238852072541582583e-01 2.575895660839902512e-01
7.440530382446639557e-01 3.369436111628278385e-01 -4.534224145417772855e-01
7.063835087622548636e-01 1.088455086950546047e-01 -2.676201445625307485e-01
3.982530552324353157e-01 -9.467950617365306076e-02 3.458736297863845843e-01
4.363693506360604712e-01 -1.652859994205108374e-01 3.222078113617783401e-01
4.103382519875581336e-01 -2.670314066129821778e-02 2.891008150474838057e-01
4.053878489209641334e-01 -1.909494159806480462e-01 3.867276334512955716e-01
2.666302042569712594e-01 -1.503006003973422593e-02 5.171069872550416724e-01
7.547904902526110515e-02 2.412124977073553944e-01 6.891386857721212289e-01
3.212116271641689558e-01 -8.819373861514256951e-02 4.679827734714935294e-01
3.513253881053872152e-01 4.912185592112081611e-01 1.029532429910623992e-01
3.572860600004833520e-01 2.144839703586660928e-01 2.441182870499276070e-01
4.882100081628503729e-01 -1.871071062475676561e-02 1.577434423119334073e-01
2.225453975102522353e-01 6.465629153725896971e-01 2.282784967836184731e-01
6.536227176110031012e-01 -1.375602146080605048e-01 -4.722380782002967570e-02
4.360446061036899086e-03 8.271279244104998707e-01 4.856613796242031933e-01
6.340322850399000565e-01 -2.701904916975143012e-01 5.704092077712271530e-02
5.294666152537103043e-01 1.969812322852184661e-01 -2.714461704200702222e-02
3.478306388900678781e-01 4.663949825386154435e-02 3.510541288215425770e-01
5.288659663084401830e-01 -2.976151245929277711e-01 2.435076611728288210e-01
7.119660978776313209e-01 3.285783290253256328e-01 -3.965313520522898982e-01
7.180107808091790167e-02 6.048528458120381313e-01 4.968665114558263318e-01
2.406880809323218295e-01 -1.030996957794479141e-01 6.074344184016230441e-01
3.669912940036810789e-01 4.714186803822238425e-01 8.819965367767348963e-02
2.354599840267422670e-03 4.681030167321788005e-01 6.846866723347831973e-01
1.576613448415870311e-01 6.866252779208061874e-01 3.122531704022928900e-01
7.020794786606445737e-01 1.141312204733290758e-01 -2.634827525520408442e-01
5.737578991084645308e-01 -3.285064418198476166e-01 1.871373617757737251e-01
6.973578808304325971e-01 4.722394988763654045e-01 -4.510366010161712680e-01
1.096739384359835118e-01 1.921026767477378994e-01 6.601474143652078519e-01
7.559796936822443802e-01 2.685420722967238882e-01 -4.355782616822133080e-01
1.129178223422712679e-01 7.017132565950562340e-01 3.769980097150464338e-01
1.440494543395889060e-01 -1.952938383084482366e-01 8.153082975146463962e-01
5.136823686165797875e-01 7.946088983288537855e-02 6.267416440701496783e-02
2.462297345907863144e-01 4.425199480833094112e-01 3.009041165358330439e-01
4.560093065783252242e-01 2.815948543103712898e-01 4.652098387332029988e-02
5.079770053059369239e-01 -2.889617804907649787e-02 1.310593179523833474e-01
3.139270941118619818e-01 6.565300786974542779e-01 7.381131435237112126e-02
7.473085547875049084e-01 -3.679988840904681591e-01 -7.437039290775673828e-02
4.346593970185446687e-01 -2.137552283917659168e-01 3.514238046696827600e-01
1.478435806188252155e-01 -1.219657610371195910e-01 7.691392789808498831e-01
4.613078404025262591e-01 -1.338038137781928927e-01 2.643708113302582485e-01
2.779707428299643124e-01 -1.135236038047713891e-01 5.523143294844899964e-01
-1.816913013599327775e-02 7.848802509500704128e-01 5.454394796147947755e-01
1.924185074467470169e-01 -1.364611397994970263e-02 6.373828815002314796e-01
5.736252126639648230e-01 2.354585132515608914e-01 -1.201413239074140410e-01
1.978867995943242586e-01 -7.715725754071893483e-02 6.630934297755977092e-01
2.375902212059358420e-01 3.573447892225219968e-01 3.614348648299809952e-01
6.539859996923986785e-01 3.055708771081188518e-02 -1.394802067714848437e-01
3.084742191074188455e-01 6.776665099261375280e-01 7.117992274416314047e-02
3.962311416606733583e-01 1.586343938309155432e-01 2.110547859133903581e-01
7.457444927693068770e-01 -3.653180866086284950e-02 -2.525480135054595232e-01
2.267387473817180088e-01 3.577372804781937116e-02 5.544650693194912439e-01
7.412831629316799509e-01 1.768867122792976143e-01 -3.616359851509999279e-01
1.085526941480065011e-01 1.752279654156967681e-01 6.711767633725373994e-01
-4.582680106854751176e-03 3.680521466170307288e-01 7.505520817479430784e-01
8.654745070264552309e-02 -2.184596729597998166e-01 9.217181358636872268e-01
4.291631927757441622e-01 5.140669568603485340e-01 -3.644879581340287888e-02
5.059287282694016064e-01 5.203488629068802052e-01 -1.650694112928841883e-01
7.280159077245341726e-01 5.480811642564404479e-02 -2.734367855223470145e-01
4.764346625553012027e-01 1.614740096802482483e-01 7.870409123881345892e-02
2.231707348188987083e-01 4.560882963176394744e-01 -4.466647057134200405e-01
4.654427007286121021e-01 5.246560369233579380e-01 -3.254901021946441930e-01
3.034875656249943696e-02 6.760068424506471274e-01 6.153925800350743686e-02
-3.116529926785037707e-01 5.930950597490055598e-01 -7.893822506156521202e-02
-3.528585142426189369e-01 6.505151349363813562e-01 5.262562763719354914e-02
2.904532020263081438e-02 3.483650165767651075e-01 -6.600258857352183650e-01
2.168306575218127141e-01 4.716023539273112020e-01 -4.117089474373759606e-01
-1.131919797967011754e-01 6.065087993090264584e-01 -7.385552988008645126e-02
4.359965440049743401e-01 4.998787393202473450e-01 -3.764393369527930799e-01
4.589335832685975669e-02 2.565684011822158550e-01 -8.643113771102186593e-01
1.395218723156424756e-01 6.500833113136195163e-01 -9.022942098220632090e-03
4.324542778176949098e-01 4.190579074968613371e-01 -5.540339125572140144e-01
3.660538981389191426e-01 4.572910136081910770e-01 -4.616290518087965422e-01
1.430759935385035597e-01 6.119733306470621637e-01 -9.340931801274063306e-02
2.629495681260354822e-01 3.652216011598115597e-01 -6.517285336981689658e-01
2.216733096446572016e-01 7.252120602213459888e-01 1.463427639892393994e-01
2.299130801816507558e-02 4.324234776364357380e-01 -4.741165310687197043e-01
-4.713949324821897074e-03 3.984052725769080538e-01 -5.456361418845300237e-01
9.860550510372133315e-02 2.922669089811117393e-01 -7.921730955347399128e-01
2.202078662172891887e-02 6.151340009300703127e-01 -7.152415374109154234e-02
-1.917077259627271157e-01 3.426789238083675082e-01 -6.453381928406272117e-01
1.744893944135770536e-01 3.444096006654771558e-01 -6.866682030350791388e-01
-6.091667342836964982e-01 6.784104002711613957e-01 1.456689715561562404e-01
-1.964342025969639249e-01 3.824091947075990428e-01 -5.572381392459017091e-01
-4.055743958659915327e-01 4.280047719857729693e-01 -4.310193003479976248e-01
4.998297471941607895e-01 3.750691593210617181e-01 -6.592374410770287518e-01
-2.954256903779061555e-02 4.177579619112903320e-01 -4.999455441504644382e-01
4.778361419229438800e-01 5.318597483697463657e-01 -3.111496259342459436e-01
6.011317122652716227e-01 4.559737435334091371e-01 -4.935095369764041506e-01
-5.097403231692660963e-01 6.020159880633251248e-01 -3.486842372793370198e-02
-1.040821462616928900e-01 3.495823895235142253e-01 -6.409332083038379313e-01
-5.591586853071858210e-01 6.863241690349912716e-01 1.569366775936255898e-01
1.131541807058942251e-01 5.529243065935106616e-01 -2.197933004346922237e-01
-1.637549414221785293e-01 5.233716151283434037e-01 -2.507561449354890337e-01
-5.401971466546829151e-03 2.226090153738389255e-01 -9.327933955282365908e-01
-2.076417532181121794e-01 4.674625514545941440e-01 -3.685019455929425258e-01
-7.864139297709533960e-02 4.087796911758173612e-01 -5.136702066302964997e-01
-7.166618911254253599e-02 7.797785094455912391e-01 3.027020672291865222e-01
1.837029320737932903e-01 6.615873223077703980e-01 1.087162233999985905e-02
-6.455497724372115387e-02 8.261314937161553518e-01 4.039312903594083903e-01
3.254643565084821000e-01 3.470769860623421077e-01 -6.994036969903725254e-01
-3.538144691045487233e-01 5.003585184870426028e-01 -2.780198774498143788e-01
-4.209893851186984892e-01 6.306365305475425398e-01 1.723597283359694365e-02
5.972515556476201692e-02 5.995571487303553715e-01 -1.104846148759627972e-01
5.472523685718074307e-03 2.328654656151325220e-01 -9.115411342267434325e-01
-1.328446522636416161e-01 6.131938269726346924e-01 -5.670717449925507386e-02
-7.443241074084705478e-01 6.151194561728628996e-01 2.291366858512874569e-02
-2.687467329389924831e-01 4.694715543473139685e-01 -3.565439237583111209e-01
4.972798191788126848e-02 7.234116154115989294e-01 1.635730312676493270e-01
5.051287336837581021e-01 3.969334074557683278e-01 -6.117283384805347612e-01
2.810250409474119859e-01 5.774427128387848995e-01 -1.864784182441639182e-01
3.645145225056403704e-01 5.483046004184898292e-01 -2.609555565066901672e-01
-1.963298032238584845e-01 6.752447164647842337e-01 8.780386855093486043e-02
-2.609295810949954515e-03 7.777692053046779685e-01 2.897631232076045560e-01
-1.451738742903697643e-01 6.331819699127093637e-01 -1.115764848529558068e-02
2.092683542905212635e-01 5.153263137150797535e-01 -3.144620580422581857e-01
3.628817443922757735e-01 4.890060081626092514e-01 -3.913765675943208788e-01
4.970152963952441105e-01 5.818982349494257189e-01 -2.032896737825542477e-01
-2.709224207919696745e-02 3.379331273240342992e-01 -6.760848746724121838e-01
-1.770934330991074182e-02 8.010037287161445585e-01 3.428053093292494080e-01
-8.091492828408743121e-02 6.257464746075666051e-01 -3.545788814539865830e-02
2.822086998158133131e-01 3.218772803517938041e-01 -7.495810651129505287e-01
3.479192884581990691e-02 4.584644466237645100e-01 -4.182084714582189888e-01
2.842811288966074490e-01 5.856043643627866224e-01 -1.689014104251325976e-01
-5.103304216141151262e-01 5.493221350716557261e-01 -1.508691221212238032e-01
-3.857009487283371008e-01 4.045716853813399183e-01 -4.850873120036534591e-01
2.531280182724927608e-01 5.971493728560604008e-01 -1.396298456216508999e-01
1.924988770295702756e-01 4.655851664364670239e-01 -4.219640832941939368e-01
-3.141674605503947393e-01 5.498456279247910805e-01 -1.738976326678753626e-01
1.927831753624428823e-01 4.467520698306445270e-01 -4.634844684538720894e-01
-3.906591869332458056e-01 5.482563119592597234e-01 -1.679691731880071648e-01
6.620322737758722598e-01 4.743575716646857843e-01 -4.605212548578494491e-01
-9.583024022644130724e-02 4.780331117119819284e-01 -3.590006051209778115e-01
9.621582209221481163e-02 4.817675168083695447e-01 -3.744486496944109954e-01
-2.005144288571807654e-01 6.274812605913157038e-01 -1.689309589827895156e-02
3.197624617408617587e-01 3.504774442042358218e-01 -6.912103137046365919e-01
3.084201319184000090e-01 4.031123211241253168e-01 -5.738685773878118290e-01
1.248734716606057921e-01 7.101022667414936818e-01 1.249919116665223762e-01
-4.513151836194812527e-01 4.341260566771871776e-01 -4.118967838355736544e-01
-6.234217542212401320e-01 5.854800715034844671e-01 -5.727967471102039104e-02
2.083552952754738896e-01 6.112961834710741726e-01 -1.029481251091597521e-01
7.838882389163186193e-02 3.402581530223090511e-01 -6.839663322723037453e-01
-1.961808372729268168e-01 4.140972144512762299e-01 -4.874673498769785951e-01
-2.638549499282333843e-01 3.487281790404317960e-01 -6.231191335905322815e-01
-3.965911622820224580e-01 5.595470529043078400e-01 -1.423667986399934915e-01
2.303073273845029634e-01 5.748532828987844567e-01 -1.859302463894980106e-01
1.116569486216084095e-01 7.168410324003412493e-01 1.414652351573511546e-01
-2.677110959414946700e-01 3.995717003083418262e-01 -5.106462224247079185e-01
-7.403423003122840129e-02 6.994324672474090399e-01 1.260086023871095640e-01
-5.616187900139523598e-03 2.015074706580863295e-01 -9.792492397605708776e-01
-8.861979773505229349e-03 7.099277138823587574e-01 1.410934185015587095e-01
9.285680381295507990e-02 4.313012980896048232e-01 -4.852010058534578785e-01
-1.919033460935232541e-02 3.313842327020110612e-01 -6.914848021436255099e-01
-4.877711390590839247e-01 4.744827678205598143e-01 -3.185054170885076030e-01
-2.384889816488839076e-01 4.403042878751088907e-01 -4.245232313772303590e-01
-3.438745862085223481e-01 7.614582137399937833e-01 2.959023471145202921e-01
-2.353418376717641702e-01 7.951257561358707759e-01 3.566856507697251377e-01
4.490416682364544165e-01 5.823665387039906882e-01 -1.963442321161106285e-01
2.317564740853551852e-01 7.331633157010921664e-01 1.626147174835131104e-01
5.559375939286375079e-01 5.178603830054818724e-01 -3.516150979582902125e-01
-2.711878657625976241e-01 3.502639084977218764e-01 -6.188322928676923684e-01
-4.510414971521640726e-01 4.350516664931565192e-01 -4.098915989119359948e-01
-5.428534262574484792e-01 5.719702970563750322e-01 -9.697078116079602128e-02
-2.029395429349904467e-01 4.222719194711157531e-01 -4.686270313379777841e-01
1.446435741751157800e-01 2.611557558223812636e-01 -8.663796672321227854e-01
6.517752507179741528e-02 5.245990107150146908e-01 -2.762737112161378628e-01
-6.947654769477000503e-02 7.757600142926225351e-01 2.935802458386272962e-01
1.468008080820136785e-01 6.311399689484233910e-01 -5.164842742259002917e-02
-1.902761001003500652e-01 4.300932100623529042e-01 -4.529594424990793788e-01
1.485098296430448217e-01 6.077717950987405748e-01 -1.033342613534010690e-01
-5.161040184371943340e-01 6.470855023877924994e-01 6.519468209664067149e-02
1.707900712656763020e-01 3.841633455255716867e-01 -5.986430618529632319e-01
-3.208086235179573587e-01 6.018672404425453593e-01 -5.848631678955461266e-02
1.052237497281659911e-01 6.139493376254450130e-01 -8.439042062531983135e-02
1.262571840293762182e-01 6.655528535192793971e-01 2.668837775756627978e-02
1.925377235731917103e-01 2.952042377164247888e-01 -7.972821142138231121e-01
3.965581348603718914e-01 4.098693023792261414e-01 -5.698494353160664661e-01
4.289062516924670443e-01 6.128347214672351662e-01 -1.267470939237270444e-01
3.533829692827528471e-03 4.701738580845697402e-01 -3.885618193178874136e-01
-2.905095788620468134e-01 5.084307430045146292e-01 -2.680422722712669237e-01
4.471735582076608040e-01 6.037068586745899523e-01 -1.491057211222527323e-01
-8.012484782866344246e-02 4.364445269893071355e-01 -4.525475391747223464e-01
-2.525228366106772038e-01 3.724392668317466626e-01 -5.722855562747353186e-01
2.362294195662113516e-01 5.343711868842399015e-01 -2.758337995771177331e-01
-5.271058760280443733e-01 7.215493133857939778e-01 2.305789839916037032e-01
-4.711990098580489117e-01 5.689063318262577162e-01 -1.125531263042111457e-01
-5.720919855472805793e-02 5.871927565653796144e-01 -1.233058790977569208e-01
-7.906488348582532133e-01 6.230685788121875790e-01 4.613451066495433822e-02
-8.770349037577203355e-02 4.681638786318392254e-01 -3.817422548137993643e-01
-1.695565245817041988e-01 4.274646938154815778e-01 -4.613036796522472227e-01
5.116012639248287419e-01 5.370571651625646314e-01 -3.038631510903269106e-01
-6.782841141663675799e-02 2.567100127770863272e-01 -8.499805791989843984e-01
1.683055305512717592e-01 3.110180926342652197e-01 -7.594603456264223951e-01
2.967358759919174749e-01 4.097242981616750490e-01 -5.578634301003105866e-01
1.264322159447024696e-01 6.297744062006637167e-01 -5.214557057670591439e-02
1.683370592851901326e-01 5.831771912448605599e-01 -1.599551530913039255e-01
7.939304133479924142e-02 3.337286905448988428e-01 -6.984731538404082007e-01
5.655506413033872803e-02 8.106852617348037082e-01 3.549768658207768102e-01
-3.819407900635219399e-01 4.530990541105095470e-01 -3.786552832469521901e-01
-4.713841021912469342e-01 6.841487171149652768e-01 1.413243537387761095e-01
5.642755034651072282e-02 6.852402277360787330e-01 7.866363902080755754e-02
-1.979654013066566298e-01 3.549823637208284755e-01 -6.174649059956739405e-01
5.556981277387613716e-01 4.392506261698968517e-01 -5.247462888593922292e-01
-5.091648974387769089e-01 4.884030080099725502e-01 -2.852047854636009516e-01
3.507009729225538802e-02 4.121849184973767621e-01 -5.201867994699259645e-01
-4.572495891496393683e-01 5.727516968414085863e-01 -1.058021894745224262e-01
-7.500925319610171060e-01 6.153488266467701528e-01 2.413001606115612249e-02
2.572044962792536249e-01 6.178723172000734065e-01 -9.448409185435517610e-02
-3.685672156792177412e-01 6.078576270767883649e-01 -3.940339968156957029e-02
-5.219018643829448356e-02 3.437302281362825673e-01 -6.602211782102813675e-01
2.395691868111010370e-01 3.900161167582548716e-01 -5.942292698409079588e-01
1.513546575015225493e-01 3.362813104840686740e-01 -7.017212162663266639e-01
-9.638185760559839221e-02 7.881601001501062909e-01 3.242117252902967373e-01
-1.759553288020558048e-01 4.819254455805080384e-01 -3.405493309380231981e-01
-2.555122258405546076e-01 5.182946004591546529e-01 -2.506285142678745248e-01
-2.477916254945866648e-01 4.522844449009288392e-01 -3.969867052263389984e-01
-7.672612893511140952e-02 4.900135461702834205e-01 -3.349652621940203967e-01
3.578980199299429676e-01 4.610372860620514102e-01 -4.523714019188349034e-01
5.847812313406986623e-02 6.661173049938927671e-01 3.628709355024837407e-02
1.568085723133448017e-01 4.489931273651374122e-01 -4.541131835730835009e-01
-6.127001642324994002e-01 5.791823547962482444e-01 -7.247390178403451122e-02
2.874327508923265051e-01 4.478300639256228011e-01 -4.727776400674705837e-01
-8.450390791852588346e-02 2.334443020065132823e-01 -8.991743884357290550e-01
-5.388386808978148368e-01 6.953550056556533354e-01 1.743247915825526517e-01
-1.875101465961393210e-01 4.659949818418163137e-01 -3.742163813619374113e-01
-7.011690152613521410e-02 6.566344196457444271e-01 3.125063025651540760e-02
3.389986310320884655e-02 6.389272855781088500e-01 -2.057694004258437889e-02
1.378599428083520373e-01 3.848778562537180092e-01 -5.930097399632663357e-01
-5.021264136313333681e-01 6.870777286067202283e-01 1.515660542207175054e-01
2.173503155839705270e-01 2.867520631576687684e-01 -8.189592016968999522e-01
