-6.574232310955699377e-02 3.283304654030003156e-02 -4.271933386249084363e-01
1.380773226016092370e-01 -5.380894711430754818e-01 -5.586655659843237087e-01
4.860498642739183306e-02 -3.981111607782019668e-01 -3.216524919659285442e-01
3.377628091273315175e-02 -3.954856504397394334e-01 -2.490310885694010379e-01
-9.138260229378038224e-02 1.453802597783874495e-01 -4.766507877425213424e-01
-2.037775327229554845e-01 -1.510896030266728994e-02 3.661093408169359686e-01
4.229771428531386296e-02 4.151303280732212067e-03 -9.408234380805601260e-01
-1.637218741111585649e-02 -2.199738366346481733e-01 -2.734660271516761720e-01
7.501367976482818667e-02 -2.682981722820078629e-01 -6.689253748497826502e-01
8.820774709462710778e-03 -4.091258130408976790e-01 -9.755092709792904937e-02
2.265085386246227378e-02 -3.567729114471716589e-01 -2.540881386238594830e-01
-1.786464379905121913e-01 2.921241296786059732e-02 1.639997308904308504e-01
-3.047816409710388599e-02 -8.507896655323564372e-02 -4.189350125885863418e-01
-4.160969515667936602e-01 5.298143956878300642e-01 5.837785675938386154e-01
-2.218792885399764048e-01 1.077307613711329937e-01 2.608910322727227560e-01
-5.158708271194294148e-02 4.841188493823148087e-02 -5.258236087536631853e-01
-1.019511997912676549e-01 1.893124538576193838e-01 -4.930527635482734317e-01
-3.602565299005075494e-01 2.542279913584887252e-01 7.408765452774191962e-01
1.273469318396629746e-01 -3.306720245244945677e-01 -8.391579324422353547e-01
-2.848049033213570502e-01 1.912332815834146826e-01 4.517981175014777473e-01
4.129976807732936572e-02 -1.668341500795726129e-01 -6.585665049267632742e-01
9.562094178560155699e-02 -3.829559580899253302e-01 -5.899551886657198319e-01
1.466062072990747533e-01 -5.214843086285353424e-01 -6.297904362295042580e-01
-2.402242632259118382e-01 1.769093343597635259e-01 2.438919613753866567e-01
-5.213387212751765393e-02 -2.992035780680678547e-01 4.032476037928651308e-02
-2.996167942218636027e-02 -1.099494956410485003e-01 -3.813097172602680218e-01
-9.224417736553362779e-02 -4.028783438705703379e-02 -1.713075019242742136e-01
-2.971573080180501397e-02 -3.232569351669749569e-01 -3.691835487423172218e-02
-1.616505272389693049e-01 3.002294624124638225e-03 1.183619905700932784e-01
-7.068737920046991308e-02 8.582423938319239110e-02 -4.874294713695858094e-01
-1.759435510540016678e-01 -1.354629981319944347e-03 1.995213657406227081e-01
-3.341747301056274266e-01 4.005137331460659200e-01 3.686041382478231210e-01
1.028083646681708652e-01 -5.068078151142534349e-01 -4.265138203138394424e-01
5.176167367305522377e-02 -4.037255824759851675e-01 -3.289194061259294033e-01
-4.310188202749408726e-01 5.439242049883513674e-01 6.382725553055991208e-01
-1.808434113658703435e-01 -1.789558748236554642e-01 5.127278320231529740e-01
1.792632611195709227e-02 -9.904763435891464005e-03 -7.916975282193112751e-01
-1.676794585878056965e-01 -8.548877272772220648e-02 2.930181080349137379e-01
1.117579997280821191e-01 -3.991486052015305597e-01 -6.473737941619704950e-01
-1.645042385253066008e-01 2.233234851749216210e-01 -2.238758572409437209e-01
-2.191137604621854196e-01 2.761260232797188019e-01 -2.633210246254718764e-02
-2.311997764249033860e-01 -1.705289496274021294e-02 5.114239122014379024e-01
-1.298829016153703331e-01 2.842030316930791931e-02 -8.752015506229456066e-02
-3.387627771688126455e-01 2.619061022659820992e-01 6.170046132578748121e-01
-1.615189172743385915e-01 1.651880841407598818e-02 9.577606884263611953e-02
-3.476912040365858214e-01 4.321120117522088688e-01 3.874719694957474148e-01
-4.887490808052593130e-03 -1.888170760190194253e-01 -3.834956167047348097e-01
-1.091605048391858512e-01 -2.288886500178970163e-01 2.220205090960827576e-01
-2.339777614047987842e-01 -1.383017179779430228e-01 7.223104421933986830e-01
-2.031807117888163039e-01 -1.156140193845386216e-01 5.258845172871798868e-01
1.277749837661318333e-01 -4.480373021672767742e-01 -6.511856910375264373e-01
-2.121599816298836150e-01 5.249721034559147459e-02 3.000099028511274413e-01
-8.291660071184715763e-02 -1.848482966264266836e-01 1.459718596634237628e-02
-2.568116915628924635e-01 -2.046751703498404795e-03 6.198855072347092543e-01
-2.967904282657146675e-01 3.795907043754644800e-02 7.623164522739516169e-01
-1.327582774682766198e-01 -2.315558449926308215e-01 3.486800258679960685e-01
6.036890962969408692e-02 -4.002753412299027702e-01 -3.791328146381799380e-01
-6.201300996019333545e-02 1.612799093294066399e-02 -4.194564402869246367e-01
-3.141196230179713056e-01 3.473278279247354883e-01 3.508211679744862033e-01
-3.255012615923341124e-01 2.702289525106651435e-01 5.347660443414201659e-01
-2.739922246488109003e-01 1.096038199741495717e-01 5.280234360296995888e-01
-2.453919864756065605e-01 -9.754266791363390421e-02 7.154345364383194461e-01
-1.965069180158492135e-01 2.610376532424042439e-01 -1.190813298097991163e-01
6.815757450422334218e-02 -1.200351854265331863e-01 -8.736428172535840586e-01
-3.420748008660915440e-01 4.172323691789049382e-01 3.824675806118895682e-01
-3.312408485319272011e-01 8.277152302208322376e-02 8.682979098387846317e-01
-3.706306046283831812e-02 8.171123402066120603e-03 -5.359096326441080693e-01
-2.290007228571862286e-01 3.010569326831167847e-01 -1.547612585290250413e-02
4.605084467490859479e-02 -4.072170889296982677e-01 -2.936548926663768988e-01
-5.196129709541062736e-02 -3.201743211593975902e-01 7.341334265202605069e-02
1.766667907686610972e-01 -6.226426158846305459e-01 -6.217048672573484147e-01
-1.460199428758426621e-01 1.965132877370033004e-01 -2.762573588349266362e-01
1.093746651164042016e-01 -3.878010831762311872e-01 -6.534066868696755126e-01
-1.629262516533009908e-01 -1.234696275480632877e-01 3.299244653558742191e-01
-2.344840878052566746e-01 1.082350659058632231e-01 3.254205287009818148e-01
1.112461009163483033e-01 -4.588799985687800342e-01 -5.479247657265147176e-01
8.288994880182412595e-02 -2.625133268870215586e-01 -7.191324958430614922e-01
-2.221097426018693866e-01 -8.982685988294483725e-02 5.822294888082185649e-01
-6.777503529309525376e-02 -2.179665751426205778e-01 -1.023239179113619342e-02
-2.980828850753965489e-02 1.298207415126893804e-02 -5.813165386927314771e-01
-3.341196210968616631e-02 -2.558482871803227643e-01 -1.269923391867324725e-01
1.362708210426335186e-02 -3.852761928429132565e-01 -1.611166408631533320e-01
4.405278297887160743e-02 -3.725555630718034861e-01 -3.394656768865483842e-01
1.411182628755221768e-01 -5.835056999917924703e-01 -5.008332664781230958e-01
-7.288213529258381895e-02 1.350543356357192526e-01 -5.558290239597660776e-01
-3.533681591685949308e-01 2.244214448620639180e-01 7.534670970309744753e-01
-3.403827735617668271e-01 1.574886256596251255e-01 7.946124810836430186e-01
1.155294914161813236e-01 -4.120328937049250184e-01 -6.460471448300398878e-01
-1.076282868057735070e-01 1.880876754808222251e-01 -4.616364289008392241e-01
-1.284570078438312668e-01 -1.360288442443527146e-01 1.715787923336976328e-01
3.931245572875075034e-02 -3.895051454594901652e-01 -2.874235891921916308e-01
-4.216521533529040133e-01 5.465596367387860477e-01 5.854424543767282607e-01
-5.555331816781910494e-03 -2.746669533012204290e-01 -2.409129273020546858e-01
-2.654479406849409862e-01 2.100558485433021150e-02 6.273016867049421297e-01
-8.365119350383716512e-02 -2.297487370717546384e-01 9.116704198232201961e-02
1.249046388341633167e-02 -4.026670966171320143e-01 -1.270420012916316510e-01
1.168115624173408050e-02 -5.005313080209652932e-02 -6.942601066168458956e-01
-3.047516746829989631e-01 2.311151074140643247e-01 4.905788137736779575e-01
-1.825296995911920295e-01 -2.021890363425771220e-01 5.591195370236420326e-01
7.650194162742207649e-02 -1.571795996931069916e-01 -8.567094749712361734e-01
-9.116685331967872008e-02 -2.008975504375546117e-01 8.337669673038780593e-02
-1.005360823061126306e-02 -1.640471203532160027e-01 -3.968529644503295262e-01
-3.340011305214947868e-03 -1.875035298986058030e-02 -6.671126708048363829e-01
-1.413381696468700710e-01 -2.163137311221918213e-01 3.684605644319707829e-01
-1.721858597583498240e-01 -2.177395620072679339e-01 5.306939952949588646e-01
-2.539181863507757320e-01 3.046696935121585015e-01 1.078483101480815221e-01
-1.529931901164902908e-01 2.160500040213682027e-01 -2.717655448158748377e-01
-1.184130259502505084e-01 -8.462522032569552710e-02 3.620805638956603456e-02
2.557391935996814608e-02 -6.106449091405120877e-02 -7.484399914726272973e-01
-2.510792169993380507e-01 3.528786402795753285e-01 1.500732943885509964e-02
-9.930286486416478597e-02 7.138068006623671247e-02 -3.156730647433017567e-01
-4.128868873552139496e-01 4.236068443376718173e-01 7.392469111027728523e-01
1.509394065007978875e-02 -2.399551622356294600e-01 -4.042151395934695524e-01
-2.902522504195649278e-01 1.151191253583916524e-01 6.033822588140210774e-01
1.089201256178606511e-02 -4.586593124963300044e-02 -6.969543606679838854e-01
-3.573960045856465206e-01 1.890791986746494791e-01 8.316209442130740870e-01
-2.656005842044302234e-01 -7.477569049918503241e-03 6.742502132281192884e-01
1.274737946109386622e-01 -4.867637970305546680e-01 -5.868676466264274305e-01
-3.106923336148939563e-01 1.481078373323508335e-01 6.558907651580608844e-01
-1.451107656762045950e-01 -1.817476903982427894e-01 3.320041858473377072e-01
-1.694245822203914453e-01 -6.323437867596867767e-02 2.660018809571373932e-01
1.663713109150840100e-02 -4.269397591739316211e-01 -1.092054123765011792e-01
4.112966103042211413e-02 -1.117353494461560959e-01 -7.469726745927887102e-01
6.442919428933249239e-03 -1.547528077026278856e-02 -7.231373396998006520e-01
-2.388973149487352843e-01 2.150573802667650192e-01 1.751934823985895617e-01
-7.195922673385170276e-02 1.104810702856559163e-01 -5.207924594621956560e-01
1.423434279734697161e-01 -5.126085287891005704e-01 -6.220742954715980932e-01
-7.033363157263876342e-02 9.713073792787683958e-02 -5.075856679422494633e-01
-2.836918727602263934e-01 7.930395108946478033e-02 6.274102461398877173e-01
-1.256318922188909837e-01 -1.392886490752834501e-02 -4.093138149797776598e-02
-2.998673746792973049e-01 -6.007148430441593828e-02 9.371274889612382086e-01
-3.256224097368862758e-01 3.717426406905109948e-01 3.708903584703228118e-01
1.228394674870507269e-01 -4.522339611588632735e-01 -6.187979053333276802e-01
2.025065873585459031e-02 -3.340167138076074460e-01 -2.785214727204470830e-01
-2.326502411882821197e-01 2.135384720868511652e-02 4.567050824871879966e-01
-1.674281405035028814e-01 3.730598338519751367e-02 9.272531304978283428e-02
4.141741256871117605e-02 -3.212038965149542902e-01 -4.090189861728110721e-01
-1.142496689333059590e-01 -3.204678954245852862e-02 -7.057969622517980268e-02
-3.320089151014119500e-01 3.485390116001321203e-01 4.416014167901291532e-01
-1.519265639199429418e-01 -1.824211753631438393e-01 3.684305354484512796e-01
-2.794172927101348791e-01 1.373380108356083429e-01 5.112049921439681954e-01
1.096758340949292032e-01 -3.180168954788149538e-01 -7.680538685734595861e-01
-9.879611944923666345e-02 2.574419134654384184e-02 -2.443458732495061847e-01
-2.951556282339029558e-01 7.991309191097303866e-02 6.858543715012217490e-01
1.393007379362990461e-01 -3.717946132911814083e-01 -8.344902448647135706e-01
-1.673107185793572815e-01 -1.835069903179301631e-01 4.499457716817578112e-01
1.429813295082593416e-01 -4.755937316181524377e-01 -6.853641290028409383e-01
-3.150396648358768648e-01 1.343635111944240235e-01 7.007013103568168200e-01
-1.144684798614758331e-01 -2.033374677169361711e-01 2.081326058691737868e-01
-2.410090057946315534e-01 2.186399797020875391e-01 1.803354338570628268e-01
-2.416608597420286109e-01 1.091215271437160350e-01 3.611903592186066492e-01
-2.962974418983569391e-01 1.147470409147727660e-01 6.353251502567950348e-01
1.111048974390170530e-01 -3.874993577852579030e-01 -6.628656327690707339e-01
-1.763439583598283289e-01 1.443750135158063663e-01 -3.455887672287465823e-02
7.346579696036699414e-02 -5.056238843179597930e-01 -2.763124954133073796e-01
-1.473750078785762141e-01 -4.425070542777724547e-02 1.209276627125603770e-01
3.217862868744112564e-02 -1.350013114250721291e-01 -6.628653962337779371e-01
-1.039680113242061194e-01 1.438872652792774487e-01 -4.089851763898607051e-01
6.204209529869832498e-03 -2.185464790002614177e-01 -3.928212866592415975e-01
-9.488564719127656408e-03 -1.613100169302021658e-01 -4.042178027043344390e-01
6.971068785683830205e-02 -4.295470166467716955e-01 -3.801281610909775788e-01
7.426457559817460641e-02 -3.251468589667393938e-01 -5.729180584383326558e-01
-2.884124053035995727e-01 -7.664754849875375642e-02 9.046034413236698768e-01
-4.798193572237326177e-02 -1.616758254017964247e-01 -2.040648463703143289e-01
1.363149774261585186e-02 -1.358134534900725943e-01 -5.653959151919992765e-01
-1.014089826986117049e-01 -1.657440313354369421e-01 7.950813458010512480e-02
-1.826681240406208551e-01 6.854416924725773019e-02 1.211118225635531426e-01
-1.016386529585833476e-01 1.162235514288447735e-01 -3.762319355283616495e-01
-9.382571274900611963e-03 -3.190550188745956972e-01 -1.491402529431958279e-01
8.047471330249543475e-02 -2.760804767021574624e-01 -6.846255788308638346e-01
-1.576897792677188770e-01 -4.257175503500758296e-02 1.716815053617736231e-01
-4.054889464511028385e-01 4.023590857274836896e-01 7.353261269040491932e-01
-1.328783371634104649e-01 8.402259375349251103e-02 -1.620949587606971554e-01
-5.261019140285119050e-02 -2.028131793753465417e-01 -1.134072892710197428e-01
7.117852382614653535e-03 -3.582490845737063556e-01 -1.711686612055811629e-01
-1.171159587969184401e-01 6.066955390913331136e-02 -2.059676486715654176e-01
-1.718641288675709922e-01 -1.464893990035655846e-01 4.135645902004477237e-01
-1.942603163459585003e-01 2.859569513852076583e-01 -1.711102509240396696e-01
4.117543388911126812e-02 -2.618084775303186618e-01 -5.040152583573983547e-01
-1.396330070043567961e-01 -1.780983438683952091e-01 2.976921915718809819e-01
-4.347912058763365173e-01 5.151143651088271325e-01 7.045162118086134573e-01
-4.005681578945895910e-02 4.627498200295962830e-03 -5.146467131915913873e-01
7.081440765133566184e-02 -8.385576357673914238e-02 -9.460456118616863419e-01
-2.969443886114100373e-01 1.404263826616715949e-01 5.970655183654792753e-01
8.279248488086346502e-02 -2.628014472099323151e-01 -7.181603149180583179e-01
-1.842278597061592638e-01 -1.158186771747196087e-01 4.279593992996997276e-01
-2.336777470764347664e-01 1.815740380722377367e-01 2.023938415900932708e-01
8.730583567941868628e-02 -4.472424780808764155e-01 -4.426705804815762035e-01
-2.386128508319486918e-01 1.565361095825511251e-01 2.685529340839595824e-01
-2.578513002744124427e-01 6.822632813232978703e-03 6.109022138704356397e-01
2.198113794564695092e-02 -8.552817624715948475e-02 -6.901704307044910225e-01
1.210600877794326680e-01 -4.688671680712789280e-01 -5.826188683399389223e-01
9.625051620825771093e-02 -4.775724444719989803e-01 -4.398922948206676065e-01
-2.955201160298049357e-01 3.171947682040186511e-01 3.032271044447378272e-01
-3.381276590776443047e-01 1.479158997891855676e-01 7.984340304998506221e-01
4.354624134107511202e-02 -2.126320486134654353e-01 -5.959969723988330914e-01
-1.989256862520418223e-01 -1.554780556166291683e-01 5.684252938709650760e-01
-2.833104421886707414e-01 -7.547589003689526843e-02 8.762547874820819649e-01
-3.131942602505255469e-01 1.789924871053907296e-01 6.188126127369720786e-01
-6.015691498651938585e-02 -1.021283742789345639e-01 -2.374435499198908617e-01
-2.609279224408568298e-01 2.501899433526946215e-01 2.324735735745140364e-01
-1.267767524198389339e-01 3.161326372426111198e-02 -1.087975001735077413e-01
1.734117678771596519e-02 -1.809292752226026590e-01 -5.115173524891418744e-01
1.168761639214432879e-01 -5.444543141765597616e-01 -4.384386827224273642e-01
-2.578259362466210104e-03 -3.405777104493479257e-01 -1.495379710415730978e-01
3.393923897355240193e-02 -3.623005594130486173e-01 -3.036526155498908142e-01
-2.185125633654081689e-01 -1.306602760890571424e-01 6.297516085631219562e-01
-1.375666071256091867e-02 -2.242805313086315006e-02 -6.071501692304149822e-01
-8.164336019054517501e-02 -8.280885870371759022e-03 -2.781325551930011186e-01
-1.075716521330453979e-01 -2.596676775386146385e-01 2.636611247225887356e-01
5.504571888804300067e-02 -4.300642449170802989e-02 -9.304931012546457936e-01
-1.048299084139361625e-01 -3.964426843655320665e-02 -1.071025345944396773e-01
5.934784903958963825e-02 -3.046172653514601647e-01 -5.288540413299651632e-01
-3.116631818077564842e-01 3.717885909165595248e-01 2.984474412183721892e-01
1.067581311973083147e-01 -2.769558712751057361e-01 -8.194674200592449997e-01
-3.261224204401794724e-01 4.417657438134264813e-01 2.600095469332078801e-01
-1.978794773226215387e-01 2.380337378001796123e-01 -7.468757642530135521e-02
8.323680436295617657e-02 -2.757869142477304414e-01 -6.994207344700147377e-01
-2.462682352270376129e-01 3.921042569965458441e-02 4.983677576745209059e-01
3.972788640561468465e-02 -2.212216553188870172e-01 -5.622820493477792558e-01
-2.155865133884984075e-01 1.201497294390756199e-01 2.081425272328453480e-01
-1.809515106786264427e-01 2.459953081837613909e-01 -1.753485732847213652e-01
-7.044789371408916034e-02 -1.629366993980564671e-01 -8.555192065296436665e-02
4.664904353510206103e-02 -4.513782140323227554e-01 -2.251926594881287769e-01
8.869203819778574693e-02 -4.035737758373870721e-01 -5.206225177956096406e-01
-1.635154258620353518e-01 -7.871775389464787109e-02 2.604581331225053753e-01
-2.760301030499777153e-01 1.365561180368516370e-01 4.949119383569691721e-01
-5.938773912960424589e-02 -2.989170834312965264e-01 7.746652351525119828e-02
-1.333002037860024636e-02 -3.050926001331146775e-01 -1.513018096716157723e-01
-1.708842579267751960e-01 1.392392454503784682e-01 -5.454090304726030153e-02
1.614370821410084089e-01 -5.637260755423992853e-01 -6.382246225017039754e-01
-1.264334967792135056e-01 -2.678424491636200999e-01 3.746933682695053891e-01
-1.950189249850083351e-01 -5.303333548650167317e-02 3.821590794453659234e-01
-3.423794056196522995e-01 2.747616128218248188e-01 6.149217454550741646e-01
-3.381766413295791973e-01 3.117576475717250273e-01 5.331810932934312186e-01
-1.058871546585041928e-01 -2.306927165685448977e-01 2.079740711130587116e-01
1.116200211951991206e-01 -2.748458202673708661e-01 -8.480921419115270421e-01
3.713447638948536023e-02 -4.678010686970769938e-01 -1.492531732526094501e-01
-2.482721948454417182e-01 -8.686597220427412502e-02 7.130646526150614672e-01
-2.447019068072079639e-01 2.167227249908987574e-01 2.025873692112771240e-01
-4.146244877865171152e-02 -1.743396257249931192e-01 -2.173418587198056029e-01
6.650162981746263191e-02 -4.829968479149625016e-01 -2.768756437969738804e-01
-5.810976818780404229e-02 -3.419821754327785103e-03 -4.080145246981079499e-01
-2.288862279973236935e-01 2.846017408469558307e-01 1.059607266144516058e-02
-3.437612268393044901e-01 1.400836812319848634e-01 8.403321595796037213e-01
4.412965635617606408e-02 -3.029568815637592727e-01 -4.526494345860812007e-01
9.062609352630300596e-02 -3.015693074218671055e-01 -6.959482537705105054e-01
-2.034751804306947909e-01 -3.238292473607293914e-02 3.925344626366271683e-01
7.619452862872574950e-02 -3.120964344530289813e-01 -6.040717809174214192e-01
-5.210438581212045728e-02 -5.450802671698910286e-03 -4.358568480532995504e-01
1.560738349417156723e-01 -4.501897446431354366e-01 -7.944066230521040772e-01
-1.947658559540684786e-01 -4.177345943858855326e-02 3.626003803804300762e-01
-1.350698834248463265e-01 1.788039165428990107e-01 -3.043272822226363861e-01
-1.076876530647168512e-01 1.964701223458073798e-01 -4.749124807782600932e-01
3.141081902442623142e-02 -3.952837800296184478e-01 -2.370950199668565572e-01
1.169627254991572989e-02 -3.060608936235408306e-01 -2.794758278859862943e-01
-1.462427180050041020e-01 -2.601346708147756273e-02 8.550397047229525704e-02
-5.199147971298959808e-02 -2.014663288911404393e-02 -4.126274726712956809e-01
-2.850185394088639024e-01 -2.917303685025827986e-02 8.100758832429004741e-01
-3.482604792183181530e-01 3.333905266475493678e-01 5.504022110585996552e-01
1.117589128762582623e-01 -2.709781817512676438e-01 -8.550797337938925713e-01
-7.961354378678765775e-02 -2.066963509487601634e-03 -2.987253897912366951e-01
2.471126047449015081e-02 -2.663037320278912601e-01 -4.113758852855724513e-01
1.159069889803591019e-01 -4.273863674076659458e-01 -6.231237673760734452e-01
-1.595820484095168412e-01 -1.047065005844275386e-02 1.294714463154384432e-01
-1.791573257632275706e-01 1.589925783002545390e-01 -4.366149253448820683e-02
1.345889277341198037e-02 -3.066354517681661451e-01 -2.876826569779473708e-01
1.957419937223735806e-01 -6.403694008293226991e-01 -6.918695371463542410e-01
6.503383958764827333e-02 -2.528561939628757305e-01 -6.422110050171284668e-01
-2.657685693601737897e-01 7.751116499582404173e-02 5.373961647716954948e-01
-1.315936582421187995e-01 1.161554145696113149e-01 -2.208265810319641753e-01
-3.427637869986125546e-02 -3.467352997211738952e-01 2.477217012068873986e-02
-5.519695391579308025e-02 -2.024997643707259487e-01 -1.005046966344400328e-01
2.141949371841584890e-02 4.323461804515191936e-02 -8.959198608092419081e-01
-2.797911407793474484e-03 -4.200758093866409359e-02 -6.322345393102845046e-01
-2.781976344600281537e-01 2.931525030448016711e-01 2.523833081249274857e-01
1.275067792187488391e-01 -5.156972330750390077e-01 -5.401517812302500943e-01
-5.536870725403366528e-02 -3.407391276367633948e-01 1.244037234911642281e-01
-1.018761164168616173e-01 1.596396934657385580e-01 -4.453570685976491195e-01
-2.151821106546758788e-01 2.200519425522990194e-02 3.650900042398349532e-01
-2.987107252087533582e-01 1.265249804791454824e-01 6.287500246964731199e-01
-1.002717670830005764e-01 1.865093695369160753e-01 -4.972169811607972667e-01
9.528869967834913135e-02 -2.555016204689673498e-01 -7.947735374911865103e-01
-1.748605313275271578e-01 -4.166729219081377611e-02 2.592336898026162406e-01
-2.728267526127940434e-01 3.563088625286649491e-01 1.221937977789086527e-01
2.617712964828917618e-02 -1.469421091140119817e-01 -6.124018251638965182e-01
-1.051901373717746141e-01 -2.633958121704642608e-01 2.573561732677854264e-01
5.605863977393031605e-02 -2.940294834416845027e-01 -5.289594671438896389e-01
1.295795495449845736e-01 -5.609014214608942783e-01 -4.776438372641669261e-01
-2.498331159608790375e-01 6.808471072847838146e-02 4.700580622414373133e-01
-3.605953843513316492e-01 4.563743777472852869e-01 4.150534088060687243e-01
-1.450337750247131935e-02 -2.532314992218159810e-01 -2.292601380839003888e-01
-2.691161119862694462e-01 1.898990727504824283e-01 3.726252295220595645e-01
-2.687030623824183673e-01 2.009010475402588092e-01 3.526550784929531890e-01
-2.420846841001809135e-01 1.402556883075077310e-01 3.129344211406939191e-01
2.866260959661607807e-03 -2.096519891904066180e-01 -3.899300410773849368e-01
-2.033937330473911953e-01 2.331795342526767068e-01 -3.823389092677863949e-02
-7.958698396840170608e-02 -1.352761823586955958e-01 -8.299646891963483042e-02
-1.608739684345261711e-01 1.212934006352973382e-01 -7.735559459061040755e-02
9.119823822209779940e-02 -3.391893583035486270e-01 -6.379508122457502317e-01
-3.155844886691870355e-01 4.383881484645323345e-01 2.108514477050068281e-01
-3.787957383069077144e-01 3.062148407612266809e-01 7.527437619170930239e-01
9.028737650667834720e-04 1.118267008741533064e-02 -7.376156526428355731e-01
1.493701510910690200e-01 -4.589477727879368030e-01 -7.454604376501945406e-01
-1.676211632658888839e-01 2.066378118381514972e-01 -1.806775987996249999e-01
4.309614626278908400e-02 -3.099292824454226158e-01 -4.359926037624485273e-01
-1.148928140624874833e-01 -3.780855644470886012e-02 -5.790846625007900483e-02
-1.831740422116513722e-01 1.925262337638259935e-01 -7.717929546877576319e-02
-1.353339915314965003e-01 -1.365685091725065969e-01 2.081054875568640328e-01
1.481454682303759984e-01 -5.898081451024708155e-01 -5.270510573616780103e-01
-3.555209130057545436e-02 -9.814518697089601174e-02 -3.714564709315820168e-01
-5.364197444086287597e-02 -2.863661990566245819e-01 2.734009884683523753e-02
-4.195533648107792057e-01 4.647950981660538550e-01 7.070618553416093688e-01
2.933191315686336370e-02 -1.274844623719114944e-01 -6.602883590854494722e-01
-1.143726414543785319e-01 -1.109356384066204765e-01 5.789784321925679766e-02
-1.219069520400459516e-01 -9.507119672698385870e-02 7.124931366846853908e-02
1.189431890828903521e-01 -4.117995660866901608e-01 -6.641227962504888671e-01
-8.952780951310086721e-02 8.574034222780364811e-02 -3.896195729599506996e-01
-4.080621644706960982e-01 4.532216616542861232e-01 6.662431779436654988e-01
-9.448666690548739033e-02 -1.648780285036424154e-01 4.221759212019551150e-02
-4.811853935424652284e-02 -2.520192791193840431e-01 -5.695435990896136058e-02
1.469993032219827633e-01 -4.330849478855876566e-01 -7.750802305062695075e-01
-2.436989935458082346e-01 3.046058487620194669e-02 4.992272939473740290e-01
1.795471120709529397e-02 -1.181183210751214768e-01 -6.164837408039424149e-01
-2.554698852707974477e-01 1.008626482937584334e-01 4.461637032752104881e-01
-9.298681372614837903e-02 -1.520480177592685445e-01 1.365080716666150322e-02
-2.196122021435793215e-01 -3.674981383492907649e-02 4.832697746669897820e-01
-1.231544006673956637e-01 -1.498890327023699454e-01 1.665491740646576069e-01
1.735152840185405776e-01 -5.916126433696351494e-01 -6.556509154225416136e-01
-1.472540466927392266e-01 1.180455425398328484e-01 -1.427018128206102021e-01
9.450210576747600233e-02 -3.627730510857171131e-01 -6.168614005075946372e-01
3.371632084411411989e-02 -2.741446945895642182e-02 -8.451825585381096406e-01
-6.447942720495013214e-02 -1.928686742613343330e-01 -6.798907619286118087e-02
3.023797484619081613e-02 -1.699992933740402667e-01 -5.960900038707529491e-01
1.061329574181134328e-02 -4.042929161914138869e-01 -1.146755946186656244e-01
-2.388611241255365614e-01 -5.789740202899216343e-03 5.328904003801384626e-01
-1.639176320833732048e-01 7.872215453519761097e-02 7.410637895774239807e-03
-3.096159032751171214e-01 9.981790739831716830e-02 7.285644771319667035e-01
-1.518401269402814002e-01 1.432173104548314230e-02 4.915895482904176356e-02
-2.034046185959181852e-01 1.747796048971057281e-01 5.646009958043098770e-02
-5.136619307466838008e-02 7.860451388900428771e-02 -5.758961599218813676e-01
3.343756078751899952e-02 -2.266602675561427971e-01 -5.208579663185090025e-01
-3.255147900004672912e-01 3.134678718266067365e-01 4.647671615898890662e-01
4.657900684156279780e-02 -6.238007016540680905e-02 -8.552042017294874121e-01
-1.181004192296228605e-01 -1.672684662245224607e-01 1.685114646371581593e-01
-5.000738124312428812e-02 -1.822726070872998649e-01 -1.601871320099125806e-01
-2.502797758975112696e-01 7.394187040456960680e-02 4.628820949595395806e-01
-2.518909753092309911e-01 2.377829023077721315e-01 2.057292787640690457e-01
-1.886852893179488113e-03 -3.011962402954127538e-01 -2.169404014529854874e-01
-1.986429319959285844e-01 -2.232476193921131835e-02 3.511834314518015310e-01
7.882593662478726282e-02 -1.502521981716274102e-01 -8.799836105757447013e-01
-1.174221884651638487e-01 6.372190956326503897e-02 -2.093264373092411090e-01
-2.718917632428789061e-02 -1.598634015591194821e-02 -5.479511832309759134e-01
8.355305138940297138e-03 -2.181308659137108988e-02 -7.227812046521067124e-01
-3.987547936715306156e-03 -3.640318194221499049e-01 -1.042242608417091043e-01
-6.297754230186415614e-02 3.193011467167510692e-02 -4.400635099421700835e-01
-4.915451615636531185e-02 -3.190979976172219068e-01 5.711803180237026711e-02
-1.479838141840302823e-01 -1.054031934038032331e-01 2.231819813761629079e-01
1.313158143391862376e-01 -3.939818074125789882e-01 -7.571396904326620492e-01
-2.590647937724661065e-01 1.626613504248851649e-01 3.646553963648931362e-01
-1.154887285727962953e-01 1.052872346905000950e-01 -2.867069668974014940e-01
-1.324859328165733929e-01 1.992362867770185175e-01 -3.508340095882601650e-01
-1.573480340232251140e-01 2.318119225616102619e-01 -2.747311594360203890e-01
-8.727181190425697954e-02 -1.963463037830292385e-02 -2.305542878804987816e-01
-1.758537691127621816e-01 1.728509160222545249e-01 -8.324558164629813906e-02
-1.464347709288664479e-01 1.621331095261470956e-01 -2.183934205174383192e-01
-5.869123599365427824e-02 -3.063698697338989585e-01 8.593296116179979793e-02
-9.761852551941761769e-02 -1.884708107178345859e-01 9.668629752525319254e-02
-1.438733729150061813e-01 -2.077185493823502926e-01 3.676751900115091121e-01
-1.856101426719058145e-01 3.672613383179858942e-02 1.879254347854371621e-01
-3.087362763763458907e-03 -4.144824851305030089e-01 -2.713535597034646973e-02
-4.174028970045093878e-01 4.936812784246377706e-01 6.491029539788256697e-01
-2.674275578976114676e-01 7.248263592822833112e-02 5.541455869145580637e-01
-1.775745061872346375e-01 6.128695372214453679e-03 1.958498939822819751e-01
3.008797049829886952e-02 -4.928518050419996438e-02 -7.909305344638019042e-01
-6.331636843146976057e-02 -2.213876730873833298e-01 -2.780342313171570504e-02
-3.710271081966108886e-01 3.718668457145872241e-01 6.060794553198621815e-01
-6.640016129629615349e-02 7.682204240849170584e-02 -4.950674484132097097e-01
-8.393278330701685330e-02 -1.620711651410249379e-02 -2.534190390184145603e-01
1.229024008838732196e-01 -5.508634743540709033e-01 -4.592942471318182673e-01
-1.354442895723101115e-01 1.646887328879497459e-01 -2.795124893462652693e-01
-7.071635591083184902e-02 -1.534909247515336972e-01 -9.946709326622772684e-02
-3.096711791073286646e-01 1.733787910424218759e-01 6.096450365298099472e-01
-1.797434966611300144e-01 2.207229755408650074e-01 -1.406572292534999657e-01
-4.353710456779856519e-02 -3.069472599961577952e-01 8.305465745288511184e-03
-1.709667505820928468e-01 -2.007601134555164479e-01 4.968584665633234421e-01
1.882095875447921049e-02 -4.497268991535515181e-01 -8.360022787398491140e-02
-8.131714912647261539e-02 -4.993402122599861770e-02 -2.123244805345746444e-01
-5.271721644487935982e-02 6.683474487252587248e-02 -5.498190796712055795e-01
-2.188323723823075440e-01 -2.220931292104107516e-02 4.556639248685299126e-01
-7.763709149616239424e-02 8.518972202938336624e-02 -4.503720220344911151e-01
-1.799032461681360565e-02 -4.070222390406890711e-01 3.803628428414464885e-02
-1.794750004944099808e-01 2.725385656947832969e-01 -2.260167688291407351e-01
7.870285200991100627e-02 -3.093194999470695872e-01 -6.215756599699734375e-01
-1.616705963826843007e-01 -1.565362830822681489e-02 1.486981081763741330e-01
9.297811906385325398e-02 -4.577009878441157253e-01 -4.551291490743664681e-01
-8.485675715960080967e-03 -3.407539363566515767e-01 -1.186267338598293308e-01
2.387424386152146253e-03 -3.431844765275457454e-02 -6.715770404697359863e-01
-5.532861688815749607e-02 -7.117742544288305218e-02 -3.126310298758800399e-01
-4.755585088452032178e-02 -6.385612216428326361e-03 -4.579228304393165860e-01
-1.323299280174519421e-01 -1.842865063177094032e-01 2.698590003709183116e-01
-4.140802623512699343e-01 5.282409092164527253e-01 5.758733467911236747e-01
4.654300518692163977e-03 -5.867918118460965088e-02 -6.438523808905578516e-01
-3.217422912697936455e-01 3.290391270720039452e-01 4.199761518375879077e-01
-1.791249926654593094e-01 3.200108450558523943e-02 1.619616244460984900e-01
-3.840601081763928698e-02 1.123360776875853284e-01 -6.977475598943220225e-01
6.334351528705328693e-02 -3.469659495711375219e-01 -4.809422831555774103e-01
-9.849738226512236294e-02 1.575182308029207112e-01 -4.594355029410351343e-01
-3.296653938697004932e-02 -2.375149755115709138e-01 -1.590108118971765017e-01
-4.335905764646619254e-02 -3.752783491362555179e-01 1.181135032497314385e-01
-1.231173640534856395e-01 1.838293279770460420e-01 -3.744361306800910727e-01
2.946268075161627767e-02 -2.325088092223008551e-01 -4.907734923655205361e-01
7.613520233866642728e-02 -1.980673603530188343e-01 -7.885492520776801184e-01
-1.381964183333784235e-01 -2.445416361610858180e-02 4.126288897649346699e-02
8.031209884706744240e-02 -1.213143532212747622e-01 -9.345822931960565683e-01
-9.074503324709332075e-02 -2.054876472088667805e-01 8.862815499637843875e-02
-4.713638425449826440e-03 -3.248549801425659189e-01 -1.639463934446742654e-01
-1.050343309811912346e-01 -4.689707571434995059e-02 -9.428951938063483140e-02
-1.099076379833064804e-01 -1.831107675606489515e-01 1.517104236282256213e-01
-2.584181040474240465e-01 1.607010086029234119e-01 3.644795297457927852e-01
-2.362019264008351493e-01 1.309739392296577210e-01 2.974777459602351848e-01
1.180580908083753711e-01 -4.895784889268399720e-01 -5.334928325873601329e-01
-2.260971482452708570e-01 1.081577611046687232e-01 2.820656137852071144e-01
-1.233051277281960872e-01 1.949970777370546582e-01 -3.915601410663423487e-01
-1.264342908116865838e-01 -2.709330383960552591e-01 3.797058095452439108e-01
-9.300261784288556613e-03 -1.369914323956880897e-01 -4.446024791127406450e-01
-3.001719580620459404e-01 3.183431362566991329e-01 3.254825858233981184e-01
-1.291651817578735040e-01 4.433908416852590240e-02 -1.170375241384209453e-01
6.778024558359332929e-02 -7.505396207859257873e-02 -9.445790764175935328e-01
8.519992354820316027e-02 -3.992462786835447863e-01 -5.095311846459733562e-01
-2.313785248671698311e-02 -1.645367471479960431e-01 -3.282272203509589148e-01
-2.467356846693803674e-01 3.314840277575322736e-01 2.715941242311750020e-02
-1.840992090440181916e-01 1.783239524096352779e-01 -4.936806607952193282e-02
-1.853949423078617154e-02 -2.083220094933835864e-01 -2.811119958992872037e-01
-3.267564170456079276e-01 6.556665093453234450e-02 8.729300248814702012e-01
-2.167461084298114293e-01 2.412672455317584341e-01 1.788227267456271585e-02
1.557695773583362142e-01 -6.114000331411509892e-01 -5.315866949591397939e-01
-1.009377933857997928e-01 -4.340758456635099294e-02 -1.211818389837766158e-01
1.540725722444441226e-01 -4.607466923341372866e-01 -7.669239110773311552e-01
6.677882471615873006e-02 -1.285477030057883829e-01 -8.527003979135703293e-01
-1.322181118678693590e-01 -1.440119060896870584e-01 2.040140001644851764e-01
-2.401745509090266045e-02 -3.332334952683415619e-01 -5.029267811138867644e-02
-1.737177202400549680e-01 -1.464625069748534958e-01 4.231305359644150776e-01
-4.484412188523116509e-03 -2.310529696433967772e-01 -3.171416799943937992e-01
-2.958211128599534945e-01 2.359560702608078375e-01 4.364355199831264076e-01
-3.056567797720102231e-01 2.272794277835665511e-01 5.014868758411286098e-01
6.198946183850078534e-02 -9.689754338383209376e-02 -8.791603702769664741e-01
-1.124662391226002311e-01 4.237842172369751803e-02 -2.004321395357366586e-01
6.283325478667294017e-02 -4.485613144439422051e-01 -3.136608444791826322e-01
2.001664405607803121e-02 -1.961388213458385363e-02 -7.868006027994668417e-01
-5.991383880659647415e-02 -2.129442057418926559e-01 -5.912577405887378679e-02
-4.233657273497831025e-02 -2.227864524935215806e-01 -1.343016873366110198e-01
7.215913315123327620e-03 -2.149558903432636503e-01 -4.038848136153266322e-01
5.099055799899486485e-02 -1.408233219809000292e-01 -7.509569665499824520e-01
-2.044106152734946891e-01 1.752487040906130361e-02 3.165080278213091569e-01
-4.188665990184408106e-01 4.899860056259833230e-01 6.626794048413815474e-01
-2.868933951069253530e-01 1.042613574197409215e-01 6.035641350154244966e-01
-1.598061873450177250e-01 -1.176355634223598123e-01 3.042950508433919787e-01
3.118534620080564215e-02 -4.390969187996045520e-01 -1.649265622187640334e-01
-1.384139900082729802e-01 -1.514693422906002729e-01 2.482199621704262171e-01
-9.615920119005508249e-02 8.891115766597969261e-02 -3.603789572536952868e-01
3.210332733557219598e-02 1.394660517720330145e-02 -9.038463143987651716e-01
-2.394870484260487598e-01 2.824890929905563008e-01 6.897718731146298965e-02
1.223002098421420436e-01 -3.397236293317221212e-01 -7.983261470090976530e-01
-8.499661080577262939e-02 7.739278734055723974e-02 -3.995832659863762237e-01
7.565008183414828591e-05 -3.090772623900244209e-01 -2.143432935849507448e-01
8.140732063514625333e-03 -2.730788146863107335e-01 -3.144906588969736960e-01
-1.252165941331949972e-01 -1.664381803696335371e-01 2.040581762267319188e-01
-1.469267647930632137e-01 8.163936777340745354e-02 -8.540203164803496227e-02
-1.965814347439724108e-01 -2.679229358371501557e-02 3.477357370960205696e-01
-1.030161547840194591e-01 1.567070850107714075e-01 -4.346944823054099682e-01
-3.605628372893068256e-01 2.136289679004927111e-01 8.082555717113388827e-01
-2.106996400307286355e-01 2.580626488692226994e-01 -4.068135948678561209e-02
1.219100312405669295e-01 -3.897841971709814501e-01 -7.151798002439195834e-01
-3.684682866899529063e-01 2.411402962353305368e-01 8.046572534371967400e-01
-2.168191854426201048e-01 1.526346565228513807e-01 1.618909497039836276e-01
-3.959445824029242944e-01 4.740331767817276276e-01 5.696970908945493406e-01
-2.701194932818273275e-01 -6.537072161930271297e-02 7.914937944927841196e-01
-1.662303487720226680e-01 -5.844734160511457638e-02 2.416846691345314324e-01
-2.950067126619839164e-01 -6.590691934264755747e-02 9.213848575589125289e-01
-3.327710100516448333e-02 4.470936444324876552e-02 -6.147475961854771409e-01
-1.317572768554449991e-01 -2.537443401109284458e-01 3.794472003966718465e-01
-1.569475268653183486e-01 5.486047675195821621e-02 9.943747995240077159e-03
-2.290131028027315163e-01 2.848619809447668350e-01 1.083210516600204530e-02
-1.608938503787121499e-01 2.036619464472465002e-01 -2.107314144129640021e-01
-2.731675359758735655e-01 -9.404778233574044577e-02 8.537670895972881979e-01
-3.638368136366702532e-01 3.904345829999015249e-01 5.387138341109883877e-01
-1.506212811617348712e-01 -1.171712875032620699e-01 2.559256228315074377e-01
-1.988376261697509528e-01 -6.661856894070877083e-03 3.268109152495320413e-01
-2.834328310471829759e-01 1.707084797580072644e-01 4.779455266651659318e-01
-7.222975055796060362e-02 1.531799654901571939e-01 -5.885838942745701408e-01
-1.890855423029736138e-01 -1.256371004143199688e-01 4.690537882477978093e-01
2.632130604551962631e-03 -2.667068106351316512e-02 -6.852389318978565624e-01
6.219936077859272022e-02 -4.436868820689352511e-01 -3.182736216154893882e-01
1.821923227659707351e-02 -3.212188733180837974e-01 -2.887290062909644850e-01
1.025118033861189409e-01 -3.682835836487748926e-01 -6.494560006100503768e-01
1.492453828056820690e-02 -1.367515606797622130e-01 -5.705791806325081206e-01
-6.720617005359111329e-02 1.019672044277858819e-01 -5.316368166141187679e-01
-1.491286857882433425e-01 1.332903127217429685e-02 3.671078048570283053e-02
-3.013337540825726801e-01 3.400118366377419821e-01 2.963913502222759733e-01
-3.765949855277683778e-01 3.774506184197691239e-01 6.258963051290591384e-01
4.551299616246058666e-02 -3.843784099241988050e-01 -3.278768025625192206e-01
-3.294820120091209725e-01 2.457970205201711611e-01 5.949954859550459219e-01
3.253407671679933721e-02 -5.420793337568970138e-02 -7.956344571958083867e-01
-3.331629603994996081e-01 1.155438550622018140e-01 8.251548347691991525e-01
-3.150462010191354412e-01 1.612207220925204187e-01 6.572128687020585280e-01
-1.406810521572390837e-03 -2.033809558892923641e-01 -3.779395301830596465e-01
-2.555309622023460014e-01 2.019022996827375405e-01 2.827447722556647447e-01
-1.846449646970582670e-01 -2.175754471161295625e-02 2.776949613313940413e-01
-1.135751978785084527e-02 -1.511461201350609504e-02 -6.314394621505965421e-01
1.477763455261387436e-02 -4.468823101426764449e-02 -7.190069602735327248e-01
-1.615492966258333940e-01 -1.367750056902504452e-01 3.443474266471378553e-01
-1.612086395985428966e-01 1.610131031007671909e-01 -1.399866661750362173e-01
-3.457501616168661696e-01 3.621418236043960071e-01 4.907963294407732269e-01
-3.252766052906449490e-01 3.686256156476672707e-01 3.741487779040322259e-01
-1.667699428403168760e-01 1.357742584742986092e-01 -7.025559809774441222e-02
-1.452744548065093566e-01 7.640308023305047991e-02 -8.548261219984511217e-02
5.916750294971430402e-02 -1.801063382057477846e-01 -7.296900402129264940e-01
-1.922724318818612443e-01 -2.178728085632670661e-02 3.172860245038830462e-01
1.106088177125711391e-01 -4.959141743819271420e-01 -4.846067345462324871e-01
-3.452287683651450445e-01 3.857888171699240254e-01 4.497731403362033031e-01
3.068469515245097774e-03 -2.542574335890174231e-01 -3.186948628769418201e-01
-1.252726350252567622e-01 -4.572656093506183295e-02 8.734554017645919724e-03
-1.910875706913925665e-01 2.821599690333557731e-01 -1.814055913947695275e-01
-2.890822203105469224e-01 1.287665285934922466e-01 5.752007757143996480e-01
5.800507479123725996e-02 -4.531121210708043412e-01 -2.812556203178316894e-01
-1.658919819173682308e-01 1.730307528571201417e-02 1.171763209102781450e-01
-1.833727999915282236e-01 -1.714023957674178367e-01 5.136004005121684868e-01
-5.741529608274736213e-02 -3.592555616704277144e-01 1.650198303817848877e-01
1.696098808355650245e-01 -6.048071419898259915e-01 -6.140224459418089920e-01
-1.193203688325855383e-01 1.649674822295479903e-01 -3.635550188788338466e-01
-1.988495146324670004e-01 7.552173157725260502e-03 3.038385978753320726e-01
7.166731310751420225e-02 -3.625861542388628678e-01 -4.987824593531331452e-01
-2.620171755948633857e-02 -3.256890772218575814e-01 -5.119465455112116176e-02
-3.424834275829718444e-01 3.893784888430252278e-01 4.297234511291586623e-01
-1.066442193410574307e-01 6.111010692073951672e-02 -2.609699290719634801e-01
-5.478335969178032422e-02 5.026212726474243997e-02 -5.122515675358576548e-01
-2.621207797923673644e-01 2.467032158513505491e-01 2.443079423110128823e-01
-7.405847996968417668e-02 -2.592511676547206712e-01 8.924471889225811527e-02
1.704300790962183509e-01 -5.236113813092870828e-01 -7.498529634835943147e-01
-3.589349723413291504e-01 2.192584973709263696e-01 7.906935767632725653e-01
-3.191562163663114737e-01 3.271098845305807357e-02 8.867713726100436844e-01
-2.982348828469725266e-01 3.289881346593223066e-01 2.981899524186971129e-01
2.654658991787273853e-02 -1.703467409596306492e-01 -5.763898134283100827e-01
-2.036939873291117031e-01 -5.144071236281177323e-02 4.245521160859069276e-01
-2.570733767152214022e-01 -1.225226512665571754e-01 8.164743221814459995e-01
-1.829187053433885823e-01 2.379871999648431879e-01 -1.521728942412517438e-01
5.246379146669787746e-02 -3.427374772210776271e-02 -9.312590566942080539e-01
-2.643351144132670694e-01 1.206128478478670635e-01 4.601181174476625113e-01
-2.412355639567806062e-02 -2.988958834530524022e-01 -1.053869970096604769e-01
-1.737115577901955088e-01 2.649103675676275360e-01 -2.435344751106869876e-01
-3.818804466988728330e-01 3.705325938928643592e-01 6.645082956542530672e-01
-6.885374617583102375e-02 -1.775020050742062705e-01 -7.021322198864288211e-02
-3.720562141709233273e-01 2.821595785054981653e-01 7.567859725952010841e-01
-3.659260196437683632e-01 2.414941574271155522e-01 7.909040110053090489e-01
-1.361734820294401363e-02 -3.997672758633006862e-01 3.608852444192325350e-03
7.079129831683218799e-02 -3.018237520307576749e-01 -5.927069223156851141e-01
-2.537336676507459532e-01 3.501839889585425802e-01 3.313543165144105379e-02
-2.896147183028555377e-03 -2.731676403730888270e-01 -2.571285162606848917e-01
1.321155076164330644e-01 -4.439647290052544659e-01 -6.802877912103276747e-01
-4.204718957589381190e-01 5.494227004608315257e-01 5.746840584163046550e-01
7.318059425378271865e-02 -8.531212752642149122e-02 -9.559525206750363324e-01
-2.578421496933649970e-01 -2.385028021684344052e-02 6.605604778723248582e-01
-2.499278271002275398e-01 2.477659723726991295e-02 5.407302181231632421e-01
-1.051001282860431485e-01 -6.201632713860619900e-02 -6.944753920546570258e-02
-1.747486546566713872e-01 -1.898149511585509042e-01 4.987281675575848672e-01
-2.494993009300319198e-01 -1.135662775074275377e-01 7.626943663255932870e-01
-3.722693594428020162e-04 -2.878108926397722755e-01 -2.464834805381732885e-01
-3.090454523038578816e-01 2.482394224591359666e-01 4.850888402983052350e-01
-6.534677014510117954e-02 5.716693421529072533e-02 -4.686772547191117577e-01
7.484174613298633094e-02 -3.866054295554267606e-01 -4.763161586592997709e-01
-4.361281553353147378e-01 5.694919016191718475e-01 6.233280865959844874e-01
-2.977212279944447260e-01 1.466239507874883830e-01 5.910496569765689712e-01
-1.325677133103174421e-01 -1.685321383710316756e-01 2.455616639423230108e-01
-2.449273425311828678e-01 2.170780680355591796e-01 2.031802533748734430e-01
-2.374649312857588235e-01 3.360213930810340699e-01 -2.825554520142561574e-02
-2.017841805982530656e-01 7.424506491361762550e-02 2.109763393386213104e-01
-2.066167939872644577e-01 1.005601903557712257e-01 1.933860553979871999e-01
-6.561159368692209837e-02 -2.479184518229224921e-01 2.708899325176711975e-02
-2.033815351839046021e-02 -2.552989469853444993e-01 -1.956607479931899429e-01
1.169028003255217774e-01 -3.572326790486042292e-01 -7.419709438530376344e-01
1.334531165283514287e-01 -5.653657323408293189e-01 -4.904910158676225596e-01
-4.287015850364138680e-01 5.238396274143907183e-01 6.588065942681458065e-01
-3.195926780832783476e-01 2.472913030007738155e-01 5.413049779640808357e-01
-6.609418375274156432e-02 -3.902253353348180548e-02 -3.089266494071836178e-01
-1.499121694257746773e-01 2.387720737896372736e-01 -3.245596959802212189e-01
-2.281183399093589248e-01 2.731077305279379641e-01 2.524126733151338051e-02
-2.375185017530625220e-01 2.905054687160354421e-01 4.578110152656567761e-02
-6.919674528885891296e-02 -1.686432804978144073e-01 -8.279065547027554539e-02
-2.019927234977232644e-01 -1.639887670312369650e-01 5.981173301254140151e-01
-2.684262115860041598e-01 9.935463932164630141e-02 5.157765823289841567e-01
-2.941742108807663958e-01 3.480663803280074076e-01 2.462218675317706662e-01
-2.258949627423333384e-01 -5.443992932939514633e-03 4.651099881131757208e-01
-3.094124416413632228e-01 4.023261733877822044e-01 2.372925899091377910e-01
5.006417095118253363e-02 -3.803110505727391732e-01 -3.580625257775436054e-01
2.858155624315270732e-02 -2.651834045853554978e-01 -4.332560564908590761e-01
-1.234947129479651573e-01 1.587428321680466048e-01 -3.318269819070809867e-01
-3.600934643918332068e-01 2.346308779854790749e-01 7.717884494752328406e-01
-1.284219957078569507e-01 -1.624546603834890468e-01 2.142205281746887569e-01
-6.792702977917268459e-02 -2.718117576685326053e-01 7.781214203528392936e-02
-3.334748565062704839e-02 6.003206869070391166e-02 -6.392132688351649383e-01
-3.037636906321305452e-01 -1.126452280079246610e-02 8.782349812322945981e-01
-2.054607420040984178e-01 2.862478582516392311e-01 -1.135155986377312243e-01
-3.754746928359410374e-01 2.851126542998378421e-01 7.697228175716979148e-01
7.553048986093353900e-02 -4.815672757854789765e-01 -3.260003562509594666e-01
-2.411201358682320550e-01 3.156179881589186997e-02 4.840732645175410687e-01
-8.750467844992342037e-02 1.847684682153453647e-02 -2.911070004210885021e-01
-3.012776200743655375e-01 4.255870784283855568e-01 1.574249662035667185e-01
-1.946135444294771338e-02 -1.084731147577922689e-01 -4.381387602559980166e-01
-1.862721079672566837e-01 -1.727875381244091124e-01 5.308758402019934097e-01
-5.207947151067855024e-02 -3.318289243558351087e-01 9.291236967417244863e-02
-2.284544592594143220e-01 2.747799314861784081e-01 2.427398680071704562e-02
-2.512066941568044665e-01 3.605196564368548517e-01 3.285877529026212576e-03
-2.966409539312757637e-01 3.392127869891806147e-01 2.733574574618983233e-01
1.746696219523527216e-01 -6.211054098064454632e-01 -6.138420528717707381e-01
-3.021943814095914282e-01 -6.717201033987654779e-02 9.606977878849031205e-01
-1.751358360543753268e-01 -1.680164186243617575e-01 4.654107238922343681e-01
6.327067236858763266e-02 -4.794795341672852262e-01 -2.658253122371693200e-01
-3.665854594593792037e-01 3.062297409284702177e-01 6.894181918006593301e-01
-1.077004677056997289e-01 9.375182380442216579e-02 -3.083902143838185284e-01
-2.533629086860984536e-01 2.057217708599942130e-01 2.653155061351692434e-01
-3.835691385413864118e-01 3.621505787271193655e-01 6.868460591395050274e-01
-1.769887383145102855e-01 6.292050620173408881e-02 1.007815253629777280e-01
-1.307871255816026312e-01 1.095996827639265786e-01 -2.143842505788818298e-01
