4.729351257393635266e-01 1.841418552316181900e-01 -1.254753061886262067e-01
8.256245994993625104e-01 -3.007789064839522797e-01 1.959708522998164504e-01
1.654282011619947756e-01 4.719075342194320455e-01 -5.193187710043782879e-01
3.991789943470512303e-01 -7.302478731204047058e-02 -4.942994197471238249e-01
6.699795633746562229e-02 6.778119982382900810e-01 -5.496719035301559364e-01
8.149031721568100739e-02 6.690227237883838995e-01 -5.270962486485643028e-01
5.097269028065344321e-01 -1.781465784502885563e-01 -3.541190918526860298e-01
3.993024340408459771e-01 3.238804379334100925e-01 -1.602029923134045686e-01
9.406373276963379826e-02 -2.400872022837916842e-01 8.532067733673300847e-01
2.293914482508445651e-01 -4.029733814133373837e-01 6.583303907063375870e-01
3.074985838158731943e-01 -1.579114135069271951e-01 7.472370278889785000e-01
4.224689608693180110e-01 -7.731626785770470689e-02 7.117315516969335842e-01
4.374814652081258637e-01 -1.284820295081327834e-01 6.704566236116490385e-01
3.952916607078874045e-01 -6.297649503330310372e-01 4.033291873358342272e-01
1.474635078438734370e-01 -4.911133691380776822e-01 6.653935961693016043e-01
2.677108087445464676e-02 -5.113184339471195106e-01 7.409153919635471652e-01
4.355394808568116005e-01 -4.580118354959605842e-01 4.761504907809850362e-01
6.280103103237291151e-01 -5.794223843226637971e-01 2.644691027773706238e-01
2.556683080620635873e-01 -6.351682134664677903e-01 5.013701267115346916e-01
5.561206484882927903e-01 -2.802734095607910536e-01 4.942716144663805156e-01
1.230592037841840986e-01 -2.349726081228178109e-01 8.352179170378472017e-01
4.896723011285349786e-02 -7.544667130035571656e-01 5.804088457960592251e-01
3.697331680573948121e-01 -2.465402344795806708e-02 7.812509005376579996e-01
1.835425922493787443e-01 -4.083991318095535061e-01 6.883559393826457207e-01
4.081101916038057942e-01 -5.178420427721315278e-01 4.605069006948531163e-01
2.216249096827255516e-01 -2.987982942106857664e-01 7.258341007650241927e-01
4.934969573113314745e-01 -1.261789451074818436e-01 6.312039663393496092e-01
5.885678946133003908e-01 -8.419082604122659491e-03 6.322017527953222027e-01
4.453611898820307446e-02 -7.895859005227117144e-01 5.627641417151478809e-01
-8.627988220373857681e-03 -2.699513225879939804e-01 9.099383694660246880e-01
3.802627938275555119e-01 -2.813603385868514439e-01 6.211521244826087029e-01
4.605390713597816432e-02 -8.027660758273958974e-01 5.538355222863913241e-01
5.175689168889530123e-01 -1.633968015494777770e-01 5.916433753566915366e-01
3.949471772923922042e-01 -1.351034765463124121e-01 6.973684133436620636e-01
1.269019145028698059e-01 -1.993406929339649469e-01 8.535938281230476266e-01
5.175149491200158325e-01 -2.171070025095680339e-02 6.758327419725771446e-01
2.050129375680868615e-01 -6.708736596425024512e-01 5.168974725764200473e-01
6.922977550844350292e-01 -2.907935956048172677e-01 3.892725166441299844e-01
7.157322157315650912e-01 -3.813539332961681794e-01 3.184930432703248493e-01
3.044027547376194076e-01 -5.693458518852575478e-01 5.051228116606877316e-01
3.510600964620106956e-01 -1.075836054746368703e-01 7.455384187991979106e-01
7.449157993395005839e-01 -4.636930617902926266e-01 2.484272457736047546e-01
3.907464670648166383e-01 -4.846790305144877964e-01 4.927946570005629079e-01
6.138303387601881100e-01 -4.071024097647655271e-01 3.770962355106421415e-01
3.445073006559254414e-01 -3.888167734764859107e-01 5.832602342756880720e-01
6.122419152455701452e-01 -2.501895813405465296e-01 4.714417966951207073e-01
7.002454831248416944e-01 -2.520076447813134890e-01 4.065448558867197359e-01
4.041358370265302757e-01 -4.849750671240199429e-01 4.829093249701676416e-01
7.689890604820944775e-01 6.128311208133339211e-02 5.427640757875654698e-01
2.978588153796755122e-01 -1.363643932992853469e-01 7.670246654849337542e-01
6.693053585537721561e-01 -5.514352052978924723e-01 2.511455058055094280e-01
4.513020220293895712e-01 -5.508582783476708711e-01 4.095766652356668813e-01
2.960409988837590656e-01 -4.386168920144075667e-01 5.888290329279662894e-01
3.066228389657566639e-02 -3.343196614466472649e-01 8.432167637114725833e-01
2.237481886878531223e-01 -2.917366880084593106e-01 7.284884022037115825e-01
2.806571449464950740e-01 -1.524603358912955675e-01 7.699390197034498007e-01
7.405825242549867182e-01 -4.330296101822125321e-01 2.697812295019966222e-01
8.876176169550631379e-02 -6.514629442734080067e-01 6.127272362957784102e-01
9.121076910442688090e-02 -5.108048879745601401e-01 6.944909548793426479e-01
1.942832968613586453e-01 -7.526515134092247594e-01 4.761087229807738908e-01
7.707016319178825459e-01 -1.292124387572420874e-01 4.283830311514935651e-01
5.473757950511288772e-01 -4.725371687532197718e-01 3.864237595825195104e-01
8.477817981124242674e-01 -3.631766524085250913e-01 2.335310878118213307e-01
1.866300911347259783e-01 -6.255696624251432247e-01 5.571350366303213786e-01
4.907027716334526612e-01 3.539771738305212689e-02 7.291938497592764801e-01
9.637097794536166051e-02 -7.015810405476732292e-01 5.774431473198793352e-01
8.474878014690341299e-01 -4.242834370080658113e-01 1.974517331549545951e-01
7.516176608804698844e-01 1.820020388582884938e-02 5.297734089961025905e-01
7.675325451165698754e-01 -2.888441588975064200e-01 3.358726479979811108e-01
1.839900091486634526e-01 -7.693275841659951153e-01 4.736688061893475910e-01
5.756936420065347226e-01 -2.513165096446545732e-01 4.972760401724475310e-01
6.550982586376624672e-01 6.141836364900303546e-02 6.254340911388546198e-01
8.850601534331518916e-02 -1.254788680090308528e-01 9.253052381169284413e-01
4.577422534512464725e-01 -4.658966430233959510e-01 4.553668587349207764e-01
1.054807856639054103e-01 -7.831548978921586412e-01 5.223886706492697485e-01
5.056962614426322444e-01 -5.043337149733104763e-01 3.977637121580502311e-01
5.618844301815163478e-01 -2.463299242787501120e-01 5.102516384992958898e-01
3.650894150963365781e-01 -4.238813533762381680e-01 5.475092331194078010e-01
4.889654943840126555e-01 -1.669456207298058992e-01 6.102778769274957993e-01
4.098277711724425676e-01 -5.463767003170567627e-01 4.423140629583278693e-01
6.135152894973340265e-01 -4.604769505450623246e-02 5.917623700097580652e-01
7.297277030875323200e-01 -2.099824114783779283e-01 4.101249984546126437e-01
4.848393128689093001e-01 -3.656327185365204069e-01 4.952657699916507283e-01
8.185244042012987942e-01 -4.415626664912452037e-01 2.081925086287087501e-01
2.143038143835602205e-01 -5.076162886271071706e-01 6.071218915912001135e-01
4.293064247562257685e-01 -2.095134145816919258e-01 6.282587087010478299e-01
2.205465105621724209e-01 -2.221930865808224576e-01 7.721134953470243367e-01
8.097014912637487752e-03 -2.447448413287020286e-01 9.127806104803937171e-01
3.283528713021027778e-01 -3.211031987853981695e-01 6.351913267133068031e-01
2.194762097225259889e-02 -2.195829003166017701e-01 9.176808118981367723e-01
6.428305815742588747e-01 -5.711827324640329495e-01 2.586156478235693834e-01
1.135996004859624389e-02 -3.610523941265630365e-01 8.413370354299022358e-01
6.659187502428495220e-01 -4.007107243612909042e-01 3.431196643783166467e-01
2.312713075168231214e-01 -2.487152404488036928e-01 7.485842002936629047e-01
1.308133588187795626e-01 -6.440205242864033286e-01 5.866530696808627265e-01
2.623713809026886334e-01 -2.723004397643213892e-01 7.120237730636618245e-01
9.446638441404640874e-02 -4.184832002161351094e-01 7.469618057667400945e-01
1.867929079196360698e-02 -7.084083307423383324e-01 6.297276176421240379e-01
1.880977191178336838e-01 -4.548949290424294523e-01 6.574379272362491644e-01
7.232239928081761748e-01 -9.671201664978436308e-02 4.821148354366942002e-01
7.442654546434134266e-01 -1.650103035119812322e-01 4.262925630267245802e-01
4.990202543468549301e-01 -2.790938591530920387e-01 5.363794123295391181e-01
2.925711224739439009e-01 -4.356842337985358249e-01 5.930870326043543583e-01
2.050329195103702262e-01 -6.511394536564343305e-01 5.286035250108856998e-01
3.822985533801862013e-01 -6.895347693287443569e-01 3.772528411644134327e-01
6.328252499266929787e-01 -3.766654804598452144e-01 3.813988859090542971e-01
4.800092158547575871e-01 -5.090693168690905296e-02 6.856903776548111118e-01
3.842517545223913533e-01 -3.734636040816182723e-01 5.635574819884667797e-01
8.056026366027218000e-01 -5.253385100108090566e-02 4.486149832800803150e-01
7.840756040846610375e-01 1.202489625236273924e-01 5.668448409506137153e-01
2.806334338122074556e-01 -4.669983610751354264e-01 5.831457419656143060e-01
2.617853406788554493e-01 -1.553056166372092095e-01 7.819343325729168903e-01
4.573011044738525266e-01 -5.539048581328434029e-01 4.034169121412835568e-01
7.384949047555564583e-01 -3.664023918044795325e-01 3.108663470324319889e-01
6.980812886892737712e-01 -1.029302800859645262e-01 4.966543064900900695e-01
-3.852579197150009238e-02 -1.812746812989357026e-01 9.842860713831886876e-01
1.938533450590359808e-01 -3.822499424131809986e-01 6.964094671649805335e-01
1.126151664322768281e-01 -2.271325921710520834e-01 8.474479166764918858e-01
1.547219776860041078e-02 -2.356758596113369131e-01 9.128186329138165966e-01
4.565634168941746784e-01 -4.769874520379590588e-01 4.496346554093844095e-01
4.045021048350027487e-02 -5.793493199714030428e-01 6.905908440475257981e-01
5.928220961361442276e-01 -4.471736874522125316e-01 3.685315500680484413e-01
2.265219524475909144e-02 -7.229868973571575985e-01 6.181880996496079694e-01
3.800302179494335353e-01 -1.605540693528295648e-01 6.930700584801626762e-01
1.455413688488447765e-01 -7.180386397680811328e-01 5.320119735713705333e-01
-4.725639078580422953e-02 -1.654765996706245579e-01 1.000000000000000000e+00
3.291410650631289014e-01 -1.040741379919893905e-01 7.635176888717086774e-01
2.776243221930397853e-01 -5.966881291880135052e-01 5.083024790678007943e-01
4.083774608221985569e-01 -1.388840917903103218e-02 7.596213057430259985e-01
7.842087988305980195e-01 -2.417639296842971075e-01 3.517415001568853783e-01
6.298121466014796610e-01 -2.435985371604272587e-01 4.626150240649967715e-01
6.368010240022334845e-01 -1.528098921752950035e-01 5.114681368704545594e-01
6.993601640104846195e-01 -9.862968520588004384e-02 4.982811201276953761e-01
4.362597686750658843e-01 -4.413530863835052331e-01 4.855221296962407562e-01
4.525066855635172525e-01 -5.478231829899691402e-02 7.033325951313936786e-01
4.803378105208929161e-01 -4.426412324345824767e-01 4.527931960435221392e-01
7.163941261938500116e-01 -1.287071627670954288e-01 4.680650573650661506e-01
6.345200095437227850e-01 6.013397217541279448e-03 6.074506024242690705e-01
-9.509190637927979152e-04 -6.955703603086359488e-01 6.515874990719011661e-01
1.412207145121733842e-01 -2.519370975263198753e-01 8.119722628481934601e-01
1.908301143764601082e-01 -3.895329530714059518e-01 6.942762831169304594e-01
1.247156792139192810e-01 -8.012060502843517673e-01 4.977192451587855171e-01
7.290987051798246410e-02 -1.698404861834294233e-01 9.102677660802825921e-01
3.090616095928025442e-02 -2.819220658471334184e-01 8.741599004931873695e-01
3.062191246405711054e-01 -5.206206642375864613e-01 5.327445137016360022e-01
5.929473644697762502e-01 -2.777342932750343496e-01 4.690741808057222739e-01
2.800109675751365490e-01 -4.523135582069889304e-01 5.923187334162223205e-01
-5.274272817157743369e-03 -5.673957972337162481e-01 7.308481024944658566e-01
7.940747936742420521e-02 -5.023529962143818972e-01 7.080700429046113964e-01
5.570481569470578376e-02 -3.396788489124926702e-01 8.218738527566026297e-01
4.647598938235918409e-01 -2.539757888893542925e-01 5.761419738898199139e-01
3.693339657843037194e-01 -3.923163401191785971e-01 5.631783286795130072e-01
4.701302470610918549e-01 -2.875408479510539461e-01 5.523126136607131587e-01
5.495322446625796609e-01 5.966292324945647596e-02 7.009443369970705939e-01
2.118497901213020618e-01 -7.410268626484859400e-01 4.702742214827038691e-01
8.635574055345512923e-01 -4.753717233760719751e-01 1.554562468895297478e-01
2.652483571581068511e-01 -5.722197463792118022e-01 5.318093683182976150e-01
6.966449103699137724e-02 -8.147818239927200334e-01 5.295775450722622901e-01
2.937074181451655996e-01 -3.401763343405843631e-01 6.489870964391387664e-01
4.852838535565317524e-01 -3.565026146342820668e-01 5.003659571086082058e-01
6.860201011634522450e-01 -1.707798721512261420e-01 4.651034241141041581e-01
8.486854094754991973e-01 -5.021246374872165852e-01 1.503518113319228244e-01
5.868129097260844224e-02 -5.720211824339420659e-01 6.817226209878721743e-01
1.647971411481997106e-01 -1.255083268266175556e-01 8.699640452179597805e-01
4.156047178737715675e-01 -5.497535053281923378e-01 4.361192676368388921e-01
-7.657625915641937640e-03 -5.801871304508170457e-01 7.249793974816031161e-01
1.223572728823285882e-01 -6.062626630411611650e-01 6.152102866972855022e-01
1.040775816470961707e-01 -5.488555760061615274e-01 6.625613151182518923e-01
5.356124510844924025e-01 -2.024755216065245722e-01 5.553491864179800341e-01
7.641246503093573894e-02 -4.137013057349381295e-01 7.628939497711765272e-01
5.000927179098605402e-01 -7.686096522053786385e-03 6.967962387676682745e-01
3.282860402098232155e-01 -2.169173406963130768e-01 6.971178711605828804e-01
7.237694804243854918e-01 -2.363143370611959504e-01 3.988066350217227551e-01
8.402808869383445733e-01 -3.827941779518724275e-01 2.273192464546267000e-01
5.713105699184681807e-01 -1.776459170785538721e-01 5.442089427370785382e-01
6.988086101008813555e-01 -7.877533951901853626e-02 5.104729840659036899e-01
8.050817784655123210e-01 -4.794786123833637281e-02 4.517164034054748090e-01
6.558917521350567104e-02 -1.750697268565869491e-01 9.124707307420816260e-01
5.003948615267757027e-01 -5.281666350006753996e-01 3.874532532553720543e-01
7.840499904212306914e-01 -4.051597289036158456e-01 2.548126043726769985e-01
2.470324244291285110e-01 -4.540039960249729889e-01 6.152296519264208730e-01
7.397172199815822413e-01 -2.707047620829579615e-01 3.668167170761577611e-01
4.332290942635634856e-01 -4.956366139443300067e-01 4.554797893651275631e-01
1.528634533928823758e-01 -5.830589293262701256e-01 6.068694204178332052e-01
2.484107673882269551e-01 -1.032534034531554235e-01 8.225479709088822089e-01
1.736260870452316918e-01 -6.584792117497972885e-01 5.470194479044752089e-01
4.399836990705378592e-01 -2.799759186577944203e-01 5.786668158840080345e-01
2.801919787066384782e-01 -3.904821238521562488e-01 6.289104053686950246e-01
5.624022587249485339e-01 -2.992006319941014070e-01 4.784751482271695777e-01
3.450431060672520256e-01 -1.595605675770353504e-02 8.043211807978645211e-01
3.748627744903315073e-01 -4.942849383930068563e-01 4.986078214855152457e-01
7.765965115491239024e-01 3.726182731014777982e-02 5.229806891582888806e-01
4.117884910684072586e-01 -1.773561088957388288e-01 6.600609827684599251e-01
2.572867720616539566e-01 -5.908424900416130165e-02 8.423443490343466289e-01
1.179293819849561720e-01 -5.391334221554729966e-01 6.582906497238194543e-01
7.474501443463579253e-01 -4.699372621073399925e-01 2.428808696543865719e-01
4.982131760479549532e-02 -2.763713619818601863e-01 8.637399552871353192e-01
4.379161807434525655e-02 -5.713324148267695524e-01 6.929291718868771932e-01
1.058700259810284178e-01 -7.196767403513161243e-01 5.598073640560364828e-01
1.753754957025936423e-01 -1.245059654240785602e-01 8.628883094870156700e-01
1.854452326322190703e-01 -3.009901895190578713e-01 7.507685456153391224e-01
1.359820665416722474e-01 -7.337546640383251217e-01 5.296099868015161638e-01
6.291917957874234579e-01 -5.890774535261575906e-01 2.578779900288630800e-01
6.460367188714684072e-01 -3.986605403260787273e-01 3.587550743426700661e-01
6.448965859278855683e-01 -8.487272581684097983e-02 5.459467664800096154e-01
1.815218392224376420e-01 -2.910313951442029534e-01 7.595283840663489272e-01
5.655512107031598554e-03 -4.895013015050642680e-01 7.691853097947194406e-01
7.924231949178924816e-01 -1.188024599309391305e-01 4.188139980504582693e-01
6.639688859573328328e-02 -5.131492377989887999e-01 7.110927697437868789e-01
5.200618447078373396e-01 -2.779154738019891102e-01 5.218206425508815638e-01
6.997580372045411057e-01 4.802591550991364144e-02 5.850943130974327611e-01
5.776436871610304141e-02 -3.270287444071995897e-01 8.278934878544046416e-01
1.678149129991299837e-01 -5.085794059425153835e-01 6.402620268588335994e-01
3.311112824503883445e-01 -6.092464713769872864e-01 4.620569252359824075e-01
2.212943727789592752e-01 -4.679520992463847562e-01 6.256099408710582566e-01
-2.328425932605041396e-02 -3.817647603656292299e-01 8.541583383197283164e-01
2.639250311278086847e-01 -2.058591752884113835e-01 7.503579254373609064e-01
2.614601611256601732e-01 -2.343037577354387946e-01 7.352515534880711412e-01
6.098324154537676511e-01 -8.192249646250869544e-02 5.731262958524790951e-01
2.885579462303045073e-01 -5.133013814766810290e-01 5.498988615167436089e-01
2.377134888372454680e-01 -3.323771843893591482e-01 6.942240376931378965e-01
5.362147922366370389e-01 -5.586077843735899329e-01 3.433982611503156313e-01
6.537464720741134050e-01 -3.480672905514516913e-01 3.832125775478179563e-01
4.628365749277723040e-01 -5.131224589850320594e-01 4.236242683948786003e-01
6.333845642680744348e-01 -2.312850934409018400e-01 4.673376322045934006e-01
3.446330485121419374e-01 -5.816607541000570203e-01 4.686351196653733009e-01
8.095939314667359443e-02 -5.077913249153656050e-01 7.037147154674630034e-01
4.810995210841946257e-01 -1.265048775237031242e-01 6.400005822516070531e-01
7.793697998155956208e-01 -1.799709302508277486e-01 3.919506832873512758e-01
1.152858099024885591e-01 -6.932330801850572488e-01 5.686847845752726061e-01
-1.011341698370375394e-02 -3.757309150263816733e-01 8.481909194514795081e-01
1.845185291868015887e-01 -3.670304058982222783e-01 7.122179435783598800e-01
6.555225525021306510e-01 -2.472030017146200631e-01 4.418299591160296802e-01
6.710135501284356652e-01 -4.651546190698984118e-01 3.011505631381026227e-01
3.978307366156947494e-02 -3.389256270167067542e-01 8.338671053453176052e-01
6.328316794049344551e-01 -2.244498532689952197e-01 4.717981521570596692e-01
6.856967992569119597e-01 -2.481448628223309749e-01 4.193892443771349288e-01
7.898970890018595092e-01 -1.095255210479066932e-01 4.261556040197839734e-01
4.421551985977222321e-01 -5.032817077081698232e-01 4.444663106840868183e-01
3.589224672341003730e-01 -3.171073088751597546e-01 6.153965482113411545e-01
1.423067283354391768e-02 -6.326954251804602913e-01 6.779210226625044244e-01
3.794853573755838094e-01 -1.547914214694841393e-03 7.879021326872762687e-01
3.255414757240862045e-01 -1.665288463919625817e-01 7.290348770715013860e-01
-2.650163647336261641e-01 4.587372503647346167e-01 -5.619125946476781763e-01
-5.804408179757166719e-01 -2.999904563196820542e-02 -6.234479814209377135e-01
-7.328318516373677483e-01 1.753183538083649406e-01 -3.909971112477786392e-01
-3.692764531549499463e-01 6.758273061397374049e-01 -3.573726103141413590e-01
-9.421960108594512606e-02 7.160520535998257108e-01 -5.329440773707389001e-01
-5.231962688485252144e-01 5.393487695180696484e-01 -3.268126149195503816e-01
-2.764542706495057844e-01 2.941312912803874524e-01 -6.513810157427478709e-01
-7.714455457343633027e-02 6.410304166167152262e-01 -5.898831751418432967e-01
-7.148828904372399595e-01 2.556068845020522118e-01 -3.563281032048518093e-01
-6.449318153913365936e-01 -2.363538660643012268e-02 -5.729018260336314894e-01
-7.712770610950867023e-02 4.807572111098470935e-01 -6.850848799029743974e-01
-5.668190446993804921e-01 6.159474915806542605e-02 -5.789266215496379209e-01
-3.188247528755446258e-01 1.766209000492419690e-01 -6.904471910244568411e-01
-6.187702815453534066e-01 4.393290238035966189e-01 -3.169093755383138311e-01
-6.431880525442107421e-01 5.245305424551257589e-01 -2.485995499932556196e-01
-5.737966478214562294e-01 2.848090672291662684e-01 -4.412952220189620411e-01
-4.661123860175004491e-02 2.341041006959185267e-01 -8.537066242782028747e-01
-1.494419540206985419e-01 1.788391836275236013e-01 -8.119602793232668647e-01
-3.956754833597631027e-01 1.255534650993646584e-01 -6.650476670824315706e-01
-7.837966286874410438e-01 2.537026623415276627e-01 -3.074851897623340768e-01
-1.149205119578993461e-01 5.643994003443367768e-01 -6.080020569326429758e-01
-6.097438300664825839e-01 2.292080526281746466e-01 -4.482501267285346480e-01
-1.979498067030975861e-01 8.673184668242098216e-02 -8.314884590375613005e-01
-6.807093548877573008e-01 8.004015772976706689e-02 -4.853821914697907802e-01
-8.091899700664858530e-01 2.857731979013179435e-01 -2.700234758191477069e-01
-1.133898599401402495e-02 4.832849615706129032e-01 -7.312913118063606444e-01
-1.432208732971360088e-01 5.607525184429466014e-01 -5.896455663071294984e-01
-7.341006863563452889e-01 2.116517457939357527e-01 -3.684978622629503930e-01
-3.865093552426778212e-01 4.130395862592905476e-01 -5.009508262387912803e-01
-3.940886763554497518e-01 4.832437315047406062e-02 -7.120662790210717796e-01
4.417962416366089107e-02 4.169643876774004609e-01 -8.109406210817144967e-01
-5.412733487763031759e-01 -5.531165634797264447e-02 -6.668845506713088067e-01
-1.831923724920728747e-01 4.973877563227903642e-01 -5.982932210947216056e-01
-5.791981511210771982e-01 1.359172793787886413e-01 -5.258080713843019671e-01
3.546945763354442116e-02 2.066576557343271225e-01 -9.295297148636130213e-01
-2.979409615822598001e-01 3.408686670295777987e-01 -6.080413381668007267e-01
-5.357773941308615617e-01 -2.317041889861249856e-02 -6.517806989978390808e-01
-2.857913247524784262e-01 1.757113496647567663e-01 -7.149420956222111156e-01
-3.600143879625422594e-01 6.916332210880300480e-01 -3.547016895411793658e-01
-3.037392104994320330e-01 5.935599055255221801e-01 -4.537582285777445046e-01
-5.889606913532821064e-01 3.736434183596121228e-01 -3.775382684798881949e-01
-3.543622346928789746e-01 2.368429107578122195e-01 -6.289095673884476101e-01
-4.583050441127340391e-01 5.484756706491206169e-01 -3.684488455064616752e-01
-1.201867458091375046e-01 5.969796067575871001e-01 -5.848331243324926820e-01
-7.016045863113896663e-01 2.104003585002197155e-02 -5.052710507929323303e-01
-7.168996790628178184e-01 5.440873722397910894e-01 -1.835312219656445309e-01
-2.075541544233761859e-01 1.187805967428552378e-01 -8.054893183173634785e-01
-7.827095819860827586e-01 2.117195928646347369e-01 -3.332080696617043536e-01
-4.415647938660201555e-01 5.939306650103290952e-01 -3.535916611617724303e-01
-5.053487699268082167e-01 2.790546326270604283e-01 -4.943489401783783821e-01
-2.860721792840239738e-02 3.475137961652373098e-01 -7.994062161972901315e-01
-3.945541469041086158e-01 4.172116240584886060e-01 -4.926391630847145042e-01
-5.260905914712417086e-01 1.168104949424928207e-01 -5.756677487888559597e-01
-5.477156878542145391e-01 1.321232979163110624e-02 -6.215150118930826695e-01
-1.710347816776661978e-01 2.260199144057797038e-01 -7.682803175636521154e-01
-6.889041476756843085e-01 5.278501735804682626e-01 -2.134762165904121045e-01
5.135051579094120381e-04 2.155866475635235258e-01 -8.988777539287415852e-01
-2.981973442200491417e-02 1.418663698704916987e-01 -9.206650920152502637e-01
-3.457862861407788313e-01 4.492677643667216669e-01 -5.089651482066516186e-01
-2.961802626255577442e-01 1.744435630568449136e-01 -7.081613597231645185e-01
-6.893370137942335385e-02 2.001841867197890479e-01 -8.576648636511161605e-01
-4.961829559926470012e-01 3.717953039872110704e-02 -6.446501706140079779e-01
-2.139924511664386721e-03 4.973488477501913363e-01 -7.296093289068428245e-01
-5.612281608229480190e-01 5.255299551795259427e-01 -3.074404691393535227e-01
-8.212855367255708638e-02 7.808207180058920338e-01 -5.032446733853759291e-01
-2.004420417705859159e-01 1.698507714596489693e-01 -7.803151714352740687e-01
-2.822462544705410248e-01 3.437073904613907604e-01 -6.177366241295887406e-01
-2.453458275561870849e-01 1.689254672937617607e-01 -7.483020494116839894e-01
-6.764027613159899754e-01 5.055938123932394168e-01 -2.357602928444084422e-01
-8.072120660488986132e-01 5.151499627909015278e-01 -1.352263002476009612e-01
9.433134538623660567e-03 3.748986186469183135e-01 -8.107273715949669946e-01
-2.897176631493702526e-01 1.596025833358416246e-01 -7.216621712256005017e-01
-4.818699184636943827e-02 5.949876174965820219e-01 -6.382279485631164873e-01
-4.491835212224644658e-01 4.623751279266737346e-01 -4.262003072911542678e-01
-3.976411258556699080e-01 1.656955308526557591e-01 -6.397810689889490421e-01
-3.542756932739885567e-01 3.398561832971568886e-01 -5.677906655934439328e-01
-1.982730586382288884e-01 5.548366699452799145e-01 -5.532371593267075838e-01
-8.028770157804148155e-01 2.944742581397691850e-01 -2.694336777948010409e-01
3.151400386741264742e-02 5.492786408451624247e-01 -7.231718479217963402e-01
-9.192497398798483987e-02 1.064641161689132004e-01 -8.966546233499289587e-01
-4.221372260875948523e-01 1.662786086461044144e-01 -6.216710391752937603e-01
-3.621644291607849231e-02 6.285721614840469318e-01 -6.269620408176226345e-01
-6.541427224401182849e-01 -1.087121414648605233e-01 -6.167511928109363772e-01
-7.965053788612941332e-01 1.735408753828306117e-01 -3.458789426926574540e-01
-4.277599024242538794e-01 4.995624678440619415e-01 -4.196496671065456652e-01
-7.533008464188126752e-01 4.707748545406889584e-01 -2.006761309503270196e-01
-4.251015003034248549e-03 6.817426438417040213e-01 -6.185632470946970107e-01
-2.498170933770159918e-01 3.902546954941091273e-01 -6.136077522308975851e-01
-6.492395293885775409e-01 4.910056428976838361e-01 -2.641223409138843681e-01
-7.069136162055028594e-01 4.087972948357890823e-01 -2.711242743512480846e-01
-9.278075059987750395e-02 4.540553497137801431e-01 -6.895926048037154255e-01
1.794025999268960420e-03 4.065813569532548133e-01 -7.863707363966188080e-01
-5.269471485899009933e-01 8.497864638950167193e-02 -5.939521794516026132e-01
-5.538618498175020832e-01 4.083836531236478273e-01 -3.823578138729924469e-01
-5.252744757159203415e-01 2.379708229773911943e-01 -5.043000071860398448e-01
-6.320884872703865787e-01 3.693079635318868292e-01 -3.488383903428698418e-01
-4.876779961592674906e-01 4.869711394127878012e-01 -3.836773730245655600e-01
-3.594524422256111795e-01 3.133739820471065363e-01 -5.797649785927438959e-01
-1.285546464636444508e-01 1.907478190559273590e-01 -8.200342567522639348e-01
-4.594751689804626449e-01 2.769457232484001663e-01 -5.288674193273652513e-01
2.793195322985132442e-02 2.344014537589102498e-01 -9.075861755020910859e-01
-6.855717645592305232e-01 -7.284287775409541144e-02 -5.726564553736899210e-01
-6.053095761472463421e-01 5.070986322795867363e-01 -2.864208791848845692e-01
-3.684061686748627551e-01 9.507453435732200753e-02 -7.029244860744070511e-01
-8.218520649278580059e-01 3.730096055698557955e-01 -2.090299001068190166e-01
-5.198503010194984730e-01 5.348914397354135319e-01 -3.318862935321351681e-01
-7.263699455741022826e-01 1.485449535708739388e-01 -4.115843249372279633e-01
-4.049282960486791927e-01 3.337279310189056880e-01 -5.346988352399092426e-01
-2.231022493162781728e-01 5.735941803291974006e-01 -5.240914219982241162e-01
-2.090705905509918916e-01 6.463005662423308983e-01 -4.910849097472960167e-01
-1.612946343496602167e-02 1.822794978171542457e-01 -9.065906338383239449e-01
-4.903531641685413556e-01 3.165443286731901562e-01 -4.829573509409287868e-01
-1.224168855326076000e-01 7.908897573176708606e-01 -4.680487574098272652e-01
-3.472064080157648558e-01 2.941102912386804324e-01 -6.000864750117430590e-01
-6.426066134376774430e-01 2.842877776130040557e-01 -3.917062094071414591e-01
-6.895588284072569074e-01 4.287648491803398576e-01 -2.718502357622218923e-01
3.778196780868612464e-02 1.748505380303834733e-01 -9.500975558249374897e-01
-5.405093729152157245e-01 3.158971067117566367e-01 -4.469701940713032284e-01
-2.806168785174297242e-01 6.904708157524281908e-01 -4.129684046318735091e-01
-2.201648641221026492e-01 5.270741084454794168e-01 -5.538507208071959953e-01
1.401317668815335246e-02 4.774868448944787902e-01 -7.531194453176184300e-01
-3.893920848687374980e-01 2.750986814737164665e-01 -5.807862533651569903e-01
-6.583854462312479505e-01 1.039187961593157766e-01 -4.873887165135491473e-01
-2.881199591359817624e-01 2.389735658504392735e-01 -6.756807450180263297e-01
-2.287063844766663301e-01 5.599661338725360205e-01 -5.281214676500176619e-01
-3.985343648226389868e-01 4.754370807246973141e-01 -4.551715739745001987e-01
-4.030291108083587370e-01 -2.264590542427610473e-02 -7.477336626475226122e-01
-7.883228172192840999e-01 -6.964970239283696518e-02 -4.962484398716484058e-01
-2.366801950835888957e-01 3.228180853973564579e-01 -6.631861402229127789e-01
-6.250330859125338145e-01 3.893598259139647300e-01 -3.420455192098073027e-01
-4.260180729139263489e-01 -3.885759379121345777e-03 -7.199208303238812112e-01
-7.387484765512166707e-01 -1.606694924460350671e-01 -5.862565319095278671e-01
-3.689293550115347459e-02 3.391312448703328042e-01 -7.983762653539879794e-01
-5.917248029529145192e-01 3.316693027600796095e-01 -4.004631031378677042e-01
-5.860756662440708142e-01 4.995388714175648115e-01 -3.048585424993010551e-01
-3.528384634566592570e-01 1.466482573485558827e-01 -6.835829762135054999e-01
-7.772091269730881935e-01 4.724382178611510885e-01 -1.823507643742832141e-01
-1.190120527908817144e-01 4.895901472019928424e-01 -6.494657355651545227e-01
-1.408094414362888631e-02 5.778537623436001969e-01 -6.731366215159062527e-01
-6.859505786191866239e-01 -6.155513247410172861e-02 -5.656777330543373283e-01
-9.106826744025439679e-02 4.601703580962789308e-01 -6.872026118895505631e-01
-7.195504725095445142e-01 4.684659458421818745e-01 -2.265220470430664990e-01
-4.575011453036091358e-01 7.773376290168879099e-02 -6.486149113974379876e-01
-2.994191027680001560e-01 5.737214885810265619e-01 -4.686734575448980311e-01
-7.668378406407098113e-01 1.245028311480669420e-01 -3.965175023265147813e-01
-2.771523748061431314e-01 1.224972436868212999e-01 -7.528116945661479376e-01
-3.432731714738476714e-01 -4.227131567622817963e-03 -7.801273306611565816e-01
-5.051757378933965370e-01 6.318067684330508360e-01 -2.849678143624155835e-01
-8.320819695795300674e-01 4.895738072949864517e-01 -1.323816970104878810e-01
-3.260657794203510873e-01 2.086586281243394958e-01 -6.661683955992915296e-01
-1.930199788790116222e-01 4.992854688318593137e-01 -5.900394897334668709e-01
-4.943391684001982034e-01 1.467969756582314655e-01 -5.808832119421867279e-01
-5.393870366303344932e-01 1.885442124002174313e-01 -5.234215242412455504e-01
-5.496774285998778237e-02 1.928891690048555596e-01 -8.721251537772291007e-01
-5.108468504244823710e-02 4.393868489194130977e-01 -7.285410736398675313e-01
-7.406715521747863074e-01 2.136403480731342286e-01 -3.625518257227517971e-01
-6.052969801001948369e-01 -7.246750745992615317e-02 -6.306460241499478592e-01
7.555866785448604218e-03 2.317825362519985444e-01 -8.943655673208368295e-01
-2.365403877699902985e-02 6.098302957349828191e-01 -6.472030353930507962e-01
-8.223845370378873865e-03 6.529874959388251021e-01 -6.327605492095660367e-01
-3.405105171815380749e-01 3.115725314765390233e-02 -7.611152131931763209e-01
-3.676118976043523112e-01 6.239830931528159708e-01 -3.893710116079740491e-01
1.429073765433202040e-02 5.671690923751260272e-01 -7.000566287696995404e-01
-3.862012479429598466e-01 2.851190146652219370e-01 -5.771488605722935317e-01
-4.563623249811020743e-01 6.638028001136375700e-02 -6.561838069728745948e-01
-3.068467911543297233e-01 1.356872405034502960e-01 -7.234445216693914382e-01
-9.490547194447054857e-02 5.938391170650512141e-01 -6.050314334885894541e-01
-5.787892638889360342e-01 2.985830711365340950e-01 -4.294940902925420967e-01
-1.795555778242000633e-01 7.092075681679723687e-01 -4.751264441342347711e-01
-1.173447311034825358e-01 5.224969596650210768e-01 -6.311308007116462893e-01
-3.685189305563343343e-01 1.570212255849411098e-01 -6.660513266718551817e-01
-7.279474328826656127e-01 1.355936304262921055e-01 -4.181324373065490874e-01
-5.609618593320673252e-01 4.104170076269436085e-01 -3.760014813020234326e-01
-6.117523743731858588e-01 1.556697930010804976e-01 -4.904694540327491081e-01
-3.366408385383072854e-01 2.808023844368024990e-01 -6.156520961355285149e-01
-1.948397504462293928e-01 4.648690407221496290e-01 -6.091604643417922738e-01
-5.778411505097932332e-01 1.799601681092061201e-01 -5.006341622474613784e-01
-6.215989708704969807e-01 5.665046789511106740e-01 -2.393259228275740891e-01
-6.518253385910430797e-01 -1.230519339086020986e-01 -6.269483714909058758e-01
-4.802308541499097361e-01 1.621723461832318136e-01 -5.819823330750794055e-01
-9.554341742773095336e-02 4.363510174353853466e-01 -6.981041737220726739e-01
-3.951331004360171817e-01 5.853064597188153417e-01 -3.923844153067710949e-01
-4.842914558257407354e-01 4.738990885523843288e-01 -3.938969298858294721e-01
-5.697816327272040571e-01 4.118065445845678352e-01 -3.687804114148808821e-01
-7.573664294047444123e-01 1.461541654248587063e-01 -3.905266797482256358e-01
-6.506425827413339080e-01 7.798440069300356702e-04 -5.542598767327477916e-01
-7.789729374557327057e-01 -1.800841829182892317e-01 -5.686179142735541259e-01
-1.536649652069866090e-01 1.261881607437639330e-01 -8.401684006647672787e-01
-1.057374693924193615e-01 8.020998580303941861e-01 -4.734861907627376798e-01
-5.447828866744743037e-02 5.761436416180437670e-01 -6.448575338502109400e-01
-5.946629339067478481e-01 2.115223053841339962e-01 -4.696901949073558069e-01
-5.099567604341370686e-01 1.353701425512651990e-01 -5.763444985952558275e-01
-1.369309713866453393e-01 7.396060153494790068e-01 -4.879820901697140001e-01
-5.537074309344529599e-01 6.097875045454833609e-01 -2.628519867526675213e-01
-4.571375967694288334e-02 6.240972305876226756e-01 -6.227326654672632467e-01
-2.205685503690303084e-01 5.006949383333499926e-01 -5.692251022105194735e-01
-3.333828393991926098e-01 2.320788203770781100e-01 -6.469525915460280219e-01
-2.555224157592175804e-01 2.832848886976376823e-01 -6.730019730346042950e-01
-4.635606692549993912e-01 5.533893547267295654e-01 -3.617193111723053800e-01
-6.568155200732861410e-01 5.472869989624874476e-01 -2.252018617718495042e-01
-1.246572570123660219e-02 2.239226672664559048e-01 -8.845147326550585332e-01
-6.889536728874893212e-01 -2.250199172159845704e-02 -5.403055451725498060e-01
-6.879647729334438522e-02 4.319869914550283907e-01 -7.200920164345664398e-01
-3.432319746693475726e-01 1.673427660799885475e-01 -6.782583851978173373e-01
-6.167793471724830612e-01 5.837167478589364578e-01 -2.325983533196874509e-01
-1.196411360681982720e-02 4.226545390496755372e-01 -7.668476206505575599e-01
-2.890245103172847663e-01 6.263438709992751319e-01 -4.449577645162443029e-01
-6.212737604424658500e-01 1.905421594019652554e-01 -4.628534715937028809e-01
-1.721375804019747990e-01 2.196677286234122173e-01 -7.712532970685112010e-01
-1.820892227235939576e-01 1.207800552442452463e-01 -8.227680909887762351e-01
-5.829056040744885481e-01 -4.449983561569658547e-02 -6.302729148522532299e-01
-5.607402124128431087e-01 6.066787278073690892e-01 -2.595984210147948557e-01
-5.105409399993896535e-01 3.449882742351966791e-01 -4.514244387248892987e-01
-5.466682170136556440e-01 3.481647057832313874e-01 -4.233396350647983253e-01
-6.410729587939978380e-01 -5.839137965358674048e-02 -5.963424206558575191e-01
3.136063997165722261e-02 4.865107589600208282e-01 -7.603397437584255014e-01
-7.359279375994397521e-01 -3.580324009591202578e-03 -4.950034665591930838e-01
-3.168426994648294581e-01 5.937307577120057855e-01 -4.441545571509525892e-01
-4.022251459281661612e-01 7.236047372827456026e-02 -6.918904669864878176e-01
-1.932394899236595798e-01 3.539659352202159659e-01 -6.761885076108291592e-01
-6.496523843153568789e-01 3.327713409462704774e-01 -3.578014936636219612e-01
-1.334293697479093099e-01 5.585497704416312326e-01 -5.980542838603910560e-01
-1.664796216412898489e-01 7.138299326000173695e-01 -4.818633617850892614e-01
3.158081500469591633e-03 6.024552917558962939e-01 -6.710264250158310961e-01
-1.904018933597224073e-01 3.345070359387653514e-01 -6.898032673531964143e-01
-5.434573381939977743e-01 4.541808350970755748e-01 -3.627029379834539324e-01
-6.839758692234800819e-01 4.057139522545443189e-01 -2.895891977097971859e-01
9.530105612677706615e-04 5.534788882756106476e-01 -6.985154565993454412e-01
-7.325321865083126438e-01 -1.305596973022404017e-01 -5.728815571817367225e-01
-5.912249182568490857e-01 4.298130146423584930e-01 -3.425360738640477187e-01
-8.173280399424243114e-02 3.503460691411713901e-01 -7.591992270033272039e-01
-7.315687627440936591e-01 2.154623236730625335e-01 -3.680707470593397312e-01
7.691497661420197522e-03 6.440913520400406433e-01 -6.495854069498304684e-01
-1.427933561724660239e-01 5.355733305727650162e-01 -6.049100141286500865e-01
-5.709301275758089655e-01 5.039509776258835894e-01 -3.132211266817608863e-01
-3.307680730455886953e-01 2.292631632131706954e-01 -6.505210055797308044e-01
4.202585986881007818e-01 -1.712398624645288248e-01 -4.252216895723469614e-01
3.099448283419623529e-01 -3.012989088091874712e-01 -2.424284504505858084e-01
5.053193630061298958e-01 -2.552242180206327760e-01 -2.861659642291716210e-01
2.303433947795676950e-01 2.210562013295074707e-02 -7.445557513949641049e-01
-2.506721480794535939e-01 -2.351256407969134696e-02 -7.399253835822686698e-01
-2.526474648958328961e-01 -4.498386102259562813e-01 -9.237648844265480830e-02
-5.108269335472260808e-01 -2.275933560884341456e-01 -4.648048644400614160e-01
-6.865442765818321469e-01 -1.947075059050430157e-01 -5.384066045570746750e-01
1.479068931842178747e-01 -7.435582047474579293e-01 4.078059869803368209e-01
2.188386074409307824e-01 -5.796913418723873557e-01 1.683446466727032409e-01
5.875085255576595333e-02 -1.277125166352770513e-01 -5.399788827653372314e-01
-2.747101747772222602e-01 -4.059258705556363367e-01 -1.620701733360511709e-01
1.671752258884355302e-01 -4.796323899325256185e-02 -6.465790882588220434e-01
2.675568104083063670e-01 -7.383174538646506413e-01 4.159332342279264960e-01
-5.799825410775336643e-01 -2.690791522198994201e-01 -4.110661781334301601e-01
1.251806250172375623e-01 -3.126034110169254587e-01 -2.500983312766619782e-01
5.805869747524317059e-01 -2.646697838048987506e-01 -2.616910468006157231e-01
1.346346766839622289e-01 -1.666752116228166145e-02 -6.985099270360407564e-01
3.303897104760903924e-01 -6.092579116595063793e-01 2.282734647347503532e-01
3.005515173195620338e-01 -6.069244566428345644e-01 2.207150243912332777e-01
-6.064559699814696669e-01 -1.339394464171510257e-01 -6.199749905389195792e-01
-6.655361441148126556e-01 -1.539443731451037856e-01 -5.975221347518471227e-01
-4.523545565266978014e-02 1.390397610187976869e-02 -7.691534160580490997e-01
6.219935621279247817e-01 -5.909624019483039614e-01 2.396882821777151784e-01
-2.660575265060173833e-01 -4.603301102760986585e-01 -7.823776313319530384e-02
7.298625526131646835e-02 -6.218215571433683975e-01 2.127482421608963281e-01
-5.127618453284631395e-01 -3.709233097280785763e-01 -2.472711380097010470e-01
1.622248578169019628e-01 1.478213797992695457e-02 -7.425882047745001602e-01
-3.385034417578653421e-01 -2.968234726445988930e-02 -7.423619191740187251e-01
9.771313335889011964e-02 -4.444941096241557532e-01 -5.338054107294824824e-02
-4.153660691344915890e-01 -4.959579373284133119e-01 -4.417952543521021930e-02
-2.056864160467486990e-01 3.785348611815404080e-02 -8.271230852354101160e-01
5.076746730597014867e-01 -5.011418282828200566e-01 8.782957700926463662e-02
-1.371621374238222724e-01 -1.183574609131319982e-01 -5.805408559153100168e-01
6.271787792038450160e-01 -5.501215171270413817e-01 1.783267139042853666e-01
3.294228473799334922e-01 -5.952730710803826319e-01 2.068930768324376279e-01
3.677083035585936854e-01 -5.905437810310870672e-01 2.048554771819366405e-01
-6.041439926221242596e-01 -3.287580297659265516e-01 -3.236316998636669662e-01
-3.365561589295645861e-01 -4.869872292461798757e-01 -4.721228524430980816e-02
5.914365046205770637e-01 -4.160204755216441175e-01 -3.025030831357078051e-02
6.433128582997407752e-02 -6.865673457356810117e-01 3.099673728621216151e-01
2.383371858300723234e-01 -1.522941795145254518e-01 -4.784752830249445754e-01
-4.179291143275973841e-01 -8.511891324578596540e-02 -6.688057769312041323e-01
-1.829491712757433039e-02 -4.901076498106600177e-01 3.295762237384533729e-04
2.455307693378683820e-01 -6.303571045213733903e-01 2.489223181343511171e-01
5.281080253255986401e-01 -3.836590179409891110e-01 -8.794098025101892979e-02
1.681538472632480297e-01 -2.859949996289571361e-01 -2.847514589151421971e-01
2.371945436983689259e-01 -2.161343608230864924e-02 -6.772020496803911049e-01
-2.721587362410418098e-01 -3.428255578438078877e-02 -7.264496268285506320e-01
-6.362170298535113622e-01 -2.339472379636584887e-01 -4.720126262180655563e-01
2.414119797710822246e-01 -6.455914835174312305e-01 2.715174882494527098e-01
1.607515692997923684e-01 -2.173737987529799146e-02 -6.872938901349904262e-01
2.306613601282718473e-01 -2.070651806254427130e-01 -3.962814484294501782e-01
-6.377044130379694309e-02 -3.635783878046777717e-01 -1.980508551480813229e-01
-2.007079513848099572e-01 -2.830889014225578815e-01 -3.387724973445460086e-01
4.257633295069879198e-01 -2.636615798269043021e-01 -2.840439791229957267e-01
2.336192952931925304e-01 -5.185549419482918809e-01 7.743388125495771768e-02
2.602488237037793861e-01 -5.643116769161384827e-01 1.505437226363315617e-01
1.377650898899627496e-01 -2.042243988120242548e-01 -4.130909398795947207e-01
-1.165314730397444543e-01 -2.161247069787740893e-01 -4.292063023820945622e-01
1.180518894998262326e-02 -2.486782499447369732e-01 -3.624813442175160993e-01
-6.833177605089205131e-02 -1.647783083801824255e-01 -5.007466394947747146e-01
3.962191173791019261e-01 -1.882174467205752488e-01 -4.026566368373725169e-01
-2.510259209998785268e-01 -3.514945632002932085e-01 -2.415949939566876536e-01
-2.376484886820780240e-02 -4.737131101458146865e-01 -2.531799795523012250e-02
-1.809717638558161479e-01 -2.356246247562352736e-01 -4.082416593250127179e-01
-5.990970742173483687e-01 -3.043440471830161642e-01 -3.600507221319579898e-01
2.671002982973841311e-01 -6.007930814425883614e-01 2.068996507863314904e-01
9.740373863289561451e-02 -1.821183214399012817e-01 -4.521096131898759696e-01
1.007645539436630155e-01 -5.791706364888317138e-01 1.516746276846957786e-01
-1.780009720916943816e-01 -4.961776057721141164e-01 -1.192448544756164949e-02
5.037359677352569731e-01 -2.049947680973686071e-01 -3.627039779923850182e-01
4.585611294615667133e-02 -3.432182530602503195e-02 -6.836227971881165821e-01
-2.837221882014549501e-01 -4.667576424935366841e-01 -7.084651799963338770e-02
-3.370712676865855184e-01 -3.863405809411808445e-01 -2.002169993719266072e-01
3.247473908098352235e-01 -3.451066393994812742e-01 -1.738706863689332971e-01
-3.638377595855403213e-01 -2.404816203695899490e-01 -4.254534355234704801e-01
2.626692366518925681e-01 -2.989055953117617515e-01 -2.524228574095983002e-01
3.441274807119250045e-01 -2.344998612701648111e-01 -3.393345617852661089e-01
5.526994796053563003e-02 -6.433646121675917762e-01 2.431010082436245168e-01
-1.212657838135135918e-01 -4.685754691400478289e-01 -4.623687506339685394e-02
-8.956217397298337282e-03 -6.349612098752865919e-01 2.216945596679403552e-01
3.153465490632195167e-01 -5.788226321603779922e-01 1.800031638549327295e-01
-3.996962329138271097e-01 -1.127999148739170371e-01 -6.242917207479316000e-01
-1.410166227101527781e-01 -7.347545301017389952e-02 -6.492586995185964938e-01
5.166802189038475213e-01 -3.562578995932191850e-01 -1.311145881925814827e-01
-3.278222702807918054e-01 -5.135319335026817811e-01 -5.702305325373002373e-03
2.339848979047763899e-01 -4.668398821584985869e-01 -1.099454474688769771e-03
-3.253444997578388564e-01 -1.178332841245417761e-01 -6.066444301570864672e-01
2.401848070887081799e-01 7.631618454457590218e-03 -7.212386053720774015e-01
-4.867907644743514894e-01 -2.529691664330630529e-01 -4.230131762600251033e-01
-4.118361245245180102e-01 -2.756394719269654736e-01 -3.784849800900904615e-01
2.966545638870662568e-02 9.678074872122847949e-02 -8.850142290767067932e-01
-1.989312637748243962e-01 4.045759126997858918e-02 -8.301716530394042115e-01
-4.111751558032650244e-01 -2.000913000204382064e-01 -4.931936854577658735e-01
1.514146758108265711e-01 -9.650721234020817607e-02 -5.749346462532933799e-01
9.181237588441390485e-02 -3.478618281963834491e-01 -2.010095815553843424e-01
-2.982140437916282472e-01 -8.084587149765612088e-03 -7.697621449416468531e-01
-1.251198275922304690e-02 -3.274743780143162808e-01 -2.460186021618352703e-01
1.311153021521767048e-01 -4.987709429672171346e-01 3.358662763070924262e-02
-5.105974774068157140e-01 -2.487475865924926588e-01 -4.326295525622202987e-01
-3.344010453443141961e-01 -5.231319320774902026e-01 8.000440783491798505e-03
5.731239603045049646e-01 -4.046128713759031825e-01 -5.004718789507735244e-02
5.610958593193189348e-01 -4.327985389876827793e-01 -8.835823955427521414e-03
-5.279093100541256689e-01 -3.447236322706819234e-01 -2.891193481347933969e-01
-4.489248293536144963e-01 -1.362878042102120824e-01 -5.952215480014366733e-01
4.642122095285333150e-01 -2.199124391601714745e-01 -3.453513728289698270e-01
-3.218405361132241627e-01 -2.682004517516983766e-01 -3.776860282589729056e-01
2.526231922791769002e-01 -6.043532860683341612e-01 2.103625778992287698e-01
5.415749823623530190e-01 -4.754303827161434071e-01 5.331927420604151702e-02
3.241375935018769860e-01 -6.246080460167444809e-02 -6.034410688163505121e-01
5.769827429589435841e-01 -3.413997534532945966e-01 -1.455823810345805713e-01
6.715152369124248455e-02 -5.509246651399372086e-01 1.042337363196020883e-01
-2.401782191166771385e-01 -3.340214949960228497e-01 -2.666870007602993309e-01
-1.681575574865250278e-01 -6.481405336725685196e-01 2.203112592835078931e-01
-1.198920805291866787e-01 -4.752604975506013463e-01 -3.589404660215323589e-02
-1.554229996423482085e-01 1.983157436814316985e-02 -7.929787716573873935e-01
1.131083748453921983e-01 -2.858000621250169626e-01 -2.924502773999416716e-01
6.875077535339707557e-02 -2.118482852556855256e-01 -4.107873860423414958e-01
-3.393388936816948975e-01 -1.240604872974035849e-01 -5.990640070686453766e-01
1.961774421156858850e-02 -3.701717702874968152e-02 -6.830557125311573774e-01
5.318182096235070100e-01 -3.439895978861211567e-01 -1.477208393579062251e-01
-4.235111825415529552e-01 -2.731308882882806932e-01 -3.838669251476876099e-01
6.915641683427169450e-01 -4.471220526550607755e-01 3.047475416642391605e-02
4.232210082515847627e-01 -3.899170483722423919e-01 -9.253710329953597491e-02
-8.077301481633240854e-02 -2.386901359643675002e-01 -3.901086358492796280e-01
-2.106879613295338238e-01 -4.573249010435608830e-01 -7.535807400449508198e-02
6.821770102038667016e-03 -5.998471770596326413e-01 1.704596388555971453e-01
4.892449005323629835e-02 -4.912022125229074943e-02 -6.607235737416058408e-01
-1.999692926601790988e-01 -2.866154871132481352e-01 -3.333144141609745148e-01
-1.813413213973892046e-01 -4.312429207600320114e-01 -1.110437997621183670e-01
1.948560864853643160e-01 -7.338832840576987593e-01 3.994184746443552592e-01
5.621631179889485797e-01 -5.787056749775197906e-01 2.130177410794686643e-01
3.654851195289632315e-01 -2.858628838163513874e-01 -2.584147795135611214e-01
-3.063037011302034429e-01 -2.348863183200193550e-01 -4.262183814083694289e-01
-3.391657010353940627e-01 -5.432857488775914012e-01 3.798397926673831304e-02
2.070655886958878977e-02 -3.020911001180671684e-01 -2.801219301015720475e-01
5.099011520529292962e-01 -6.293237485632079409e-01 2.829050670529889566e-01
-4.333310023868963134e-01 -2.445442236331770158e-01 -4.286257597124419894e-01
4.000259895868533283e-02 -3.879581830511336649e-01 -1.470494949944074758e-01
2.440164879232684103e-01 -6.754674541627586626e-01 3.172651329452187974e-01
-2.744053465592947716e-01 -6.016759919715300997e-01 1.354186911886471334e-01
1.948174543307577555e-01 -4.498348170410852997e-01 -3.220643608155473320e-02
2.125311440573484367e-01 -4.768912237799551868e-01 1.128870867322401446e-02
-4.108957560267536419e-02 -6.001948595571537926e-01 1.645447559396599757e-01
-1.189284539013291397e-01 -5.298214680938765353e-01 4.714248829750460751e-02
2.162824776979157052e-02 -3.369811474728126033e-01 -2.269815616895571875e-01
