2.741239230754672906e-01 -3.519428409364184773e-01 5.909220240722057316e-01
1.987375306653967333e-01 -4.872830263461760958e-02 7.596190823841635076e-02
3.286024676835215264e-01 -4.577819118993185499e-01 -3.501797477606012898e-01
1.734264475452324261e-01 1.062571064300814327e-01 -7.134478604827976245e-01
6.875125777453364173e-02 3.794177318560015832e-01 2.855984645604570105e-01
3.727919036138537257e-01 -6.466887232914411143e-01 8.117571830455798387e-02
2.877089133321345527e-01 -3.844960058596180730e-01 4.276646559323351582e-01
4.378865839561991297e-02 4.520534374337454864e-01 4.369803914969106473e-01
3.897184151863418711e-01 -7.238349494120600580e-01 3.018932735088333263e-01
2.152682053837160492e-01 -1.299035037630331402e-01 3.591394139974122823e-01
-3.159984054163225003e-02 7.834219080769028176e-01 -4.042776257354284697e-01
1.722461681501218367e-01 9.870941435340435666e-02 -5.789780163752716868e-01
-3.889637145453163358e-02 7.836388987925230198e-01 -1.164149935880614273e-01
2.090745240825057916e-01 -3.348324122937661879e-02 -5.121490574769148596e-01
3.217151263770670622e-01 -4.647061508055111423e-01 4.185020827107229294e-03
1.324869610254670454e-02 5.883809877530774557e-01 7.195902228990638805e-02
2.307565612113070541e-01 -7.192816893194635408e-02 -9.293407230523188511e-01
3.188589127456178396e-01 -4.620583262810710190e-01 8.715742592337051564e-02
3.150053647248575728e-01 -4.004277579404158516e-01 -4.739522063555874354e-01
2.728469608858964945e-01 -2.985317127151029259e-01 2.255865514894481519e-02
3.286421507439077905e-01 -5.074603740665220020e-01 2.241514029970644861e-01
7.271242343326848878e-02 4.277533938192536467e-01 -4.323866693446631881e-01
3.470888658620361333e-01 -5.261567486424164608e-01 -2.932251937354129478e-01
1.865926172880845446e-01 3.508400584940498529e-02 -4.123259553063551852e-01
2.998900347457195692e-01 -3.925205954501220784e-01 3.592284637855553547e-02
1.871608002987152908e-01 3.546477422384983463e-03 -6.933084148703640148e-02
1.544275304565852769e-01 1.328681882205291764e-01 -2.658487129598696153e-01
7.344220330589765200e-02 4.000537343032100623e-01 -1.403140709109494955e-01
3.836417236335742942e-02 5.375220510071049285e-01 -3.379597251377065015e-01
2.711457315417841740e-01 -3.152140608913291953e-01 2.836564704020479444e-01
2.373041544684704740e-01 -1.521450918251931184e-01 -2.599781950900468819e-01
1.471588511551166767e-01 1.488929016623207480e-01 -1.623495938605684641e-01
-3.416411704723421733e-02 7.523835375027080330e-01 5.759255269503930907e-02
1.567125909888717750e-01 3.587838077715474472e-02 7.675927245779311514e-01
2.666502977009366782e-01 -2.365384925750885492e-01 -4.495067637964285101e-01
1.734903443417995239e-01 8.665855595721702609e-02 -4.887894850671959390e-01
2.150352363356075325e-01 -6.273787314837517282e-02 -4.102241023981902934e-01
-3.752634937941216192e-02 7.978105369256442980e-01 -3.352257840188473392e-01
1.546950524056825427e-01 9.446740117068412601e-02 1.686758300697544788e-01
1.227825391664501831e-01 2.636574356997394286e-01 -5.226893225389057651e-01
2.778580025591964597e-01 -3.445373948523794416e-01 3.564682819427341109e-01
3.357802034817131687e-01 -5.209816289215171148e-01 9.682880501478767499e-02
2.172831992152594316e-01 -8.741057809624222519e-02 -2.136609931845906141e-01
2.474435046633807478e-01 -1.541490651368839226e-01 -6.402597133298759680e-01
-4.138013098935229561e-02 7.857478438234326568e-01 -4.201794806910866958e-02
1.570636571262829240e-01 6.810674183941430038e-02 3.800058344274156452e-01
2.221959657091883977e-01 -1.096007084707911472e-01 -1.519282711269202557e-01
3.663015631195675748e-01 -6.085543204802785766e-01 -1.026127968597106560e-01
2.481813924780705560e-01 -1.449786449069979666e-01 -7.759357095136305560e-01
6.961585721473409483e-02 4.085057199344153678e-01 -8.601979244705568184e-02
1.181146884323121399e-01 2.653476152678458932e-01 -3.565179177832062396e-01
2.029105420081396272e-01 -2.142625467906445966e-02 -4.066163890688795357e-01
2.523414647068256134e-01 -2.384335774068278291e-01 1.419074215900627267e-01
2.860366187719089459e-01 -3.752889782837343646e-01 3.874816840763847803e-01
1.762302243991121786e-01 1.403121831356172501e-02 2.441233922313066351e-01
3.434984762641054568e-01 -5.165441446879721621e-01 -2.617759825503542803e-01
4.049757829449312507e-01 -7.771206888830387571e-01 3.124284573452767444e-01
9.151296325097935114e-02 2.870343568718953797e-01 4.507349023341856165e-01
2.238730764843559207e-01 -1.286905235478148779e-01 2.631798422253449950e-03
5.400755722525912503e-03 6.331086258455339566e-01 -1.342352248216531485e-01
2.441527679730651768e-01 -1.203752855373336067e-01 -9.008303821613987683e-01
3.506973558684010200e-02 4.838319729385560652e-01 4.155642239584217412e-01
-5.515889819200030936e-02 8.424180857259250255e-01 -1.506323345394738888e-01
8.719116717796106253e-02 3.788181134641530057e-01 -4.412986083168367046e-01
1.776632538380716886e-01 9.681797839932691774e-02 -7.726334141060993144e-01
1.926125379952356165e-01 -3.909835787204871821e-02 2.080790343717034419e-01
2.746727707140050323e-01 -3.558196530496585686e-01 6.140226226001377352e-01
2.559975730235318214e-01 -1.675066627780004425e-01 -8.258323572349428598e-01
2.049153224300662435e-01 -4.706532888191771596e-02 -1.891725252454693751e-01
2.736004850370274410e-01 -2.624833998886869080e-01 -4.253285301763529147e-01
2.221416867453778754e-01 -5.615088356886045046e-02 -7.693990493367025563e-01
6.202237460384769918e-02 4.153672749503079520e-01 1.366317213086413185e-01
9.593425644416733733e-02 2.244764964401587126e-01 1.000000000000000000e+00
1.143968364641534119e-01 2.679174652256297029e-01 -2.383511744037134505e-01
3.625275924702691527e-02 5.098933457359274835e-01 6.636054022679649389e-02
3.357043237735855001e-01 -4.994839603013095375e-01 -1.493687073351614991e-01
2.928923213433456407e-01 -3.309353900695908290e-01 -3.995333677904557845e-01
-5.364761337501298272e-02 8.378141746311571492e-01 -1.574045166217859226e-01
2.538691029882461092e-01 -2.260689527819098044e-01 -6.222770928556053960e-02
2.774047358141619735e-01 -3.319855799329342050e-01 2.289966640808507592e-01
9.008344103734443331e-02 3.822036682188250656e-01 -5.956496010090047699e-01
2.461207424418999645e-01 -1.312840118246511589e-01 -8.526871251829497567e-01
1.479303317827567466e-01 1.979196812184028376e-01 -7.614076170235559715e-01
2.210342887400680231e-02 5.487321973176549905e-01 1.792083594644793276e-01
2.586989373364564915e-01 -2.162688265434865031e-01 -3.680498726396772557e-01
1.982486077380835598e-01 -7.388002519020250847e-02 3.869972892338198189e-01
1.051811204673912675e-01 2.758163642437674312e-01 3.683426338003720907e-02
3.009045316171867768e-01 -3.676378780564643622e-01 -2.929101530648935414e-01
2.687862117644195248e-01 -2.142099109624180098e-01 -7.933590342028971065e-01
1.184067266141242691e-01 2.167695664389636956e-01 1.950134955736519127e-01
1.573196183181039542e-01 9.057884705010776916e-02 1.093057277080341227e-01
2.182050333207700699e-01 -1.114917115913299922e-01 2.881977487443887834e-02
2.500238703691619047e-01 -2.529343961354467707e-01 4.022446113079685137e-01
3.174479556298577532e-02 5.439147329808744491e-01 -1.486389164397542706e-01
8.858796223976439510e-02 3.051915881653798901e-01 3.566480161176356911e-01
3.639842096097677393e-01 -6.376031187511761456e-01 3.263660200498353370e-01
7.508644052793385371e-02 3.359306424164114069e-01 5.376141548202920672e-01
1.479802611079243657e-01 8.711957660952630855e-02 5.210841967409834963e-01
2.116308144496767130e-01 -1.155392044829265247e-01 3.373738695192525228e-01
1.728115163097360407e-01 -2.471521379664019368e-03 5.714891070446652677e-01
2.218371772624959468e-03 6.486285640650876205e-01 -1.875056075023123769e-01
7.867462581719283921e-02 3.410194563052809658e-01 3.358226834353583157e-01
9.350293438793806644e-02 3.710528617729357825e-01 -6.024656886697432601e-01
3.728009722675760390e-02 4.898961722083478576e-01 2.572982368720289625e-01
9.575720588494143412e-03 6.463863793177913042e-01 -4.543110089733070067e-01
1.891538188519177252e-02 5.479451455812007765e-01 3.152063413007641368e-01
2.567483509807561570e-01 -1.823466061152432260e-01 -6.836749962885854126e-01
3.984259480023378264e-01 -7.470016067383514757e-01 2.239273029557219963e-01
3.816062943981376465e-01 -6.871933481099889995e-01 1.999520162996686057e-01
8.898794013391606028e-02 3.886125923781773017e-01 -6.263493440499299236e-01
2.509357597281640095e-01 -1.990495651490674922e-01 -2.587194381094911622e-01
2.734815712613904992e-01 -2.442870888780498684e-01 -6.315415858707504881e-01
3.230656084462460442e-01 -5.059063529627377820e-01 4.280642229961986178e-01
3.506447005563937958e-01 -6.018199080893082975e-01 4.424088965328700218e-01
2.799471981850115698e-01 -3.084483097467946022e-01 -1.450469386931531601e-01
2.953851686465032711e-01 -3.551066025179451802e-01 -2.185295419884623613e-01
-3.180725880895098751e-02 7.536167165167623194e-01 -5.049867119436195900e-02
1.513837726978865261e-01 1.731285272296439193e-01 -6.114454542142969684e-01
2.878405579491495336e-01 -3.982273908985166089e-01 5.816102577722359612e-01
1.728373506050823460e-01 8.304272560396423752e-02 -4.208850147308343392e-01
2.924823030926473888e-01 -3.925148524519419535e-01 3.306598493550635953e-01
3.354934242346690465e-01 -5.210175125259001172e-01 1.086576744720980370e-01
1.528674498364035461e-01 1.328340937897606044e-01 -2.033673396249123244e-01
2.989337521653342433e-01 -4.292453183468118993e-01 4.997206149500211247e-01
2.363092971491148331e-01 -1.263562438083674633e-01 -5.193499989854497567e-01
2.597538213208695490e-01 -1.994789856500627234e-01 -6.046713859219412512e-01
3.002960226697635182e-01 -3.910485976714150325e-01 2.701335452739921962e-03
1.713321793357314160e-01 4.495697193405626818e-02 8.053483585885767848e-02
2.026877317224433719e-02 5.632584127373992944e-01 8.382277264704696140e-02
1.889029839917030218e-01 -4.297321396543046443e-03 -4.773281092586849350e-02
1.998853859947766487e-01 -7.243565108253821605e-02 3.051145683966334232e-01
1.823386666657902944e-01 8.077683345965278039e-02 -7.727384918609618847e-01
1.931872270613044923e-02 6.050685983632948517e-01 -3.630636933863510274e-01
-5.252100031792041740e-02 8.418726003001083535e-01 -2.492883930655752089e-01
3.177850083387804281e-01 -4.093003714009432747e-01 -4.817149003399833207e-01
3.363381105184801712e-01 -4.875959925601432432e-01 -3.124056917865951077e-01
2.285854845071811359e-01 -1.654161679368275073e-01 2.408448362244770824e-01
8.307717786740063948e-02 2.786702315481215386e-01 8.834149545607369314e-01
3.010156720273090419e-02 5.447308531318989511e-01 -9.270486619878871848e-02
1.684022281408288080e-01 5.520281931775280343e-03 6.543173629967351523e-01
3.274254183697528631e-01 -4.705254104510087076e-01 -1.556047214515943189e-01
2.793828833672826195e-01 -3.391403622348131419e-01 2.332164999624958823e-01
3.519132969011876111e-01 -6.066901642385710280e-01 4.483825986485158177e-01
-5.061670387694974099e-02 8.327456904113016423e-01 -2.192671250232402225e-01
1.402494532314718656e-01 2.197544467844626537e-01 -7.088588413121753584e-01
2.005915587147577839e-01 2.802900643307519330e-03 -5.952111536248723134e-01
2.194268921341707007e-02 5.944393251235049469e-01 -3.442664135035147233e-01
1.516362837061067947e-01 5.204104024140573936e-02 7.822434067263628332e-01
3.494444613623783752e-02 5.263863383073267288e-01 -7.277213876823103444e-02
1.145456417961101953e-01 2.409339717931894276e-01 6.853997717534396350e-02
1.811977268367353233e-01 2.081832144314481325e-02 -3.224826364915950316e-02
3.838394921998641296e-01 -6.859780064678197009e-01 9.698885915403301916e-02
1.714341243781617175e-01 8.669994572032078961e-02 -4.074384526543686214e-01
2.999809809159805218e-01 -3.621794897058466800e-01 -3.194336218825713503e-01
3.923121301231618507e-01 -7.310729209344604129e-01 2.825799260039425498e-01
-3.583765590578908301e-03 6.347799209764327655e-01 2.039445249302563601e-01
2.916015125572806177e-01 -4.059221591317234701e-01 5.211401089257932107e-01
4.215402885696632740e-02 5.218403213474224200e-01 -3.069891610527317738e-01
6.362982539042238463e-03 6.247182172648130249e-01 -7.526073734594060372e-02
-1.556941751120530515e-01 -9.916165756734274250e-02 -3.168819897655390516e-01
-3.269525901892451625e-01 4.705185197034428835e-01 -1.055197841669345271e-01
-4.278738654191299728e-01 8.286379895107872651e-01 -2.407743777923843365e-01
-2.996366510557846863e-01 3.535718454575043634e-01 1.631293876610302174e-01
-1.820154579245815141e-01 -2.361413459347011523e-02 -1.451848851631308002e-01
-2.635852771143312734e-01 2.041424570481613909e-01 4.607009762928770957e-01
-4.749774248345622722e-03 -6.831666272693970310e-01 4.462512300263591358e-01
-1.027887989855209711e-01 -2.235885492496199611e-01 -9.798926686227843463e-01
-9.933010464491250080e-02 -2.687036707489707243e-01 -5.945287309067438519e-01
-9.302475489218829663e-02 -3.474798596317744126e-01 6.777221789785087269e-02
-2.194652020538969961e-01 1.296401866467158936e-01 -4.314474192203773262e-01
-2.368826846804174269e-01 1.800918737317494522e-01 -3.231625860246323256e-01
-2.962506818849053869e-01 2.981572017854008938e-01 6.707874218408255151e-01
-3.010405317573539574e-01 3.580646543104916701e-01 1.669152173896469304e-01
-1.194167691063440645e-01 -2.327099196638949263e-01 -2.124118004341027099e-01
-3.213229961644532007e-01 4.205247740992001937e-01 2.500061307866059401e-01
-1.154299776995921789e-01 -2.480496082079284847e-01 -1.932438041395299066e-01
-3.813171524630344922e-01 6.437215723628421093e-01 5.011150070382960203e-02
-1.624034908564314372e-01 -9.526316284179639493e-02 -9.506739412535662737e-02
-2.525788367981178228e-01 1.326285215113540972e-01 8.517242920091611103e-01
-1.446617273152465410e-01 -1.538630449885769191e-01 -1.217974946256042690e-01
-1.430968448965344031e-01 -2.204198895003652015e-01 5.875026997560145459e-01
-1.748839553515305900e-01 -8.554569845108883630e-02 2.889622061209549120e-01
-3.865893044259149230e-02 -5.695932876665020794e-01 4.790968652163682395e-01
-2.359692886120581812e-01 1.511608196748872590e-01 -2.412205448089856791e-02
-4.664478115967374272e-02 -4.857695422305659538e-01 -1.748407248595352792e-01
-3.267171580251758134e-01 4.461121706151877642e-01 1.680476901629401054e-01
-1.978496569108985637e-01 4.048417921405293024e-02 -2.581116273156502383e-01
-3.010164595994357373e-01 3.349845540526091847e-01 4.335192489977843233e-01
-1.550034803973067421e-01 -5.908804940498822017e-02 -8.089330443938295145e-01
-2.259859775658730474e-01 1.177563994082345827e-01 -3.417592936695702105e-02
-6.405614876643500599e-02 -4.367678791796448801e-01 -4.998947128985868626e-02
-8.739436983727424946e-02 -3.801614502571268872e-01 2.225710231929079741e-01
-3.134314452864408462e-01 4.421141831920556431e-01 -3.143326805019262538e-01
-5.525367785788456304e-02 -4.444138321742213682e-01 -3.116614433348302571e-01
-8.459231935287249426e-02 -3.566974747136258950e-01 -1.609536534982471401e-01
-2.075933934821922455e-01 -1.968979418439784773e-02 8.272396689800900482e-01
-2.271309386370394257e-01 1.796558235245356849e-01 -7.061952757878215969e-01
-1.576291755486109725e-01 -8.966028696386359187e-02 -3.500223714166535993e-01
-2.417861712029133747e-01 1.188382508569433560e-01 5.820786467699605726e-01
-2.811340476177821013e-01 2.476378181618356100e-01 6.548536451713726780e-01
-1.806609154370573123e-01 -7.754268838485563198e-02 4.260894303124355131e-01
-2.045351341441857262e-01 4.171509738779014681e-02 -6.321156381327760684e-03
-7.846240669062617967e-02 -3.992470599215419691e-01 8.836285746189505297e-02
-1.529182259956409773e-01 -7.220009599211699158e-02 -7.399145867514999031e-01
-1.006398319935694341e-01 -2.387626996685991154e-01 -8.895042930320493646e-01
-2.583523438894837487e-01 1.984329861119925043e-01 3.186358034247474547e-01
-1.408633274356830556e-01 -2.419950204780711711e-01 7.487312630483364817e-01
-4.645660260636169658e-02 -4.852409896700871639e-01 -1.884570001730312139e-01
-2.385475089966673512e-01 1.983177441713228906e-01 -4.681961151885569161e-01
-2.845578960751196651e-01 2.924061489608315023e-01 2.721232156418993409e-01
-5.182974615048804856e-02 -5.328296813110622310e-01 5.770608059058019990e-01
-7.941478861704102943e-02 -3.819042211431824541e-01 -7.478678451022351126e-02
-1.098896601539637585e-01 -2.463744461794819818e-01 -4.331501367826323112e-01
-3.075819415091532449e-01 3.565041019075457784e-01 4.453331158790144184e-01
-1.580128125892546476e-01 -1.292723439426030907e-01 1.244581370541671672e-01
-3.528004432446186778e-01 5.269224603302520293e-01 2.692632830268728572e-01
-9.429572219175152981e-02 -2.717302757127721957e-01 -7.597940469912413120e-01
-4.047858036428809148e-01 7.330102668470268590e-01 -5.101491858847095884e-02
-1.757693537881245245e-03 -6.646240207565782265e-01 1.122162115285992301e-01
-2.889012862577766128e-01 3.116406382651815132e-01 2.219952045306424204e-01
-6.419288387905043580e-02 -4.250677268022141075e-01 -1.801848985904843103e-01
-1.793814539973485611e-01 -7.691415781500589299e-02 3.678846313880966834e-01
-7.152694442234001915e-02 -4.199219127687368602e-01 5.203263286054169573e-02
-1.337643451646736703e-01 -2.385812667560454625e-01 4.266400801885034122e-01
-2.204599886220969807e-01 1.526992286628824635e-01 -6.591760574654181859e-01
-2.757572778315156570e-01 2.910840757432294756e-01 -6.278623648243610023e-02
-1.374774132243893887e-01 -1.849403573428967107e-01 -4.743801148874755153e-02
-2.417637984095633574e-01 2.201296179252686114e-01 -5.930580591518939126e-01
3.094919606339228621e-02 -7.835495408282908691e-01 1.892634037403936875e-01
-8.293306887290471940e-02 -3.043276926791795289e-01 -8.340966437068609851e-01
-1.271607829419396374e-01 -2.510600276064654524e-01 3.085030818788471185e-01
-3.505800484827366614e-01 5.164412893236967061e-01 3.024044898534066772e-01
-1.378738221713706469e-01 -2.042167053677958755e-01 1.918038173986558459e-01
-4.288816809799060603e-02 -5.200234227584563662e-01 7.275527659329113217e-02
-1.167205970482322192e-01 -1.794053053871292602e-01 -9.376581747150952717e-01
-2.872222936378718283e-01 3.375977172471874566e-01 -1.457373745811012256e-01
-1.408815422666541139e-01 -1.398352573933137333e-01 -4.348572928617810973e-01
-2.401001614471348911e-01 1.573821155372066016e-01 6.815124347823067752e-02
-2.216827137159957384e-01 1.376027170721807191e-01 -4.355053723888471784e-01
-2.887395604866224152e-01 3.320791832632239426e-01 -2.138006739057432201e-02
-1.055295076854147335e-01 -2.500758487165901656e-01 -5.637605313929876516e-01
-6.028183251106122159e-02 -4.099213505742141384e-01 -5.114202775992481298e-01
-2.358645386274700051e-01 1.322858813381488363e-01 1.905218365447277629e-01
-1.129152412894010027e-01 -2.312780564234337977e-01 -4.877506655164066673e-01
-2.615543278017924966e-01 2.465026380674305295e-01 -1.111955304171531461e-01
-3.191041021385462306e-01 4.720043536376994364e-01 -4.350889464155318076e-01
4.987337753927030548e-02 -8.437607484982078132e-01 1.341566300102463027e-01
-7.896385633300943840e-02 -3.903291335855018640e-01 4.935554129153134351e-03
-3.054379630763321973e-01 3.756108898905053395e-01 1.385093848642898196e-01
-2.102616988924793928e-01 5.370831250978411880e-02 8.254301462215282714e-02
-2.507320139231493661e-01 2.267584663727772454e-01 -3.129989447058387775e-01
-8.453561899629334631e-02 -3.138663709957526526e-01 -6.597407783074074050e-01
-3.982796598563681512e-02 -5.650575132502569931e-01 4.730385335349099329e-01
-4.169529578270469439e-01 7.971255982758859160e-01 -3.100753752145913311e-01
-1.652325241399908717e-01 -9.086595182684484295e-02 -3.345689315256359514e-02
-2.109472446177369787e-01 5.026100334708698963e-02 1.497893225855879973e-01
3.546077892503890147e-03 -6.664981293670346751e-01 -7.713051971658967110e-02
-1.081588929990496412e-02 -5.985396964050352375e-01 -2.933967182659236173e-01
-2.014314511492798776e-01 8.910351109610113729e-02 -6.792000544309675369e-01
-2.880969798555043648e-01 2.955898661632970770e-01 3.760591530727719900e-01
-5.270161159691543612e-02 -4.270450944555597150e-01 -6.145769433521487413e-01
-1.889446877563057958e-01 -9.164329767830667675e-03 -3.693721377847986737e-02
-2.866019246506116280e-01 2.757151247434520558e-01 5.469639024702664942e-01
-1.925371757075877432e-01 2.397585150588244993e-02 -2.781540134582306534e-01
-7.692520548562400973e-02 -4.004818150322468351e-01 4.150147641420334071e-02
-2.364558322410330871e-01 8.339677921632358826e-02 7.808129424981229416e-01
-1.740684222039567408e-01 -7.434374570573859531e-02 1.266451131740568004e-01
-1.470051365289170575e-01 -1.054668132350473353e-01 -5.895832643122808081e-01
-1.001092889658099505e-01 -2.542339319436801581e-01 -7.312639194668700826e-01
-1.174701941851400006e-01 -3.178987899425659291e-01 6.976948485118386056e-01
-2.137805957236313115e-01 4.841360948017500720e-02 2.839638542212635786e-01
3.514795455374394167e-02 -7.860196276605327936e-01 5.080161810405346007e-02
-2.969979161064211781e-01 3.364670335574793114e-01 2.564082865678704581e-01
-1.817541090525813530e-01 1.959879745852349808e-02 -6.565427976062628845e-01
-1.587760347748189693e-01 -1.831274985225530560e-01 7.791616860230168307e-01
-9.913773123872222925e-02 -2.536375838734667987e-01 -7.768420700553448910e-01
-2.876229542377070070e-01 2.943257933678163907e-01 3.718485686533696266e-01
-2.370300914487967481e-01 1.006933176393601109e-01 6.031519973456775929e-01
-1.098042821985334566e-01 -2.306086646255927630e-01 -6.193167969850863486e-01
-2.419214024904245697e-01 8.646478200578558426e-02 9.627582127687680513e-01
-2.784627183740177592e-01 2.454074608126100288e-01 5.743994401384474591e-01
5.916468534147118624e-02 -8.879617507688929434e-01 2.768043954085480096e-01
-3.456363508559924247e-01 5.051551903408066924e-01 2.364984526251357189e-01
-1.529511629553048369e-01 -1.530412986111784890e-01 1.985687238277706879e-01
-3.390799325836802436e-01 4.746474798428380604e-01 3.292428865336802235e-01
-2.318190339232579222e-01 1.390904506594161649e-01 -4.935979540581868219e-02
-2.675157115046280509e-01 2.777798405495683909e-01 -2.365409357745909824e-01
-1.718462669796719522e-01 -1.223198703225716472e-01 5.943861959890539559e-01
8.336719557680253787e-03 -6.693432510334648144e-01 -2.347996387305712473e-01
-2.895272744478123439e-01 3.460493134659262671e-01 -1.519839622618473496e-01
-2.212216428904652532e-01 9.082664761126529873e-02 8.840918120618798670e-02
-2.396334313942037331e-01 1.403619161374591584e-01 2.468879670665667381e-01
-1.237352040551254334e-01 -1.673190018701703752e-01 -7.986132704397237436e-01
-4.002209288368866469e-01 7.271460590047932326e-01 -1.646997158324867150e-01
-1.175356084498774961e-01 -2.612951754283014960e-01 4.410609812075576980e-02
-7.429026170293918929e-02 -4.511871507646516011e-01 5.244540047185018983e-01
-3.001581159451465197e-01 3.152589716635667560e-01 6.280338786527862593e-01
-1.762956048963005840e-01 -5.538579555867867432e-03 -5.823619380092108777e-01
-4.310027918828986115e-02 -5.292577069934388811e-01 1.882474324770260499e-01
-5.196167138902233612e-02 -4.502511251361717148e-01 -3.750022463689416941e-01
-2.105770391293733113e-01 9.903949443561513299e-02 -4.304209094660784163e-01
-2.055245520540892601e-01 5.360351739152903472e-02 -1.047651280905869120e-01
-3.196914995227543854e-01 4.186339986923005574e-01 2.069971834079213924e-01
4.411123033180142095e-03 -6.919361018268654906e-01 1.833397703262581446e-01
-2.223131096633672033e-01 5.668813355359900857e-02 5.276055459933610692e-01
-1.096552808435084791e-01 -2.845307725144627931e-01 -1.405987313865954638e-04
-3.586440465687622536e-01 6.067138726561018824e-01 -4.231829089883803463e-01
-1.182931697022016754e-01 -1.744263675642026556e-01 -9.327945306753901988e-01
-1.962510815909903339e-01 1.318738809998721423e-02 -5.284612566124264818e-03
1.346298170595460093e-02 -7.016815230202694265e-01 -6.391839455472148046e-02
-2.347273729202884948e-02 -5.437491533566989332e-01 -4.248689387170099807e-01
-3.486921335734965294e-02 -5.385075070992106916e-01 -3.209146752567539757e-02
-6.133971214195819283e-02 -4.729592263263600604e-01 2.614627450624799621e-01
-3.735592102649519242e-01 6.362246582168883391e-01 -1.717194038346221141e-01
-7.205336205811835315e-02 -4.190305916100496852e-01 6.264946851633919345e-02
-1.731828315464277179e-01 -5.732260165164262261e-02 -1.059205190234646793e-01
-2.495374254831377592e-01 1.476456971416241770e-01 5.565955445167166671e-01
-3.269780183487633884e-01 4.791599002523211359e-01 -2.046852628191869750e-01
-4.554456583366036163e-03 -6.266243313445416518e-01 -2.170029499289909958e-01
-9.561615950928885332e-02 -3.531888196811097669e-01 2.370842713285777059e-01
-2.785938056288318476e-01 3.057171096969286128e-01 -1.195389001560017289e-01
-2.350452772916749311e-01 1.443484571192485133e-01 1.807937896935946087e-02
-1.085658638417343197e-01 -2.994421483044914511e-01 1.293681309309500371e-01
-6.558933424374056853e-02 -4.702130062573163238e-01 3.987475907967309996e-01
-1.208143352238017082e-01 -2.832474820254571868e-01 4.290765249821419380e-01
-2.450098072617744871e-01 1.991058621861439282e-01 -2.201541646720573675e-01
-2.854467273390140503e-01 3.402883001180603828e-01 -2.475904042759851376e-01
-2.035013558917360410e-02 -5.713000803552112927e-01 -2.297470717564326914e-01
-2.910827366281218409e-01 3.137504629502907982e-01 2.843511328218379930e-01
-3.082575533558196135e-02 -5.344303086874510056e-01 -2.402738962919596100e-01
-2.107550486382990806e-01 3.540383814870940588e-02 3.143760748674687133e-01
-2.001248322053302345e-02 -6.187001809319380152e-01 3.063133761685127854e-01
-3.105176156309384927e-01 4.239564741545658322e-01 -2.197956723613796459e-01
-3.871068103805909433e-02 -5.254073615717635981e-01 -3.108039353722199388e-02
-2.345730192464923203e-01 6.410036284245436422e-02 9.295818129491806303e-01
-1.199718321488139477e-01 -2.012970474429555956e-01 -5.544839369578181687e-01
-6.341518379481994594e-02 -4.258451437497036141e-01 -2.021224208346348583e-01
-1.503869157363466602e-01 -2.096507149290694483e-01 7.527793245123085564e-01
-1.162904858520873719e-01 -3.148920104835898903e-01 6.158894334917117686e-01
-2.617331625114422966e-01 2.319133087081781397e-01 6.505207804896867563e-02
-3.623460664514625007e-01 5.697996896954853341e-01 1.520826214009697308e-01
-3.333776473313471156e-01 4.735555839604801975e-01 1.149686006772979857e-01
-1.119595463516277339e-01 -2.742532927383258268e-01 -2.758267995501724815e-02
1.985612009768824085e-03 -6.553173068785661526e-01 -1.446456359794693614e-01
-2.539662799590106101e-01 1.391547681063038389e-01 8.312828088158450424e-01
3.670410302219077187e-02 -8.136749191481374988e-01 3.094730914849179726e-01
3.919308875457926892e-04 -6.707712996943911987e-01 9.793208364600437810e-02
-3.375797229785277853e-01 5.381126850823096941e-01 -4.661973551633233903e-01
-2.944510028569548576e-01 3.999302739765434045e-01 -5.806645715843341549e-01
-2.764027345277640380e-01 2.984981300005390414e-01 -1.230485027457930702e-01
-2.364058600368847407e-01 1.738003313978424835e-01 -2.692023230618093010e-01
-2.848697059136586773e-01 3.627560324711484041e-01 -5.310169685673286066e-01
-5.790029252180712432e-02 -4.609202991775125935e-01 -1.497932102351845658e-02
-1.459876853735609936e-01 -8.542013460754946386e-02 -8.624708058262546828e-01
-8.387719841901289386e-02 -4.077058928311698138e-01 4.019151289014131212e-01
-1.621459950975298603e-01 -1.028445254105461448e-01 -1.742598198159793846e-02
-2.834001499410663816e-01 2.501722583447251180e-01 7.156559804750086684e-01
-2.717351428371455047e-01 2.096591607341852515e-01 7.210852613015384938e-01
-5.819436291782112414e-02 -5.073533756944798023e-01 5.350111580892159546e-01
-2.400280290401004823e-01 1.687068638620374816e-01 -6.600446199997610230e-02
-6.450340695778240818e-02 -4.898755601693777217e-01 5.834744596366540081e-01
-2.629660792072703868e-01 1.965829626038677336e-01 5.236943097387025681e-01
3.567714526687999765e-02 -7.987440756042675227e-01 1.772530023837566859e-01
-1.166569971665096517e-01 -2.505204213786380030e-01 -1.157688878298433616e-01
-2.884701576491310870e-01 2.795006637188017784e-01 5.774286492112070679e-01
-7.215079570407703646e-02 -3.609305096052550232e-01 -6.070132008445298100e-01
-1.949472855412408556e-01 -6.524428794533961018e-02 8.520680209453906917e-01
2.026565738989381110e-03 -7.003708621363525788e-01 3.760195180940292814e-01
-8.800516035331852616e-02 -3.908216412540064799e-01 3.704595135663001360e-01
-2.804654125058777536e-01 2.732424298286937892e-01 3.314160708309357717e-01
-1.966002838706054634e-01 4.540692343808863662e-02 -3.649007872010044395e-01
-1.556196870652776232e-01 -1.282870875330667793e-01 1.779770022299183643e-02
-2.267905194665394419e-01 7.568856426250482328e-02 4.855244637853550760e-01
-1.566392461119440471e-01 -1.857840754723978638e-01 7.249215150336807412e-01
-5.181929064892763781e-02 -4.290147288362928246e-01 -6.268569464374699196e-01
-1.214066653017307346e-01 -2.497415088645415782e-01 6.422268162209079922e-02
-2.460757356931908280e-01 2.382224698776305438e-01 -6.312030672005614074e-01
-8.013212023400892448e-02 -3.647295720939287555e-01 -2.453408799513312477e-01
-1.383292758469439609e-01 -1.786988741251119839e-01 -8.589266178875655522e-02
-8.023341595768823664e-02 -4.103994406748979196e-01 2.881301102236195066e-01
-1.036481966985678543e-01 -3.051941649507322607e-01 3.427428898105205055e-04
-2.914918340089689974e-01 3.138224508924679634e-01 2.997973366331524447e-01
-2.647646607008745101e-01 2.289182619736106483e-01 2.204166802738854181e-01
-1.804343901177057063e-01 -1.037054591646160845e-01 7.203731402726044619e-01
-2.412270680991780436e-01 1.731665003180787588e-01 -6.998610254189119306e-02
-7.264103798840865212e-02 -3.692714132385682135e-01 -4.908090752185998440e-01
-1.763403906665862442e-01 -2.376596963749113417e-02 -3.692738816761471088e-01
-7.000571081381477649e-04 -6.908054267301194651e-01 3.736404409409894156e-01
-2.147916995497433645e-01 7.829116145022495254e-02 -2.216074855390658474e-02
-2.058354722477190313e-02 -6.142993857102356792e-01 2.780225070414862332e-01
-3.001656623050523165e-01 4.099360698092917032e-01 -4.692345211667612315e-01
-1.327935181769941408e-01 -2.615633027751911865e-01 6.544295197458263047e-01
-1.796256878152285019e-01 -2.352526568615979571e-02 -2.413201837227631763e-01
-1.567828464737419381e-01 -7.404408346282639886e-02 -5.647383842345643501e-01
-4.014118163591761518e-02 -5.070801455670601587e-01 -1.866141177475101887e-01
5.576710848076385507e-02 -8.761029993952137440e-01 2.745412437162312314e-01
-3.193970545657420779e-01 4.031166227189620366e-01 3.751684235578507942e-01
-2.626079489035865744e-01 2.117489919831308243e-01 3.336257769277330421e-01
-1.469156575261290620e-01 -1.548113053248666160e-01 -2.110546419602617532e-02
-3.175549423389426029e-02 -5.634233721736384704e-01 1.328362610185859216e-01
-1.526243350989416221e-02 -5.958155060953262971e-01 -1.480196286599168853e-01
-2.505089756532729584e-01 2.162794382470508703e-01 -2.003943001963275072e-01
-1.891088925137595911e-01 1.430075363418758724e-02 -3.024274411360438619e-01
-1.431830451057065634e-01 -1.753349799166115108e-01 6.827472501532183546e-02
-2.567602987493800559e-01 2.522947475638925852e-01 -3.691287901137431660e-01
-2.862718311577128749e-01 3.025321338345559052e-01 2.229441509914684427e-01
-2.606971609558478842e-01 2.616741205038247697e-01 -3.211873073699277881e-01
-1.678980614226812940e-01 -1.065424077145967624e-01 2.543561694298166476e-01
-3.608434624465547969e-01 5.723842043503085675e-01 6.232222469879238752e-02
-2.785475434846335641e-01 2.910652711901410838e-01 4.847524049383857697e-02
-1.882809657173303286e-01 2.057821952339473903e-02 -4.081493747850674647e-01
-3.010772752274085695e-01 4.219801218620929939e-01 -5.725790825734979883e-01
-2.578714777320913476e-01 2.130420851362619383e-01 1.301391426211451208e-01
-7.845501314325953324e-02 -4.323312640570574072e-01 4.716058022094870572e-01
-1.343076388975996405e-01 -2.394035922861478538e-01 4.577944214818209789e-01
-1.294081445231727578e-01 -2.247097804293712864e-01 9.246870125750460134e-02
-1.825969836036715199e-01 -4.909387308979743653e-02 1.733383931246816334e-01
-1.222328588690427542e-01 -2.550415964896176058e-01 1.585451283649337018e-01
-1.008067750686745812e-01 -3.563888690695052319e-01 4.807512551746712104e-01
-1.800626783135013675e-01 -1.082033115066738799e-01 7.577227370733383705e-01
-3.906903502852163146e-01 7.091283245372108635e-01 -3.351104430791686517e-01
-2.752876058255020464e-01 2.306409540705055272e-01 6.192248518453725703e-01
-1.133314535568890891e-01 -2.955066056304106459e-01 2.733992767264671886e-01
-1.021845508881190911e-01 -2.669233812669914441e-01 -5.015695379932615383e-01
-1.013844833695831255e-01 -3.274317300519921092e-01 1.680490477489454682e-01
-2.893231631957087213e-01 3.693912140149018253e-01 -4.307039375173657425e-01
-1.460759135587406943e-01 -1.997126005901029011e-01 4.660053281211488097e-01
-2.680533929545380056e-01 2.855664710258513650e-01 -3.054114917088657788e-01
-2.847002726049018828e-01 2.793049837509326561e-01 4.296679799829808410e-01
-1.128038092025179795e-01 -2.243727463999464211e-01 -5.722368899036495149e-01
-3.061058781234266002e-01 3.804360162155213110e-01 1.091537036914448228e-01
-1.026895817892415075e-01 -3.232904922971293060e-01 1.719793433444087027e-01
-9.751421783329594639e-02 -2.808528607699846136e-01 -5.259524844698821866e-01
-6.446387449618141974e-02 -4.181787330350217324e-01 -2.492627951449907231e-01
-3.055000688913200313e-01 3.770193189862280914e-01 1.246534157523248587e-01
-1.098243375755364459e-01 -2.030230652486476606e-01 -9.383118459304082837e-01
-1.823242355726930608e-01 -5.913982077557838196e-02 2.789441542442349653e-01
-2.388951952599695783e-01 2.179278948713654351e-01 -6.816950732452871087e-01
-3.250301587444915929e-01 4.156419484333849779e-01 4.541445389390493803e-01
-1.801393529806543659e-01 -1.171241206507555276e-02 -3.578215415098046082e-01
-4.812050598487464109e-02 -4.618888014183864521e-01 -3.929553432937212820e-01
-1.388308791969225520e-01 -1.446838973802410944e-01 -4.602578888189574058e-01
-1.755830960121709527e-01 -6.138345961758658736e-02 3.667873005936991143e-02
-1.540433801310264750e-01 -2.002627424442358084e-01 7.894621956352346759e-01
1.468801033221339182e-02 -6.999022971054477127e-01 -1.332966779563412307e-01
-3.097360954392424648e-01 3.891576136943685760e-01 1.525171510239011208e-01
-1.672997412650144011e-01 -6.778744586280709139e-02 -2.187319308170567467e-01
-1.670688634000752071e-01 -1.393365251030310170e-01 6.015310685224500853e-01
-1.829498349759457743e-01 -6.679362658630325078e-02 3.925696930920227756e-01
-5.687317867025940520e-03 -6.184969580005317269e-01 -2.661374377226152776e-01
-2.400179414839678227e-01 2.017069383898538737e-01 -4.489678034886762648e-01
-2.424664455394280604e-01 1.799479915573903577e-01 -9.927910839696202361e-02
-1.935179805040256884e-01 4.932191782780165346e-02 -5.329520007805892412e-01
1.740900508844687999e-02 -7.495615265469297572e-01 3.341040445735507514e-01
-1.819662621585712084e-02 -6.104123169920304681e-01 1.379689808113678529e-01
-2.925657021872484220e-01 3.269506336744955610e-01 1.903419401030298497e-01
-9.633638779127057239e-02 -3.236654014782676669e-01 -7.651084303703670209e-02
-2.109856622191424724e-01 5.716910811324069780e-02 7.123422869963805248e-02
-2.787838827091778104e-01 3.293775643443243029e-01 -3.862643850095290876e-01
-3.419683524214140458e-01 5.080167518153122508e-01 5.735067717465393289e-02
5.046575186490220161e-02 -8.563993910238131280e-01 2.570987909317433706e-01
-2.452752306576681807e-01 1.281833080629687649e-01 6.125968532643578657e-01
1.665684964052223729e-02 -7.491002769365248115e-01 3.586902250730956143e-01
2.642244554845883317e-02 -7.721299055180572690e-01 2.370282502527713830e-01
-3.882218755601888338e-01 6.952200151376234372e-01 -2.721120231337602058e-01
-2.473436970451735606e-01 2.002506663259159270e-01 -1.405443945090424918e-01
-1.560213708336196381e-01 -1.082681292920460586e-01 -1.982915401305741510e-01
-2.660531394320822529e-01 1.994617074463628237e-01 6.131766535434532983e-01
-2.107633239411400017e-01 5.768011382255351649e-02 5.646192406541223480e-02
-1.874680409545144422e-01 -4.160403643644571686e-02 2.803627359158077370e-01
-3.368497144044766967e-01 5.276405513215083332e-01 -3.738484013989517019e-01
-2.179443245488570657e-01 1.250787903139799206e-01 -4.390942223900894392e-01
-8.229737615060273015e-02 -3.379220189489748338e-01 -4.699442360457427581e-01
-2.131842572112302159e-01 8.161494823739978699e-02 -1.246635724835357117e-01
-1.287122271418636443e-01 -2.385934278581038070e-01 2.257232269695763349e-01
-1.463863836897165149e-01 -1.456569383204604218e-01 -1.482932026923675928e-01
-2.296519974594279645e-01 1.317217268429944077e-01 -5.017695035708520657e-02
-5.801791442250771313e-02 -4.576187206316661427e-01 -4.857275493587550480e-02
-9.683910685053526146e-02 -3.720606229421153932e-01 5.045298451707057596e-01
-1.560108465206811734e-01 -5.029620400507642947e-02 -8.707648945911722338e-01
-2.382493689969868850e-02 -5.405202673504684308e-01 -4.482842372661401398e-01
-1.203516058136372829e-01 -2.078277671797419679e-01 -4.636611268901280614e-01
-3.350975801552780742e-01 4.790702783791980779e-01 1.194858025269295992e-01
-2.001759685663510036e-01 8.934795293521778647e-02 -7.319979251540883469e-01
-1.116201085212402966e-01 -2.087790539224164410e-01 -8.001182284056771454e-01
-2.478826798304871737e-01 1.504950756931940636e-01 4.577099028680216564e-01
-2.216497369059142186e-01 5.871914913584264789e-02 4.776603991282373785e-01
-1.521708878716193092e-01 -7.497520323101639073e-02 -7.374850611079166729e-01
3.438287666681869026e-02 -8.058460823586788280e-01 3.110925231484832354e-01
-2.088736488097061583e-01 1.542825571278719395e-02 4.710745927569949254e-01
-1.797953661731846176e-01 -4.292646511086434941e-02 -9.654121322083821302e-03
-6.532249414290608458e-02 -4.275450285714859078e-01 -1.065113303794429089e-01
-2.396607436434979588e-01 1.326936596794310586e-01 3.368711496914636450e-01
-3.542366483780793884e-01 5.625431729458656438e-01 -8.652274654196642767e-02
-2.041838227286630336e-01 1.495139706101784524e-02 2.899629046181309011e-01
-3.752389093487495386e-01 6.601685669329989681e-01 -3.824488017148974794e-01
-3.303458445036558389e-01 4.698668399831836262e-01 3.707544544606011794e-02
2.060472350609387701e-02 -7.584303613379150821e-01 3.097391240638364129e-01
-2.716109214827203133e-01 3.156027653449329229e-01 -5.120369510858648887e-01
-4.325384052418477787e-01 8.450062211001087009e-01 -2.448938466944236836e-01
-5.834180800618470747e-02 -4.665600475705982686e-01 6.797179677710450674e-02
-1.059938525234044859e-01 -2.464330315464482724e-01 -5.875114191817516485e-01
-2.514072802645213600e-01 2.143406667719948144e-01 -1.421689947682792665e-01
-1.637374241070661540e-01 -1.495364256668501313e-01 5.871956233040771522e-01
-9.000264350306269590e-02 -3.462370027977555442e-01 -6.690610615832810748e-02
-1.749358630077145205e-01 -3.009775949210824822e-02 -3.517665958297829798e-01
-3.436317151577865103e-01 5.015726668566441449e-01 1.982518134018633471e-01
-5.190842244649886139e-02 -4.931242308592875268e-01 1.198961737255766075e-01
-1.898912645884966999e-01 -5.488102449736545485e-02 5.307160542168378736e-01
-4.031219032578242656e-02 -5.197100661667761745e-01 -3.339291162988815981e-02
-1.228092801073506213e-01 -2.595636109990072105e-01 2.339074367372015739e-01
-2.560685074941161377e-01 2.607611350980740261e-01 -4.948086125337127217e-01
-3.008449655398457989e-01 3.182621123192981849e-01 6.205535703588507257e-01
-1.023002820515854366e-01 -2.876141132919646237e-01 -2.571011583121494137e-01
-2.471518146347096989e-01 1.524902589200179681e-01 4.054941727332462276e-01
-2.298715852326586317e-01 1.747906014175110434e-01 -5.407251280262435067e-01
-7.789613575091607067e-02 -4.150851502822962558e-01 2.494342736952280259e-01
-3.085402008460145229e-01 3.580320438329060995e-01 4.657556532819672745e-01
-2.321652946902614534e-01 1.599029790991813305e-01 -2.768543581554110400e-01
-3.881395065233423924e-01 6.762710876738448063e-01 -5.571970525044263323e-02
2.162087982919582568e-03 -7.059723114023377377e-01 4.355624221791820627e-01
-5.516810273830680816e-02 -4.176558432479711702e-01 -6.252659538600456868e-01
-2.889862150241189614e-02 -5.406574282632030659e-01 -2.447780504119735911e-01
-3.668903210443965057e-01 6.120524777098863556e-01 -1.568972153788191215e-01
-2.090686412333435662e-01 1.300714560774917684e-02 5.069020001879717130e-01
-3.375563952736495565e-01 4.743565162818088599e-01 2.719841366083756151e-01
-5.056982245808784582e-02 -4.633625658476274167e-01 -2.783955343669120008e-01
-1.961708044753380231e-01 5.852196927423982536e-02 -5.340322247502635733e-01
-1.694632741739857396e-01 -1.066545062972747981e-01 3.179460681429532309e-01
-3.079618614951112332e-01 3.901846099211727648e-01 7.000270266909705552e-02
-1.806146690010262956e-01 -8.771459349898652613e-02 5.421694108382144606e-01
-3.311645093742319190e-01 4.788842043651473923e-01 -3.488048675350607225e-02
-9.557153950433697198e-02 -2.765456331959556535e-01 -6.531973997797827503e-01
-6.351746618867663841e-02 -4.033115056355366934e-01 -4.592789363355740395e-01
-1.682406540537798312e-01 -7.925307524012827065e-02 -4.836839724849298361e-02
-3.757898412948098565e-01 6.174393823203100373e-01 1.348256062418241308e-01
-2.532787884877660267e-01 1.697328232283468186e-01 4.494388846634913004e-01
-2.662885564461302257e-02 -5.995109424172878620e-01 3.471672327534333080e-01
-1.972598448481344691e-01 6.541498615405920425e-02 -5.706010457861124818e-01
-3.341626106685567921e-01 5.153921355622288480e-01 -3.387934495027338788e-01
-1.284443949635362663e-03 -6.471158104580502224e-01 -1.095860310836357515e-01
-1.343815866821856941e-01 -1.596011215970240538e-01 -4.643934563251890801e-01
-1.136800279206882230e-01 -3.223234481501400794e-01 5.981525756216649059e-01
-2.079934546537962892e-01 6.738710642379908133e-02 -1.663006669380780733e-01
-8.580963940952493485e-02 -2.931471403319051428e-01 -8.492319518627351460e-01
-3.578900085149885335e-01 5.935901884738199463e-01 -3.010514669153172562e-01
-2.694392439265326789e-01 2.929040509960154637e-01 -3.353219305943121453e-01
-2.119287125862986676e-01 2.834544370416980548e-03 7.386520278658600391e-01
-2.343621930917027252e-01 1.432063835907641525e-01 4.134636218510721363e-03
-8.750020552409759622e-02 -3.718434606901981909e-01 1.303544956100738672e-01
-1.187246106096195158e-01 -1.968172302989223132e-01 -6.560527275041544426e-01
-9.897623879594133478e-02 -3.199978451227182830e-01 -1.397047012694940631e-02
-1.317022397560067004e-01 -2.501010254312862613e-01 4.781207833257236639e-01
-1.826592875938347696e-02 -5.820580909790796786e-01 -1.879766942431780052e-01
-2.224669295887996834e-01 8.202882645467579614e-02 2.399585484755764053e-01
-1.627331340735784226e-01 -4.669106181620357593e-02 -6.450332981734081539e-01
-2.311616625319407592e-01 1.045859384392722052e-01 3.244814376514741361e-01
-1.991145306183760011e-01 5.097988310203069307e-02 -3.294479345270142634e-01
-2.732747581177165097e-01 2.347103753278608207e-01 4.919442550835897987e-01
-7.691173270727875988e-02 -3.549996397170800400e-01 -4.862985640507777596e-01
-7.059207849002027690e-02 -3.915532918318651578e-01 -3.140425521165443046e-01
-1.479587428571863539e-01 -1.550764707894204397e-01 2.347993202486743994e-02
-6.417275171854842919e-02 -4.600660086723047937e-01 2.247405315112277202e-01
-1.168355689934715003e-01 -2.021717496122860669e-01 -6.691567794985593398e-01
-3.215372211928012314e-02 -5.334064375356502019e-01 -1.992946366024642424e-01
4.178745839915005977e-02 -8.134109036093576384e-01 1.041114443042900073e-01
-2.158670753184718794e-01 9.223164554869828224e-02 -1.409729607682059516e-01
-2.598901360542917316e-01 2.804112363472227587e-01 -5.705191247961780565e-01
-1.544300584164828571e-01 -1.887972456120736997e-01 6.719339971546136603e-01
-5.516571366331905063e-02 -4.670033351822098222e-01 -5.328748194643384561e-02
-1.719976466613260258e-01 -7.607969141637115074e-02 6.435939376476186580e-02
-1.750824181912219099e-02 -6.054610826340359742e-01 5.317506160368822010e-02
-1.876825701871748797e-01 4.590617838896454000e-02 -7.255844735891289199e-01
-2.299529981122836741e-01 1.010535445881507871e-01 3.173307207552488740e-01
-1.346502060720987382e-01 -1.511633742074375564e-01 -5.515200464883521780e-01
-1.726685482747962186e-01 -9.527833571491035880e-02 3.136243357644951657e-01
-1.745498085194283067e-01 -9.812412336239615535e-03 -6.022934341068336694e-01
-6.186332741939066376e-02 -4.944021621097080543e-01 5.308836997076455955e-01
-7.042015736024057060e-02 -4.008958026162233734e-01 -2.125789829092602223e-01
-3.668398186841661385e-02 -5.092575880164349478e-01 -2.989568383507584803e-01
-8.705137598271324439e-02 -3.854892776093638007e-01 2.706852005379788428e-01
-1.853128692249549347e-01 -7.158072124908774862e-03 -2.047298163423866835e-01
-1.378528888089245730e-01 -1.385922304156390616e-01 -5.697979423640003871e-01
-3.718179892452170288e-01 6.215926487999592354e-01 -7.138897690418187503e-02
-1.800880760890299914e-01 -8.539824503980471271e-02 4.943598610043820618e-01
-1.239327621545060765e-01 -2.695420517360395674e-01 3.942960133180303250e-01
-3.599362721131235121e-01 6.056879387853154606e-01 -3.598631398569637208e-01
-6.843207132058280739e-02 -4.106694015932088049e-01 -1.783953575202560371e-01
-1.770596761897622329e-01 -7.353752211997431620e-02 2.363409189812236133e-01
-3.475004582671248343e-01 5.380636270949037403e-01 -7.081570205161037690e-02
-9.913082108641489698e-02 -3.409774938479778750e-01 2.353933992951411092e-01
-3.782440209564400663e-02 -5.311735325550376308e-01 4.944195082003892796e-04
-1.096941734630788312e-01 -2.952529308611723802e-01 1.257065915222630725e-01
-1.637747606368477049e-01 -9.627407785963089382e-02 -2.877603191394975668e-02
-2.379274713286111398e-01 1.146420572488109635e-01 4.771604246451704445e-01
-3.116699801308134843e-01 3.980991031794873236e-01 1.258229328696690019e-01
-8.807453653253061177e-02 -4.111198800303552114e-01 6.085330365449684864e-01
-3.317319934562056871e-01 5.044460136825853480e-01 -3.086283480338773977e-01
-1.097581720378215248e-01 -2.495239832658289192e-01 -4.018711129585148534e-01
-3.268444008853374494e-02 -5.365475267990300612e-01 -1.417599020853417269e-01
-2.501855444143559204e-01 1.563863721852616351e-01 4.810600323279478618e-01
-2.943417063865106376e-01 3.193451843123163991e-01 3.491892563772510671e-01
-7.297590799718847721e-02 -3.891370401102258736e-01 -2.471849282613378662e-01
-3.396673385772884246e-01 4.829882088806917162e-01 2.559276746729398644e-01
-3.002069857838474687e-01 3.934629191504431245e-01 -2.766207264736965654e-01
-1.578237298840678426e-01 -9.685106209368701813e-02 -2.589188244112842208e-01
-1.756661031712004883e-01 -3.603857063993649162e-02 -2.538350289049516872e-01
-2.873386053637035920e-01 2.681961379120150202e-01 6.634471916199721209e-01
-3.699223615191749026e-01 6.157256058903765039e-01 -7.881357240906890216e-02
-7.239449209288897902e-02 -4.615939416232908155e-01 5.696519636487071825e-01
-1.876577637990552438e-01 -8.157526248052328344e-02 7.512898514735293354e-01
-2.016868249040856265e-01 5.152117961524389778e-02 -2.333541239836189884e-01
-3.542441675299903836e-02 -5.269342999369840408e-01 -1.441615756230839596e-01
-1.953612205604806362e-01 7.521246808777048987e-02 -7.597399458987509346e-01
-9.731534452912568578e-02 -3.256854641304518516e-01 -1.413345681901109416e-02
1.657546881266596175e-02 -7.128643143650389424e-01 -5.814584094862680630e-02
-9.549042932477709578e-02 -2.678245677689942150e-01 -7.575265246861263568e-01
-2.681129909612679496e-01 2.373849027562174030e-01 2.555175927577538197e-01
-1.977943875499439397e-01 1.968370055083685718e-02 -1.917624500873003901e-02
-2.584846147460159727e-01 2.305564516581425083e-01 -4.849982104982275555e-02
-1.263963817802751521e-01 -1.483872486555336823e-01 -9.121783091898307827e-01
-1.301501677044210326e-01 -2.475865747159956276e-01 3.872039538878757625e-01
-1.498201868131311398e-01 -7.774085320488653694e-02 -7.989737911545387039e-01
1.672855104529222259e-02 -7.430316629301756404e-01 2.854847671047813229e-01
-7.205807650168503942e-02 -4.444401250516188950e-01 3.574036690540692840e-01
