-2.828617719848561807e-01 2.613886665534729259e-01 6.962131100395685390e-01
-6.879442839331673110e-01 4.363386170298726996e-01 3.667094804450247159e-01
-5.344109228381586085e-01 7.527638861171350726e-01 3.581150615407490689e-01
-2.485907264565565267e-01 3.032934333258057724e-01 7.043132570348409338e-01
-3.327418385040755711e-01 -2.135819902860692232e-01 8.288029559291192339e-01
-2.478390676664413983e-01 4.160181089322086967e-01 6.654977083062851850e-01
-5.070106005351825429e-01 3.455995601418426211e-01 5.182781971292048651e-01
-9.067821581225778971e-01 3.200941247510191157e-01 2.622052863028541680e-01
-4.887290494651886918e-01 -1.526460266770157670e-01 7.041628321360503540e-01
-7.810892906216558851e-01 4.007511005204674182e-01 3.173845368517947407e-01
-3.084980579712727211e-01 4.326279031399998809e-02 7.552947738542057365e-01
-8.872366316239513329e-02 6.515939283955980710e-02 8.933243704136393237e-01
-3.964362511701692293e-01 7.007927461088927189e-03 7.096536437384109997e-01
5.800461498102912200e-02 1.278222061455701053e-01 9.687214951366740490e-01
-1.378007128278471716e-01 1.590525817659148855e-01 8.280500577662663897e-01
-7.410523760327063503e-01 4.692854654162531558e-01 3.200189831641267468e-01
-5.478635270180072236e-01 3.631507267772968173e-01 4.850797934090231300e-01
-2.455527878865618463e-01 -1.994994643937607892e-01 8.816803576470439996e-01
-7.717704258717271726e-01 1.835470608209333609e-01 3.993129384395378012e-01
-3.230620911635490589e-01 2.115621227519862979e-01 6.869458379921676849e-01
-6.265228691498570500e-03 2.606405553745151371e-01 8.798019140922697101e-01
-3.541751298562171302e-01 -6.331562248815825189e-02 7.621902421660561311e-01
-1.898814218813976162e-01 6.005928883741245422e-02 8.280558232286719944e-01
-4.155228759125431104e-01 -2.759745760882297283e-01 7.956957497997881879e-01
-4.181120081676161782e-01 1.250756364005694843e-01 6.541097967069611219e-01
-5.418126495814841181e-01 3.785811887650261665e-01 4.837087957145890793e-01
-8.202343591125805800e-01 1.807420239593404143e-01 3.681693771460678444e-01
-5.918902744717995379e-01 4.198594391271518456e-01 4.361212372772428902e-01
-1.002695820800709320e-01 -5.080591926704437072e-02 9.261156962656430514e-01
-3.199075407948088201e-01 -1.554784265495679219e-01 8.170453728099725810e-01
-3.501930784294999821e-01 6.108999532396580667e-02 7.214419602734346570e-01
-4.266591146383486577e-01 -1.980202416510524477e-01 7.611273853965307978e-01
-5.774991333505065105e-01 7.653952285043215398e-02 5.653955877240229855e-01
-1.910545387339133150e-01 -6.492532315583843250e-02 8.708677934006343602e-01
-4.178538499546499141e-01 -2.725947916411055466e-02 7.074091492806001691e-01
-5.441077488785422966e-01 -8.809711325920263625e-02 6.449458735281432542e-01
-4.566298674852966033e-01 -1.720734495280350218e-01 7.322136246260121384e-01
-2.980181678941534185e-01 1.060040232326977250e-01 7.403592629124772229e-01
-2.086457057206637100e-01 1.141018678435328226e-01 7.967710390557010136e-01
-7.866755812343773080e-01 2.870718457146703151e-01 3.533286148768925994e-01
-7.669827607242568623e-01 1.510051094313719644e-01 4.138354968558401459e-01
-1.761763344875647841e-01 2.747768135667425643e-02 8.485026700068822869e-01
-2.119975043791549052e-01 4.164636890427508842e-01 6.890980580970902380e-01
-4.237212451983125572e-01 -1.916409407104478213e-01 7.608497633811158734e-01
-1.325108182535080503e-01 -2.941761993277831888e-02 8.972868770476423173e-01
-5.663803398875633111e-01 5.222953646166123010e-01 4.173037417126786996e-01
-2.196186256262122882e-01 4.817485742598577869e-01 6.612780944965518382e-01
-8.208282812977961695e-01 4.321126103839535992e-01 2.801079668274297219e-01
-3.306335882618868793e-01 5.689419229701051517e-01 5.572880289795139053e-01
-6.830038899755292992e-01 4.669941568783050334e-01 3.592925722555078694e-01
-4.120047877870200992e-01 5.052060514937426472e-01 5.255837448888102115e-01
-3.391282725834766087e-01 -8.266403574049875635e-02 7.789112167392522323e-01
-6.330749082986252274e-01 -2.228987878188092367e-02 5.630276686759014826e-01
-4.101809412206214867e-01 5.505206325771409004e-01 5.109887195640414603e-01
-9.303762312911295629e-02 3.083514939984590142e-01 8.056496435305993131e-01
-1.327524695439499247e-01 -1.272739891028218107e-01 9.312550022235097646e-01
-4.406583508009093708e-01 -1.583950889578533694e-01 7.380290772042857883e-01
-5.882823694980523488e-01 3.366331260962785593e-02 5.732019353767144887e-01
-9.254303940963030106e-01 3.043227069993778566e-01 2.553456796089374481e-01
-4.100867622702960014e-01 -2.150812544234691204e-02 7.105513302171687640e-01
-3.660923050165645898e-01 -7.175969578349385147e-02 7.572364979211503311e-01
-1.219984498312137594e-01 -2.124602757780740259e-01 -6.875696201746293035e-01
-1.593223060967637397e-02 -3.711157190050959898e-01 -4.666199715113817370e-01
2.690001758040895252e-01 -7.001157360472974878e-01 -2.331602418716368086e-01
-3.056832149893670691e-01 -4.309692531041482422e-01 7.570552829867777112e-01
-3.175315949377445768e-01 -4.309729096112638325e-01 7.980402972453024546e-01
-3.967287409271887944e-01 -9.604077510292341469e-02 -1.688229769609300712e-01
-2.917110719235615698e-02 -2.511690099080185479e-01 -8.651718113006974242e-01
-4.283786865384268672e-01 -1.820336342895781390e-01 2.591746099183704910e-01
-3.435810256832566578e-01 -1.570644417833000350e-01 -1.265501549974197004e-01
-8.467104662173798035e-02 -4.686352184758127426e-01 1.323295982723738384e-01
-2.688448211950084654e-01 -3.364169077544251762e-01 2.794083084252471094e-01
-1.894803409313488562e-01 -2.440972010332929376e-01 -3.370224462317300551e-01
2.937934668628647827e-01 -6.778930060670876889e-01 -4.012170353818694246e-01
-2.770516063285564240e-02 -4.699947825054340278e-01 -5.962095476355933760e-02
-4.703537130869224134e-03 -4.218058884633955063e-01 -3.176714776259698669e-01
2.070658467839849859e-01 -5.783551978861721787e-01 -4.700433114339856999e-01
-6.133443002468714766e-01 7.014082420473340129e-02 -3.537509956365444269e-02
-3.013626851223407677e-01 -1.361613970801079099e-01 -3.499737797233681835e-01
-4.365456621491935474e-01 -9.875207065991227495e-02 -2.109308571616062486e-02
-9.062174936374335632e-02 -4.367652124810595948e-01 3.484748951475099416e-02
-2.654566627431430015e-01 -3.557455449103094081e-01 3.392932914135577405e-01
-6.863039010328286782e-01 8.497330243956829898e-02 1.619722312961626998e-01
4.113454366067650914e-01 -8.070750585039878633e-01 -3.291663722082859844e-01
-5.747495490081145908e-01 7.634399139091194164e-02 -1.918140698608822858e-01
-4.429207650441047139e-01 -2.700433247555742988e-01 6.354846898229108421e-01
-1.161657380836268461e-01 -3.434127249505469770e-01 -2.226376473431171121e-01
-4.670293258857882157e-01 7.400869156351344222e-03 -3.089150271404902948e-01
-6.236738861569532943e-01 1.411915035151094233e-01 -2.628563376250856454e-01
-1.839878722629381680e-01 -4.873797487955970342e-01 5.452026625792698589e-01
-2.161015411736971203e-01 -3.080572778434903514e-01 -8.032591997540939124e-03
-3.249810766745595547e-01 -3.609733272950171323e-01 5.644934073018297305e-01
-2.971206528573636652e-01 -2.449788708604207499e-01 3.846173908937974145e-02
-8.576614490772793697e-01 2.655129433939840689e-01 8.573072687035386552e-02
-3.550108206149219514e-01 -3.162644549429648524e-03 -6.571412843243762403e-01
-3.460129268354322218e-01 -6.827450488361862246e-02 -4.470548926130589740e-01
-3.740051587287551160e-01 -2.427471005515648428e-01 2.960594866066380559e-01
-7.190158413325606901e-01 1.929225281023515259e-01 -1.247985495197442701e-01
-3.901151105071405945e-01 -1.366149348790519635e-01 -4.138951728764159871e-02
-2.500193969776169992e-02 -4.081536785309869964e-01 -2.980533572518933028e-01
-1.219798862875095535e-01 -3.500396944063208227e-01 -1.779834325599788658e-01
-1.387060293785202791e-01 -4.808318460457841614e-01 3.643628171203540655e-01
3.271853837957421907e-01 -7.634359259217743388e-01 -1.997997123084379878e-01
-9.094001897176402782e-02 -2.127083672213757048e-01 -7.940500422563233629e-01
-1.864783390757736581e-01 -2.440237099940884002e-01 -3.476755515146708886e-01
-5.559680141786431384e-02 -3.728000101094432472e-01 -3.232213491705775432e-01
-8.447960139883173639e-03 -4.389741702528699996e-01 -2.411250046542686432e-01
-3.346617468513782834e-01 -1.385927771427291830e-02 -6.878832886802149771e-01
1.018389100264999042e-01 -4.379079499959427912e-01 -6.264445874611352938e-01
-4.783987120497651957e-01 -5.977776301508037904e-02 -2.074280734436801527e-02
-4.482431978159178571e-02 -3.364518747783958874e-01 -4.951207273480883186e-01
-7.310652928178634768e-01 4.495837107100296437e-02 4.649879151561097657e-01
-7.708932247323627140e-02 -4.831295899712267916e-01 1.598052168294424868e-01
3.808629712718112903e-01 -7.567552002704203140e-01 -4.101639107356567782e-01
-2.727483761156121456e-02 -5.107087872287889851e-01 8.971230531483008475e-02
-6.101149576059012869e-01 -9.790936952067010035e-02 5.759844769079727200e-01
-1.088920555767599191e-01 -3.149096308350807782e-01 -3.533770076376080982e-01
6.211599802078140997e-02 -3.672629209001839201e-01 -7.507815773476012033e-01
-1.910264962980523853e-02 -3.331004629243325965e-01 -5.964807648884300484e-01
-4.336266667575160438e-01 -2.069138024135165344e-01 3.694883326601319240e-01
-4.531043908670192022e-01 -1.165482500323478526e-01 1.020909981438013620e-01
2.582626925585789213e-01 -6.999526300371626819e-01 -1.966344434607149305e-01
-8.360103529511656029e-02 -4.504488314293346729e-01 6.125971139568010121e-02
2.518830696226213861e-02 -4.849250278927151880e-01 -1.872178150593182822e-01
-2.732049261246304872e-01 -1.656941753681061835e-01 -3.379412890569609140e-01
-2.538095042421781855e-01 -2.308846772895958854e-01 -1.635180281717563966e-01
-5.375438778347413349e-02 -4.801207955816746420e-01 6.796765950564956360e-02
-4.241929589694471980e-01 -1.086483763906326838e-01 -2.714853482865478562e-02
-4.333532943586925756e-01 -7.827482050463817342e-02 -1.079883332366574078e-01
-5.199617209479547864e-01 -1.831137375088507657e-01 5.798681180252749368e-01
-6.264982552178756103e-01 -7.992541202125063790e-03 2.995489325899447497e-01
-5.902667857878514113e-01 -1.196190116190862240e-01 5.877712666875291037e-01
-3.894335183146204749e-01 -5.888035290866654170e-02 -3.317071030149653099e-01
-2.968422733571970951e-01 -2.613203249882457557e-01 9.803453117590370247e-02
1.679559528532507118e-01 -6.795653816597974073e-01 4.012182057456164380e-02
3.447347922429710998e-02 -3.380149075701870953e-01 -7.635408729240783510e-01
-4.309100343625720253e-01 -2.298637720545988472e-01 4.451103349462931513e-01
-1.406214639588726500e-01 -4.823719532654164310e-01 3.766915393228950082e-01
-2.568085232290779341e-01 -2.468456239709177213e-01 -9.402161045836709974e-02
-2.985738103811444999e-01 -1.832063691739174438e-01 -1.853438560456669160e-01
-2.993458385189778914e-01 -3.975234078035743135e-01 6.112436809440378038e-01
-1.951153562600713501e-02 -3.720575898527745951e-01 -4.507537294258822658e-01
-3.607966440730833169e-01 -2.352029422960135729e-01 2.224380533555427586e-01
-1.443467687562945134e-01 -3.169603771239911105e-01 -2.231784919487527774e-01
3.791122685691358241e-01 -7.763306935351156346e-01 -3.315943892197926179e-01
-1.222311473646410379e-01 -5.157371410277974411e-01 4.366964677775487802e-01
-4.019151058002959909e-01 -2.454447779544083885e-01 4.025648439627432795e-01
5.310339964413698238e-02 -6.026807647591437833e-01 1.524676965167768572e-01
-2.939482215437044799e-01 -4.012488401683599049e-02 -7.313713354177767689e-01
-4.223814717421864318e-01 -1.386425849801373872e-02 -3.845317230702707256e-01
-6.588877045951125888e-01 1.483270746248481209e-01 -1.675207043698612175e-01
-3.549010225965943399e-01 -6.550688687177826097e-02 -4.265724170386356318e-01
-8.265851427026058573e-01 2.157770375984390532e-01 1.625115761230169764e-01
-3.699774674345827630e-01 -6.554433378427484969e-02 -3.742996432597989753e-01
-4.614917615808761253e-01 -4.100164989532616849e-02 -1.487611102850277534e-01
-3.109565619152506247e-02 -5.771482324345007520e-01 3.490434736283620221e-01
-3.744894415672770926e-01 -2.554254841998434000e-01 3.447000405875545459e-01
-1.834317247022159703e-01 -1.591213250158104164e-01 -6.727238092983361950e-01
-4.541241443896150698e-01 5.696531674931891442e-02 -5.371478609033866203e-01
-3.052881226475565590e-01 -3.267398573791316929e-01 3.695807925829321938e-01
-3.365823740104189610e-01 -1.222473296155945494e-01 -2.797281666805626066e-01
3.423354907293432725e-01 -7.651391608472730699e-01 -2.458790114406368410e-01
-3.867192276234251436e-01 -1.053621358835037936e-01 -1.689055517419885688e-01
-5.788074997349074158e-01 -1.063547751432653843e-01 4.990091252789976561e-01
-3.717777096172587004e-01 -1.199428357580009930e-01 -1.665601626337665231e-01
-2.106425717295872801e-01 -4.642010786741931905e-01 5.515108339450870423e-01
-1.237702848640096984e-02 -3.777369000549670175e-01 -4.543862318523188559e-01
-6.787811805665707743e-01 1.171974736350773483e-01 1.658731265276683353e-02
1.535678282606965372e-01 -6.274561975078242204e-01 -1.031580317487132692e-01
2.766277614003074814e-01 -6.407519331074490454e-01 -4.794440670364200630e-01
2.553315277504139471e-03 -3.978632202427913045e-01 -4.314589589119626201e-01
9.728537278250602716e-02 -5.832297552645766547e-01 -7.236720004520415250e-02
-3.091678756925424487e-01 -3.710448901614174511e-01 5.471208476520110775e-01
-4.480813337764945614e-01 -1.324557226364055096e-01 1.436491418614720683e-01
-3.615621480468916293e-01 -8.907606220588569490e-02 -3.162285183263692234e-01
-1.692296317937136418e-01 -1.743977633663358617e-01 -6.652442028950689146e-01
-2.743224585557398343e-01 -3.286742042242906114e-01 2.696677351856570648e-01
-5.634914403046338283e-01 9.026444675022668451e-02 -2.823114467478853862e-01
9.331271379671922384e-02 -6.020880646009973969e-01 1.122906108679576700e-02
-2.203889528451844493e-01 -4.002213574320080403e-01 3.482066027642740091e-01
1.587517325479792241e-01 -6.662651402178144666e-01 2.268030802214443878e-02
-4.476722980285371967e-01 -1.816224710697491862e-01 3.243684293170750466e-01
-3.144015537465975063e-01 -8.138144075003649058e-02 -5.078129645249938040e-01
-1.675930615464219231e-01 -2.961379200531797928e-01 -2.199281491906244224e-01
1.368268647732653054e-01 -6.678790588262029093e-01 1.044746913590724469e-01
-4.218876268214329928e-01 -1.660301955081228964e-01 1.774453746930336751e-01
-6.879592413740884260e-02 -5.497563761166028851e-01 3.779396443668696648e-01
-1.871981469691373356e-01 -2.505573923011910065e-01 -3.209830408652882272e-01
-6.605054927035179935e-01 8.443616489588733412e-03 3.562590593972568831e-01
1.293417629642020783e-01 -4.767025816415334516e-01 -5.778377551610082152e-01
-1.490125240369929438e-01 -2.430166346144066458e-01 -4.809622351173269417e-01
1.336849656958088717e-01 -5.423614477034436332e-01 -3.496291989751690310e-01
7.299204737344953953e-02 -5.509843808384810027e-01 -1.078113918681972011e-01
-2.435244966928545585e-01 -2.597427006013222628e-01 -9.218147625973342751e-02
-1.425420611948101379e-01 -4.973497837549697431e-01 4.388169313819827999e-01
-7.938703492673117035e-01 1.454507243694198038e-01 3.099018509009403011e-01
-8.796053562786089464e-02 -4.297410440153571765e-01 -3.753261868890996728e-04
-4.984752840730611867e-01 -1.216119670354091353e-01 2.777407474678344479e-01
-5.868401115437773541e-01 -1.302600990541077641e-01 6.153408290097091005e-01
-4.087800772659147541e-01 -1.640133950097472093e-01 1.246486683568896886e-01
-2.876324410831906930e-01 -2.418478862643127225e-01 -5.946760231452779405e-03
-7.254963544536814357e-01 4.213745403087034574e-02 4.561804631436955915e-01
-3.887129518945752760e-01 -2.901208678275172259e-01 5.224105417322856271e-01
-8.870369015213599440e-01 2.609394690660664096e-01 2.042524917447526844e-01
1.856286506062829467e-01 -5.726570056025153121e-01 -4.170223334520722913e-01
-3.120899093021397008e-01 -1.697001697416749277e-01 -1.886379281578983991e-01
-2.480041903530223468e-01 -2.255693395437420590e-01 -2.032828742937690392e-01
-1.510010617533263932e-01 -4.625238753527664559e-01 3.390585977716980559e-01
1.016919539472135314e-01 -5.029579023962289508e-01 -3.849648138127657049e-01
-2.034053140542071147e-01 -2.566001434207264009e-01 -2.425541509088564862e-01
1.583947172196672748e-01 -5.485273081826974595e-01 -4.122341760686671908e-01
-3.357432745876430258e-01 -1.929142691976985791e-01 -2.085053835824205934e-02
2.523314402154418490e-01 -6.552317859862767380e-01 -3.417885661887334336e-01
5.037727628556448733e-02 -6.005654343441034770e-01 1.540585302902978959e-01
-4.396945762142928094e-01 -2.802109909427732970e-01 6.619937810996242566e-01
-3.163246365113602798e-01 -7.423632855340600578e-02 -5.276313964485148666e-01
1.162080447109064274e-01 -4.749677301115635131e-01 -5.388482099687772475e-01
-3.179644350691310239e-01 -1.907886873671327810e-01 -9.020344568225674431e-02
-3.687019148017540715e-01 -2.722563462034779391e-01 3.870352745539262784e-01
-6.911987028110948283e-02 -5.352737996843881518e-01 3.254104633546677228e-01
-1.660927179072266002e-01 -1.054955033028800587e-01 -9.313337144964918268e-01
5.262490783983952980e-02 -4.895280695459046649e-01 -2.650415040426821744e-01
-1.506294215909106393e-01 -2.273549340551384856e-01 -5.333883726640272771e-01
-2.905829197793844410e-01 -1.964991178209880840e-01 -1.637344291824576192e-01
-5.953113384345875003e-01 -1.029460893197512716e-01 5.434519157627671904e-01
-3.867579958673825757e-01 -1.048736429234888162e-01 -1.705810694196044919e-01
-6.473433047804946217e-01 8.094753867684056914e-02 4.216031566668265035e-02
5.847227676328981688e-02 -4.731505956766179910e-01 -3.459304477258267618e-01
-7.737566426099609096e-01 2.234385673286655993e-01 -4.854979358228394409e-02
-3.967254116647611073e-01 -1.795960205972244317e-01 1.406882795511631701e-01
-2.098453986289385564e-01 -1.922896552003402204e-01 -4.585167877163079386e-01
-3.487049759008367666e-02 -3.228368478837211897e-01 -5.799764748356094346e-01
8.067968077859476173e-02 -6.096104760100018449e-01 8.277993074302342213e-02
-1.424173460803615510e-01 -4.404760159450283874e-01 2.277019949795373865e-01
-6.772963742654043440e-01 8.138606890981701231e-03 4.154514837729648136e-01
-2.269326052614883127e-01 -4.724601084754552760e-01 6.384362762579288697e-01
-3.915204265063610967e-01 -2.846213890008781888e-01 5.117464181272266543e-01
-3.945871680247556856e-01 -6.873872706933348287e-02 -2.773664359263183221e-01
-5.949558649151373002e-01 -6.843919901010280665e-03 1.862209934125888811e-01
-1.811908101842762409e-01 -4.498874370629361574e-01 3.966436343327503500e-01
-2.465966620984399449e-01 -3.852922100021275997e-01 3.835286933147091237e-01
-2.525155776107009253e-01 -3.732060765178371042e-01 3.592242121753134731e-01
-3.652219781100036165e-03 -3.096021259176298668e-01 -7.369554943752028020e-01
1.345056278723377463e-01 -5.419250330487944689e-01 -3.540836911290289324e-01
-7.139086129222417254e-01 9.497892403343344281e-02 2.203638813789301765e-01
-5.258004537576976833e-01 -1.496880058297525018e-01 4.762357758173964561e-01
-4.125130394278542223e-01 -1.383618137885515020e-01 4.253324163844670464e-02
-7.732482578366072223e-01 1.003361053633100991e-01 4.057140390792041140e-01
-8.237028264194320992e-02 -5.519343547387629556e-01 4.329476366604022575e-01
-5.196521175290484962e-01 -7.839160138920486798e-02 1.908639349161411758e-01
-7.416518675315961762e-01 1.007350196834738698e-01 2.949765899159806914e-01
-6.098264205172252428e-01 7.958319511688895231e-02 -8.251825964077195985e-02
-2.694702841734696319e-01 -2.518146462814507824e-01 -3.183019669444704658e-02
3.682530900362541160e-01 -7.557887362979079926e-01 -3.701393623678879141e-01
-4.171925227382537460e-01 -2.496510128962811936e-01 4.709754695627358934e-01
-2.805909825769500321e-01 -3.684999270555351925e-01 4.388749199079795549e-01
2.316958131464842419e-01 -6.354489867392371094e-01 -3.437145377092334364e-01
-7.701234616540543199e-01 1.542180794812561262e-01 1.953077065247676991e-01
-5.229755171487736609e-01 -2.009740313540776813e-01 6.564515930058698601e-01
-2.676411074742536256e-01 -1.029736284037004040e-01 -5.895233993701305408e-01
-8.889609833204596689e-02 -4.372015509065917960e-01 3.049659738160528932e-02
3.806453672851076511e-03 -5.171711103352883976e-01 6.172885470180653443e-03
9.354333541655353301e-02 -6.130900833687575879e-01 5.118754879481818981e-02
-2.377046162739796797e-01 -1.863684011096423676e-01 -3.841148955872311088e-01
2.338614353388991929e-01 -6.141151914757447816e-01 -4.302323118340868890e-01
-8.828613271483309877e-01 2.342429383374707297e-01 2.887082939142920357e-01
9.463541489702476106e-02 -5.279086272234947419e-01 -2.681357586996239717e-01
-3.112921302757670761e-03 -3.671514946948160607e-01 -5.256340021285533792e-01
7.365294564985387649e-02 -5.982618446516710931e-01 6.503827765431945129e-02
-2.379615918756977991e-02 -5.349119454758486381e-01 1.673414897833128412e-01
-3.633238651103266603e-01 -1.859669848936264247e-01 4.878703142752381650e-02
-1.206227756131502543e-01 -4.515657650954373326e-01 1.934177531690965679e-01
3.242683976285007930e-01 -7.271170458143181303e-01 -3.242528018717026894e-01
-4.303893277588906052e-01 -1.714209786231008781e-01 2.268137556325801329e-01
-6.879821925867167787e-01 8.188884388189186792e-02 1.792018258531344055e-01
7.183815468586735031e-02 -6.242759670946136374e-01 1.676807283673564242e-01
-1.011717394426667888e-01 -4.832787443639125491e-01 2.436342784771096115e-01
-8.076105896438486031e-02 -3.252557020995149317e-01 -4.123273754458400275e-01
-6.351187448883778286e-01 -9.400745059865902448e-03 3.345749818689214838e-01
-3.836185716924866429e-01 -1.473720290350013784e-01 -2.400575107625136165e-02
-3.368476299867426693e-01 -2.208815525033996918e-01 8.657054576540496038e-02
-1.949046621757885289e-01 -4.785659490291759854e-01 5.503027957346184884e-01
-2.230169189397406271e-01 -6.169995500463781868e-02 -8.967275318279410712e-01
-6.948128898625646754e-02 -3.854952114663485196e-01 -2.281808463354880467e-01
1.989052592472048964e-01 -5.481715522784762484e-01 -5.536367133440770472e-01
-6.296783973700261772e-01 6.214621735888226084e-02 5.072318312978264798e-02
-2.248813391158863972e-01 -3.880388917126217363e-01 3.186123570956486128e-01
3.652896235565213784e-02 -4.380743087535954872e-01 -3.999877887789841102e-01
-5.197346178566314423e-02 -3.957005754173401613e-01 -2.509177368379607032e-01
-1.936085787686615475e-02 -4.997369402937589244e-01 2.170171219628713732e-02
-6.723230603342245093e-02 -4.513964147529515025e-01 8.167197501212461463e-03
-6.693698851839178232e-01 1.240085531762764315e-01 -4.118778659319718288e-02
3.081256210642973475e-02 -5.566479626302965888e-01 5.902467470620072210e-02
-2.840948077455975884e-01 -4.124082109601505675e-01 6.136453036900871849e-01
1.811861468730323332e-01 -6.567189206381716104e-01 -9.026056129201465161e-02
-5.921372212224555037e-02 -3.392108220894738957e-01 -4.351421838072661585e-01
8.297608742864029385e-02 -4.981767935770911593e-01 -3.379568893791216611e-01
-4.679620742704820313e-01 -2.691503243009174540e-01 7.187690150110982445e-01
-8.198619511593238096e-01 1.598072655697890532e-01 3.465978138038832701e-01
-6.449853874092344175e-02 -4.057584055627964648e-01 -1.703479502192409012e-01
-2.451436186141201512e-01 -3.296903406098274925e-01 1.725320544822891433e-01
-3.660118175782011152e-01 -3.847195861243339898e-01 7.943427621744222344e-01
-2.059772570795137883e-02 -4.832663612037720879e-01 -3.503497736974856697e-02
-1.528730597932972390e-01 -1.153558418135640085e-01 -9.405203143087839113e-01
-3.754371241718243990e-01 -1.682010911705163481e-01 2.486231805464403366e-02
-5.622814678525652754e-01 -7.997689588350500797e-03 7.750759367156055679e-02
-4.906386556866038640e-01 -1.850424505706083633e-01 4.856142658285628744e-01
-7.883510238742885701e-01 2.154617123010939272e-01 3.146682527818846914e-02
-1.255660252441252178e-01 -2.299801429298732047e-01 -6.103322669393721478e-01
-9.144208982315630285e-01 2.799578091322180717e-01 2.284941212839785851e-01
-6.287674258743373157e-01 8.360189189168371060e-02 -3.190752372585899110e-02
-1.800553844963770911e-01 -9.941064210286230940e-02 -9.055918951488751700e-01
-4.624950354258025587e-01 -2.847109750624163826e-01 7.575071085841440510e-01
-5.374151305414762714e-01 9.395166612318965604e-02 -3.861417894731951628e-01
-1.594699761847782060e-01 -3.264302275268720632e-01 -1.358025375334437623e-01
-1.242241872049631018e-01 -4.989762511012789115e-01 3.814991764610877190e-01
-6.076514445319941560e-02 -4.915283876410362351e-01 1.344691026883500506e-01
2.844649403514832309e-01 -7.429072316648636098e-01 -1.281199151550160842e-01
-5.847989709841087125e-01 1.204008373932584884e-02 8.114458506112799674e-02
-1.202160711876433807e-01 -2.881006745847828343e-01 -4.135301081155163261e-01
-4.694114877126314145e-01 3.818179687953363217e-03 -2.874058119069805572e-01
1.526175688076265025e-01 -5.926179511721032522e-01 -2.289271518502227210e-01
-1.968441976221598222e-01 -1.789308573464375440e-01 -5.529611352410184200e-01
-8.240249761741293977e-01 1.826927656042186265e-01 2.762162310310869451e-01
-1.921113319162238431e-01 -2.275205147351488932e-01 -3.893313493065326814e-01
-5.860691035591490960e-01 1.876233929035938872e-02 6.063469778013168970e-02
-3.524521965356665065e-01 -3.413270813564102113e-01 5.867102871076823600e-01
-3.786985817435034041e-01 6.884979643959449405e-03 -6.124499691243167065e-01
-6.664491996466231916e-01 -2.261641986181957970e-02 4.918713486544362690e-01
-9.914736765880115266e-02 -4.285286947438572969e-01 3.381748589785305015e-02
-3.686218067472855631e-01 -3.805864825721813061e-01 7.880573500242132878e-01
-5.173102194415539479e-02 -2.180855070054475708e-01 -9.097148740299481062e-01
-6.525093407849552607e-01 1.435368046533802844e-01 -1.718318460310125084e-01
-6.786265839259306709e-01 2.831381227805675194e-02 3.453141189779137532e-01
-8.209876461408535109e-01 1.662697031986520857e-01 3.265509358560819142e-01
1.117304785164525971e-01 -5.859530180233474272e-01 -1.122300187767416163e-01
4.291317947324124055e-02 -5.656162046609570782e-01 5.040300632557499078e-02
-3.558606416580569198e-01 -2.889675858270361331e-01 4.045356595844966097e-01
-2.283948941317934800e-01 -8.827891482347892393e-02 -7.796712704349979539e-01
-4.688559308549698490e-01 -2.216706760165106371e-01 5.459759369276988572e-01
-9.991703625371874120e-02 -4.491866115992408370e-01 1.130043496593693547e-01
-3.778167428746436185e-01 -2.762195861872842051e-01 4.332356342521382908e-01
-4.337917725042594319e-01 2.973682108675989796e-02 -5.065913370637723512e-01
2.920785368673216587e-01 -7.091462302636371007e-01 -2.795121284363725200e-01
-3.832170779290436369e-01 -1.426308920988300366e-01 -4.295721714355157234e-02
-2.349741694745090814e-01 -1.316404040979783363e-01 -5.962915900637903999e-01
-4.838545498979110460e-01 -9.851143715546155019e-03 -1.868252227572912982e-01
-1.702779634013463494e-01 -4.871865765220598221e-01 4.970784734532708860e-01
2.121828289049948746e-01 -5.972242371110623171e-01 -4.178391058318619011e-01
7.610611491452830280e-02 -5.205859198001339117e-01 -2.311880974434495362e-01
1.298474844707717124e-01 -4.854909505047174112e-01 -5.470308212677869042e-01
-1.232758054543057202e-01 -2.877320231604232892e-01 -4.043152416093246937e-01
-7.411896861044716678e-01 1.841027214296631631e-01 -1.544965490003770078e-02
1.579818022171834424e-01 -6.390410582482604074e-01 -7.550641082837454554e-02
-2.272704214764492692e-02 -3.878488924351143341e-01 -3.811371330551592274e-01
-7.130684922680172733e-01 1.035362506438133323e-01 1.857589261883347831e-01
-5.884010775639141322e-01 -5.411275459835859780e-02 3.386577425580803435e-01
-7.346209692787820655e-01 1.224045245427909101e-01 1.903911796155965952e-01
-4.485104158235887484e-01 2.019157902809327887e-02 -4.203350760283375287e-01
-6.465592233290906599e-01 -3.247761867453554524e-02 4.596221042121680367e-01
7.020720929044645120e-02 -5.552120975131874525e-01 -8.252028559383338402e-02
-3.523597184421940476e-01 -2.553228119490193529e-02 -5.834424703284449842e-01
-4.473903133174718105e-01 -4.131342407176253478e-02 -1.963687071355348368e-01
-6.593410784621482890e-01 -1.167265196088784415e-02 4.267514150560173247e-01
1.182859974318665741e-01 -5.582824692093300012e-01 -2.374018952750169276e-01
-1.735324747815421842e-01 -2.768248303494014739e-01 -2.709333482895878720e-01
-2.758097254069977449e-03 -4.322461498919280554e-01 -2.857237770485440698e-01
-4.546581248271598374e-01 -2.791434545650887111e-01 7.097828523216040963e-01
1.713223405965876023e-01 -6.397347990183346322e-01 -1.190678356635795770e-01
-3.518460263504910035e-01 -3.998379019303674453e-02 -5.316845136099607183e-01
-1.725039390329178024e-01 -1.079308563006671495e-01 -9.001422930869410477e-01
-5.404094206948233392e-01 -1.536609041059240344e-01 5.414705398742077902e-01
-2.092419073890549874e-01 -3.871382290638683554e-01 2.611950817395455871e-01
-5.472528437699165638e-01 -1.798479013547465977e-01 6.621423022372135980e-01
-5.084338597783662206e-02 -5.158463365396698252e-01 1.902434722345231477e-01
-8.762772054079774886e-01 2.214416159344775870e-01 3.133618567354366502e-01
-2.483839607469112976e-01 -3.122981763028889191e-01 1.193094121703968252e-01
-5.475500824612088424e-01 4.238806586268543605e-03 -1.876223406430706925e-02
-5.892954876003081433e-01 7.338177056840124168e-02 -1.305412188434448006e-01
-3.372202203843667201e-01 -4.004216997744245582e-02 -5.820440056329694301e-01
9.595241346902434743e-02 -4.000318594486027557e-01 -7.463977111658658403e-01
-2.427714806228134514e-01 -8.084556235027950954e-02 -7.574934867138749528e-01
-3.581789337734664347e-01 -1.426358418867426092e-01 -1.295203000950901628e-01
1.282923557829538375e-01 -5.702238062405728947e-01 -2.277680977655860417e-01
-6.618744214911830293e-01 8.203024082753775093e-02 8.839786550164702161e-02
-4.178210517023137061e-01 -2.610470820112361645e-01 5.153646068896670096e-01
1.621246613325102656e-02 -4.425192357756061456e-01 -3.132679113293225792e-01
-1.736836031804565861e-01 -3.602684344871826538e-01 3.869845463281351011e-02
-5.938014068801777956e-01 -7.546461126231494843e-02 4.364279782600694602e-01
-6.714795385989786869e-01 4.761871918168881362e-02 2.490865113138157061e-01
-1.508633719155657964e-02 -3.636922865092336865e-01 -4.970444817115933223e-01
-5.225553754172383991e-01 -1.110733809306323344e-01 3.219700094560386527e-01
1.471242965423856797e-01 -5.724843504677979977e-01 -2.845146058052275273e-01
-4.170726449426608862e-01 1.111850350977363830e-02 -4.954359017766721274e-01
-6.278234168999005105e-01 8.939519602454838731e-02 -5.663265411662633114e-02
-1.716824908511776493e-01 -4.205331660161055751e-01 2.550238359103073615e-01
-8.898683611211757327e-01 2.611595981034727232e-01 2.132281764669484991e-01
-4.725606246793095933e-01 9.929442739760699008e-03 -2.991547724246513273e-01
-5.754372499918020828e-03 -5.714413567869754962e-01 2.402732048150352240e-01
3.334639256622742298e-01 -7.736629947679515285e-01 -1.836255471698249042e-01
2.724802705384837820e-01 -6.344199867000773763e-01 -4.885582403812182561e-01
2.772355589966768452e-01 -7.239435518911062628e-01 -1.733700722604283317e-01
-7.842799917266850551e-01 1.966840048550222431e-01 8.694957546455622799e-02
-8.702811698421201170e-01 2.760835957485126002e-01 9.021146221086048800e-02
1.937588284405042105e-01 -6.414496981629868033e-01 -1.903000902456483956e-01
-7.680419464876271640e-02 -5.567134644547649946e-01 4.314039869426243290e-01
3.224660032358192541e-02 -5.991788910800325274e-01 2.116177348766155042e-01
4.677111235158852749e-03 -4.492893905595360948e-01 -2.482994573181507569e-01
-8.155511470873724744e-02 -5.353513730028307549e-01 3.686986617204609518e-01
-5.140581994690280876e-01 -1.503463583881255172e-01 4.380700941087631306e-01
-1.590032397219335036e-01 -1.351933644175272176e-01 -8.458359813810143457e-01
-4.210616443443760959e-01 -1.907599610516601540e-01 2.661982991127917475e-01
-7.213069190509272532e-01 9.433714809645150912e-02 2.483244813991488664e-01
-6.023172536189558279e-01 -2.832271026979950659e-02 2.912427489138827430e-01
-1.131999267230597850e-01 -2.646297631735794464e-01 -5.247376460035919621e-01
-2.190473447830803833e-01 -3.104193893556224104e-01 1.090416617140195672e-02
-4.262980733438541114e-01 -1.234626282335023612e-01 3.500895178842648725e-02
-3.730234495169895137e-01 -3.779838776087857122e-01 7.936370335441760293e-01
-8.417959238539501551e-03 -3.263085844162054161e-01 -6.585881110123323889e-01
-1.389318181012665632e-01 -2.284769069112706219e-01 -5.696822137589647728e-01
7.772541718155762114e-02 -4.957978332184431181e-01 -3.286128142429780019e-01
-2.986857780500433712e-01 -1.858745679113729121e-01 -1.750725756894768170e-01
-1.278329773021558979e-01 -1.360064687796847527e-01 -9.506100761294701273e-01
-1.715977902971676239e-01 -2.810294995914975891e-01 -2.620476370237112551e-01
-3.823508130052664100e-01 -2.377466345186983743e-01 3.063948286157323619e-01
-5.451274153483253171e-01 -1.742629345624730486e-01 6.341036128459307530e-01
-1.573971594364410864e-01 -2.754196948132898726e-01 -3.319341533185367066e-01
-5.762123267861921638e-01 -4.028796393513323082e-02 2.452966044714345317e-01
-3.010358514029647381e-01 -4.146138448215220401e-02 -7.019115044283668059e-01
3.247112456396196167e-01 -7.532645198983655144e-01 -2.289232341735947807e-01
-1.042937467313047317e-01 -3.086827506007459587e-01 -3.923447794497598728e-01
-2.377345431569446166e-01 -8.844320341305518529e-02 -7.467663523980073714e-01
-5.180246020267703644e-01 -1.970112566519894026e-01 6.246516874777562345e-01
-7.339182983890185641e-01 6.108411274057387597e-02 4.151172173885285255e-01
-1.126276494325474664e-01 -4.590485044951241322e-01 1.934898853262149720e-01
-4.895880934211310764e-01 7.056659841909350417e-02 -4.648989146169397180e-01
-9.137840893357947192e-02 -4.033780266274120674e-01 -8.621577433198375495e-02
3.164248788571656923e-01 -7.120472639637855927e-01 -3.529546947399339607e-01
-6.099831750601687475e-01 2.430036545395341738e-03 2.038306177967393051e-01
-2.762698732775348276e-01 -3.866214282548219305e-01 4.910620520759952368e-01
-6.503938373208064672e-01 -2.753357809038980454e-03 3.627713181048967672e-01
7.243537073106921798e-02 -5.266173221069411214e-01 -1.961519564342784350e-01
-3.164976442292091741e-01 -1.205661097737924375e-01 -3.554086996372081142e-01
-5.791880084530489636e-01 6.339765819492240717e-02 -1.285074549266453092e-01
-3.317101047937244251e-01 -3.083965178566900889e-01 3.929962721482770927e-01
-3.337369244458378015e-01 -3.013267785536893340e-01 3.738157723725076820e-01
-2.921073587038922059e-01 -4.632082722354074339e-02 -7.147846983398703502e-01
3.190676368215971115e-01 -7.100936899258585289e-01 -3.693301371923892185e-01
1.353705138377341854e-01 -6.413261037975593881e-01 1.114773010852966248e-02
1.301833970508819438e-01 -4.761079603799956428e-01 -5.829508296885322904e-01
-2.509335300943976166e-01 -9.568812233930147626e-02 -6.742863705540710351e-01
-2.784241679047429474e-01 -6.638550951216638796e-02 -6.877731264938397038e-01
-7.037624632237523548e-01 1.340970537406685481e-01 4.036915598971842906e-02
-7.142879216689594912e-01 1.401880845552724852e-01 5.420232117686985679e-02
-1.028818650716887412e-01 -2.009382114603666392e-01 -7.963568351380312382e-01
-5.522436339321111776e-01 6.947658343296078676e-02 -2.441994045696584126e-01
-7.004885117832713171e-01 9.579835927147076213e-02 1.709219078569367001e-01
-1.275566496138119503e-02 -3.336109860378700387e-01 -6.165373291012555823e-01
1.203458040853688654e-01 -6.099278107213705891e-01 -5.320922024487541313e-02
-3.939382007517938100e-01 -2.682535174665252042e-01 4.594737508892036693e-01
-1.857458387985852499e-01 -2.024545008833509019e-01 -5.041978585820834358e-01
1.081442852312180097e-01 -4.498023242262974009e-01 -6.041868311027240868e-01
-5.886939902790112866e-02 -5.607990612086917182e-01 3.845205297224296159e-01
-2.512905130319332270e-01 -1.580134561486649381e-01 -4.421734285946766763e-01
1.273784747151166519e-01 -5.438145819813898774e-01 -3.224384718463506050e-01
-3.220797647314037060e-01 -3.343445990639821730e-01 4.558170370641432267e-01
-5.061395345160216719e-01 -1.667445036170989159e-01 4.714329336398601633e-01
-6.094751703400939219e-02 -5.377410504981389172e-01 3.062903287440963407e-01
-1.256767596096506623e-01 -3.350620852129224669e-01 -2.206829001345821939e-01
-2.413456304431843558e-01 -1.734652279429202970e-01 -4.193229644001545964e-01
-4.606759204905405691e-01 -2.664335339044200390e-01 6.835095342616696046e-01
-7.000737810854048560e-01 8.290647989236775428e-02 2.172445658084224129e-01
-3.333092460817045910e-01 -1.624161312419537817e-01 -1.422449261108412466e-01
-8.001646008405488564e-01 1.567819852800538816e-01 2.896916310576372888e-01
2.440555389180400214e-01 -6.742559298600966367e-01 -2.426974573567225457e-01
-1.553031938341727369e-01 -2.594467949106740723e-01 -3.983451935206180905e-01
-1.037696451888932975e-01 -2.054289354508065935e-01 -7.766514321167856671e-01
9.614512667807667209e-03 -4.934690668796471447e-01 -1.017133237233123072e-01
1.046410066851463094e-01 -4.143745747726672035e-01 -7.233114208939940282e-01
-6.616806596841311450e-01 1.604689606333878915e-01 -2.028412264183261093e-01
-3.634833518611138570e-01 -2.809064433693911900e-01 4.010330789129891160e-01
-1.688426205550496717e-01 -2.459391998229212284e-01 -4.015637686295918107e-01
1.162096955901144035e-01 -5.047593613008067859e-01 -4.284935442293630325e-01
-1.869381825482076265e-01 -3.991281460760339739e-01 2.284847834954815415e-01
-2.593577895454631799e-01 -4.514941571296558487e-01 6.728954871271871641e-01
-1.724701469109218566e-01 -2.864020132650929029e-01 -2.391290589038809200e-01
-6.953045776507079667e-01 9.333044696719676458e-02 1.621381192674418992e-01
1.711675501971876290e-01 -5.661040421841154746e-01 -3.912909814582910539e-01
7.627604394642481522e-02 -4.482910225477312882e-01 -4.995855470529235176e-01
-2.431586912980109594e-01 -1.224153850037214414e-01 -6.021629116095331691e-01
1.452588227947658461e-01 -4.748302329386980825e-01 -6.398145853028815999e-01
2.402751090458823124e-01 -6.746686238483189380e-01 -2.280960167067086486e-01
-2.016513126309472381e-01 -2.801496522027772662e-01 -1.613824513685479245e-01
-2.244368885896112081e-02 -3.510721608650289594e-01 -5.183530035470351738e-01
-4.739898724735409075e-01 -9.886997064478977512e-03 -2.208042713442017191e-01
-3.869342838083348890e-01 -2.394458433729771407e-01 3.285389460168998133e-01
-3.026171426200605641e-01 -2.215387190336825518e-01 -2.936340519836084725e-02
-1.899147835583451516e-01 -4.975031663352720845e-01 6.031990822672083086e-01
-6.181089130237559237e-01 9.948182877024104587e-02 -1.275902299013083330e-01
-5.021414119400098575e-02 -4.067803146509814671e-01 -2.159575522930989311e-01
-3.075854908512400399e-01 -3.064714383359858352e-01 3.024425418855770098e-01
-4.716897809786689266e-01 -1.087886081232888880e-01 1.376140341219480590e-01
-2.334423935301127573e-01 -2.517352961554536472e-01 -1.567078921072381503e-01
-1.031012315864254930e-01 -3.633970191682797668e-01 -1.937844673883574176e-01
-8.213269539494760796e-02 -4.130376531037160404e-01 -8.240406992615820214e-02
-5.802066079792717046e-02 -3.851526036200741965e-01 -2.690806367474046223e-01
-3.075665487611057847e-01 -2.946582985295869150e-01 2.586163439457267454e-01
-1.480641567058191277e-01 -4.843217804390370085e-01 4.096511836473483159e-01
1.314953545651636191e-01 -5.059601961603509279e-01 -4.769026748225673185e-01
-2.626390417111430509e-01 -3.132468397276515493e-01 1.721174438089856373e-01
-3.719821435483401939e-01 -3.877973313956009638e-01 8.263892601051961995e-01
-1.476396435441106880e-01 -2.876520668677093329e-01 -3.203617507525637342e-01
-7.733944752564425595e-01 1.160761280558626901e-01 3.479121808453414233e-01
7.831199021193377408e-02 -4.280124707807452800e-01 -5.817458512550627292e-01
-4.323282510440631388e-01 -2.709332671470513487e-01 6.021526911969763418e-01
-8.474649345980481141e-02 -4.745265469890579957e-01 1.544143799246104343e-01
-1.529157566881464148e-01 -1.592436563523549065e-01 -7.777942721555716199e-01
-4.460085215921894553e-01 -2.677803210891785968e-01 6.377790021217737415e-01
-5.837934465452734312e-01 -6.863931559953032058e-02 3.765369608082787534e-01
-1.997905083234210455e-01 -8.752161291955927458e-02 -8.813900398695850846e-01
-5.709167964507804172e-01 1.153476497026636044e-01 -3.495531410308818088e-01
-2.838645259505019267e-02 -3.212079177783685457e-01 -6.084323998902412267e-01
-7.189678666494862813e-02 -4.268108049222397726e-01 -6.677826276339771105e-02
-1.684560196175161895e-01 -3.858272653496531146e-01 1.153019241831678421e-01
1.241372353595245198e-01 -5.033200248679404742e-01 -4.612387139103233391e-01
-4.599372489902418537e-01 -2.705987400720924474e-01 6.963848479789214174e-01
-5.241879585182842582e-01 -1.577387599900570425e-01 5.004830812744356372e-01
-3.616399657549352886e-01 -1.252521330319218140e-01 -1.819484787224625866e-01
-5.655430153912581748e-01 2.303178806305899995e-02 -2.615990143581559124e-02
-4.095920682588251038e-01 -8.592778621786227589e-02 -1.618044823296189427e-01
-3.421941169498380342e-01 -2.014277202265589151e-01 3.299365107109752948e-02
-4.369475975062090956e-01 -2.859534131715631422e-01 6.737670599969601826e-01
-4.675741706863965619e-01 -2.620535076323091683e-01 6.911381432885931320e-01
-7.009903002383429671e-01 1.241880867377504888e-01 6.748993238873267353e-02
1.998357796942198672e-01 -5.606755497742582639e-01 -5.105345193648994639e-01
1.386703859351194335e-01 -4.756120387218081835e-01 -6.141357698112718255e-01
-1.371921064339371443e-01 -2.620310906546298169e-01 -4.513996966650991594e-01
-6.539037023662728210e-01 1.100114388381809583e-01 -4.281851754474395172e-02
-5.171995161898279569e-01 -1.240081071736011918e-02 -6.207396489139505730e-02
-5.622604028639098805e-01 9.100770020890450174e-02 -2.893216649417194031e-01
-5.358107599707394586e-01 5.638076129743512660e-02 -2.525116894049240224e-01
-5.714916780625549642e-01 9.939233371512974646e-02 -2.884602019395564598e-01
-2.734809670373569701e-01 -8.392670226074464002e-02 -6.398868745637859012e-01
-4.666688976189766191e-01 -6.993541368002423710e-04 -2.801548443897666218e-01
-4.275458171886010184e-01 -1.291707279738881775e-01 6.046875961213263317e-02
8.206039379753349294e-02 -4.664039983518799004e-01 -4.524898540035819927e-01
2.312151587355292526e-01 2.301857399699006601e-01 2.406914455201510372e-01
4.200789906151332631e-01 1.994723523790580821e-01 -2.986211012669883202e-01
1.449601562132150356e-01 3.909371196383095159e-01 -5.652921287729922167e-02
1.904130566754221321e-01 4.766004393137702744e-01 -5.310364020923352690e-01
8.295904566730010199e-01 -2.398347472754169540e-01 -8.733084996041358405e-02
-7.284590082948949608e-02 6.301365467233402962e-01 -1.894524856873601726e-01
5.326493714832158943e-01 -2.225744031574114143e-02 1.334904439147963362e-01
3.275796169810379910e-01 5.438411171536242789e-02 5.587060713704846693e-01
5.047893363856695848e-01 -7.414380406566124793e-02 4.220381987980217908e-01
7.040707788723121752e-02 4.530625504025901362e-01 -2.886408698858257404e-02
7.106012867972174574e-01 -3.184767949427073919e-02 -4.463376785024109061e-01
2.520307443366248332e-02 2.456661036271921283e-01 8.957316627312461588e-01
5.371057016844812404e-01 1.023038287761368278e-02 -2.267631131331290881e-03
2.519732448976586547e-01 2.453540380205861127e-01 1.127208108481885795e-01
-1.434450536686002024e-02 4.628442452906780802e-01 2.279698567449690572e-01
4.449738953605416464e-02 2.873623613243752595e-01 6.745523185632587015e-01
2.615712849990955435e-01 4.043696674396958235e-01 -5.095278898311225158e-01
2.778789804198669722e-01 2.180151646824676492e-01 1.244136348659027336e-01
-1.257625232498273682e-01 6.570043537272366452e-01 -1.059971622334562463e-01
-7.243106111194234920e-02 5.822483188893552430e-01 -1.348943093557270455e-02
2.619023647909282659e-01 2.686571296856799518e-01 -7.938066912143850601e-03
7.887992001635887318e-01 -1.859844888015992348e-01 -1.457588326468670925e-01
8.687457868946708572e-01 -2.448629977326413076e-01 -2.041025315743081325e-01
1.137336470259731752e-02 5.417691434064545453e-01 -1.533321117674667500e-01
2.775620232093367265e-02 3.303647999678582248e-01 5.731444176262229240e-01
-5.848090640045609107e-02 4.868564750157667320e-01 2.916415691920830611e-01
2.252384418194953997e-01 3.021343017962572763e-01 -5.168053169997761237e-03
2.587176145808333105e-01 3.083774444328093445e-01 -1.440655372789006738e-01
3.234453788128814899e-01 4.135146873214064489e-01 -7.573642016066453042e-01
2.409720929493100461e-01 3.234572260645653952e-01 -1.385635387456689294e-01
-2.692654285019195348e-01 7.048179307883076783e-01 2.131120874811174570e-01
5.038216889137077104e-01 1.758744288564537406e-01 -5.007853842898457586e-01
6.016290899416744109e-01 1.068619690864692495e-01 -5.833511396279615902e-01
1.212473087779634001e-01 1.907462434237992277e-01 7.670581568663120686e-01
1.410797642326713230e-01 3.131808477929418078e-01 2.449301089054384262e-01
5.697629880837735694e-01 1.306266404502645362e-01 -5.611928274637879577e-01
6.097405197474743410e-01 -8.842409594770908599e-02 1.120190692997759807e-01
-2.469862046244772347e-01 6.614778041000347608e-01 2.966204990760667459e-01
2.340122353278926703e-01 4.102259675728383570e-01 -4.359233567609191451e-01
1.237348159273779502e-01 4.484866608631318807e-01 -1.963194108300193863e-01
2.973368404442774948e-01 3.360459291266209569e-01 -3.801054468894202176e-01
-3.374625299632176834e-01 7.786471016504967757e-01 1.754429327712592745e-01
2.519562806159593715e-01 4.127150646223329833e-01 -5.071941513449429451e-01
8.714170048580330841e-01 -2.270433148049625927e-01 -2.793509381934104474e-01
-1.468908805758575020e-01 6.261000933610306740e-01 8.154629692567276489e-02
4.052101758430152745e-01 1.240117427004548134e-01 3.233190368873287146e-02
-3.083905468456584753e-01 7.338587066681661053e-01 2.408270915933435063e-01
3.639083878771235403e-01 1.583353933279621484e-01 4.800386273352322958e-02
8.301183955301270900e-02 2.642408477444287973e-01 6.270216276302997827e-01
2.249459960086052368e-01 4.611598730839029936e-01 -5.932524732988928573e-01
5.711393022569427602e-01 9.559564587774675715e-02 -4.361829781331689193e-01
1.744699939468908334e-01 4.659997226143307580e-01 -4.366362130597543079e-01
2.002876789619314202e-01 1.144778541653502374e-01 7.762673592999451699e-01
2.105688507736475645e-01 4.451561148223798225e-01 -4.842521231527749936e-01
2.756620272559392459e-01 3.624876202563925287e-01 -4.031051891578075197e-01
8.470534203865549838e-02 5.169642629864925620e-01 -3.150252612424906395e-01
3.924687379582486035e-01 2.113406679155459822e-01 -2.471104707564094616e-01
4.662436347347881371e-01 9.432716011853446714e-02 -6.875679589882965903e-02
7.046183791544805564e-01 -7.094782242965068375e-02 -2.808059940994308556e-01
-2.652781282072685931e-01 6.449905643071419670e-01 4.209490902895416942e-01
-1.123519776221933025e-01 4.794369471824430629e-01 5.054116558237498058e-01
7.141002840415935360e-01 -1.027169624874055415e-01 -1.959083628132772537e-01
6.998110261812543476e-01 -1.134908279545047832e-01 -1.065855852969038037e-01
-3.932703954243098321e-02 6.261788841947417694e-01 -2.906992616866922452e-01
3.587495537583531013e-01 1.463451993792360684e-01 1.102595889394936413e-01
2.739462530910136695e-01 2.558076860135439223e-01 -1.986010580471980671e-03
2.285784682606841756e-01 8.730218704936368312e-02 7.791081308841993902e-01
1.305473673732641393e-01 3.658048569166437725e-01 8.641010249042495317e-02
5.780971370183550784e-01 7.168663371310914079e-02 -3.716742863689370124e-01
3.216651519828774286e-01 4.269878837453157661e-01 -8.011184361552687871e-01
-2.682336354052780036e-01 6.445187779609441447e-01 4.329168665005113104e-01
1.815683388281059962e-01 4.595429911490951924e-01 -4.372637810911605416e-01
6.264960975077714378e-02 4.410627415647765392e-01 4.241328294706987051e-02
3.776907925921272891e-01 2.025103671303971897e-01 -1.632975789823376545e-01
8.230332838466506429e-01 -1.847627499429039810e-01 -2.686654528634507821e-01
1.172076546136476688e-02 5.568769401758038029e-01 -2.104988689909822741e-01
2.279790720212024058e-01 3.622111482047233322e-01 -2.371942852998430717e-01
