1.634646148965518686e-01 1.315016833868848656e-01 4.693433421898937086e-01
2.038659620497057512e-01 4.125539864028411607e-02 2.448109561952689361e-01
3.109658198263008377e-01 1.137631192789134993e-01 4.082486976342843132e-02
3.714152652934816223e-01 -3.276719176750629847e-01 -6.796568920911717493e-01
2.445642348027826304e-02 -3.834638735921874209e-01 2.059416849385068971e-01
-3.426079938809632047e-02 -2.492182618674411432e-02 8.176241657471904345e-01
1.422509955133730852e-01 -1.143746407680428234e-01 2.192036094758370024e-01
1.977929112306807125e-01 6.807448257692161331e-02 2.951949028385159601e-01
-1.658290067765771370e-01 -2.631860452749179013e-01 8.809829469867012097e-01
3.802560088689848627e-01 4.738936524843047060e-01 3.019347924592023502e-01
4.121099710383949177e-01 -1.107408129034489624e-01 -5.194985984359453690e-01
1.192936602666612618e-02 -9.881199039477177315e-02 5.976743068837117034e-01
-1.815661330963936476e-02 -1.244848136776165737e-01 6.483203580391297960e-01
2.786672783712116908e-01 -7.498392469797958426e-02 -1.070884930004935565e-01
-7.449767295210713014e-02 -3.950648990789565329e-01 4.639283296988883643e-01
-8.182455133500240530e-04 -6.918188577791285487e-01 -1.114217460442868957e-01
-1.213388444889942561e-02 -2.642115156058681968e-01 4.563792431869582722e-01
1.152811587132158977e-01 3.132656224063967154e-01 8.301616895122118089e-01
3.440055232708422173e-01 -1.696589698540426072e-01 -4.058616156722333335e-01
1.368884351340194094e-01 6.065004147571805004e-02 4.536243827738555279e-01
9.103493329583692284e-02 -5.728280941466917797e-01 -2.150796072566706352e-01
6.384598338052955846e-01 3.434154589804556124e-01 -5.729727429757397461e-01
4.464283499488845286e-01 6.149478505808001483e-01 2.966976758931165747e-01
3.573041064222523544e-01 5.175412475060788831e-01 4.199268240771599214e-01
5.181210332681024378e-01 6.137279619291411414e-01 9.770625562632156980e-02
4.639904878055373105e-01 4.605024196015642945e-01 5.450241957349036270e-02
1.850155661291776887e-01 2.873120875192343715e-01 6.055238710770893817e-01
-3.129592909857085298e-02 -7.573029779912392699e-03 8.312303671868443988e-01
1.580191044923808796e-01 1.437615828517820049e-02 3.373525907580834371e-01
2.084248403766135460e-01 -2.434958340996693782e-01 -1.250998866335256143e-01
1.076720110242256334e-01 -7.869048074958797656e-01 -5.295625252963690466e-01
-1.932885345553103651e-01 -5.613790810067155190e-01 5.823901404090968681e-01
1.755480290424945022e-01 -2.932149463446117113e-02 2.342340445933085991e-01
4.517396876890207302e-01 4.164927041666715013e-01 3.301343392410237970e-02
6.427008974088171955e-01 2.138152515681893129e-01 -7.472982280450256587e-01
2.957517941244826032e-01 -2.299013398116016016e-01 -3.485605788210323075e-01
3.662724303566129991e-01 6.250325487523625823e-01 5.301241510139836910e-01
3.354306296380210606e-01 -3.948679093158498077e-01 -6.648747563071293332e-01
1.357254500031011557e-01 3.161447330581863002e-01 7.774659370585128570e-01
5.332718717221488491e-01 4.685212640251286143e-01 -1.262533076836563073e-01
6.493963764018291229e-01 1.472247177795955875e-01 -8.493085152953562256e-01
3.523521187152360845e-01 4.971692303183870149e-02 -1.535399851709414176e-01
3.605111585292444798e-01 6.228048218547329595e-01 5.431964757868688043e-01
-2.045541825848002371e-01 -2.904933079498887016e-01 9.533724424194317537e-01
2.393061765626909032e-01 -2.945763199837651558e-01 -2.742597244485927566e-01
4.407317167612617714e-01 6.917616366051267951e-01 4.087867626689600242e-01
-1.955857006376390470e-02 -4.170715190050691690e-01 2.849939323278406489e-01
-1.758903316045321852e-01 -6.338580956518822251e-01 4.435118662116259158e-01
1.152699174591925724e-01 -9.001443702113219592e-02 3.240879362431104971e-01
3.541418423347753031e-01 6.672809571258565553e-01 6.165554996849536007e-01
4.764970625455131059e-02 -2.767605068726310402e-01 2.759709010877714475e-01
1.248139838040278615e-01 -1.862075073250269164e-01 1.770815705281546248e-01
3.495795818093929697e-01 -2.906911518552620644e-01 -5.731058971535337720e-01
2.404537311653419107e-01 -3.080700081464406992e-01 -2.943545766380727957e-01
4.534759011817726670e-01 1.877492108399146931e-01 -2.588349682262542362e-01
-2.154531427958963560e-02 -6.475620321156602133e-01 1.207075469463657780e-03
3.210182152574418413e-01 5.397854930303694898e-01 5.477835862233270126e-01
4.584689949064306713e-01 3.033622742206165679e-01 -1.274962376885064030e-01
1.819544366871088670e-01 -5.215217543186673882e-03 2.468417886924585969e-01
6.556137382311508222e-02 -6.837833199090894709e-01 -2.841643010777853973e-01
1.551980033613043278e-02 -1.428623464471616977e-01 5.325033946798541917e-01
1.424185115818091540e-01 -1.321953313581441525e-01 1.963777791626314384e-01
5.542413858436615742e-02 -6.006788435600924903e-01 -1.519499960441468289e-01
9.708652438953768726e-02 -4.903288516856755819e-01 -1.282131363492473586e-01
6.865764947988076683e-01 2.854043587064011844e-01 -7.783009148854376225e-01
8.745224080772076580e-02 -7.406196968804495961e-01 -4.157854988727752166e-01
3.188934729667882717e-01 6.573170122219795797e-01 7.011343142984993726e-01
-1.669906546774030040e-02 -2.438780261333022836e-01 4.944708881019094227e-01
-8.826569798848085679e-02 -6.765452012585500274e-02 9.127395678819514302e-01
5.193759634963446281e-01 4.579164487700414510e-01 -1.012890575394596315e-01
4.017744705723792498e-01 2.954452241643950594e-01 1.871971855680450159e-02
4.833696486181330298e-01 -3.405975899968493713e-03 -5.810643919114545364e-01
-9.599181992725865087e-02 -2.009536985530368525e-01 7.667327568286944617e-01
-1.426260733854872731e-01 -4.286859351508352511e-01 6.093784334207702491e-01
-7.799090023235388802e-02 -6.156000632841412967e-01 1.967843957772639485e-01
3.780538614989031321e-01 7.750402742421704794e-01 6.859303138393152421e-01
2.068092470093796931e-01 -3.926033298170080732e-01 -3.077756768529142373e-01
2.161157200809520063e-01 -6.281285878172864212e-01 -6.289854807672363712e-01
4.507307495780402129e-01 1.045329727291035987e-01 -3.557080512789446147e-01
-2.352319303060079400e-02 -1.623166253207522502e-01 6.156235088847535897e-01
-8.473483214335535141e-02 -7.904220347841448557e-01 -4.037519270060222279e-03
3.149743062143186001e-01 -1.066392029482728238e-01 -2.468140427533271342e-01
4.592581503997502645e-01 -1.228570510503522450e-01 -6.645626037061866942e-01
1.896171146329210799e-01 -1.108894877604647000e-01 9.311863177292324656e-02
4.436678035146410237e-01 2.577942072693802933e-01 -1.439164610595712601e-01
1.499856645625711471e-01 -7.836644426533858621e-01 -6.420388866655133420e-01
-1.571561143113220649e-01 -5.904552463127609174e-01 4.463822174192028647e-01
4.290467229423253759e-01 5.611998982781833678e-02 -3.567414236677617922e-01
6.132765141814604942e-02 -4.665319131590039969e-01 1.406635962787139774e-04
1.105902982106774790e-01 -3.370467273687519083e-01 2.695851703370083854e-02
4.847125269919232982e-01 1.439640222788443058e-01 -3.998179816561860944e-01
9.483906110195773620e-02 -5.911561029582198534e-01 -2.485582918188579404e-01
3.453200605453071725e-01 -2.516484994159243760e-01 -5.123766656010713128e-01
1.093140546109175673e-02 -5.307628415928559162e-01 5.833723036505172876e-02
3.739828290957570300e-01 6.284821461535053944e-01 5.132168302140105443e-01
3.642429578060041861e-01 6.144352622422442067e-01 5.224145663564787601e-01
-2.434386890417497562e-01 -5.016603156442686062e-01 7.954621578280818284e-01
4.460442186422694522e-01 3.059749964324300908e-01 -8.999624759254169770e-02
4.509213176905338405e-02 -3.010720907489025100e-01 2.525048047046143385e-01
5.437091119191377331e-01 4.683455292950217674e-01 -1.552207527655740105e-01
2.947683299926213696e-01 -4.981958270077806172e-02 -1.198545062232625330e-01
3.220670222347875589e-01 2.203638020197638547e-01 1.440299884635331817e-01
1.581863017695744056e-01 -7.447964607767623146e-01 -6.158474133835127873e-01
6.518686080955583828e-02 1.067338681397815570e-01 7.089432251463128054e-01
4.557896274440078055e-01 6.802417768182150715e-01 3.528562302990769783e-01
1.588203077036851596e-01 -3.172479392760771399e-01 -8.103270553278885124e-02
-1.883753737422206032e-01 -3.068762182900608426e-01 8.882516752347765498e-01
5.831437214472219299e-01 9.179041297311783809e-02 -7.363997238666182277e-01
3.943482714222238394e-01 1.446793317510719767e-01 -1.500333754068052527e-01
-4.210686959571126320e-02 -7.938876383973781925e-01 -1.257953651335831091e-01
-3.362766672804769208e-02 -6.871238637110671510e-01 -1.516389482229673485e-02
-4.105658174570269575e-02 -7.274006201871334731e-01 -4.524886491631575219e-02
3.277459060185161088e-01 -7.766158110991368269e-02 -2.456243154621619018e-01
3.606638274616153494e-01 -1.152774493804500228e-01 -3.834957419615605545e-01
3.022820016036019686e-01 6.078677588770213525e-02 -1.741378279045373637e-03
4.580930917947505926e-02 -1.515825746897092319e-01 4.381344930230074430e-01
2.941410452818660204e-01 1.728448937100963700e-01 1.613106255986376802e-01
4.409365322081684191e-01 6.699059852446402619e-02 -3.758467869183450549e-01
-6.999673899585372172e-02 -6.287688777545823449e-01 1.582398961737655485e-01
-1.125059228607742379e-01 -6.706064217890636003e-01 2.228164650972477845e-01
3.704208586458176966e-01 -1.559345931534663054e-01 -4.613927004981153157e-01
3.065209068136121595e-01 3.383515507401597122e-01 3.349192609458858660e-01
1.043443416935350837e-01 -7.692642796297350927e-01 -4.982589011602638895e-01
2.362785246981948806e-01 -2.610221612891068244e-01 -2.238112846428382818e-01
-2.558299609700977473e-01 -4.326212294889216214e-01 9.162330178833760774e-01
1.371519564904814248e-01 -6.937723455798991967e-01 -4.938795205549079137e-01
-5.069387563636873484e-02 -6.914381124112549404e-02 8.073878757691912433e-01
4.950053430493904782e-01 1.064991986910177740e-01 -4.751843638324705354e-01
-1.393286053373600231e-01 -2.818581101887662754e-01 7.845609783367641921e-01
-3.985252042179328325e-02 -1.080924076097578707e-01 7.286485809887721654e-01
8.001460068273706649e-02 -2.390024299888328374e-01 2.342147595694854811e-01
3.818070335471469151e-02 -7.971187342421104383e-01 -3.509833771462032570e-01
-2.186069013346097212e-01 -3.790455739638330934e-01 8.809468122700008230e-01
5.643367551634462798e-01 1.864065734367468530e-01 -5.658598726644326060e-01
1.729423477215959737e-01 1.743979694225196442e-01 4.970727626833285617e-01
1.328574649930474791e-02 -6.265515257206026867e-01 -6.835924904704435145e-02
-1.659431080200835310e-02 -5.789075076442609102e-01 7.373013662629054887e-02
4.493872504941301416e-01 -2.971787780378301602e-02 -5.204886042037598637e-01
-5.262676103505155994e-02 -3.886099150884255587e-02 8.507156059457717800e-01
4.029046563350390242e-01 1.916433924845532544e-01 -1.146613819436130832e-01
2.649851504151694570e-01 2.094786734835651087e-01 2.875879495643847150e-01
3.072498165911197870e-02 -9.176171807360248289e-01 -4.816703962512987047e-01
6.196251566385765353e-01 2.382625886115326275e-01 -6.530608770002304109e-01
1.555834702179438034e-01 6.477107898009264175e-02 4.073051237195497443e-01
9.783328312315295316e-02 -1.732468745181965364e-01 2.676587288002387210e-01
1.705143772704330873e-01 1.688692126107210478e-01 4.968216029656706834e-01
-1.678160310325061133e-01 -3.102451339007725184e-01 8.273979501651316237e-01
-5.011484467214254168e-02 -3.270602001629225875e-01 4.821155252201585473e-01
1.932685770166751582e-01 -2.293485168549065367e-01 -6.560108264586567151e-02
3.738554824498980245e-01 -7.066759746260566077e-02 -3.638449641640833510e-01
1.139393015251444902e-02 -3.407417920010101242e-01 2.955341918657232725e-01
4.915938693303951723e-01 2.932454411202550792e-02 -5.626402094694851197e-01
5.410338122139511929e-01 4.178179373815052999e-01 -2.112629285561188897e-01
2.272948126690442494e-01 -3.973468869371850620e-01 -3.701513355419063789e-01
-2.165245674742111159e-02 -9.393431336347060623e-02 6.962888168317007409e-01
6.363358218563314184e-02 -1.316999430989403419e-01 4.139938825851773307e-01
2.934002357363664215e-01 8.904494264123147262e-02 5.818451489909344521e-02
-3.122109920261601987e-02 -7.561004472652024244e-01 -1.083558153496121113e-01
2.770900864982255851e-01 4.441465682153636352e-01 5.487491383894491648e-01
1.130018688293488865e-01 -2.764670641606495338e-01 9.634212840337112727e-02
-1.982151533196968018e-01 -6.267585686928737188e-01 5.139099930051578280e-01
3.266655592884371573e-01 4.053345278239188776e-01 3.634972756104626335e-01
2.780191051721519480e-01 4.930075732330388427e-01 6.075095132263137465e-01
1.298781340407209883e-01 -1.626321472209322494e-01 1.927199590284176534e-01
1.024459739955116133e-01 7.541363615243967811e-02 5.670158553761998066e-01
-1.573127880159720104e-01 -6.078800113577771391e-01 4.249461659738323349e-01
7.118237494872133204e-03 9.461258761804518247e-02 8.536676245553366238e-01
3.054023675927473591e-01 6.285449587516611647e-01 7.021842767891232073e-01
2.069151929812303170e-01 -5.057607745382113329e-01 -4.500767732797921195e-01
2.187637086540674125e-01 4.469424950385710721e-02 2.080943034586120732e-01
4.212148065448284018e-01 6.535626972572814060e-03 -3.973971966146866985e-01
2.475596833384866718e-02 -3.565122022884212871e-01 2.389402212266001357e-01
4.911924141057168458e-01 6.604033469560127712e-02 -5.154572497280809351e-01
1.582677241187709360e-01 -2.449066570645095642e-01 1.127545456705711206e-02
4.647336274260087108e-01 1.392851194170896187e-02 -5.079816139776814898e-01
9.281012585990781882e-02 -6.328289538910105705e-01 -2.952682835294562214e-01
-1.055863050354714505e-01 -5.241410842239351275e-01 3.875677462664471884e-01
6.523360150705280747e-01 1.641797556115894008e-01 -8.361269748684880820e-01
5.089113033134547992e-01 1.803441904573925281e-01 -4.208117225409086504e-01
4.896923250262043559e-01 2.005974364084777972e-01 -3.424603712121555565e-01
3.425219675470488889e-01 -3.802852633120577114e-02 -2.365831450490397947e-01
-1.314551294281229854e-01 -1.673050973526938323e-01 9.066360466558851527e-01
-1.453023679047633632e-01 -2.758765975426381578e-01 8.085209147046839018e-01
4.346295484682587418e-01 1.422206389306339691e-01 -2.640641888473996834e-01
3.258999308110668292e-01 6.293788583782231605e-01 6.467751192442260377e-01
-1.032169907437358036e-01 -5.949860755204363638e-01 2.921336337048963117e-01
9.746276889732663484e-02 2.646140847725989564e-01 8.181819579360509742e-01
7.559967437323676653e-02 -1.741921548599010827e-01 3.277096325406137489e-01
8.881087098985940287e-02 4.576529664884822907e-02 5.673627117780570828e-01
4.452115102693086635e-01 4.328747869950213545e-01 7.155278682366129905e-02
3.809058430802939044e-01 -1.916089741762032894e-01 -5.350414116910604534e-01
-1.115388949446855099e-01 -3.635655656239735745e-01 6.054803369649511824e-01
4.074450385116867857e-01 4.874303835833297405e-01 2.440372604823834446e-01
4.354856733484971376e-02 -5.506296427674511884e-01 -5.643126359075718163e-02
1.447498983139181850e-01 4.448122106865898262e-02 4.116804485322551610e-01
8.342342873619106036e-02 -7.686526578937630250e-01 -4.398696399914326927e-01
4.189620093947884483e-01 -2.218266195263124130e-01 -6.777803612195364424e-01
3.795254691039643968e-01 2.681798050449920590e-01 4.578201123882270213e-02
4.297472437057957562e-01 1.885194959782591217e-01 -1.925133226433569933e-01
-1.299316057748892417e-01 -4.282269317521750218e-01 5.749905685308231984e-01
-7.619510827874653724e-02 -3.266239486626261734e-01 5.544949097739959587e-01
6.010809964856719811e-02 -6.604265568372551520e-01 -2.398324939544469736e-01
4.236962860175896850e-01 2.392571916297281942e-01 -1.121730660722058959e-01
-1.685677103520427100e-01 -3.335976763894377140e-01 8.001615127577466069e-01
2.648813930521822235e-01 -3.388940192201678192e-01 -4.003180137745572242e-01
1.061621692571382558e-01 -4.994853330594372087e-01 -1.647009651266215513e-01
9.075759735984885446e-02 2.275749779925304583e-01 7.901667640047623786e-01
6.111645342664132619e-01 8.924570163298163605e-02 -8.167699466751943138e-01
1.340051801983079549e-01 -5.217806674465647054e-01 -2.693679308059237498e-01
1.072995966364961584e-01 -8.020646530937157459e-02 3.583490134226179347e-01
4.622462823617173172e-02 1.564769561829161826e-01 8.235963231687968289e-01
4.567070329124254258e-01 5.022275792729928856e-01 1.269268275884156694e-01
2.443413101275060395e-02 -6.145750765313866548e-01 -8.403473606154580888e-02
5.209866617467728833e-01 5.931482253785774761e-01 6.398659226303514413e-02
4.004279631994088207e-01 7.406078360476033851e-01 5.810944504592372439e-01
3.133931584979869345e-01 -2.744146697426610992e-01 -4.530124646798590060e-01
9.766217115073101002e-03 -5.529107736292429021e-01 3.375145650521770013e-02
2.376087147536736638e-02 -1.510220342305253760e-01 4.995651482219316541e-01
1.126077479677120019e-01 1.845396088661913625e-01 6.759775722122950414e-01
2.970496635637975280e-01 -1.069194279271178626e-02 -7.703385147435067026e-02
3.705484478377668034e-01 5.834802582457686571e-01 4.661999619518762961e-01
-1.345562615452672861e-01 -5.551295697698548359e-01 4.284689760593105579e-01
2.231652856406807772e-01 -1.317083557747434908e-01 -2.540892219137655048e-02
1.680614579219772420e-01 -7.471156816394458611e-01 -6.459567438434138387e-01
1.765758226938602682e-01 5.811207663701616760e-02 3.411298130215599800e-01
3.864313115190670667e-01 4.066816775484117796e-01 2.005773170768981872e-01
1.360412340604648662e-01 -4.116044321903311043e-01 -1.367077959296370548e-01
5.604955330195694474e-01 1.792935890088983436e-02 -7.667141284680570879e-01
8.895890387004733169e-02 -5.064413289214478309e-02 4.459639676090036420e-01
6.846045017204638317e-02 1.232786970942097854e-01 7.206901773981366777e-01
-9.635716126526266967e-02 -4.554161670931918815e-01 4.483960252054683404e-01
6.432678676050944400e-02 -4.253293898577101273e-01 4.358822173351168533e-02
6.133949765955224454e-01 1.725158549117085105e-01 -7.184115570160055642e-01
1.468721949083091616e-01 -4.270814395364725402e-01 -1.859623021173479329e-01
-1.565280955882807912e-01 -3.185859041560200611e-01 7.858405852660718116e-01
2.586036160630057479e-01 -1.536255375073445062e-01 -1.505208237348922562e-01
4.088848090349915809e-01 -2.007137488164562333e-01 -6.235290653799780980e-01
9.586676492866771926e-02 -4.101217464639247967e-01 -2.419602000317197868e-02
4.322648182407912154e-01 3.322150088396163548e-01 -1.911370632892129065e-02
-2.221829449795069758e-02 -5.842571227198261052e-01 8.250645516980778527e-02
-1.344153089318607941e-01 -2.823339919492856009e-01 7.704312507546546840e-01
2.187041214879612006e-01 2.595516626444179797e-01 4.778982102684418698e-01
3.049397838275970662e-01 -2.806200506990581545e-01 -4.375172208617148506e-01
-1.703940058818598502e-01 -3.059344120235349962e-01 8.399082008197514826e-01
4.478390626074569836e-01 -1.532782340498420603e-01 -6.712891317723331808e-01
4.116137364642089569e-01 2.071138552704883951e-01 -1.192334982925979947e-01
3.372088669695995633e-01 -3.465230698834810275e-01 -6.091011256437390831e-01
-5.818220384855648034e-03 -5.472499035387139443e-01 8.377932092023439303e-02
5.011610537881557859e-01 2.616380899594359932e-01 -2.974440247697221484e-01
-1.776751032316841242e-02 -7.518413966978586549e-01 -1.400655513782291806e-01
6.714573606448394072e-01 3.447172280451985538e-01 -6.622229236738931268e-01
3.179946983338734490e-01 3.190998545573631162e-01 2.791571056893576985e-01
5.350776494918121351e-01 5.758219520732814622e-01 3.432340190536539107e-03
4.367154216190080596e-01 -1.812310418230685671e-01 -6.757316590704934844e-01
4.740383418224791146e-01 4.112298836377848432e-01 -3.500760746069831592e-02
2.480808893962090922e-01 -2.007963373952477426e-01 -1.807364467291979193e-01
1.976364770894947498e-01 -1.119092632598455289e-01 6.975141101849094416e-02
-5.242706565695694210e-02 -2.663041130276466717e-01 5.647311072839852342e-01
7.697123397901335651e-02 -4.149032846068499425e-01 2.184654832862963428e-02
3.894245969530177320e-01 8.133275114826579166e-01 7.026616856476040063e-01
3.704775243189394329e-01 3.634610111189183757e-01 1.902775647455435259e-01
5.824317035967985223e-01 1.111616396962190334e-01 -7.101283148815233925e-01
4.336908283504713468e-01 -1.999189320799053537e-01 -6.908538914594756220e-01
3.268351516559531329e-03 -2.031005041333904249e-01 4.906499739371170121e-01
5.782376336192490696e-02 -2.254629929768400542e-01 3.123257574447143581e-01
3.469061712140671938e-01 6.223637529982470884e-01 5.801146586172721831e-01
2.395222028562795924e-01 1.423084368948868139e-01 2.734229123534906436e-01
3.451558508869128628e-01 2.626502773065878538e-01 1.335055784188252936e-01
4.642956970255174842e-01 2.756489624568087549e-01 -1.783239051016604071e-01
-1.800081466642418637e-01 -6.332396173611095636e-01 4.556295835479954870e-01
3.388770708816685739e-01 -4.558488848970056878e-02 -2.360271556652767388e-01
2.420528147690438059e-01 -3.281437402220043209e-01 -3.239508216207672708e-01
2.417755627034415267e-01 -2.886944575760706511e-01 -2.736794972008939064e-01
-1.847070612856140936e-01 -5.730500001232555762e-01 5.441078440699808061e-01
2.254721996872592060e-01 -1.042211011665530734e-01 2.732933094860547259e-03
5.073302767109920675e-01 4.085359779228232568e-01 -1.300831206479086677e-01
1.655666683298975816e-01 -2.865426178507664012e-01 -6.107967310154346213e-02
2.449012585035225675e-01 -5.531990379777115274e-01 -6.142340203355443062e-01
5.555424882364945471e-01 3.694171268523173401e-02 -7.292121915528180232e-01
4.758961224935533418e-01 3.893167028594298751e-01 -6.762482665247009084e-02
-8.469510781188685500e-02 -3.488562267416057683e-01 5.500052821876417752e-01
-1.034227394158251240e-01 -4.876970895377584214e-01 4.273448684149141474e-01
1.660923592360649403e-01 -3.729049713414208100e-01 -1.709097992853695902e-01
4.312046370077979307e-01 2.085872688170133660e-01 -1.713428971777211651e-01
2.841935633590831345e-01 -1.710977000518094371e-01 -2.429293198617177019e-01
3.747628158634830897e-01 3.715812633645354524e-02 -2.310258598039169886e-01
2.811110765713648596e-01 -2.238391813572478406e-01 -3.006283620186833150e-01
3.304368539475528443e-01 1.550987178120575294e-01 3.907149426198160136e-02
4.240066198646318951e-01 6.743606605677323618e-01 4.330143585153738983e-01
-3.519270163066942625e-02 9.409289877631437510e-03 8.632754190307568853e-01
4.428461200596214842e-02 -5.974371924768425712e-01 -1.172006340403000391e-01
3.814766151164004082e-01 -3.332869741519430273e-01 -7.144152264508731864e-01
5.559474440585867594e-01 3.512667281111457318e-01 -3.358588179265366569e-01
5.192998900882446200e-01 4.290728945093510438e-01 -1.372773508741342019e-01
2.435326235770868541e-01 1.114430888695639443e-01 2.236420477611702762e-01
-2.502728002561614429e-01 -4.307434764611089983e-01 9.032836617700630288e-01
-1.432121169086038037e-01 -6.739963608736015965e-01 3.031351204864181081e-01
5.999623985708535390e-01 3.435583377098309632e-01 -4.667613779528478335e-01
-1.015965195020140932e-01 -7.606827422773464464e-01 7.972594499203046470e-02
3.443726137352594030e-01 3.571079401663208031e-01 2.542044318564199434e-01
3.796242451254713268e-01 2.292395819282407043e-01 -3.358888375377444818e-03
3.683179803854776946e-01 7.405214649144634675e-01 6.694253905660882964e-01
2.330111344193023237e-01 -4.622534567153209761e-01 -4.673514406289790979e-01
-1.332958347710106184e-01 -3.388067437516049663e-01 6.964762679167814108e-01
2.272128236065595885e-01 -8.379190655987064917e-02 2.357684076758249578e-02
3.099320003189137696e-01 1.096958193967424722e-01 3.856793769829902629e-02
-1.407576253807359123e-01 -5.719440005067665256e-01 4.244475419494022628e-01
9.560263962835886808e-02 2.266197489305784574e-01 7.756234593725803705e-01
4.523844571098276646e-01 4.399167110226107069e-01 6.063401499276799278e-02
-1.798523854588101115e-02 -8.934862967768805175e-01 -3.172260897485121300e-01
2.493254816050877731e-01 4.144167136000520002e-01 5.879100580968334988e-01
6.590007295885086380e-02 -3.281175485542489056e-01 1.612530040433687029e-01
2.349981186022931101e-01 -4.659590638708828725e-01 -4.774745463057202821e-01
6.296696064356048783e-01 1.498048826202518780e-01 -7.917377736339782368e-01
3.180147148972389259e-01 -3.422472983358230136e-01 -5.508694166981794593e-01
3.714374375862584676e-01 3.386568296392913902e-01 1.565051868280437075e-01
3.577243728981503446e-01 -3.299733920226464168e-01 -6.448368587288492160e-01
3.902474278698755961e-01 -1.621489179567371097e-01 -5.237990803279070073e-01
2.503565513962396905e-01 -3.756557675114168826e-01 -4.064477038421416277e-01
3.724562392417241075e-01 -2.940899479283912710e-01 -6.403796152264208397e-01
-1.835366354390287683e-02 -2.149549005482068453e-01 5.353257653343681532e-01
2.188163950212621278e-01 -2.236520779512234935e-01 -1.288176244255551384e-01
2.685419871094232858e-01 5.601616959787868444e-01 7.178884533854281713e-01
2.543893334748931201e-01 -5.334523443098301287e-01 -6.155851481940602943e-01
1.852076129178102104e-01 1.706666739150009826e-01 4.586083311311764388e-01
4.268716526304946468e-01 -1.429100219128303650e-01 -6.005275691449547537e-01
1.734847104927348671e-01 8.502688905369588934e-02 3.834208533054608292e-01
-1.993587618314666965e-02 -6.168398668245436145e-01 3.532968144125507581e-02
3.879167614003504183e-01 6.744852260742287275e-02 -2.292417195355721249e-01
2.953872046123145467e-01 1.949955002174016128e-01 1.856767404656745057e-01
3.229610188431683016e-01 5.632948303977465265e-01 5.719361272935609142e-01
4.625503918615869181e-01 3.876450803062086448e-01 -3.296501388349518807e-02
3.475165531102228367e-01 -3.539632169619069124e-01 -6.468283704603147166e-01
5.609275067342963661e-01 1.005479990023477044e-01 -6.642199135236683816e-01
2.381320116440479306e-01 3.238966310108133961e-01 5.051397527587728753e-01
-1.844625622953413591e-01 -4.803768200308169978e-01 6.597365681775249069e-01
3.795857628382046656e-01 5.024973915093469690e-02 -2.278799312502005348e-01
2.018937493695765750e-01 -2.165777750179174732e-01 -7.333016598740151049e-02
-7.647019544051138033e-03 -7.009897053929898814e-01 -1.041226536234804295e-01
-1.694186257089157488e-01 -6.523267644125694265e-01 4.025094462352908353e-01
1.068690273788104605e-02 -6.873361766906523895e-01 -1.374843146170858788e-01
5.020137825377097435e-02 -7.608374690926029693e-01 -3.385595458961962456e-01
2.681656337199078144e-01 -5.223800075146318722e-01 -6.396332406184712660e-01
7.608169438531767192e-02 -2.739337675806435835e-01 2.012092072940914744e-01
2.560357146046217669e-01 -3.094657302601823701e-01 -3.390230455889599037e-01
1.557394337378228688e-01 -2.879748603006904162e-02 2.894497386285634910e-01
-1.116008218901240745e-01 -5.441066855526665025e-01 3.790770592529815186e-01
-7.154001696288514456e-02 -4.783505692478956517e-01 3.512610802406453958e-01
4.078937385743989230e-01 -5.160726407682785996e-03 -3.753860561579978605e-01
2.271503918196473570e-01 2.550189657438167376e-02 1.609093301656622232e-01
6.145937795650615598e-01 1.759015707953023866e-01 -7.174644008172574861e-01
1.467912244287244428e-01 3.278324022187556475e-01 7.616555694265203513e-01
4.001455267965910445e-01 2.770984661320774478e-01 1.816115871428338434e-04
-1.147256252714537739e-01 -7.550001726478158259e-01 1.230184126815234841e-01
1.870099894827028930e-01 -3.156699022692505685e-01 -1.566941088939360627e-01
4.796151572886583891e-01 9.025040024129865612e-02 -4.531875148857116842e-01
5.529436305044901356e-01 2.384251011966895817e-01 -4.691984770243362579e-01
9.506545457340406791e-02 -1.182597390565353762e-01 3.442893077390957735e-01
2.958655220015459775e-01 1.874274513078378612e-01 1.748616479497235310e-01
-7.037338976415409564e-02 -7.432856969237849887e-01 1.556202273668213024e-02
-1.951242297813550117e-02 -9.367869383816172443e-03 7.965230224590432728e-01
4.479431197428059841e-01 1.889514736083574287e-01 -2.420874290359727177e-01
2.274874529486065056e-01 -5.664722055683431012e-01 -5.829292605739124777e-01
-1.866560716032586720e-01 -4.156613184916314596e-01 7.469941366951248218e-01
6.545040474946358655e-01 3.261192677256496975e-01 -6.388689406435197338e-01
2.866188107996703316e-01 2.233978623986561385e-01 2.454713382605200334e-01
1.102766445826742180e-02 -2.487207000300010740e-01 4.120267708879739033e-01
4.306780084212210036e-01 1.155496436832925550e-01 -2.866519301134906605e-01
6.578760314287466215e-01 1.926055951586742587e-01 -8.157120364995423811e-01
1.111734544727335516e-01 -3.468844192551698291e-01 1.300633495170466780e-02
3.407478981701660414e-01 7.239218462539747101e-01 7.245286069208695112e-01
3.346944080383869591e-01 -1.248423232961952956e-01 -3.239727721830820695e-01
3.338004951458861669e-03 -1.806147150804144827e-02 7.226767201379162842e-01
3.045191701111518157e-01 5.965507934661876677e-01 6.644650903580787693e-01
2.922009283054954332e-01 -3.601181721925730828e-01 -5.021988883653979441e-01
4.400268656010823953e-01 2.486508919501110304e-01 -1.453629550590021524e-01
6.125798665442631075e-01 4.217440974617599481e-01 -4.033923529474046643e-01
-1.817447193890930623e-01 -2.535121236654436228e-01 9.369594927761829561e-01
3.188170262851827697e-01 2.897854336896740768e-01 2.401034549888296232e-01
5.418795650707429745e-01 2.048009483013928378e-01 -4.809224638082513215e-01
2.832368027673007882e-01 2.804508281373834233e-01 3.263860856993027748e-01
2.428523327782965702e-01 4.025822821161279541e-01 5.908869451386853378e-01
4.271957681641837534e-01 2.685927411083426919e-01 -8.499630065680209567e-02
5.084928948635492052e-01 5.180929875795579898e-02 -5.809668565942003315e-01
4.660813552988575525e-02 7.175145665548961216e-02 7.162120120211881158e-01
-1.410988772423045212e-01 -6.596809752146066685e-01 3.152800944969341712e-01
-1.394479162108124559e-01 -6.946182926316929462e-01 2.668875992706811751e-01
1.201772198171209144e-01 -3.272581510508739133e-01 1.283799267035569923e-02
2.549179632154384145e-01 3.737569275707479655e-01 5.214800478593811794e-01
4.079816966829392655e-01 2.933911343105391478e-01 -9.544367013336180466e-04
-1.215798319752322137e-01 -3.314099137029356545e-01 6.734901224676718146e-01
-1.812373891187440134e-01 -2.447293403137276169e-01 9.465843088446536102e-01
-2.153222507048090928e-01 -6.112301420374415262e-01 5.805151587464353335e-01
2.925765630683893614e-01 -3.468381318899640964e-01 -4.865674219208039886e-01
-4.215046891777401994e-02 -3.058393401251524590e-01 4.868111013436427492e-01
1.294140733286190947e-01 -1.346723302795846122e-01 2.290868591488243733e-01
-5.277904086821302854e-02 -7.049004501777978993e-01 1.527492620800513512e-02
2.625110803447345265e-01 -2.518768801314416605e-01 -2.845855774261960014e-01
-6.717401060090699705e-02 -2.769460821588753396e-01 5.919927092292524007e-01
5.402742367063194662e-01 -1.487530566398824645e-02 -7.521882603079890206e-01
1.032064657965216098e-01 2.850951855227836784e-01 8.280654910383594691e-01
-1.109139061341454270e-02 -5.878512487768122741e-01 4.734951356936787509e-02
2.641887277442020454e-01 3.190617759952841803e-01 4.273051050824918651e-01
6.228169514394910067e-01 1.543374999091707001e-01 -7.671754579070323432e-01
5.710964773694797714e-01 3.688769406969615861e-01 -3.554829345941868946e-01
3.409024759615281175e-01 6.095576889681793009e-01 5.805791765993673081e-01
4.258477475250211919e-01 5.451052886380305385e-01 2.657316863750789904e-01
3.354077459381558102e-01 6.960109935125129432e-01 7.042094836341014075e-01
-1.215845941358135868e-01 -4.963468123072529714e-01 4.665122406428978130e-01
2.016758980982683858e-01 3.322957981949593576e-01 6.160901825039770685e-01
7.640883479720517180e-02 -2.250944177494579312e-01 2.616001364516533645e-01
2.709791308027063028e-01 -8.579225443455333611e-02 -9.947745226848785094e-02
1.486197549545978727e-02 -3.080829237189700032e-01 3.269682106899811647e-01
2.047602752529565362e-01 4.249560250373066173e-01 7.238808796821561975e-01
-1.804927975863710177e-01 -5.179729423587607906e-01 6.016207554535250024e-01
-2.934838931682490215e-01 -4.535484765443864030e-01 9.936787603746983777e-01
6.695274132101686204e-01 3.156193514474279205e-01 -6.934243277318259402e-01
-1.786374567942202451e-01 -4.333800449842869495e-01 7.026722786157016953e-01
2.079437543937681931e-01 -5.177946946045719478e-01 -4.680119205512233149e-01
4.543161842747923673e-01 1.194673781535640078e-01 -3.468410376208451162e-01
-1.109081499363238771e-01 -7.219300975795339692e-01 1.540060619789413165e-01
3.186730981815268926e-01 1.248801545305052857e-01 3.354855423518739166e-02
1.363426204531109631e-01 -2.752104067358385753e-01 3.363263131517497256e-02
1.093448109519239153e-01 2.414236361083843818e-01 7.563523538846589345e-01
3.500468858057115829e-01 -2.218127442746426203e-01 -4.879525822301933324e-01
1.919912717671825864e-01 1.339510945837758538e-01 3.938473700450533799e-01
2.113124073927149238e-01 -2.466357544036974214e-01 -1.369935136643378737e-01
2.281794957404448543e-01 2.917107104818352226e-01 4.921592060577217320e-01
2.636624181588445581e-01 -2.787692796527455052e-01 -3.215058416132952623e-01
5.042225084972024041e-01 3.246006786999360294e-01 -2.268598629634590025e-01
3.334600737672817616e-01 2.116506320735050684e-01 1.017157554729429120e-01
1.711099256693686399e-01 2.108809276985270653e-01 5.479047834669220629e-01
-6.667046902540453568e-02 -6.653824002619931344e-01 1.031295712353371835e-01
2.829302064928506666e-01 3.937865201681118449e-02 2.469198124462092941e-02
3.116092293601518404e-01 2.180217574257373170e-01 1.698943013908481570e-01
3.436929453533333900e-01 4.898071676918377970e-01 4.226100781805925410e-01
3.500146505501529615e-01 1.946392790138544784e-02 -1.850686100875197637e-01
1.848290721273387338e-01 1.313214757407877853e-01 4.102738556007928805e-01
3.012268070800188102e-01 -1.049098450633786789e-01 -2.067795226420590937e-01
2.669025966502600045e-01 -3.618274918525731243e-01 -4.346657791903442702e-01
1.993383842046321242e-01 3.582479285568049843e-01 6.550974770457861363e-01
5.884241869755622023e-01 2.992097231630358456e-01 -4.906383282093824683e-01
6.538400601935506762e-02 -7.016369936890269887e-01 -3.060816234894191967e-01
1.922416473153767125e-01 -2.794992953693867799e-01 -1.257104129034039564e-01
3.676220468336225400e-01 -3.211083244903513156e-01 -6.609722532889287239e-01
3.561942402912710026e-01 -1.295573636198525669e-01 -3.891061999400889926e-01
1.920613366817613132e-01 4.212716353189643326e-01 7.542332929963031507e-01
1.850431033775924716e-01 7.047466385717669757e-02 3.333233826995716242e-01
3.327735250430903791e-01 6.528161868175084981e-02 -8.008215244715610748e-02
5.764925702787675015e-03 -1.587442971043514783e-01 5.394394987202286718e-01
6.803542661191552994e-03 -2.944254568556493035e-01 3.663029756722867569e-01
7.571004258759783667e-02 -4.635130038867746882e-01 -3.568357925345336940e-02
3.422832787306231972e-01 -4.245442095060866228e-01 -7.209916446070722129e-01
3.196689161044129479e-01 -1.764452169186113140e-01 -3.473487443918448214e-01
5.832400810698771254e-01 6.105472344864212864e-02 -7.752375176751301611e-01
3.534486353153881710e-01 7.481182692963811443e-01 7.199132435367485705e-01
-1.400991105887629817e-01 -6.158042529226787076e-01 3.675904813250969738e-01
4.793325035256129629e-01 2.284419221394632660e-01 -2.789826819061023699e-01
6.012409261804453342e-01 2.124625934872156896e-01 -6.348041152246235441e-01
-6.193586097958381914e-02 -5.089671525296002308e-01 2.863857908198367830e-01
9.673151746734628964e-02 -2.202984431916088504e-02 4.604662443350799883e-01
-1.041806536683632656e-01 -2.429602167644099586e-01 7.365700021207771675e-01
-9.763380024874569740e-02 -4.574630048718972830e-01 4.493435028286902888e-01
1.675662451414710596e-01 -2.782764766623818664e-01 -5.621326712095841421e-02
3.977018013984355838e-01 2.290095317935759711e-01 -5.343793657487681814e-02
3.651112606182918552e-01 2.588951575308073849e-01 7.383056856107829413e-02
5.719634774199888055e-02 -1.995980657638284084e-01 3.465135544015334745e-01
2.837728790133889900e-01 -3.740214523417728087e-01 -4.964340363068313056e-01
1.334951574625346804e-01 -1.825746062210136800e-01 1.577305212163127857e-01
4.578942624350665347e-01 2.773393843769266787e-01 -1.585712412907011870e-01
3.470542253475121242e-01 2.513887744687822723e-01 1.141440984644949141e-01
-7.251684709795960804e-02 -4.879191868477529281e-01 3.419431911502630039e-01
2.957318415161464542e-01 2.817057371226631690e-01 2.935463386201248026e-01
5.852987365997884828e-01 1.458414146810161627e-01 -6.745027711052156150e-01
-2.103008986969480496e-03 -3.364526249115454837e-01 3.380910897928461334e-01
-1.967946920499279162e-01 -4.623216333770194808e-01 7.163612279933466720e-01
7.809980266712442110e-02 -3.706049356420262342e-01 7.433130967517909138e-02
2.387648346147249745e-01 -9.057543878101961821e-02 -1.675356932903037180e-02
-1.934971832316999263e-02 -7.167986916219606375e-01 -9.173016163505429144e-02
2.987787566184408328e-01 5.671785217184169836e-01 6.434143535623425558e-01
-1.764999314203276048e-01 -3.315966819274788757e-01 8.245201244071059810e-01
-3.825754186583796290e-02 -8.756294990546785728e-01 -2.389810770391685435e-01
5.187156912160526545e-01 2.692520455638319765e-01 -3.362388185456837708e-01
2.706160567016281937e-01 -4.996650163197010608e-01 -6.178756980844596347e-01
-1.258874926547586814e-01 -4.857443283389341615e-01 4.916693624628949433e-01
-9.634928156994534976e-02 4.278018568906190588e-01 5.177325373388661639e-02
-3.129187997653459785e-01 -3.613283853468371443e-01 -3.420728063227261861e-01
-2.260043145575126589e-01 4.853815026699333512e-01 4.811380731441798897e-01
-4.881144211649713904e-01 -4.640853149010712997e-01 1.150503823227361742e-02
-1.432700276044563542e-02 3.131901676035050291e-02 -6.717120657809982909e-01
-5.473351411282724177e-01 -4.357040933054178722e-01 2.102320737355633240e-01
-1.895391886310041352e-01 -1.443981577192910148e-01 -4.096515781256231392e-01
3.815438538471637581e-02 -2.936129410817128055e-02 -8.924116250738565181e-01
-1.308877078609942124e-01 7.919798269161271165e-01 6.039338914744017961e-01
-2.068356112420674242e-01 5.069778030851997963e-01 4.554451526296066644e-01
-4.076542317506673396e-01 -5.956714989457979614e-01 -3.752402976592075223e-01
-3.752022009674789160e-01 -7.704787854775730915e-01 -6.839997681283483955e-01
-5.448671578132272542e-01 -1.974288608026991687e-01 5.024630674412363662e-01
-1.149877730779655383e-01 -1.058103437170371253e-01 -5.665591924252223466e-01
-3.891376179430164339e-01 -7.407841323698152181e-01 -6.083520428686383097e-01
-1.075489946989104800e-01 2.382990668296894321e-01 -1.552002677468135583e-01
-1.571093073245690419e-01 -2.548526033965056725e-01 -6.375891044172117272e-01
1.861307008461466073e-01 4.045744460663091568e-01 -7.554005960772703920e-01
1.014810630421252718e-01 4.415736317409869049e-01 -4.758203427758902482e-01
-3.904744074075192084e-02 9.525276099706886379e-01 5.524644399888800628e-01
-3.495900332044354908e-01 -3.560948531866687250e-01 -2.345026594860253055e-01
-2.958131971520348014e-01 1.096152778014444218e-01 2.018344317492761775e-01
-4.442208803761072411e-01 -2.474401483623306919e-01 1.624940551606275652e-01
-3.555378075807972410e-02 9.105279651459631252e-01 4.901336525103604513e-01
-2.456463291934652109e-03 7.731785300255336058e-01 2.266054041137332276e-01
5.237456178356362374e-02 5.665603730779861236e-01 -1.837134141038825053e-01
-5.960598404967347719e-01 -2.857814395832767862e-01 5.325812625324544136e-01
-3.721685858119792856e-02 9.378259792385140736e-01 5.289724176612963236e-01
-1.985641128172135339e-01 3.752009205053737917e-01 2.672871267277234786e-01
-2.145443834161507857e-01 -4.692143637980228932e-01 -7.484155653675821362e-01
-3.750060090586169181e-01 -2.189111342847317176e-01 7.661185909645517808e-03
4.514860879646604569e-02 2.127877989819316751e-01 -6.077855043261842782e-01
-6.788628663792679874e-02 1.454344773966689264e-01 -3.809841435466955195e-01
5.544212544637528405e-03 5.359926617108503599e-01 -9.309190848289447540e-02
-2.728420962629291568e-01 -1.280795409766810611e-01 -1.597340846797268288e-01
2.641135028974994081e-01 4.991327329616853659e-01 -8.515178394547275875e-01
-2.781132606243274727e-02 4.373885457591799586e-01 -1.249672772020045119e-01
-3.947578725383391572e-03 4.105687336815739275e-01 -2.243523924584725215e-01
-2.736621344044042337e-01 5.239491559834857926e-01 6.608015169711969339e-01
6.235265201296429777e-02 2.522052478100186845e-01 -6.057022129014949519e-01
-4.604839885767947338e-02 7.311054109810541934e-01 2.938685160741798530e-01
1.448014783594492316e-01 6.969019094562183270e-01 -2.747066111440507608e-01
-2.601850708027356185e-01 1.895922704445915721e-02 -1.006549381791995920e-02
-2.954610693184063774e-01 -1.906569264644967371e-02 3.937371365215956015e-02
9.270401578222112193e-02 6.620291988712402320e-01 -1.749807393146523560e-01
-3.256441749816207931e-01 -5.006168391364957532e-02 8.360685565043751710e-02
-5.815217315663302050e-02 6.871975835224886087e-01 2.721024491139855117e-01
-1.832139164837538053e-02 -8.458116195353304612e-02 -8.061618133374043316e-01
-4.521659603300031138e-01 -4.264991671360718883e-01 -4.033695320615867524e-02
6.359912874295667318e-02 2.570299583423913958e-01 -6.030804664488743638e-01
-2.239887795708963777e-02 4.766672270764551328e-02 -6.289641053981092078e-01
-6.354531956379637636e-01 -2.097597135866545448e-01 7.364859671246745121e-01
-4.160617163958187925e-01 -6.373450023174234147e-01 -4.043829063881033692e-01
1.067205913053487221e-01 3.362260273189910942e-01 -6.224595524535173618e-01
-3.619025897874479925e-01 -4.605570778732540060e-01 -3.316876878640059312e-01
1.438109634236046843e-03 2.724134075069360450e-01 -4.125668995646115111e-01
-2.960521720322773498e-01 2.327892190924347182e-01 3.570723358655809032e-01
-1.912240627283755268e-01 -2.734613261894036640e-02 -2.581141137842029032e-01
1.088626128465317588e-01 6.116189432905703161e-01 -2.827491639632696563e-01
-1.728036028403101901e-02 -2.487171763922940357e-02 -7.340954759257365403e-01
-3.829137717615662129e-01 -4.183207406950305574e-01 -2.208119980215016986e-01
-2.061894496189894677e-01 -3.736171872911134839e-01 -6.514555804586681376e-01
-6.567936151426844284e-04 3.767914479814012951e-01 -2.758055882777210588e-01
-3.367309401543419067e-01 -4.388570441148039181e-01 -3.737841181998595164e-01
7.535728564462645940e-02 6.561032274900265859e-01 -1.346402058911520261e-01
-2.327468908302356143e-01 4.185581003853937609e-01 4.158474793601766861e-01
8.515803131561203165e-02 9.953181807433837680e-02 -8.601149245565996582e-01
9.227530713985970801e-02 6.737971948802216060e-01 -1.590314711919247059e-01
-3.180502096984813010e-01 -6.333976237152498800e-01 -6.693785148955546660e-01
-1.165305399795238395e-01 2.900059725561060509e-01 -6.557207220695111805e-02
-4.549272007848619848e-01 1.613390510617448426e-01 7.049880508909651677e-01
7.162043130557425863e-02 7.569900649445354679e-01 2.262112329300090818e-03
-3.536584206391379936e-01 7.577315030018104414e-02 3.186844997450589134e-01
4.609958434725175414e-02 1.021848652895795406e-01 -7.492081974950010048e-01
-2.833892742786999208e-01 -5.894644008674793101e-01 -7.097089287476917585e-01
-5.687110632256076048e-01 -2.358011716707599792e-01 5.199793195749202734e-01
-1.218800377208970886e-01 6.830923857488864215e-01 4.424738366524706978e-01
-7.676603043494516221e-02 2.662441812914428593e-02 -5.056301547199808510e-01
1.638246362879642315e-01 4.177299619633289551e-01 -6.774540419046249928e-01
-2.653003929169818753e-01 -3.125409252848095343e-01 -4.119995764445438802e-01
-5.010396477834062612e-01 -3.086846963306712488e-01 2.421277546786568535e-01
1.483382877503959703e-02 6.094486558012730537e-01 -2.649282297282247456e-02
-4.724993622970348472e-02 -1.459857379277728628e-01 -8.035459494133333491e-01
-1.894199659178194828e-01 3.797692859647909258e-01 2.478349078967756192e-01
3.088410868748011073e-01 4.789803628629097920e-01 -1.000000000000000000e+00
2.373154264468118335e-01 4.148859210133123421e-01 -8.834361848456800947e-01
-5.746903192927237808e-02 5.214776963299153634e-01 6.224727268521432211e-02
-1.631410401981154279e-01 -2.943845575813942017e-01 -6.705875762543018759e-01
-3.761720272901293294e-01 -5.024277355008147650e-01 -3.449323603447880804e-01
-9.768012905345641039e-02 -4.355198786272840988e-02 -5.360965725989270680e-01
-1.206879569081135833e-01 3.213444482602287877e-01 -1.479257997763960657e-02
-1.374759577127230292e-01 1.445421574678452947e-01 -1.904357319908530910e-01
-1.339049266300933877e-02 -4.760422732432285226e-02 -7.733378306342560959e-01
5.897360954313789205e-02 1.718764599006836757e-01 -6.972057280765886489e-01
-4.013242607793728323e-01 -4.060864686345480590e-01 -1.547510170603640656e-01
-3.267560133189231775e-01 -3.920152797681744072e-01 -3.424726404802080904e-01
2.793269535249866611e-02 7.659781559630002290e-02 -7.312828109353729511e-01
-1.286169355446893370e-01 6.886107157855039240e-01 4.679543674522241292e-01
1.059561111098328984e-01 5.160109747953470771e-01 -3.947291066164068107e-01
-5.153271682821717325e-01 -5.667685890806060112e-01 -4.240841761868040238e-02
-5.185671487967723481e-01 -3.764609452729337224e-01 2.053458838735159053e-01
-1.254333732320661587e-01 5.191639822221491007e-01 2.465352905559141106e-01
-4.879795052132792632e-01 -1.601241789754510036e-01 3.925958060920090031e-01
-3.701018900724769578e-01 1.276576404805519482e-01 4.290876592147001567e-01
-8.509950456823586751e-02 -1.827460349557063768e-01 -7.454313895769341114e-01
-4.365096346043145781e-01 -2.757562342010124179e-01 1.057193952548495103e-01
-2.239667732247713205e-01 1.503983830852052284e-01 5.513210198509632676e-02
-8.495636647826006194e-02 2.628791618413329201e-01 -1.865790022822130245e-01
-3.309618764436033644e-01 4.286529366197098234e-01 6.990260924289504185e-01
-3.658239767805566700e-01 1.048111832426613411e-02 2.702520431293884973e-01
4.962586062234388556e-02 4.676188906839843229e-01 -3.003114437578731089e-01
-3.766581265508366916e-01 -7.177182976307062701e-01 -6.137768926422761950e-01
-2.127423982975189809e-01 -3.361882068891515196e-01 -5.864347582889211097e-01
-3.700499982810353528e-01 -3.127540676314736201e-01 -1.237591153700644403e-01
-4.752962308341918130e-02 5.566124523211507524e-01 7.896462218365242480e-02
-2.519660740345145977e-01 3.725013703886509986e-01 4.109823089175619337e-01
-4.610543417319556275e-02 2.686481862897585615e-01 -2.863447250680243306e-01
-2.191418490628575522e-01 3.060098827735506233e-01 2.371308868872543385e-01
-1.306948221826176870e-01 -3.429518520121148661e-01 -8.209035279976628630e-01
2.294714420294751145e-01 5.920693512940731207e-01 -6.394717516240410182e-01
-2.236626596880505469e-01 2.677695435313635630e-01 2.015918770935585247e-01
-1.112241897866542983e-01 -1.149203627026034319e-01 -5.883578983075622437e-01
2.470659265701908580e-01 5.481236603455376111e-01 -7.430821477298581446e-01
-1.072930180094222585e-01 4.685729527870614031e-01 1.330817170824155626e-01
-2.288346191323870071e-01 -3.890851241806630445e-01 -6.084966406656342475e-01
-1.728066266476449286e-01 2.003619670947692777e-01 -2.307354910267070749e-02
-1.540066215704480879e-01 7.266859404290519908e-01 5.856675335321553932e-01
-5.874088214017066933e-01 -4.810793544154258750e-01 2.636608937845009160e-01
-3.835898965029978513e-01 -3.217832231671379772e-01 -9.779800335965101177e-02
-2.253478638326731620e-01 -3.290575063083205909e-01 -5.427671713376575058e-01
-3.827752437706164468e-01 -6.225705005849727636e-01 -4.775210331114406737e-01
-6.925530890418772900e-01 -2.793408557010973459e-01 8.064317789843157280e-01
-3.917203108705016867e-02 4.418349605430550442e-01 -8.809678830403760985e-02
-3.364464265046833713e-01 -4.712579333382208580e-01 -4.152299147221533149e-01
4.343531085882323256e-02 6.459925497133062189e-01 -5.940730183660170027e-02
-5.102944352102188885e-01 4.815073685566838291e-02 7.154359351051504667e-01
-5.751382228532716523e-01 -4.752398640665101426e-01 2.371928299370172633e-01
-9.082337220346401938e-03 6.044443791803147947e-01 3.309836374509304152e-02
2.739491006380646576e-01 4.595534183961150765e-01 -9.282785467150981296e-01
-3.453361437344810714e-01 -1.317830150840180181e-01 3.528582642203046543e-02
1.039881591373602449e-01 2.184152179326287468e-01 -7.627828463233901068e-01
-3.675018103840964612e-01 -1.524439637542663595e-01 7.040701092946899387e-02
-2.707523312666328952e-01 2.190904650286545630e-01 2.701983869912110148e-01
