-3.625125591117691060e-01 -4.600954507274690464e-01 -7.881403489003807605e-01
-6.897675356203427643e-01 -2.978434748097496532e-01 -6.654038194024189945e-01
-4.505543393751423320e-01 3.516193040832124583e-01 -8.495007468158074504e-01
-6.018653367092654527e-01 -2.236844649784676953e-01 -7.128394882370043817e-01
-2.433378796157667848e-02 4.866726278294772334e-02 -9.980942079110169951e-01
-4.078866119548786862e-01 -4.580991573465562072e-01 -7.686038131248633665e-01
-1.978349126806936698e-01 -5.774441966687878652e-02 -9.093765204133910096e-01
-3.490921686262631884e-01 -3.261666252621802653e-01 -8.104485586955025855e-01
-2.573428708653768271e-01 -4.005552381617743518e-01 -8.413077990542726647e-01
-3.767623876068843525e-01 3.344406719275833106e-02 -8.425743697073936334e-01
-5.708126177652593780e-01 -2.688296681350466066e-01 -7.208301407311008546e-01
-3.998058471178663198e-01 1.623172606743429891e-01 -8.483641011006360921e-01
-3.241221689548283158e-01 -3.868124233796176870e-01 -8.138825862228832309e-01
-6.117059064881372743e-01 -8.853941675046961279e-02 -7.251560081102429445e-01
-5.479949739052428770e-01 -3.364041894181938330e-01 -7.224743927983893199e-01
-1.409663892420944808e-01 1.367929296142076090e-01 -9.580745508526635756e-01
-2.994471507396026522e-01 -1.098188114955610251e-01 -8.586774273181672079e-01
-3.522882783964830788e-01 -4.612880520431990594e-01 -7.924513068814478256e-01
-1.652929326547422362e-01 9.532397124367336660e-02 -9.423731046157369784e-01
-3.869104236424553145e-01 2.040928215765782650e-01 -8.591195682878340900e-01
-2.410358510591006920e-01 -4.655108359617636249e-01 -8.404354132233018415e-01
-5.576857814791790213e-01 1.343389597224152743e-01 -7.760947844781697080e-01
-4.162142337655311275e-01 3.539033213220224572e-02 -8.256136060069279026e-01
-2.586023758311499221e-01 -4.728000350214349168e-01 -8.318811874685396734e-01
-3.581862224235689562e-01 2.224957046191124721e-01 -8.739038937374555838e-01
-6.812145855588757071e-01 -1.522025013794376935e-01 -6.870291574191371708e-01
-3.868665044640809958e-01 8.203472516796807279e-02 -8.441401133189625483e-01
-4.989390650584251685e-01 -3.180775483447643298e-02 -7.812904915019087682e-01
-4.343430510196194527e-01 -2.636134785456545337e-01 -7.809680969901247050e-01
-5.258836334845519156e-01 -1.471692276426607437e-01 -7.553676832804213648e-01
-4.928905588741701038e-01 -1.006658506293297700e-01 -7.754661329523603319e-01
-2.788965557196026457e-01 -1.756850847908002222e-01 -8.595432192609664401e-01
-2.048766128990162083e-01 -3.129038541684701080e-01 -8.749523243725002564e-01
-3.859222557952902144e-01 -1.376241250200185007e-01 -8.175599138067248806e-01
-4.650192895374848923e-01 1.708734886149208820e-01 -8.209842261801035823e-01
-2.771603777152630843e-01 -3.781358216217770574e-01 -8.354228267895548177e-01
-1.293082699684193759e-01 -1.638084327242932819e-02 -9.443350476924864401e-01
-2.445803569013755285e-01 1.818929897060100886e-01 -9.184436377402711571e-01
-9.223446219625576481e-02 5.788568222739439578e-02 -9.696241443095001689e-01
-4.064193006171722966e-01 -2.303191168965099123e-01 -7.972333253831472843e-01
-5.165031946179902134e-01 2.241374213828071227e-01 -8.050837735389095862e-01
-4.508323922193712141e-01 -1.224293691469724443e-01 -7.911280199267793911e-01
-5.009190547790799419e-01 1.296348898375863645e-01 -8.002654795708376012e-01
-2.690976558727916079e-01 -3.263520433740986770e-01 -8.453011869167237347e-01
-5.163491149327281704e-01 -1.132904862913055727e-01 -7.636875202507119598e-01
-2.795054275898863905e-01 -4.818837136586902603e-01 -8.216518203258225128e-01
-5.580186126433089866e-01 -2.625189774080719518e-01 -7.271834389388969200e-01
-3.977301431688567979e-01 -4.825259843374103408e-01 -7.700301655864840722e-01
-3.025365242766496210e-01 -3.641711094140684946e-01 -8.260755188893645906e-01
-3.330195853306648912e-01 -1.678758799277717817e-01 -8.369066651802365975e-01
-6.023413908169308328e-01 -2.528056426254551847e-01 -7.090535066728299585e-01
-2.877243052613614460e-01 -5.404999161453729606e-01 -8.108658064501743645e-01
-4.803590102523024874e-01 -1.293139044553290873e-01 -7.774092471138378535e-01
-3.544595416885096273e-01 -4.639939290648248393e-01 -7.911721951984006518e-01
-3.973990572507890562e-01 -2.924785735272904530e-01 -7.935276971704740001e-01
-2.450058152265503775e-01 -2.146036674637494257e-01 -8.695363036887546748e-01
-4.953341726966714598e-01 2.729224476479069073e-01 -8.203076316811392932e-01
-1.966270648492090822e-01 -3.798430076869762639e-01 -8.703233609372673651e-01
-2.853882268226298202e-01 -3.550676795028418625e-02 -8.739382593858103787e-01
-6.118729161874902900e-01 -1.704932735009569156e-01 -7.150126369599232312e-01
-3.941224087447402491e-01 -1.986159697768212218e-01 -8.064901424567870736e-01
-6.358515884856509315e-01 -1.688136741535464780e-01 -7.047649843931019786e-01
-6.321922840125722143e-01 -5.628644620578941715e-02 -7.201877820505653283e-01
-2.525715882182389405e-01 -3.701493308174194086e-01 -8.471242510790804037e-01
-2.822730837081559585e-01 9.772300666643989053e-02 -8.916677641354996409e-01
-5.309656706855837571e-01 -3.578602743453110357e-01 -7.272621597936117510e-01
-4.057938823435571774e-01 -3.386057177405319418e-01 -7.841996411320687477e-01
-1.450798837919355377e-01 9.486843516702943291e-02 -9.511294626253817830e-01
-6.029672071740034278e-01 -1.953498213434947395e-01 -7.158408880177322686e-01
-8.590367204186227790e-02 1.556459352397068611e-02 -9.671837437890359324e-01
-5.226658113167232944e-01 -2.306481412146779153e-01 -7.465126056691709922e-01
-4.238253149807978404e-01 6.596547400911731418e-02 -8.260524828358570826e-01
-5.308624428227465275e-01 -2.136201232921522419e-01 -7.450315165441985243e-01
-6.291760658695298991e-01 -2.310923600404186373e-01 -7.000224712789026027e-01
-3.334221856106245885e-01 -1.102923623916964718e-01 -8.438070540339687176e-01
-4.451293083190807076e-01 -2.314521030494341436e-01 -7.802176019053861378e-01
-4.235588326881550847e-01 -1.200672736833219012e-01 -8.033087998075307823e-01
-2.443677335853608190e-01 -3.384305270751282735e-01 -8.545985401259849068e-01
-3.010847787626716454e-01 -4.116783066335789054e-01 -8.208707153659575706e-01
-4.292993091606883138e-01 2.240889686553832749e-01 -8.430963208606274684e-01
-3.237886957009837308e-01 -4.128768544602109403e-01 -8.108251519888981518e-01
-3.987953404036229665e-01 8.363687146006434925e-02 -8.391363412665910904e-01
-1.227569342892075172e-01 -1.367303673335277525e-01 -9.324025985789466953e-01
-3.112293117513146856e-01 -2.034526124790803636e-01 -8.420349274441237819e-01
-5.302887404078843875e-02 -8.321637664936552825e-02 -9.693779641623497811e-01
-9.098115732179494486e-02 3.948901921172204288e-02 -9.679099532729192878e-01
-5.525541750935216712e-01 -1.019778637132284504e-01 -7.492932121348919727e-01
-4.268586508859362194e-01 2.009615635780508669e-01 -8.413184657248835574e-01
-4.011248415329097816e-01 -3.544919126297424450e-01 -7.842831056928035727e-01
-2.094012401383791577e-01 -1.190634116758222533e-01 -8.967989892116686734e-01
-2.472336897542203871e-01 -2.045870031616706108e-01 -8.697958677408418326e-01
-3.110984462962015917e-01 -5.273223804419197025e-01 -8.022945891084272141e-01
-4.075119667270753476e-01 -6.796300644530631208e-02 -8.167074096492643598e-01
-2.220512691915894066e-01 -2.481655782759838724e-01 -8.754197398023804144e-01
-5.741104682637140355e-01 7.947852511824023136e-02 -7.621927749383997641e-01
-3.932669155187495935e-01 2.461408576234735412e-01 -8.615152106205085092e-01
-3.457875397435937748e-01 -4.910485352286543814e-01 -7.916284571142235826e-01
-2.298756848579865120e-01 -1.260874816961867449e-02 -9.009539325628139750e-01
-2.959363986221678067e-01 -1.808180729454307301e-01 -8.514835693762839997e-01
-1.958239738917038342e-01 -6.927308969646889247e-02 -9.088365817842014582e-01
-2.305270505566714700e-01 -5.447098263936587387e-02 -8.955258880746665984e-01
6.010475222676087137e-01 7.085235030077817464e-02 7.243584710678898642e-01
5.996358149852056840e-01 4.787799309950271226e-02 7.277970452268556212e-01
4.296371130689769502e-01 2.902332011991003990e-01 7.721310008402303415e-01
1.080951944577796947e-01 1.686890349415967327e-01 9.272499047782003512e-01
3.863734702208384414e-02 5.282966068548170663e-02 9.717685186601753289e-01
3.799554982416848414e-01 4.562263042778187949e-01 7.733934482193579596e-01
2.057823037140001088e-01 1.614456898916319105e-01 8.855510740116319113e-01
6.568842353797951228e-01 2.718309139719111145e-01 6.753187797251931634e-01
4.258614039290829767e-02 -4.731282154250054939e-02 9.823525463497430055e-01
3.879382217629742668e-01 4.264229530533661938e-01 7.735754609098185464e-01
2.183943035925635032e-02 -8.876878639422085271e-02 9.964916868074094047e-01
3.584285476163048823e-01 4.735907747384380806e-01 7.806448471303790715e-01
4.832581577962549724e-01 -2.928569231746083745e-01 8.204043062518776575e-01
2.229976630299682627e-01 4.594063164458143250e-02 8.922390093616946460e-01
5.426573848936749878e-01 -8.969632797466042806e-02 7.695433266779799775e-01
3.027885047258877527e-01 1.145082046734670483e-01 8.490267502037917025e-01
4.480022968607211831e-01 7.366284159113072050e-02 7.907366343145911802e-01
2.640986582343799460e-01 1.490073223393806323e-01 8.616551807747548919e-01
4.678821559821532139e-01 4.204043638980804048e-02 7.859553492312992828e-01
3.965366498375298421e-01 5.967090602480581291e-02 8.148935851512705275e-01
5.314997427768753946e-01 2.277540556761388779e-01 7.353991797931793695e-01
3.441759095725510642e-01 3.308869775511374955e-01 8.043941700004734185e-01
2.588209040282202777e-01 3.465972829923339577e-02 8.780072662375901782e-01
2.847502763587967389e-01 -2.381367469062736775e-01 9.002242338919831388e-01
2.088933577100453576e-01 7.579612988649872540e-02 8.947194304929061426e-01
2.688982629815677150e-01 2.872714170709739223e-01 8.425726754435506338e-01
5.188617977564486949e-01 2.584665747362380750e-01 7.371349966240796636e-01
3.523047111517924046e-01 5.093517806503650158e-01 7.789203290233673860e-01
4.206906786200516057e-01 2.394744636803532167e-01 7.822686775401106463e-01
5.908557755223802221e-01 3.090982635599056061e-01 6.995259328785019548e-01
3.870481789899341551e-01 -1.701107703423926087e-01 8.472660655808554875e-01
4.406103318842930494e-01 -2.165445781067561748e-01 8.296202623589146175e-01
2.443180184096203078e-01 3.750979384646906389e-01 8.424967900870277138e-01
5.553955715489667933e-01 -1.013029106437916965e-01 7.654160535583883762e-01
1.972911382815629167e-01 3.357534574261102078e-02 9.049658056104029624e-01
3.899955883020463920e-01 -2.191709899645172821e-01 8.520096374399418471e-01
4.155792128278616437e-01 -5.018600248834906991e-02 8.200908604016348136e-01
1.536069175334063286e-01 -8.820671461884426953e-03 9.292205857785529322e-01
4.661017359421147921e-01 -2.783266284620480174e-02 7.953176292780078649e-01
2.518767227335448888e-01 1.461595121413768739e-01 8.673335506252998206e-01
5.829485204415754129e-01 3.730364847954126262e-01 6.951164962081192167e-01
4.365584999960092638e-01 -7.560430372154562650e-02 8.140678892941870526e-01
1.993822920644485741e-01 1.096513719632365505e-02 9.068324815655112170e-01
5.210419007388223944e-01 -1.931497810536070003e-01 7.916795328088946926e-01
1.665665738368532489e-01 3.118012750607122019e-01 8.841722342089336495e-01
2.421573436683937403e-02 2.091557608152262021e-02 9.819775758711558611e-01
2.955858081140119165e-01 -1.220113151199458540e-01 8.812306477082348932e-01
1.466130471218750342e-01 2.279368602012232514e-01 9.031767548498893516e-01
6.105313390663408279e-01 1.433162182287992803e-01 7.113193655545675398e-01
4.867559597386829640e-01 3.545658821524366178e-01 7.393234965410803161e-01
5.615205091174129137e-01 2.012421545816717172e-01 7.255687543391753369e-01
5.988138603531743126e-02 -2.937910574556019689e-03 9.693594670832020865e-01
3.299316639069461987e-02 -9.451322706122895767e-02 9.923348456966551989e-01
4.105365340381323391e-01 -1.053070771650692627e-01 8.290626544449642976e-01
1.601064636897985005e-01 -5.903085892298343823e-02 9.325568324666470010e-01
1.384611514840854152e-02 -1.381441332448655676e-02 9.907660959011421742e-01
3.484477445191099254e-01 4.004429693791774492e-01 7.939846678450860340e-01
9.536189178233889230e-02 -6.620690146525466929e-04 9.536112827992597740e-01
5.330970030257826953e-02 -6.020663877213209420e-02 9.792617716867998423e-01
5.280294626167495453e-01 3.884228113720655240e-01 7.171690135976239722e-01
5.656146134395878544e-01 2.962538357403934342e-01 7.121087211399561578e-01
6.661855630627343261e-02 6.717714098036980074e-03 9.652357543509091364e-01
3.159428806361752606e-01 -1.167301706746049633e-01 8.717065711615142876e-01
5.566979091894127540e-01 2.255930391247909228e-01 7.246790182095081967e-01
4.242472514354462265e-01 3.091173333779463905e-01 7.721603344211437348e-01
3.326126287939980553e-01 -1.345353074668914628e-01 8.666269287004573219e-01
2.236226292348816314e-01 -1.898943803283480447e-01 9.209461477624730774e-01
4.979120696984648542e-01 2.194473788277288839e-01 7.510632151328666684e-01
6.640499815637576631e-02 -4.196688822009946723e-02 9.713112651150209720e-01
5.082233117069900885e-01 4.088155475328098531e-01 7.232980751898928640e-01
6.091839738005445648e-01 5.711003390453097892e-03 7.288158254786538670e-01
4.715672590344517912e-01 1.934844978324082310e-01 7.657391705572863527e-01
3.118524551566051461e-01 1.649437207878726719e-01 8.388775574810328761e-01
2.081913935799874493e-01 -5.944369930871424429e-02 9.116438526349895932e-01
3.571659030510644928e-01 -2.471836332501939071e-01 8.697646967736633039e-01
4.840039766472106209e-01 9.851720630511387466e-02 7.719867643536935109e-01
1.229709101372483959e-01 -8.927068166728474585e-02 9.524628099322184349e-01
3.135670776480014577e-01 4.519302587938934801e-01 8.028648796542402488e-01
2.886979973224146900e-01 1.112375451237493790e-01 8.555717262187064742e-01
2.820350960328240619e-01 4.590852695681985063e-02 8.665042535775687726e-01
6.288327834564534369e-01 2.080267535105436993e-01 6.953887524610106174e-01
3.606057557105216138e-01 4.058822402821277708e-01 7.880157263475842111e-01
2.204134630745874512e-01 4.781916898452723969e-02 8.931348133698651104e-01
1.647224984964179295e-01 -1.429397233880946583e-01 9.408551604643621280e-01
5.552717121778101284e-01 2.551063823089716465e-01 7.216741763024424605e-01
3.746837854614002428e-01 -2.082891523617546314e-01 8.573479938869054129e-01
2.397530147471048090e-01 3.651881119314981383e-01 8.457047343215375879e-01
2.906481632151005634e-01 2.707870729243097574e-01 8.351159259522169531e-01
4.611237673201741827e-01 -2.696255276425002165e-02 7.973809671388496501e-01
2.004861136605214089e-01 -1.930899840168194270e-01 9.314257121945785922e-01
2.653822088989038486e-01 3.072585530164616552e-01 8.416495423091083783e-01
2.366876816803543393e-01 -1.168171916122297815e-01 9.062703563950471608e-01
2.609038965564915991e-01 -8.170199229711075373e-02 8.913977656803564464e-01
2.982782434538797656e-01 3.348435595321032077e-01 8.239181048688387632e-01
5.406073786805906112e-01 -1.639789517831718724e-01 7.795649850224151134e-01
3.342925744281299849e-01 1.393806980809995100e-01 8.322354871584882741e-01
3.694998236013035675e-01 2.659763454654944237e-01 8.013299119437717888e-01
2.683766722615527067e-01 2.892502601728094702e-02 8.745458985784513306e-01
6.620424168512017982e-01 2.561556629324315826e-01 6.749961422987447168e-01
2.149569079369162139e-01 1.403924621924974026e-01 8.841382368122455704e-01
3.734397555561063675e-01 4.402132254523966615e-01 7.782018339646517013e-01
3.622765805143491891e-01 -2.266140329547846333e-01 8.650089716839446385e-01
3.183668513725169125e-01 1.208934547639289037e-01 8.414503935741020069e-01
3.005218662417382877e-02 -6.697541037018683863e-02 9.902331618788352552e-01
4.202664607655385298e-01 1.534332275028068779e-02 8.099950497903444235e-01
2.384825712958302535e-01 3.803542708840554343e-01 8.443949823164527135e-01
4.419966589206849594e-01 3.253999485741440600e-01 7.624212582105144298e-01
5.160673006315964484e-01 8.829641770828905445e-02 7.592639740771989221e-01
3.825128959894471548e-01 3.356224532509108904e-01 7.870983965931140913e-01
1.425018271093129174e-01 1.291383054850729351e-01 9.171095842586218794e-01
2.280570952160258513e-01 3.696441399338805667e-01 8.502562738031390621e-01
5.879447704441661537e-01 -9.922473074409427635e-03 7.399965902125852368e-01
2.195188950570546305e-01 -7.624209734881970402e-02 9.087695742258253828e-01
3.115225231704847886e-01 6.852813793544940135e-02 8.508690274606627302e-01
2.530329237587135016e-01 -1.467614451381004936e-01 9.028238546518505547e-01
7.262843970413736250e-02 -5.457469034999421625e-02 9.701472727988537104e-01
2.073112489903886635e-01 -1.521712946543297799e-02 9.065929730705127865e-01
5.360638284887122573e-01 3.540161248525544591e-01 7.178941733899506517e-01
5.097923153194676427e-02 -8.870811496384854722e-02 9.837800777189273926e-01
4.850264416147612723e-01 6.745458681563007430e-02 7.753579987416641117e-01
4.929030869472436627e-01 2.746394486913718014e-01 7.464649457606234995e-01
5.784732342480577438e-01 3.354552354189888064e-01 7.016856140225665728e-01
3.807716289929539699e-01 4.374296423575574910e-01 7.753473873828720109e-01
3.573187020211109344e-01 5.997676210547318865e-02 8.319539504259915175e-01
5.334974646968543288e-01 -3.753514850239029338e-02 7.671271905174422701e-01
5.004591058868176345e-01 9.022605161595687040e-02 7.658316036528559634e-01
3.203921566838284773e-01 1.213910024515003211e-02 8.539312434575755395e-01
4.935730210848148780e-01 -1.805478763101883233e-03 7.801426602726782011e-01
4.806896936583937019e-01 5.824146163503889778e-02 7.783808184977283329e-01
7.021809392722320187e-01 2.386428049975178323e-01 6.596488427546776112e-01
6.620078119386016979e-01 1.906825170001584802e-01 6.830566248561326104e-01
5.621004213259783722e-01 2.368759223268065428e-01 7.209372208917524949e-01
4.214012672674918303e-01 -6.242451275950960943e-02 8.190564829536123304e-01
3.064711755555283856e-01 1.895444295989876515e-01 8.382006917407968105e-01
4.246392504139238078e-01 -1.008858115689952317e-01 8.223709682051768555e-01
1.610412434486414024e-01 -5.392959596251438534e-04 9.249618012198294048e-01
2.050705056865406439e-01 -1.453946127977569919e-02 9.074866032242018266e-01
6.775516124778538929e-01 2.506816301599348873e-01 6.689072123641499612e-01
2.224417516362926783e-01 2.988730765508841314e-01 8.614008178818555184e-01
1.181947230403218585e-01 6.349318146395555029e-02 9.357733432381071248e-01
4.530793790616359784e-01 4.254150284137292459e-02 7.923473823177831221e-01
4.081898470046131377e-01 3.442354953431032982e-02 8.129155275465115293e-01
4.824671932337032398e-01 5.384412765269172563e-02 7.781462255899802560e-01
2.773838271642221076e-01 -2.387434615560254103e-01 9.035103572209305378e-01
3.926043636735445097e-01 2.626675696497174362e-02 8.207126842188013915e-01
4.171778418378977449e-01 -2.655285368913213317e-01 8.458553754922949475e-01
3.043781605741633922e-01 3.228823686692386397e-01 8.227285096720846624e-01
4.418742095794038205e-01 3.440746455262446712e-01 7.601798801453193422e-01
2.791137853753439257e-01 -2.064098875405716987e-02 8.759555258624829310e-01
3.160316554532989763e-01 1.026628441267757492e-02 8.560624355440863420e-01
2.288297277770902916e-01 1.993496104465845020e-01 8.708453635866316711e-01
4.820876590866772227e-01 -4.263048803765639994e-02 7.901665747559584174e-01
3.984556917163503686e-01 3.171052551835085720e-01 7.824231841388671338e-01
2.203701964658984491e-01 -1.661078035908575279e-02 9.010708833064887679e-01
6.613931080087620540e-01 3.328094347430837208e-01 6.658599425710058917e-01
1.693019762214252599e-01 8.159033802473440733e-02 9.112681892409354445e-01
-1.890966999559848261e-01 -1.871937646976448016e-02 4.685306594248404566e-01
5.540995184339025763e-03 4.172702793192856752e-01 3.345555686030813880e-01
-5.424227583627908578e-01 -1.851460248396950281e-01 -2.401109918050532144e-01
5.253853928286287417e-02 4.192567001116860315e-01 4.595027230466279811e-01
-3.398780416646007829e-02 -7.547750381698428712e-02 9.773218832100777353e-01
-2.578683015961721336e-01 3.154507136244226739e-01 -2.276362609842740858e-01
-4.669583872418829329e-01 -7.106864483937520849e-02 -2.083523027611348666e-01
-4.621854688351287321e-01 2.834217730181790573e-01 -7.352063683558337503e-01
-5.065449731600570882e-01 4.784496589254941257e-02 -4.972373961275133869e-01
4.835570173520892245e-02 1.755476304842306101e-01 8.192555577005596890e-01
1.676039501753362193e-01 5.048749043515039503e-01 6.424335547553217118e-01
-2.589990456088988036e-01 3.636123399925020316e-01 -3.040601683794691978e-01
-5.272998692357075967e-01 -1.722968792461715970e-01 -2.184998829088901362e-01
-6.458729207140314621e-01 -8.084168348144669947e-02 -6.806454771077762311e-01
-2.959530110767497751e-02 1.925246537709039418e-01 5.811442166451162850e-01
-5.664475488409516091e-01 7.659338469297836960e-02 -7.041302194547951476e-01
-1.592094803174676498e-01 1.849106711200640581e-03 5.185886797965847395e-01
-3.274616176585272154e-01 -1.011224309372823066e-01 2.172599642745026149e-01
-2.133268508960665943e-01 -2.866673888609178045e-02 4.177017732131423355e-01
-1.830453316548148468e-01 -9.905161079642731126e-02 6.073455633873396931e-01
-7.886729503733534707e-02 2.935394898322640223e-01 2.931440759622720993e-01
-1.250314112742083594e-01 2.116048933855405323e-01 2.922187219935705738e-01
-3.813937354604950425e-01 -1.606190361779816778e-01 1.610120511176162117e-01
-5.080898797202144657e-01 8.622992010511121297e-02 -5.599002371918474497e-01
-1.497136047996128812e-03 7.812666821984746990e-02 8.318700341162761358e-01
-6.000364636791218897e-01 -2.246304339749261025e-01 -3.368601141040667990e-01
-2.362761915910393251e-01 6.143580130814723511e-02 2.179953114082907317e-01
-1.498977821052484838e-01 1.794645664866597046e-01 2.734549181569388421e-01
-5.068524517835251153e-01 1.525732613968676377e-01 -6.575644985708103407e-01
-2.166502772906236385e-01 9.851833526874416869e-04 3.634955622607875525e-01
1.197492846596611288e-01 4.886677190984898278e-01 5.368091802725510897e-01
1.650920619815731405e-01 3.701238016910157747e-01 8.408051283165626222e-01
-6.822431796047552510e-02 -2.337683260396678647e-02 8.047536731692768175e-01
-1.616320699311801778e-02 3.571842147817477220e-01 3.669605435793008574e-01
-4.704519936423047222e-01 5.083749624578082910e-02 -4.035150902612584800e-01
-4.519506092517063811e-01 -2.039427252596484608e-01 3.486605439728563544e-02
-1.487427897329732240e-01 1.669484942195906263e-01 2.956605344243492528e-01
-3.073781785285318313e-01 -7.032515086646038902e-03 1.286575395612201411e-01
1.587741848997046290e-01 4.289565079327891661e-01 7.340059853892393349e-01
-5.409612314725593674e-01 -2.480206193009069915e-02 -4.803178076395503981e-01
-7.218936820364667550e-01 -2.607275102290683155e-01 -6.137000552502834827e-01
-3.489395185530237420e-01 -2.645264543874908600e-02 4.506258270251604220e-02
-3.210007872950854102e-01 2.763291447849056670e-01 -3.399653474956949584e-01
2.535212713735124912e-01 5.502345270150166279e-01 8.073048719665767425e-01
-3.302505847158153651e-01 -1.452598807919240342e-01 2.768822847718168112e-01
-1.447277892851090431e-01 1.742165854357559107e-01 2.955246893747803250e-01
-4.813128660198224273e-01 1.137993355396239338e-02 -3.729991764031642676e-01
-3.860231543927830078e-01 1.934117776197787769e-02 -1.256535697446015398e-01
6.115712293668014096e-03 2.663355646313448899e-01 5.659777218526107490e-01
-2.944644917824409958e-01 9.748203644936687118e-02 4.656601396066179649e-03
-1.165045823922027969e-02 2.569086575666804095e-01 5.319573745959694788e-01
-6.175839137548126342e-03 3.975161398539305280e-01 3.327345558828761485e-01
-5.183698921251261860e-02 3.753178997288291741e-01 2.422067557767325074e-01
-4.153212252084507172e-01 -1.705079328724297405e-01 8.368869827009063622e-02
7.748181469663477372e-02 4.208517631280935811e-01 5.249930634285778774e-01
-6.429323380931408760e-01 -9.841410913166541430e-02 -6.458774980661877718e-01
-5.939546562818781572e-01 -1.803476898153105190e-01 -3.877374417863852507e-01
-2.284005914362102485e-01 3.910548883366678219e-02 2.734468738067210025e-01
-8.621052775357157527e-02 3.526505288481696088e-02 6.664727696680555757e-01
-6.986077355328249028e-02 7.281170195402016099e-02 6.538129555657805625e-01
9.217343991949162804e-03 1.077537627405190379e-01 8.159262386709272841e-01
-6.324502827655714698e-01 -9.361359526489089478e-02 -6.246459823177021864e-01
3.742736253946114811e-02 2.929154644950421327e-01 6.107596679525392203e-01
-4.459063182966441774e-01 -1.976932783206985234e-01 4.180716360358009004e-02
-4.462864300468759593e-01 -1.166958297088806218e-01 -8.257820598983994786e-02
-3.885061517837969380e-01 -1.770717292373254759e-01 1.667009220168110539e-01
-7.092575595450527348e-02 -7.395621881573431235e-03 7.730601224935195193e-01
2.452533863826994731e-01 5.575963021362823069e-01 7.735805963488793235e-01
-4.978135114147878570e-01 2.587554494075489653e-01 -7.946558314842049331e-01
3.366093437122542192e-02 1.551836034807651532e-01 8.102545561487733972e-01
-1.101855052910228339e-01 7.135568190736196748e-02 5.462278346001719909e-01
-3.949389676006345024e-02 9.411314200641646144e-02 7.040608474692374719e-01
-3.638304924480825209e-01 4.010080947406922947e-02 -9.683859213124898502e-02
-3.212498576103482995e-01 1.116290966177385102e-01 -8.982321934057961588e-02
2.025201268590177128e-01 5.284897902682273996e-01 7.015458639000243801e-01
-6.436355801748590288e-02 -8.117605701648543046e-03 7.920282037867152347e-01
-4.015259571638856717e-01 4.063774040485845784e-02 -2.002993824241490195e-01
5.914702907719274899e-02 3.127628332956625679e-01 6.396759773615258160e-01
-6.085244889508765187e-01 -2.836657927216179251e-02 -6.588612304944775344e-01
1.220933901460815735e-01 2.540447156367944825e-01 9.004975007796188757e-01
-1.879349403455511380e-01 1.089091210090077921e-01 2.773297010367928306e-01
-2.550069687047052946e-01 1.095291226221822567e-01 9.375130443021398308e-02
-2.510506853631284674e-01 -1.354159668875384304e-01 4.775489338947950801e-01
-3.252456611053104463e-01 3.849758342971946745e-01 -5.169810946145446673e-01
-4.556424870942742955e-01 1.862970516967368539e-01 -5.694796834822276610e-01
-3.174781778945975352e-01 1.536118450458324736e-01 -1.434882793157592762e-01
-4.245897717378086522e-01 -1.429648271925820224e-01 1.650568429672603574e-02
1.509563153825329573e-01 5.031577446155162114e-01 5.997178212368038386e-01
-3.202562880236607956e-01 3.126553578838766057e-01 -3.932589968108290979e-01
-2.958580638113966765e-01 3.916188335820803834e-01 -4.470765202546677086e-01
-1.776473341773809889e-01 -8.169323850470666367e-04 4.724432985128267370e-01
-5.051735577642032515e-01 2.159182289649027864e-01 -7.494604686583046238e-01
-6.159637439280146731e-01 -9.899620625755425896e-02 -5.715567241549417421e-01
1.336239695643480774e-01 3.143307419239919076e-01 8.400856756621997157e-01
-1.347392122551299698e-01 4.107833456090698165e-01 -3.754240669523377372e-02
-5.009982156829763111e-01 1.669561587630859906e-02 -4.346967314979352515e-01
-3.632557132094883512e-01 4.818204565745769219e-02 -1.075803408695357871e-01
1.715886553140258397e-01 5.358658902019913794e-01 6.060878176520797522e-01
-2.983571411281774610e-01 -3.459948326783680861e-02 1.952029370008387388e-01
-1.415267457115081673e-01 -2.390066622435748495e-02 6.059521085475991775e-01
-5.930176388503667351e-01 6.993826489767937006e-03 -6.704868238357674093e-01
-3.775613296206909580e-02 4.263510403206934307e-01 2.028303657852655595e-01
-7.777112264535373728e-03 -1.105675606321696210e-02 9.505866296849759811e-01
-3.994173296761756586e-01 -4.893250439922917916e-02 -5.815189990091095690e-02
3.991948954813059197e-02 9.332906835848678306e-02 9.214940862318203862e-01
-4.094715432943952238e-01 -1.870531376843963256e-01 1.248136814364734226e-01
-5.523942535565183887e-01 3.218728298064407051e-02 -5.982380271445696396e-01
8.755035062491715869e-02 3.746267643093348365e-01 6.228049134978609347e-01
-3.722665934057715620e-01 -1.507233426712630553e-01 1.707947904866629341e-01
-3.004914601103558791e-01 7.084161398080500438e-02 2.881590826001420233e-02
-3.156361289322375807e-01 3.068721213047707619e-01 -3.718712626020614365e-01
-1.415271965275888277e-01 2.698031830843024004e-01 1.586717277081163835e-01
-4.229027059674169142e-01 2.685004803019992031e-03 -2.007094290726362529e-01
-6.000289637033469070e-01 -6.516304778361552141e-02 -5.796912502611898388e-01
1.548397943588609715e-01 4.197564563301125484e-01 7.373034941221406902e-01
-3.653937900955891993e-02 1.267267519235241724e-01 6.624388744233218329e-01
-1.616673448089681886e-01 -7.553559417581762192e-02 6.297445406294350789e-01
-3.362826952326957719e-01 1.953182310996255666e-01 -2.582064670288500285e-01
-2.896171154317432328e-01 1.505745191277299000e-01 -6.299830570211438496e-02
-2.017324544893780158e-01 3.610859656524954553e-01 -1.442783495549480599e-01
-2.266685618604336594e-01 1.458783127753157105e-01 1.155596676567324094e-01
-2.552697258929806923e-01 7.311029428706065925e-02 1.484977593534269336e-01
-1.208828258316113624e-01 -1.062966385489893563e-02 6.419543006614039093e-01
-5.282696251719529723e-01 -6.558178883693964456e-02 -3.836560109876777092e-01
-2.234729264980729324e-01 1.050982206120333329e-01 1.863649067877276855e-01
-2.741882538074479347e-01 -1.392888469279470187e-01 4.204443232892506321e-01
6.232230943113691024e-02 4.281343411295874257e-01 4.726238156928173062e-01
1.671641017172276755e-01 4.138037319926432533e-01 7.799273987897149540e-01
-3.687560401434118035e-02 1.255791653497593530e-01 6.632709984967098960e-01
-4.295591856085333449e-01 2.775566276679027333e-01 -6.374344441729906663e-01
-4.573677680575811144e-01 7.441643287090696224e-02 -4.037954827399030111e-01
-5.400450182904293905e-01 -5.811622163502611765e-02 -4.270891420108401948e-01
-4.325897403668375052e-01 2.644916412032398689e-01 -6.257899529055589438e-01
2.061917586447719816e-02 4.168009708599487023e-02 9.475959652209900996e-01
-2.428159968935736657e-01 2.691003536584392064e-01 -1.160629149481780253e-01
-4.193785515691921817e-01 8.886751453724396621e-02 -3.223599391394232905e-01
8.970679230241293545e-02 5.053849978973208312e-01 4.295461817654544490e-01
-2.064279715287588024e-01 3.009880655227051838e-01 -6.554144412430977507e-02
3.582077098634683932e-02 5.701219342593611544e-02 9.656401220264052565e-01
-5.634090125059627585e-01 -3.508621691275273791e-02 -5.257804799055607603e-01
-5.757719735762704127e-01 -6.792461384374876010e-02 -5.094349604707038015e-01
-4.873614711215596418e-01 -9.550259191846934004e-02 -2.266987531693266111e-01
-3.273975024346978957e-01 3.636251690363763167e-01 -4.903257136544556527e-01
-4.282501370425365050e-01 1.707803240618096796e-01 -4.712612160257052540e-01
-2.698603049088645900e-01 9.640276017599316849e-02 7.329634760319116149e-02
-2.671070761244705993e-01 7.116853702507487667e-02 1.192222581304478585e-01
-6.632442723154929887e-01 -1.355169900461104804e-01 -6.446823378029344909e-01
-3.887737655894394906e-01 -1.167512324669816165e-01 7.411063767329961749e-02
-3.063100020707462678e-01 7.596138734359524081e-02 5.175412506970275550e-03
-6.094692711558874487e-01 -1.305036883922251756e-02 -6.847587608266874071e-01
-8.536487952756627653e-03 1.283894441845608858e-01 7.361574224409985767e-01
-5.546805603872504431e-01 1.435904515884905974e-01 -7.741185011189032350e-01
-4.323541618721241098e-01 2.355266447667286600e-01 -5.810379304054451577e-01
-4.825725821641636548e-01 -1.303736344078442189e-01 -1.605539968265332906e-01
-2.434129940966220651e-01 2.280916304949384132e-01 -5.523666825345346226e-02
3.588350917438416776e-02 1.771310207190537889e-01 7.828829907145397060e-01
-4.348879151484082994e-01 1.969140917817885916e-01 -5.291344935044816067e-01
-1.082377283611097862e-01 1.937824288250242777e-01 3.650888697496421642e-01
-8.327489466365885218e-02 4.179939130382334112e-01 9.161176717981465989e-02
8.380105865813707033e-02 4.845646814712080697e-01 4.451722142097116475e-01
-5.701539188545953207e-01 7.753585711203658803e-02 -7.156577864061478556e-01
-1.248330714639936667e-01 2.631132795422266857e-01 2.143170990582999869e-01
-8.188847872148928564e-02 3.137805217677674952e-02 6.841610013542468449e-01
-4.329774689181091762e-01 -1.700159582958588600e-01 3.486229445972791746e-02
-4.328434475241160762e-01 -9.742016575370851528e-02 -7.532830079253716171e-02
-2.937613560592187145e-01 5.829914610127011343e-02 6.624250758280079976e-02
-5.208174398944424022e-01 -4.266860660991843301e-02 -3.982583311844729579e-01
2.239292830731240413e-02 4.455122983779935542e-01 3.374331095357347987e-01
-1.720156093004321374e-01 2.836811760765983736e-01 5.451843218013003450e-02
-5.225628459869111064e-02 3.939089470962784945e-01 2.127528811072240955e-01
-5.165259686319859100e-02 3.300736066182754502e-01 3.116110063671244101e-01
1.106282751993841879e-01 3.052431227582531603e-01 7.913088648853878748e-01
8.912937551512549461e-02 4.773722564899050558e-01 4.706342723746134160e-01
-4.967343440575101576e-01 1.040362822998286002e-01 -5.560967710954066723e-01
-8.625219355251394215e-02 -9.731684591648946669e-02 8.682671882846504374e-01
-2.752169374079076469e-01 3.879079456730386566e-01 -3.852203549622020273e-01
-5.207930809105988379e-01 1.529539992410438032e-01 -6.961040447976004630e-01
-3.695168684347450716e-01 -1.611442432303306360e-01 1.941520743133632321e-01
-2.312573466492227892e-01 2.342182093435872248e-01 -3.146748767017528564e-02
-3.270829250729299642e-01 -1.642064702689639555e-01 3.143612872993027940e-01
-6.855348224588190265e-01 -2.157198391421852324e-01 -5.832382785460193952e-01
-2.061653179642544131e-01 -1.044315412359335948e-01 5.525839027052135144e-01
-2.814620552244379015e-01 -1.187049358513482950e-01 3.692910127347515115e-01
-5.059594034601848644e-01 3.771857316394177512e-02 -4.802215160318168419e-01
-4.932827971432598990e-01 3.090726310973163082e-02 -4.353307836415581944e-01
-2.919099398216248864e-01 3.860808684861012918e-01 -4.278922301559800467e-01
-5.559678858703016591e-01 -1.707902552736969004e-01 -2.988560641752187053e-01
-2.192068082554259612e-01 -7.793553774586173353e-04 3.592214415773902214e-01
1.379048316489809023e-01 3.881126704919065085e-01 7.393803896351053284e-01
-4.160529325652050914e-01 8.205080511155211920e-02 -3.029233137840021128e-01
8.955908568309631224e-02 3.479168065571060509e-01 6.689509841230317777e-01
-4.439418189038965012e-01 -4.439246760105441253e-02 -1.863041221070829978e-01
-6.950122283030837345e-01 -1.752880709457723674e-01 -6.706180444270383179e-01
-6.156788498684130362e-01 -1.303222682330923976e-01 -5.230747704235392259e-01
-3.052028502764936313e-01 -4.500086546909410484e-02 1.924025488213504387e-01
6.210666704916913139e-02 2.300105234481717165e-01 7.737577477017504313e-01
-2.178419930320968090e-01 1.312448866241351098e-01 1.618791519141608015e-01
-2.657612013518646510e-01 2.274144455457190184e-02 1.966362333038029486e-01
-1.164825775789766760e-01 -7.466055187254472258e-02 7.514480919745495369e-01
4.253050340555913911e-02 4.765110418177739282e-01 3.450591172726268918e-01
-2.933181837594491803e-01 2.356681801847694546e-01 -2.026645828059701893e-01
-6.604305448666444311e-01 -2.568041300699855367e-01 -4.523135025445862434e-01
-3.948676066890927649e-01 3.709345089149746477e-01 -6.851751912208935424e-01
-6.870587293652862249e-01 -1.883220889059448733e-01 -6.291116167700890882e-01
-2.838228239223432592e-01 -1.202498550537684507e-01 3.652154873916246269e-01
-4.974885686658116479e-01 7.833309858401213410e-02 -5.190073266847472500e-01
-1.231002215009874279e-01 9.319664913556637009e-02 4.778001992709887125e-01
-4.418582329522420804e-01 -1.801840080153540025e-01 2.616520068568745777e-02
-4.237601251940798508e-01 1.760959808924245362e-01 -4.671302796823157411e-01
1.525497412241298145e-01 5.227834585283002156e-01 5.741688133979759856e-01
-6.639566653136687036e-01 -1.398908060474136072e-01 -6.399613047265062526e-01
-4.244518882801037174e-01 7.571474132448509364e-02 -3.161441641229639776e-01
-3.616485874813425982e-01 8.649980607972292124e-02 -1.615580069325197321e-01
-2.336443380587617524e-01 4.098626350851911071e-01 -3.054545984010059168e-01
-5.250183363165307204e-01 -1.113693353453968221e-01 -3.050734191859328370e-01
-6.440040171564075377e-01 -2.170755171321808730e-01 -4.680871603924244839e-01
3.328325079340164333e-02 2.843014245112974181e-01 6.125936827827805908e-01
-4.977147963357065885e-01 -1.419643516446731646e-01 -1.841341770688165180e-01
6.714576318388114362e-02 3.574011430244878884e-01 5.934768694614432905e-01
4.974086636081308244e-02 4.610899580627205729e-01 3.881772608114343881e-01
8.529028000056181058e-02 3.576421191157423962e-01 6.425166151124768188e-01
-3.842178698335088072e-01 -3.447246043687744038e-02 -3.878551604284534438e-02
-9.809932579937209740e-02 2.677472504749784377e-01 2.800548840347176771e-01
-4.050441667437430504e-01 2.697359790045983918e-01 -5.587711185216115428e-01
-5.049893558207401573e-02 4.210900397989632005e-01 1.761442052867615016e-01
-6.764327799343905490e-02 2.715719192751084865e-01 3.571608145262756828e-01
-9.316868356817743779e-02 -9.223353654866675577e-02 8.416925586869209441e-01
-1.538308836718775552e-01 3.393163548575898747e-01 1.930829336822661654e-02
-3.824541651504640982e-01 3.187431364429184621e-01 -5.718921247839439115e-01
-1.799333780925680137e-01 -6.153143697627395242e-02 5.586801157494245551e-01
1.703013692657779077e-01 4.804281576721152192e-01 6.870082565460257085e-01
-3.933837575701570888e-01 1.335475066136879718e-01 -3.196200403166168935e-01
-1.103632960243517841e-01 -5.158531919095231399e-03 6.622665790912400929e-01
-1.421541637847179573e-01 3.076782379451090121e-01 9.928491672873250573e-02
-5.828405034218492320e-02 4.535775965640794216e-01 1.054706476751343103e-01
-1.575415555998414541e-01 1.523760191395965302e-01 2.938941808839088954e-01
9.279394268733956452e-02 3.667577204387967305e-01 6.490666870387237219e-01
-1.106245491699136135e-01 2.683803944317033063e-01 2.449850386383450873e-01
1.580117453312760711e-01 4.725074384527738758e-01 6.656065453174355717e-01
-2.515040007211422068e-01 1.751883219696481198e-01 3.297883651251958328e-03
1.854151064801011772e-01 4.797277922604915035e-01 7.292288829826267804e-01
-2.428337416774746516e-01 3.879183706111555274e-01 -2.970582046086008843e-01
-5.945154711300535549e-02 1.735769559990723021e-01 5.287022554815142827e-01
-3.121055144993577501e-01 3.370110261297808441e-01 -4.081558417292437957e-01
-1.401394458735731423e-02 2.878074376256954947e-01 4.784662090071778451e-01
-2.858171812862939642e-01 3.618212096496133401e-01 -3.743570819999644250e-01
-1.887923942106971564e-01 -5.571889638309335951e-02 5.257055323106580857e-01
-4.107489601500801668e-01 -1.803209299734123139e-01 1.110829079573423667e-01
-4.132097717604859000e-01 1.523965208033188634e-02 -1.934353610237498078e-01
-8.406459477816201342e-02 4.345835255330853242e-01 6.419726517479114325e-02
-2.424271828364437664e-01 2.633219470403716511e-02 2.547054221337211599e-01
7.821226493643969324e-02 3.131538349950895306e-01 6.909943279650977432e-01
-4.272727984937464418e-01 1.668656486304369024e-01 -4.626383391716174520e-01
-2.015516307765284273e-02 4.219998685933850635e-01 2.573834006809705977e-01
1.596821361481179924e-01 4.578445162322137829e-01 6.924849889871554920e-01
-1.751767847847559012e-01 -5.329733960529065007e-02 5.590924728884398842e-01
-4.877289633600278562e-01 6.937822879003525955e-02 -4.787950512085381027e-01
-1.938214583183045236e-01 2.041006575941396728e-01 1.163345692900480122e-01
-2.001545843047091572e-02 3.605941988259789288e-01 3.512779949235829702e-01
-2.575000739183970766e-01 -1.485612836988589314e-01 4.800064245986762068e-01
-6.966450376990283022e-01 -2.695783591015761815e-01 -5.314702161617647080e-01
-2.511399411979921281e-02 3.472671229012243010e-01 3.576905983760809149e-01
1.526362506286485510e-02 1.518629418401448716e-01 7.652164951436104534e-01
7.462390494388092266e-02 3.748629111769068989e-01 5.872471408591981579e-01
-4.717242379212567283e-01 3.082184007777422768e-02 -3.764976792446594334e-01
9.584402690496666988e-02 4.047447461381031286e-01 5.995218070297380075e-01
-3.866297756382908180e-01 -1.239924708351361898e-01 9.097625037178731777e-02
-4.646407074808688864e-01 1.330013723643136136e-01 -5.128178967505010455e-01
-3.324087676469125174e-01 -1.128846885258316945e-01 2.217017355226920949e-01
6.090128444799151712e-04 9.655399564245188693e-02 8.095421615671641868e-01
-1.920781401320602322e-01 4.282935589603613091e-01 -2.203399593572800963e-01
4.746671634205477247e-02 4.031373718408118867e-01 4.702403620575633103e-01
-4.101963338857346764e-01 7.122863288996260367e-02 -2.704950553773554645e-01
2.058111008668074213e-02 4.034016460918885688e-02 9.495328858145687390e-01
-8.175279771580122590e-02 8.641412129487650862e-02 6.007164821441007829e-01
-2.052389273491146138e-01 5.247230784956925798e-02 3.161588549631790257e-01
-3.890805428579897085e-01 -1.546380261741052697e-01 1.309727801176722717e-01
-3.494427462608549195e-01 -8.248473766357240777e-02 1.290231236278825966e-01
-5.869905970418020091e-01 1.019611885429640152e-02 -6.589521969026074233e-01
-4.065404711913766511e-01 -3.046880054720206218e-02 -1.056661241518837419e-01
1.351283853678275637e-01 3.051350575732693637e-01 8.581861654720722710e-01
-2.991690316981310271e-01 -9.928680836685976896e-02 2.915039847190099009e-01
-4.694849940873777050e-02 -4.005704149029096911e-02 8.880889486601931671e-01
-3.223491650081672377e-01 4.335100368768383949e-02 1.116355543244592317e-02
1.202694943043731562e-01 4.790524696823331707e-01 5.528686718889779250e-01
-2.126639924112556645e-01 2.583633597572381757e-01 -1.760904592380695480e-02
-4.499135305070882107e-01 1.808084030648476614e-01 -5.455213677000824157e-01
-6.104188811166679773e-01 -9.612447452919961610e-02 -5.608316415057292836e-01
-4.904609944160376322e-01 3.918163645333748446e-02 -4.402481126221343133e-01
-2.701113432691148453e-01 3.948192492647911167e-01 -3.818432121539978019e-01
5.305759237060144254e-03 3.790455443566125848e-01 3.921271628699030676e-01
-5.149753974609388996e-01 -2.722024280492614523e-02 -4.058768899718402934e-01
-2.316255516602594156e-01 -1.269199868810709508e-01 5.175042664317328622e-01
7.189970041110523361e-03 1.913709859797015633e-01 6.830658130859087462e-01
-3.445746287450060508e-01 -6.864272785488519102e-02 1.211989130252936614e-01
-5.736766896281609851e-01 -2.217048427507202490e-01 -2.695389602119099837e-01
-2.911022163886046177e-01 3.794174293532462383e-01 -4.155451384316263819e-01
-2.192773230429598263e-01 -3.396914761443908110e-02 4.095738918933677919e-01
-3.685733153320290278e-01 1.116963282230675897e-01 -2.187853125169129942e-01
-5.617427445539207032e-01 1.290109840000267238e-01 -7.711455697679245880e-01
-9.571511636776203202e-02 2.353826799261154318e-02 6.584508136830713454e-01
3.581109342185301650e-03 1.476243805865243564e-01 7.398603852521935531e-01
-5.486447392167368431e-01 8.317665087918879596e-02 -6.656795484729878254e-01
-2.875480179677940007e-01 1.207424205123801136e-01 -1.193318848949432437e-02
-5.200691705107058915e-01 1.294890651095794709e-01 -6.583983150797197981e-01
-3.917152055350849316e-01 1.741822098904738936e-01 -3.769588982649513254e-01
-3.785503731445243880e-01 -1.245966493330367270e-01 1.138962086044261052e-01
-3.137779015827625306e-01 4.101450977099037332e-02 3.806095824786060594e-02
-3.400905180852529797e-01 3.859788727824907673e-01 -5.589305102370982770e-01
-5.244312466520320015e-01 5.413116773436672108e-02 -5.555141415686053463e-01
-1.963277231128312261e-01 -1.038521322114649287e-01 5.784888662621039401e-01
-4.362355546525524264e-01 9.483786303828610487e-02 -3.773530158205008478e-01
-1.909421191531502082e-01 2.879984363894074612e-02 3.911390379011197571e-01
-1.525617688388065107e-01 1.820872789621164334e-01 2.622068916817935635e-01
-2.830824517714372601e-01 -7.691205234832958204e-02 3.012327085180906416e-01
3.765005514257070696e-02 2.613487850890736097e-01 6.594386841237201979e-01
-3.638985979079100153e-01 -1.586571854080839894e-01 2.056628596603745363e-01
-2.506498867337244585e-01 2.681991943564237535e-01 -1.360218865214949946e-01
-6.617793825420907605e-02 1.110587636935349842e-01 6.055950223657099452e-01
-2.438065857816915372e-01 3.292962267863100978e-01 -2.104320405275281747e-01
-3.506565952196792346e-01 6.770445601806779692e-03 -1.020811147358336585e-02
-1.172615715392648639e-01 9.768217434639486774e-03 6.207510537651522720e-01
-2.798005794953404290e-01 2.461744944718388950e-01 -1.818567160773101599e-01
2.229442276677638668e-01 5.220927011398112105e-01 7.669018715164668265e-01
-6.041554414112968452e-01 -1.012508316823082927e-01 -5.359696822413395623e-01
-8.456636779220183531e-02 2.415918424499849115e-01 3.567363908161088060e-01
-4.136800303377655696e-01 2.483765562122378923e-01 -5.497581099795845194e-01
5.244230609185760589e-02 2.209975060693515347e-01 7.611679645987307063e-01
-4.720129505103905498e-01 1.154057297864824055e-01 -5.060959342835130714e-01
-1.903251459011719993e-01 1.484812225339896263e-01 2.105572509740366027e-01
-3.896561480002697642e-01 -6.734695645533064767e-02 -3.529412760198046440e-03
-3.703833106632083982e-01 2.039719786943831881e-01 -3.642396725578208039e-01
-8.512047064013635034e-02 1.081109031069349830e-01 5.585046071241599464e-01
-2.972103968741602112e-02 -4.844204529111805629e-02 9.477680210781436188e-01
-3.664105925851972034e-01 1.596701358055053754e-01 -2.859552262242851528e-01
-4.611386431409901787e-01 -1.827480463936561328e-01 -2.242976069714697554e-02
-6.687346569826356779e-01 -2.453040395025025411e-01 -4.924386292703091805e-01
-1.100747550650863354e-01 3.592624258390879621e-01 1.080786129783414262e-01
-5.840897624338557970e-01 -2.109403998143678793e-01 -3.142863830377042311e-01
-2.987956468551610234e-01 2.709076129163119351e-01 -2.712453148685121662e-01
-4.960815588522899389e-01 2.236978777235771321e-01 -7.365509155550943321e-01
-3.192516994655009155e-02 -3.367372983705121947e-02 9.192757257582931940e-01
-2.625827882967221027e-01 2.615874287806599363e-02 2.000867378741163216e-01
1.906520432134654192e-02 2.056066301036822974e-01 6.937222127000653993e-01
1.142732253899302330e-01 2.423823750096175123e-01 8.969640156926621533e-01
-5.025101500489929096e-01 -2.141023705239727126e-01 -8.733332567081913966e-02
2.721223371476973532e-02 4.446717581732743119e-01 3.518359191918234985e-01
-2.027806951205858577e-01 3.839880902705989918e-01 -1.820101183807285583e-01
-1.355425025818033369e-01 2.359629998407372919e-01 2.265027217764854217e-01
5.184019345833236481e-02 4.848451580638749037e-01 3.577170399039752424e-01
-1.592444227328222717e-01 2.985666508895541346e-02 4.758410550395603122e-01
-2.799971659527481505e-01 1.922753381427119712e-02 1.632236294811998389e-01
-3.930997450844153085e-01 2.083526599662173795e-01 -4.327668336149038120e-01
1.050070548676089038e-01 4.881430592394415680e-01 4.974657331195452836e-01
-3.514893314129753366e-01 -1.094718324766195787e-02 1.450641412671322718e-02
-1.421547272961382613e-01 -6.591908382263400590e-02 6.682316413962313684e-01
-1.907177315666179485e-01 -2.057740526356918037e-02 4.669462378309369166e-01
-7.208779843838142298e-01 -2.581596323368331447e-01 -6.148449548605935400e-01
-1.307187438122274781e-01 2.281689984862194653e-01 2.515070259886083015e-01
-2.174855558449283188e-01 4.223881429960070766e-01 -2.805299327720730540e-01
-9.719191990178789597e-02 3.024181781312119122e-01 2.297256427972394766e-01
-4.652379995425379167e-01 3.418275721915611798e-01 -8.324639826142465893e-01
-4.239393448312299140e-01 2.580177710717416750e-01 -5.923763009311241445e-01
-4.408463781038092222e-01 3.425987793905483914e-01 -7.672211287085464182e-01
1.018788759357851931e-01 3.822282369569002802e-01 6.502446420009054817e-01
-3.210734270373563626e-01 3.359095557999604992e-02 2.950083037935216645e-02
8.581674036827185992e-02 2.071534806010097707e-01 8.731280416639267683e-01
-4.704232750200804669e-01 2.103745575578834515e-01 -6.463945566345257188e-01
-2.679123139093680384e-01 2.037619686798050889e-01 -8.489580521090694942e-02
5.839092266419439181e-02 2.966964868039370096e-01 6.620844383129772526e-01
-2.349283246520183221e-01 2.546854613028700087e-01 -7.263280835721017126e-02
