1.643498377771820673e-01 8.582819517442753787e-02 3.456111996922469065e-01
-2.897315739173737525e-01 6.068364256184633626e-02 -1.954374667924340947e-01
-6.447792802976864968e-01 6.719666751670201610e-02 -5.943789371638007468e-01
6.825927839175731648e-01 -7.895730110631593579e-01 1.304247294883069119e-01
-8.495165233524291093e-01 6.018810047018638976e-01 -3.354361255605580183e-01
1.317923439267798535e-01 -4.253753268847800806e-01 -1.623455971518997509e-01
7.901622948522315504e-01 -5.870417105889963461e-01 4.396438400995562046e-01
4.172114035374465540e-02 1.499888064164014295e-02 1.405157616474414228e-01
7.823149462444884961e-01 -3.003963459423619753e-01 6.946973843312146402e-01
1.991713921692944353e-02 4.943099167287794138e-02 1.473601629729439366e-01
3.481686970027541017e-01 -3.110420841912283074e-01 1.897387992822461011e-01
-1.849360078649185390e-01 3.183366596046190433e-01 1.613856209701464151e-01
5.419293369846320818e-01 -1.603295905599014248e-01 5.495351588568505585e-01
1.888163777445631131e-01 -1.771172276273436930e-01 1.313401384720712106e-01
4.000869413086619031e-01 -3.390527891369949920e-01 2.231545696176555071e-01
-4.947019979642185428e-01 -9.897273235945741598e-02 -5.762562577012079190e-01
1.529202032390394317e-01 9.889375377540708667e-02 3.446089670963559115e-01
1.133573439928322046e-01 -3.110265334999313680e-01 -7.805460387341452144e-02
8.631763150071440904e-01 -7.694986824110755519e-01 3.548730661216750182e-01
3.144901658814094336e-01 1.292578689619777177e-01 5.568489033421818446e-01
-5.243578474649821519e-01 1.663311439245185042e-01 -3.657315604945532428e-01
-5.220080505460701348e-01 6.477265987989988538e-01 8.031909897481649685e-02
-5.263342499437112521e-01 2.876988875938706336e-01 -2.562046272493367916e-01
-7.782326141442587053e-01 5.637359411947691079e-01 -2.892672298448745183e-01
-6.626127325578754501e-01 3.202464878939078607e-01 -3.816566493386981951e-01
-7.492108612835427506e-01 4.065321400982614963e-01 -4.009537360896378022e-01
1.063880901750904190e-01 -4.640756943674292367e-01 -2.269632067920970553e-01
4.660389587418516388e-01 1.271193076265429434e-01 7.277241330219502702e-01
2.214268236694410252e-01 -2.738717740619381683e-02 3.064361697271428264e-01
-2.416701794541728510e-01 -2.975885551775964144e-01 -4.705950947205380097e-01
-5.681485498149636548e-01 -1.554149706328933067e-01 -7.120076723362062099e-01
-5.949202237627770895e-01 7.103462331293769472e-01 5.483448759477987933e-02
-4.082030676998996133e-01 -7.904878962163004383e-03 -3.937277231588320325e-01
-2.323815709595625778e-01 -9.878628013848247610e-03 -1.950171248566494042e-01
-5.107510361166764934e-01 2.972364675987552163e-01 -2.296473958799078174e-01
9.427215781598330402e-02 1.689164823305920604e-01 3.422112536952012785e-01
-8.642736491339902960e-01 3.457238504784073546e-02 -8.747646248466641739e-01
-6.855818603604604267e-01 4.583016049993416940e-01 -2.807031402805886811e-01
4.336408928488366676e-01 -5.075095509213942702e-01 1.062730356064522375e-01
5.182664013845331707e-01 1.176075535375706999e-01 7.785302942476919341e-01
-1.475403072661483073e-01 -1.365057637858947681e-01 -2.148787458510982573e-01
5.028018287333658742e-01 -4.611677258133523027e-02 6.101006376325500691e-01
1.554985888226108615e-01 -1.935540274497197788e-01 7.820195853189561286e-02
8.121180517534931642e-02 3.636827500678136427e-01 5.066975593228048025e-01
4.955176901654737009e-01 -5.909977052832371403e-01 9.995140491706920594e-02
-7.107533982542223461e-01 6.344661421676323076e-01 -1.471623231766237827e-01
-1.049838890146271020e-01 2.517119967695409868e-02 -1.743586307673244962e-02
-5.037194752226444860e-01 4.374685160869277167e-01 -9.247243587653146413e-02
2.233584235507578564e-01 -5.903317901977206406e-01 -2.098391560409877676e-01
-7.826429829280345807e-01 6.061263386639335060e-01 -2.552553206099495986e-01
3.795368719445122996e-01 -4.388747098399347624e-01 1.077796261604178768e-01
-8.060047723377218309e-01 1.105506212653074583e-01 -7.383308209842380787e-01
-5.451904772319438042e-01 6.684001025708894428e-01 7.291954139147201197e-02
-8.827365054040908765e-01 8.269552676510989464e-01 -1.660283323418350332e-01
5.306536380553790178e-01 -2.672453037592864011e-01 4.382043840975416993e-01
-7.347146084139416500e-02 -3.679084508989153846e-01 -3.435260240518128727e-01
-8.998460896833972988e-01 2.759192916586454269e-01 -6.930525754356055002e-01
3.433326063305322529e-01 1.664707973727228563e-01 6.240178954289107294e-01
4.134609917051740302e-01 -7.003458349742898437e-02 4.861767924585963518e-01
-5.319445802227792397e-01 5.439248350876078053e-01 -2.661633986221535048e-02
-4.169859481790015865e-01 1.920134321059114302e-01 -2.196177723552435734e-01
6.233518431057872844e-01 -1.928905134429958756e-01 6.124104132504362141e-01
7.027553644659779719e-01 -2.837087127530838956e-02 8.544964002150671201e-01
-2.119376772192751723e-01 -3.282834205455079646e-01 -4.649548134199434912e-01
4.438181548810194443e-01 -7.972958656611638106e-02 5.118706247172478685e-01
1.327550233695519999e-01 -4.229482211353748355e-01 -1.590122473364452005e-01
4.933675614668556197e-01 -1.224368778874908303e-01 5.290489589994348263e-01
-8.285823486404436666e-01 2.615730768973646980e-01 -6.249876729290232413e-01
-7.972029033255242370e-01 7.654288207512431885e-01 -1.251418543057605526e-01
4.265740475224370498e-01 -5.365147796886655662e-01 7.149899270433453247e-02
-7.210042646606569239e-01 5.759330373716647911e-01 -2.127633230503755413e-01
3.819886915953207840e-02 -3.421197208173216708e-01 -1.924117430490523695e-01
-1.318101820607576746e-01 2.680716687566597756e-01 1.756822164739249015e-01
7.131287612026248057e-01 -5.904333954375006188e-01 3.486615506967855604e-01
3.530237220039221802e-01 -2.823435794695419165e-01 2.217077141331589563e-01
-5.799621791536507809e-01 4.710078422796064035e-01 -1.485388867282091407e-01
1.169598713772770637e-01 -1.288441924010696460e-01 9.384615916297145422e-02
-8.968805290496715266e-01 4.824125770965834170e-01 -4.994876326831960145e-01
4.041651495340815026e-01 -6.634393245035058451e-02 4.789738029629149740e-01
-1.133602801284297884e-01 7.095186525012706080e-02 1.517518215911615488e-02
-4.762562894039952255e-01 4.266512025094380649e-03 -4.601339921454700166e-01
7.520168786755797585e-01 -5.675214336771973178e-01 4.141165153447081693e-01
2.753596646183099211e-02 -1.058777609956937371e-01 1.300849096521729253e-02
-1.293131452719087082e-01 -1.093984661252453555e-01 -1.691241222366788588e-01
6.445136233456397745e-01 -5.028482238836352591e-01 3.510713488883089317e-01
6.070060317293548557e-01 -4.574439840707344301e-02 7.292908783569814757e-01
1.155602174662561377e-01 2.355645131052476818e-02 2.326125395204301505e-01
-6.568855016941193004e-01 3.090127607188796199e-01 -3.854710012485084714e-01
-9.006480086826943454e-01 6.552417064909344946e-01 -3.446069452681422285e-01
-4.330681972779099054e-01 1.766278917295760198e-01 -2.521302025687190973e-01
5.838818647933704392e-02 9.127426871264565644e-02 2.297754051274037701e-01
8.234753845548433704e-01 -6.695048089325245089e-01 4.016887349336619728e-01
1.288231591237718743e-01 -8.329841916920616152e-02 1.493246831426995602e-01
-2.326471230181283711e-01 4.562997650005941042e-01 2.340355830132851700e-01
-3.145223222244065142e-01 -3.288263641059872844e-02 -3.098874848659340375e-01
-7.017340185664849850e-02 6.624191762316826437e-02 6.009289077938346352e-02
4.220542349984879316e-01 -4.756984067743596500e-01 1.223566107734660874e-01
-7.301431317514343045e-01 6.673641236841297841e-01 -1.389773449650814896e-01
-2.845852969366314267e-01 1.395870879428059430e-01 -1.168970538328370778e-01
5.101791622867674070e-01 -3.446651306003218895e-01 3.435482388561268974e-01
-7.653916663716464619e-01 2.496777717937403718e-01 -5.638729633017630638e-01
4.584962295490368489e-01 -2.616299937033168127e-02 5.779467380809935051e-01
2.173216463586865044e-01 -2.197968425459642383e-01 1.245426417462702912e-01
6.424095797403998054e-01 -4.113183334209786768e-01 4.329717040037938669e-01
-4.226289314329601532e-01 2.799887366046105996e-01 -1.450274728571668004e-01
-4.710399701195142064e-01 5.751915678605267201e-01 7.164377749001261952e-02
-2.581601931851362428e-02 -4.155671904074615397e-01 -3.330681401174082623e-01
1.735091588074950397e-01 -2.101116882397436048e-01 8.349363307569931947e-02
-7.104112414980855439e-01 7.331514454897393174e-01 -5.588180430160469281e-02
6.912714661497507684e-01 -7.653958570405547945e-01 1.625903978111518655e-01
4.467334183761080268e-01 -3.959301245667710134e-01 2.239712753068011930e-01
-5.854648060792252418e-01 -3.067584641163565232e-02 -6.168711139862298465e-01
7.019893258378382406e-01 -4.891771859390556254e-01 4.292148845035351212e-01
7.721328659148181117e-01 -3.671882890059270377e-01 6.215683530370500476e-01
-8.633838269981480851e-01 5.608757495140351823e-01 -3.890184070601100386e-01
-5.486813271391435820e-02 1.416869025759485146e-01 1.470345857541547896e-01
-7.782020592317083763e-01 3.067670992711473907e-02 -7.801859663158055014e-01
4.010868814274708843e-02 3.012343502239833715e-01 4.023028300115201739e-01
-6.052687013768464075e-01 5.662866308530855042e-01 -8.964871224674515748e-02
7.070454208932426265e-01 -3.835858172969689450e-01 5.322323222837627155e-01
-2.886187467373458326e-01 1.801752876743294984e-01 -8.411510437917353589e-02
8.213494333701243377e-02 -5.037170142898862030e-02 1.264015835282426559e-01
-4.544081407979728288e-02 1.160231971227012882e-01 1.341500953724213407e-01
-1.006642831335025079e-01 2.652837875498937348e-01 2.086371573280470793e-01
-2.800866411780114640e-01 5.046731523774845574e-01 2.244821633942137296e-01
5.573362351720809738e-01 -5.260765789157205441e-03 7.099272217225405246e-01
3.992769345960241467e-01 -6.680145438550574299e-01 -8.074676080251569354e-02
4.210087081396071684e-01 -3.563019391287913784e-01 2.311296614526978654e-01
7.703500441164023993e-01 -2.740730659955665227e-01 7.052951781984045931e-01
-9.469185827929780253e-01 5.464498803958277584e-01 -4.975780977988237264e-01
-5.945639779599516395e-01 1.878403232433696335e-01 -4.259930625244092717e-01
3.720543967299940746e-01 -4.508404043242854597e-01 8.822515177696058086e-02
8.751558796801324480e-02 -1.599704084979559349e-01 3.159668232658553039e-02
4.473363835361620078e-01 -3.772715966445613911e-01 2.418436862699397394e-01
6.605487732042140125e-01 -6.639851520131963003e-01 2.209508700019065242e-01
6.899913676325478695e-01 -4.701434599731686981e-01 4.330612154396198399e-01
-9.013637884793874733e-01 1.190554213559361085e-01 -8.392569455699173675e-01
5.988951590195765728e-01 -1.712802447335483869e-01 6.044203070298579394e-01
-8.008043286509976266e-02 1.670315776992228607e-01 1.416221126794745544e-01
-3.230569737031748767e-01 3.300245511378860352e-01 1.462017670909385170e-02
8.154764018807169057e-01 -2.183804374534521406e-02 9.890741329012542327e-01
-8.613836542734005786e-01 6.648700745606740403e-01 -2.909572139080253139e-01
4.705653698314365974e-02 -4.752798865748036894e-01 -3.049513897879885804e-01
1.114950811882718384e-01 -2.885713122400298536e-01 -5.949704432587809427e-02
-4.342478566246007338e-02 -2.813086666868565566e-01 -2.294977215346443722e-01
-1.328345374048853500e-01 4.411359133941207267e-01 3.339080437605912999e-01
-1.945104759627014346e-02 4.108486230035444109e-01 4.353295732457297951e-01
6.411520238274074357e-01 -4.897614502850808349e-01 3.592904342514221527e-01
-8.700593240352626490e-01 9.805338182939779545e-02 -8.228966030689766065e-01
4.272860016471971001e-01 8.209991477566236373e-02 6.420621276391631493e-01
3.650146177137459924e-01 -3.744378597739475012e-01 1.505637308296771948e-01
4.577549967860154445e-01 -6.054168109800350805e-01 4.360202877592188331e-02
-9.056149162717804790e-01 4.684227072329620323e-01 -5.223342298148190288e-01
-7.584634185228776859e-01 8.604274176138490549e-02 -7.066808526128052215e-01
-5.489126248758590121e-01 2.123483206834553619e-02 -5.273721918488801785e-01
3.169723166537779524e-01 -6.110094768699765311e-01 -1.221147505577327985e-01
2.648097518184375776e-01 -2.986713012959955615e-01 1.060596443542412837e-01
-1.763152760109049366e-01 -7.356794840106128941e-02 -1.897308163932991398e-01
-2.712640825806204511e-02 -3.998607993495296165e-01 -3.200969047862102235e-01
6.148920080066547778e-01 -4.878075072867449902e-01 3.311398884434868517e-01
-4.267580591680814051e-01 2.101331684674874467e-01 -2.140746064648944014e-01
1.188633872655337625e-01 -1.482634740107086346e-01 7.813178448013745336e-02
7.222073013097520811e-01 -5.362049385863958406e-01 4.089608561024463129e-01
3.191028593472217123e-01 1.992269433138880719e-01 6.265520952483506489e-01
-9.377215968610607133e-01 4.745664678008210124e-01 -5.532941612846292712e-01
-1.129340550371781271e-01 2.107026183548957876e-01 1.443733269154326981e-01
-8.361724729948658563e-01 1.879834971234348728e-01 -7.014212194195320604e-01
-7.858922472054180597e-01 3.558852878142528819e-01 -4.894360209371556025e-01
6.720378495310792566e-01 -3.250661236374766117e-01 5.462026856112897066e-01
5.215962457688582132e-01 -4.845917229824097117e-01 2.276957087865793261e-01
8.680202052606734997e-02 -5.152263423281376875e-01 -2.964118934509923364e-01
7.795227436089317008e-01 -5.088355303825767839e-01 4.995379653414173116e-01
-8.841306211068307164e-01 3.357566039077155007e-01 -6.200178818170133388e-01
-6.484979730781815777e-01 5.234253118148280981e-01 -1.784284465444050116e-01
-5.922937002056773981e-01 1.303053290126182651e-01 -4.763941396094108494e-01
5.959926856031224490e-02 -4.336018275709345171e-01 -2.522601531373953043e-01
5.564614457283884041e-01 -5.504636233107165211e-01 2.067915020612159371e-01
-1.593435930646361354e-01 -2.324990145803835454e-03 -1.047586524591465895e-01
7.137795551191481458e-01 -7.628129261611481813e-04 8.924970763214905567e-01
-6.518625834249646145e-01 2.970604294041357396e-01 -3.907504803475986277e-01
-6.767596040145362757e-01 2.547445983434274974e-01 -4.581194618247028671e-01
1.235949401086894467e-01 2.581939220078646180e-01 4.578800907863654901e-01
-6.755793791875522869e-01 2.309731204696266124e-02 -6.701231607949469371e-01
-5.304961342071958796e-01 4.367746422767080361e-01 -1.236508942925217125e-01
-2.857383165333716168e-01 4.892887042737555925e-01 2.038670474010673417e-01
1.761459079177412068e-01 1.742027125452686176e-01 4.404588185316650750e-01
-4.776872086405090090e-02 3.950896978500924028e-01 3.885184699588147827e-01
4.757787433773127961e-01 -3.411572079494347709e-01 3.075446097499143772e-01
-7.284870724217903382e-01 2.750624276022407000e-01 -4.984028734527561899e-01
-8.342795145671051404e-01 5.504820551970746045e-01 -3.653969823147164564e-01
2.785607029832939396e-01 -2.596892412583331478e-01 1.576458375533883460e-01
3.875883556182131429e-01 -8.259941333657168372e-02 4.450961080047283192e-01
-7.760964127677714153e-01 3.867431116142793779e-01 -4.498432424646866545e-01
8.489060608586626588e-02 6.786150189224519902e-02 2.384385983977796997e-01
7.079193349575195748e-01 -4.696623960199452497e-01 4.539515380873021533e-01
-6.502370017573251282e-01 8.692458115636403360e-02 -5.824339617372423783e-01
-2.573575804532295397e-01 -5.080291237657764969e-02 -2.611945647297300166e-01
-5.156646225687929741e-01 2.232995560460080409e-01 -3.033481860968089694e-01
-6.244402742966923547e-01 2.790282813550433172e-01 -3.760825212262288164e-01
-2.399584793539820682e-01 1.044498246755703602e-01 -9.836096352707794643e-02
-3.195631156945234475e-01 5.495784872056985737e-01 2.208166617639132911e-01
5.910826362361653458e-02 -3.414581004689102861e-01 -1.679547399881361758e-01
-8.248817901572264022e-01 4.430878137515307236e-01 -4.535899742446464766e-01
3.985203493701739430e-01 -6.294132078722048940e-01 -4.605739625723061226e-02
-2.052481931791488301e-01 -1.344096787577286067e-01 -2.787653932681368740e-01
6.299570179322414032e-02 -3.886029902862045970e-01 -2.069420048271045365e-01
1.918683636968957773e-01 -1.038833649970816314e-01 2.022702146719228822e-01
-4.887580005922400050e-01 4.356498424573045369e-01 -7.708355042434050786e-02
4.455838414131710334e-01 -9.470929709399451835e-02 5.000879477097707193e-01
-6.178820508404762879e-02 -3.918870167243221347e-01 -3.522855338120354229e-01
2.535098452477103567e-02 -2.772650804318122497e-01 -1.473331918980995137e-01
6.513095178516592476e-02 -5.031573878488045937e-01 -3.100125999694180456e-01
8.188372473329100787e-01 -4.025078863294028197e-01 6.423060207459678761e-01
-5.207952441939630583e-01 1.179788749516853669e-01 -4.062013168415113951e-01
8.383189925590470160e-02 -5.077844501069245231e-01 -2.929453178168163197e-01
3.112577852242363052e-01 -3.587155175688477304e-01 1.037332874041670405e-01
-3.345183929087566232e-01 7.334727680715677489e-02 -2.348545090499861709e-01
5.348336247940151944e-01 -4.652692556962314541e-01 2.605894537718895787e-01
3.915449698024557890e-01 -5.550774876599386953e-01 1.445106323410298710e-02
-1.250997291810560241e-01 3.689232204067736665e-01 2.762210621453352055e-01
1.553295697435387590e-01 4.395730750782181687e-03 2.603231560574048031e-01
-2.559607510826139576e-01 4.622177280175497338e-01 2.128963672176286681e-01
2.210950422889525757e-01 -4.682386638258998479e-01 -9.997144299126500822e-02
6.115895266551887310e-01 -1.334550406311509618e-01 6.537359651076735112e-01
-7.682207524775975793e-01 7.277449933519867242e-01 -1.267942790762433269e-01
-5.219411035653885866e-01 4.832862608973056417e-01 -7.105595876876867611e-02
1.053916422979631062e-01 -5.277913454210728661e-01 -2.867825141561786695e-01
5.498719306144724678e-02 -1.453412733840548365e-01 7.970902012806821771e-03
-3.347946678833713108e-01 -1.335415404402483519e-01 -4.257165491939618462e-01
-3.585941732643147528e-01 3.752577166247597629e-01 1.574944412560270665e-02
-2.217028272824903001e-01 3.231819200101040956e-01 1.239147610992202414e-01
7.642398022444080175e-02 3.022038931893140101e-01 4.446142123306863758e-01
5.932409348014554551e-01 -5.695525254395877868e-01 2.311582567306381675e-01
-8.711691486369322890e-01 5.273230697121209509e-01 -4.288001425203046835e-01
7.734758585411661835e-01 -1.635558760862737271e-01 8.106478238505585576e-01
-6.004541943654408964e-01 -9.044848283583043630e-03 -6.140444605073982487e-01
1.339612153142476225e-01 2.291158048522697888e-01 4.429217900559409560e-01
7.346749219719470037e-02 1.473566784369330918e-01 2.986262327143720530e-01
2.385108187592752116e-01 -2.333584158160770805e-01 1.362190156532200602e-01
-5.934640380156088746e-01 2.209757274543477368e-01 -3.942204735304186136e-01
7.207089768137886487e-01 -6.265701569878763255e-01 3.240245938196258946e-01
-8.151133302098308997e-01 6.521229107338731845e-01 -2.499251318318441717e-01
1.320721853885301576e-02 -2.650102477507938481e-01 -1.498965955123972849e-01
8.065049755174357182e-01 -4.123707132133278552e-01 6.191570071338162728e-01
-4.485593488091135228e-01 5.555113027087700273e-01 7.915769398100461207e-02
2.982905785500462037e-01 -2.182979392438083865e-01 2.182700700841149200e-01
-1.994086317025669727e-02 -2.401395675447572653e-01 -1.647965638744290917e-01
-3.915512429004160411e-01 4.261325129746075802e-01 2.501741468470285168e-02
-1.454486230551544079e-01 -3.400460988709827492e-01 -3.999560843463944582e-01
4.148693217888455714e-02 -1.034797051021254383e-02 1.169039050792935047e-01
3.647644930995195267e-01 -5.438553822177871755e-01 -5.756997623183641652e-03
2.894038034825899275e-01 1.774302016853882003e-01 5.726045961664687489e-01
-3.894283851798751583e-01 2.413450351511843006e-01 -1.427527759302106292e-01
-1.122425177682110226e-01 -4.009330262902031927e-02 -8.582384067346870982e-02
6.264290489594451783e-01 -3.134703915021969656e-01 5.048646046076487037e-01
-4.337966829068982122e-01 7.907199006106958861e-02 -3.428111466652420947e-01
-7.034515805990760873e-01 3.341245461676070616e-01 -4.154524420404177576e-01
1.353262020296797652e-01 1.695561102759941263e-01 3.896234358757308391e-01
1.895195191795120415e-01 -1.515472308107464194e-01 1.556923438451273956e-01
-2.123833270278581986e-01 -2.654331217469723669e-01 -4.075772507126945166e-01
3.229367280191430267e-01 -2.795827290338804283e-01 1.899355829697776665e-01
-4.074397146783808599e-01 3.978260701792333265e-01 -1.917430542050394676e-02
3.186182654472081710e-01 -4.809958637287658489e-01 -4.934990955259788365e-04
8.227104261038775679e-02 2.323011879651150358e-01 3.869017382299014263e-01
6.561308538246808375e-01 -4.354097201809040696e-01 4.264326914604859020e-01
7.010513953915191443e-02 -1.381035887244517202e-01 3.187925567251553849e-02
2.538160597967493715e-01 -1.964371657990668374e-01 1.876798826940220821e-01
-2.608989743332259525e-01 5.086423205926714486e-01 2.500217856954895512e-01
8.226411758660600038e-01 -8.364849213751137658e-01 2.469467274149093061e-01
7.499977334394047901e-01 -1.433270511223313781e-01 8.025014612372096678e-01
4.232179845918441347e-02 2.856429667172358244e-01 3.904670923401415417e-01
-8.998163844783140242e-01 1.544728340803087074e-01 -8.048722579037361768e-01
-3.147429055458253466e-01 1.027993039411645437e-01 -1.851744625122906385e-01
-1.844437992338857357e-01 2.048763334420777293e-01 5.744875167037727381e-02
-9.124936534112044750e-01 6.974847651293228923e-01 -3.192108392540005668e-01
3.206838770995890098e-01 1.898641739274694595e-01 6.197320656310619791e-01
8.153136533329073954e-01 -4.389466165440058520e-01 6.047267981617603372e-01
-9.137247114441168216e-01 3.965272211670717306e-01 -5.978001932956346076e-01
-4.639619451786022308e-01 -1.344933602084087965e-01 -5.739114237856122180e-01
2.638388323092618615e-01 -2.191283980425004496e-01 1.782122025651344810e-01
-3.652951320059477092e-01 -2.164489956437021523e-01 -5.368617315876477170e-01
1.078869249411047865e-01 9.300203255004080294e-02 2.878211399614642452e-01
-1.421931110267466714e-01 5.078663736377319465e-02 -3.628172488963988390e-02
7.846267276845936278e-01 -4.084100924114265063e-01 5.978521410311181672e-01
-1.222953188275981151e-01 -6.695332229493788923e-02 -1.220276726090098185e-01
-2.826368656658136413e-01 1.154539675232335583e-02 -2.326026700825231108e-01
2.454228997947491553e-01 -4.865901155890001717e-01 -8.912685914572186785e-02
4.233688852261116020e-01 1.348981037147833906e-01 6.862222962266986137e-01
5.829062979867304373e-01 9.929473409254650773e-02 8.353872626701352999e-01
7.449934111405550619e-01 -2.353403648427237760e-01 7.120486137278957406e-01
1.360201639103255679e-02 3.554724932429895734e-01 4.220253074261449133e-01
-1.881433290902021502e-03 4.295737757977775156e-02 1.165361199723175256e-01
-2.485816736904827018e-01 5.354644573851666811e-01 2.887734407099399880e-01
-5.647915136311414397e-01 2.205101450790127315e-01 -3.619476094780194053e-01
-4.782184158146999819e-01 -1.759016284130617003e-01 -6.283087386997081580e-01
1.590902779941597012e-01 -3.772196299158306898e-01 -8.685973627422981236e-02
-3.286465065456464774e-02 -4.158194146989473428e-01 -3.413395670038320007e-01
-3.639348844507724889e-01 -2.034158354625515697e-01 -5.233066500665930487e-01
2.031150278264538256e-01 -2.527044301444493213e-01 7.803140734546885893e-02
2.966444330418043125e-03 3.755147882757943756e-01 4.283543744856141422e-01
5.008579060988541665e-01 -7.406827505059573880e-02 5.821398992268080885e-01
7.429529763876079329e-01 -5.148645561851470376e-01 4.522765073425250582e-01
-1.871563179844033253e-01 -1.545846936702219565e-01 -2.767126123577556274e-01
-7.975105299665765646e-01 1.375063026032301294e-01 -7.038164554425658803e-01
-2.684592002744207728e-01 -1.226410525801791170e-02 -2.383615388435825211e-01
-4.516186521163280121e-01 2.787003891125616750e-01 -1.792774958110342209e-01
4.290237661598133578e-01 7.549323581437139899e-03 5.753821496247104594e-01
-5.890685716604533440e-01 3.293176852580372849e-01 -2.894231741634516464e-01
6.164935255431576167e-01 -6.027371934466991821e-01 2.271149141671484073e-01
-4.503555616076846402e-01 3.860443510789861588e-01 -7.897190829272235368e-02
-1.592546466219282586e-01 -2.352418580339194210e-01 -3.191762784327683566e-01
6.252450741094542908e-01 6.614420771838296076e-02 8.531435964564382246e-01
-7.789389495574725597e-01 6.447017193461603846e-01 -2.155024235285437073e-01
-8.772008492146268210e-01 1.635334595762098497e-01 -7.707337833895828716e-01
-1.042852358650644962e-01 -1.988479494417951798e-01 -2.229632048992306048e-01
6.656710097080975608e-01 -1.102891901746494707e-01 7.367531455051794520e-01
3.792599560550238835e-01 -9.739334231106754058e-02 4.219720015543337865e-01
8.783895807231759112e-02 2.983074560499338612e-01 4.540445932759747394e-01
-2.522210746179707197e-01 3.338480674309858287e-01 9.893164360709549854e-02
2.392409694433597911e-01 1.989457165786068515e-01 5.352087678912483826e-01
-5.570946380238960272e-01 -2.016441238096182767e-02 -5.748331379060001023e-01
4.253142833182892851e-02 -4.936931938686823229e-01 -3.270712442497991090e-01
-8.227165525607401664e-01 2.262958459352818752e-01 -6.507883271439016681e-01
-7.513879563397204420e-01 6.478282240069097586e-01 -1.812003386412378292e-01
5.530639245074034926e-01 6.015703856386978021e-02 7.653050917632909789e-01
8.363380505749978822e-01 -4.398485276040476899e-01 6.278749344017678924e-01
7.765705961435831473e-01 -6.074426461846624825e-01 4.053527038820419759e-01
2.724283467627313521e-02 3.807251885377180289e-02 1.452540043907694645e-01
-7.812003598307631913e-01 7.115681314210087205e-01 -1.564968914329919192e-01
-3.905397308633911102e-01 3.121204026781250213e-03 -3.634271357653599543e-01
2.693283771618139033e-01 4.970582187446655198e-02 4.320725133374455629e-01
1.256039205205536080e-01 -4.185906227926391443e-01 -1.631548465109741719e-01
-3.615109261340501701e-01 5.577188652695708182e-01 1.804716036394810319e-01
2.207231655276658544e-01 -4.605222029885863155e-01 -9.328862918942834592e-02
-2.031859624930187902e-01 5.352999705866336166e-02 -1.033188034553514101e-01
6.353724475528862992e-02 -3.185382615422390762e-01 -1.417939545261248380e-01
1.505093144641099223e-01 -3.747678931654080947e-01 -9.438844439736758518e-02
-7.828324203847263074e-02 -4.351660567732663631e-01 -4.109589869191400680e-01
-7.644210508403536108e-01 6.797113611787606313e-01 -1.667001512080351910e-01
9.510183844689683308e-02 -4.190620660566706790e-01 -1.983773742254745232e-01
-8.847412292356653454e-03 4.126365042442667330e-01 4.490699210010670739e-01
7.916210770188064627e-01 -5.820845482206519206e-01 4.458732172134323712e-01
6.091403380980456861e-01 -5.216990353950585746e-01 2.933654962289717338e-01
2.987400179121283972e-01 2.021902644323945175e-01 6.060570605509472131e-01
-7.022933582260691976e-01 4.146600012389512480e-01 -3.399573972957265489e-01
-2.172397308641543234e-01 2.163990617862553423e-01 3.065680380379605385e-02
-7.954907560969143310e-01 7.882531296090850015e-01 -1.021676644029363146e-01
1.418292247920201754e-01 -5.503852820481404118e-01 -2.660338882121871529e-01
-4.284800619576325520e-01 2.513722043762517400e-01 -1.780569712753289902e-01
-1.445887287954862079e-02 -1.726312795305063319e-01 -9.636833109935613595e-02
-7.632832084828310437e-01 1.200113415524837746e-01 -6.808924685830695100e-01
4.827742772996181375e-01 4.056201843545308161e-02 6.670909041103392223e-01
7.064331950406130822e-01 -7.024761939886130513e-01 2.378324186118510875e-01
1.442088596427178737e-01 -6.703152761006932192e-02 1.818544181633869605e-01
7.190354908813459400e-02 -3.727601659563898884e-01 -1.821909804753369388e-01
-3.275132291612117275e-01 -2.003613624804700399e-01 -4.789537139308108760e-01
-4.007612532175410247e-01 -1.570841706389969616e-01 -5.226359793306796231e-01
2.863858742601709251e-01 1.100865481448714961e-01 5.071383116828042104e-01
5.913595760280634384e-01 -4.844093368941461697e-01 3.074303642474591758e-01
-2.228360277600188732e-01 3.382417291998328635e-01 1.364925747106505716e-01
-9.607429691420227291e-02 -2.049876848968732179e-01 -2.192532068295545145e-01
5.271480854538753702e-01 9.443961149087015672e-02 7.673221214932137713e-01
-3.068604211843304896e-01 4.905187279733037031e-01 1.809096690781441807e-01
2.780075155746398741e-01 1.106250075403349964e-01 4.980785289267067872e-01
3.675091065544999758e-02 7.732548879599546177e-02 1.922506123628430486e-01
-4.522748607296384615e-01 -2.198467622324890847e-01 -6.391934856016758815e-01
6.169393773645545642e-02 1.042853916727614766e-01 2.455290816444838375e-01
-2.763113347585250401e-01 9.658600805062603212e-02 -1.470648917446167880e-01
6.949869062087434823e-01 -9.600122174163946975e-02 7.833479774619668268e-01
1.919435910541094359e-01 9.178211639728182936e-02 3.825661360600869365e-01
5.185702205811173471e-01 -2.445408710892527371e-01 4.453340091990596883e-01
7.056151695777862498e-01 -4.944297210372971541e-01 4.285125980517727751e-01
-7.638017232137217505e-01 2.694948204000424674e-01 -5.438078706673479257e-01
6.717680839612072408e-01 -2.528995790743304162e-01 6.123612161092033546e-01
5.559792627342179383e-01 -5.762749482863422923e-01 1.824690388842668543e-01
-6.710759068973136676e-01 2.150301465432090664e-01 -4.882145346879799841e-01
-8.678235215242843248e-01 2.221633789175043450e-01 -7.060399071344558575e-01
4.798350643773441893e-01 -5.585762979573076770e-01 1.119254941439477707e-01
-6.977360145266151559e-01 6.942122940680693910e-01 -7.728881682988607282e-02
8.952987426807028359e-02 -2.075005049635109400e-01 -9.881734799357052429e-03
7.803735474114286141e-01 -7.002107621699952267e-01 3.242495721420544097e-01
7.992245934120187911e-01 -2.065610425100087300e-01 8.004066006424950253e-01
-9.252777458572308822e-01 6.571296106284035821e-01 -3.709589434833586163e-01
1.231194057476722309e-01 3.161093990823894417e-01 5.106785428181016551e-01
6.230669309867218342e-01 -6.868279322343157078e-01 1.571635114684933610e-01
2.362703312849997184e-01 -4.253445961817863830e-01 -4.315775659609919629e-02
-1.388421347212138654e-02 2.395263976237259895e-01 2.838889664869932439e-01
-8.675387522980113064e-02 -2.763873345687669486e-02 -4.528266097776526000e-02
-4.158198246531145115e-01 1.764043521796610503e-01 -2.326639210409166825e-01
1.647735332941766273e-01 -8.012954467711305706e-02 1.932454774547765763e-01
1.793524531729550897e-01 -1.578736447334897486e-01 1.382698734050024358e-01
-6.641832315531672748e-01 3.289160827951707056e-01 -3.754630443841046605e-01
-8.494296342883992379e-01 8.325470652592488197e-01 -1.228909741904572750e-01
-5.858391331026716609e-01 7.107987234510111385e-01 6.560842816593646931e-02
5.115318251766237667e-01 -6.212411183287297467e-01 9.036136693329005487e-02
7.584715108254465044e-01 -7.397484009235177904e-01 2.628551850670253764e-01
7.002164155128004497e-01 -6.112118399540645841e-01 3.147975421663790074e-01
4.747527675667429503e-01 -1.331208517556405624e-01 4.979782994077912583e-01
2.723672214850682560e-01 7.924150174927234447e-02 4.627410803238704573e-01
-8.068960582615704036e-01 5.314215546510080435e-01 -3.517204600158342354e-01
7.742538304985273623e-01 -4.445847656198068099e-01 5.527043307987093979e-01
3.436404522268655115e-01 -5.348548988742527488e-01 -2.155990297477168929e-02
8.622650288346248582e-01 -8.221317286860451157e-01 3.053580920637066209e-01
8.244850429342912013e-02 1.893689762775408458e-01 3.475630844815669196e-01
-3.104752999628482280e-01 -7.373770989160653710e-02 -3.428997483608777763e-01
7.017073660270937152e-01 -7.624491120381019504e-01 1.772067661115067638e-01
4.227742038070891328e-01 -1.076781398724870886e-01 4.621285826793441465e-01
1.985020173236807239e-01 7.978599547444106821e-02 3.789976082754542008e-01
-5.509765028001734066e-01 3.404482902643510278e-02 -5.179279397071719915e-01
6.560958147448410216e-01 -7.525927402824432733e-01 1.342635772640696779e-01
-3.630370421681326509e-01 -1.633957225625103094e-01 -4.854236634617146717e-01
-2.015371978066292091e-01 1.034771826358008573e-01 -5.543642636403476459e-02
7.842936357750838194e-01 -1.469283478803129761e-01 8.382998881880765474e-01
-2.480261556075484264e-01 4.161341928926219902e-01 1.795024976532672012e-01
-8.803305656766299281e-01 3.718550905898686532e-01 -5.824367167846170590e-01
5.725211404221602907e-01 -5.293436233494930310e-01 2.445597106381904862e-01
2.599750466781889369e-01 -5.305782869806866531e-01 -1.130434060672120544e-01
-4.357304277756448019e-01 4.653632965821958289e-01 1.076203829604218364e-02
5.453431941393902527e-01 -3.741659032093174186e-01 3.564830770185474229e-01
-8.194529486489796621e-01 6.710534515292425617e-01 -2.374393237188496542e-01
8.186895053408197453e-01 -7.529073333362487075e-01 3.194156611808852686e-01
1.726876201297105340e-01 -1.046941106743947275e-01 1.796474314310358145e-01
-7.540864478494965772e-02 2.644399411467945882e-01 2.366645991557582152e-01
-2.450491336014423982e-01 -2.447422012283998194e-01 -4.257767792158703712e-01
-1.546064880334029612e-01 4.232399032156756724e-01 2.925942075521391628e-01
5.617240860205642283e-01 -2.874083701694400417e-01 4.550705291805540176e-01
4.300447622064890174e-01 -4.251130148707387146e-01 1.780597085030435900e-01
-6.902104371480168865e-01 5.352507904071838185e-01 -2.151110674506244713e-01
2.660060660681278777e-01 -3.475492545676246436e-01 6.240691999934165624e-02
4.442837193778316762e-01 7.200985371244955635e-02 6.521553535389943423e-01
-2.102190168927743907e-01 1.871273933527226319e-01 1.170455095160120862e-02
1.229152608652109985e-01 -3.701289839916792612e-01 -1.215876066066409050e-01
5.902699090323645370e-01 -1.453050159971278343e-01 6.185064915411030428e-01
-5.482163818533188071e-02 2.428019066299432760e-01 2.402156769605971187e-01
-6.562901217125258757e-01 2.806421611642861969e-01 -4.109216000269030888e-01
6.867024238223005117e-01 -3.946595689150861896e-01 4.988316176790972278e-01
4.687015633255385283e-01 -6.888256546564955896e-01 -2.073365042819077034e-02
4.111156462306732595e-01 4.341792383871240918e-02 5.879929155221310655e-01
-8.733989093796680203e-01 -2.066976929214137462e-02 -9.360508425003470911e-01
-7.912592598883196049e-03 -2.961414955113207959e-01 -2.026564553036780125e-01
-5.372629408662732420e-01 -1.821687105850143817e-01 -7.014224253084933025e-01
6.384791883570326565e-01 -7.094745486020674896e-01 1.538837539708755864e-01
-9.407669634234220313e-01 4.508661391566333720e-01 -5.785957425074589322e-01
-8.338306110986611897e-01 4.377411563331531363e-01 -4.687206414597950288e-01
-5.699858435789301181e-01 -2.764584949393149998e-02 -5.964263413171385642e-01
-2.638197922838766019e-03 -9.699387593402586383e-02 -1.322367584577247360e-02
-5.208567848062323202e-01 -3.341335826078439125e-02 -5.457054655329027781e-01
-8.679959148113518541e-01 -2.298528487664624684e-02 -9.320212195211438067e-01
-6.997064728331989780e-01 1.428050180560264948e-01 -5.873885115712542682e-01
-9.343822635780633101e-01 6.116957002628772289e-01 -4.231880001043398232e-01
-7.289196070554073703e-01 1.704947490321626624e-01 -5.952042045456358288e-01
2.669525605187403512e-03 -5.003620183954197997e-02 3.607845368800198516e-02
7.720554735169035121e-01 -1.833236028759058500e-01 7.908215421019997304e-01
-8.708051697728664831e-01 1.607834789313050128e-01 -7.659721278165695368e-01
7.610994989822030821e-01 -7.801735672376732822e-01 2.286204300445498494e-01
5.757667119011954382e-01 -1.943370459216863244e-01 5.568062085809535322e-01
-6.081405719863147707e-01 2.067085332886724192e-01 -4.240996439307003762e-01
-3.686063770449812260e-01 4.955035840184590090e-01 1.150781012111865842e-01
-5.646872196266661259e-01 3.413415269446323230e-01 -2.505415895353824696e-01
6.143342272897626133e-01 -1.069820615456454765e-01 6.812482723910376903e-01
2.724166523059160516e-01 2.294887078738037378e-01 6.011768346136552310e-01
2.272458252327999029e-01 -4.119277608592239459e-01 -4.109335523771562998e-02
-3.704340602420069239e-01 4.970268991695622057e-02 -2.975940822778798123e-01
6.330011337000148730e-01 -7.653786982780134140e-01 9.614755261890306492e-02
4.411146317027482833e-01 -5.498869043235574683e-01 7.576698382403754262e-02
2.469505071793382522e-01 2.476276793186999170e-01 5.888383108908339381e-01
-8.791245649280116092e-01 6.712452109163468128e-01 -3.053195560578709222e-01
-5.148230032101683840e-01 7.930255724593537892e-02 -4.350111655666389909e-01
6.852806139448726075e-01 -7.234770985752201344e-01 1.943653446492501491e-01
-5.598323597311726241e-01 3.938359595736377616e-01 -1.966565440713842483e-01
2.880723075907728470e-01 -4.081897870318861865e-01 3.172335707828991685e-02
8.145370550118987696e-01 -2.376444863237094085e-02 9.862285455818103896e-01
4.836705330372967904e-01 -5.711841481052151170e-01 1.046879613074344767e-01
4.409211613961906417e-01 -4.457590507887737585e-01 1.714492581111680680e-01
-1.547092606725844997e-02 2.740323710562040938e-01 3.138596764975385423e-01
-1.442527621086925893e-01 -2.251596886657185881e-01 -2.927804934915785307e-01
6.917613642994301371e-01 -9.147357667967761022e-03 8.596625648517175478e-01
3.110447164880502102e-01 -5.118082849404457235e-01 -3.750989378953499542e-02
5.598950436466665348e-01 -6.169712520800193500e-01 1.494533203040609437e-01
4.121232021727331274e-01 7.998575230183602169e-02 6.228214400295069009e-01
6.796198771189458643e-02 3.456924862582899105e-01 4.750166024933577535e-01
-4.308512571376338363e-01 6.026236808639461318e-01 1.427452115537986566e-01
7.367851895543517937e-01 -2.192382644279683990e-01 7.175171657546324244e-01
1.922615189909423483e-01 -1.231161718410909711e-01 1.850049845122782866e-01
4.523475898703845366e-01 -5.737212315993750478e-01 6.662674468712644071e-02
-3.641600261770133184e-01 5.772360881786683384e-01 1.954258275645434084e-01
-3.557720256853257323e-01 -1.930982813009214094e-01 -5.044941385523775690e-01
-5.450912346251223228e-01 4.955073774876979642e-01 -8.620342670737812796e-02
1.519159405214003389e-01 -3.372716862659481674e-01 -5.824972423741847649e-02
-7.329417892635738951e-01 2.912773390163265752e-01 -4.885494630989106746e-01
6.195450286343973101e-01 -2.061525497836377285e-01 5.958541685993912207e-01
5.859507059850536104e-01 -3.880280603810097317e-01 3.900296705863441349e-01
7.321881234593841103e-01 -4.362957079860314002e-01 5.123617444690710121e-01
-7.433651097453596313e-01 -7.748892059217639405e-02 -8.400753975301291643e-01
-4.359731243309165616e-01 9.830676521531259149e-02 -3.275779823398314861e-01
1.799334654632800123e-01 3.009232626758528983e-01 5.614896755176218557e-01
-8.328024276305315832e-01 3.827513476326177000e-01 -5.181942108441262018e-01
-2.219373204287044543e-01 4.430709351039063826e-01 2.340664560755870982e-01
-4.124319241733737096e-01 2.537167497810058348e-01 -1.575943497614256117e-01
4.823325098950566603e-01 -7.260206713944563628e-01 -3.944427508454038944e-02
-3.897570230477521713e-01 5.097214114652210970e-01 1.040500850672793076e-01
1.760460810824033412e-02 -1.596136936134842088e-01 -4.780985278774327329e-02
-8.453135746689696139e-01 4.440407906658180165e-02 -8.440851242507062535e-01
7.808634780136403108e-01 -1.582535238578312853e-01 8.239570994559441974e-01
-3.439756666076379532e-01 -2.648981716749249649e-01 -5.571686325264042505e-01
5.294396959985459006e-01 8.246526213698011920e-02 7.589072445214720686e-01
-5.856536204678403079e-01 1.233155655691573482e-01 -4.752586278441447987e-01
-6.466368278296541483e-02 -1.944279529430632536e-01 -1.737030494367177158e-01
-7.990009790511806154e-01 5.146915405650582809e-01 -3.581244736912175264e-01
-1.939480867122777841e-01 -2.688521469796577301e-02 -1.668461147210973383e-01
6.737918113146357246e-01 -5.516379857658622043e-01 3.395278698805279105e-01
-4.963504087748390470e-01 -7.618363034649387744e-02 -5.571472871048009923e-01
3.667432086983633543e-01 -2.212428315361256448e-01 2.936295832698213593e-01
7.038241853041702356e-01 -8.473206335563784886e-02 8.038061190681127233e-01
-7.106974959327660990e-01 5.519047671313109110e-02 -6.806180093010685273e-01
5.490324545029626746e-01 -5.149105995416193293e-01 2.310633047103192728e-01
-5.963958234652311230e-01 3.924606491387400697e-01 -2.396246882753081120e-01
6.511773348095210023e-01 -2.790943148142743246e-01 5.647513470704008665e-01
4.213987626353791760e-01 -6.092866044164072514e-01 -1.427212418733733636e-03
-3.817878933537187103e-01 -4.632441104543468121e-04 -3.567467819623220127e-01
5.529662865177300546e-01 -1.269053512808847040e-01 5.929071552207300089e-01
1.018460213798615677e-01 -3.062110461926697558e-01 -8.674841262344917814e-02
6.997752939456932664e-01 -4.588630287471565650e-01 4.546094122899576595e-01
-4.618337766123332133e-01 6.413403132212328606e-01 1.430673951504540520e-01
1.280470832866471564e-01 6.111151911930450854e-03 2.307867777617824689e-01
-4.997786804296017737e-01 5.023375495852194783e-01 -2.823275514115523160e-02
-5.858188379600988149e-01 2.005701143869320895e-03 -5.871748202726244648e-01
-7.368798455210079368e-01 5.577733337613131059e-01 -2.475950791407889040e-01
3.213343289924460167e-01 4.396571069528663889e-02 4.860997850262581133e-01
1.396532645998639355e-01 -4.996266770477776897e-01 -2.217663709625441459e-01
-3.735710491233454889e-01 2.705536855583854372e-01 -9.776562340685285291e-02
3.999451385597964648e-01 1.463296090485073364e-01 6.700355225186733765e-01
5.357391561367021993e-01 -5.799606979063870460e-01 1.559901166768958014e-01
-1.787636440008642802e-02 -3.025560038900201865e-01 -2.199282000379299828e-01
-4.078717892295481984e-01 4.549960622543930966e-01 3.298711339798270081e-02
6.686997562399296102e-01 -6.824590453230691134e-01 2.132325879976691985e-01
7.814842805549997440e-01 -8.711930646898509156e-01 1.680397529670817069e-01
-2.022728917568715756e-01 4.454297635042979153e-01 2.586666949640146762e-01
5.757686545560823932e-01 -6.238558613803077968e-01 1.612167339834163216e-01
-7.005337365445062359e-01 4.034166179282885345e-01 -3.483057917501795053e-01
7.271650947801761022e-02 -4.761962455973016428e-02 1.181943379646836906e-01
-9.381941459117932869e-01 7.501251145819552990e-01 -3.000404818992882250e-01
8.949225380080476355e-02 -4.680889404163874334e-01 -2.499295401403669181e-01
-1.795436381610360232e-01 4.340124793206617260e-01 2.740744812607673331e-01
-8.946462466614334419e-01 6.906707296388305828e-01 -3.051312669392958754e-01
2.751655234166582864e-01 2.296576086535219163e-01 6.044675445970077998e-01
-1.024417349699486557e-01 -3.960580441797684204e-01 -4.024933791459217036e-01
-8.046797813309408687e-02 3.063315297016470651e-01 2.694769407876005940e-01
3.156167821355555514e-01 -2.533804826267169186e-01 2.057195825480441498e-01
-2.266916841582611308e-01 4.621960353867611282e-01 2.462584291767540012e-01
-3.899500921304980411e-03 -7.315508578082399738e-02 7.293574732851771172e-03
-3.381971552805371206e-01 3.007949798169343714e-01 -2.956831310557444734e-02
-8.700654504612775897e-02 -2.701862901706111320e-01 -2.689598815246450059e-01
6.977814903869321295e-02 3.064065449454445589e-01 4.409051794993962270e-01
5.215267246213807217e-01 -6.706541848247106197e-01 5.625078515367821358e-02
2.397777046532034717e-01 -1.925620765205189600e-01 1.752378182436701015e-01
-1.984780330334226517e-01 -1.113808458721732286e-01 -2.498340548555959828e-01
-7.393329674272448582e-01 5.813337066494399519e-01 -2.286935507725017525e-01
-6.330704863142347927e-01 2.385761525682694381e-02 -6.209405471163098600e-01
-6.398443630792685077e-01 -3.021043824528933316e-02 -6.784635979014304041e-01
3.394687820939513712e-01 -1.331682496840822516e-01 3.436401618114449663e-01
8.243036808951815786e-01 -1.978561434108138395e-01 8.370271848433228357e-01
-1.713531049133762418e-01 3.890676096011519425e-01 2.420212383128385880e-01
-2.549064758593828639e-01 -2.717842358244143205e-02 -2.366406022514107033e-01
-8.113522916785236017e-02 -4.300827112635305927e-01 -4.095299248068137721e-01
7.784333756327549425e-02 2.594569898142910502e-01 4.068626400715537605e-01
6.672428457993254680e-01 -7.350574547157454619e-01 1.631272179272232614e-01
-4.182387855090955453e-01 5.318944661222081427e-01 9.198761700879098946e-02
7.418246562418980838e-01 -5.911891441891914400e-01 3.806938229995368017e-01
8.597496720802433323e-01 -7.872464788365046706e-01 3.346189800164546257e-01
4.225031791773417034e-01 -2.296645763070139304e-02 5.398398909758610476e-01
1.901709062757880320e-01 -5.655522646150489274e-01 -2.248680560087839564e-01
1.070914926643686815e-01 -5.335373162937679936e-01 -2.901359000904784047e-01
6.636242385043902292e-01 -5.837793423826967976e-01 2.983289670299048013e-01
4.341842771651444610e-01 5.504186428830467465e-02 6.250089981085517055e-01
-5.488396118183642702e-01 1.261758935787941349e-01 -4.306370134330150257e-01
3.979346896594308514e-01 -2.967250178759953116e-01 2.596842337111183729e-01
-3.147572595796060968e-01 3.322628888826041349e-01 2.614772513454194716e-02
-8.541873600686871182e-01 5.118248373133129636e-01 -4.237060712035873311e-01
6.807607633089712840e-01 -1.192972281577423313e-02 8.445535377061895721e-01
-8.059201105030762147e-01 -1.006340824343182443e-02 -8.493211484844488401e-01
-1.169597225104787308e-01 -6.025099918722807285e-02 -1.097693873812737031e-01
-3.090220756120889423e-01 -4.784521410813309672e-02 -3.173950310462370084e-01
6.281661533456335267e-01 -5.596754320152801387e-01 2.800881831326967886e-01
-7.204483817395185286e-01 6.497296626872435255e-01 -1.441617987184061755e-01
-1.669016674672605116e-01 2.757204515393181232e-01 1.427041892484626484e-01
1.083158956660129901e-01 1.686973925156740883e-01 3.580266741293941513e-01
-5.365020835121271370e-01 3.911109207690692813e-01 -1.725576213377479073e-01
8.086633652301757902e-01 -3.336175749929277123e-01 6.941512316426848850e-01
5.226711359672943091e-01 8.904795578854211857e-02 7.572502821537735462e-01
2.930585541020291895e-01 -5.079854849026276264e-01 -5.450268179110227817e-02
-7.487255969238938436e-01 1.651574362010143071e-01 -6.227091150913171003e-01
-7.256033670314522288e-01 4.927610665045165095e-01 -2.946110311195349607e-01
-3.846654444207021073e-01 5.244466230376855220e-01 1.234192336086298580e-01
7.381375750513374800e-01 -2.894743353840186217e-01 6.543713761174760890e-01
6.265386038730769158e-01 -1.591689879214865655e-01 6.471028935438389862e-01
7.954573993480834604e-01 -6.295898726358523101e-01 4.064956892439706149e-01
-3.646509132560583066e-01 -1.361434409193428008e-01 -4.621646605678458863e-01
-8.365955313826168860e-01 5.716798746538008791e-01 -3.485150208998126775e-01
-9.018193347285555772e-01 2.941545865255851822e-01 -6.785081936432200145e-01
8.479128492652699967e-01 -2.351071979176201088e-01 8.296453392422695750e-01
-7.067876112415177881e-02 1.635927544322882954e-01 1.491777394588228722e-01
2.525513781340623862e-02 -3.601809065994236447e-01 -2.238089215914377261e-01
6.016903346387297846e-01 -6.020011099459892101e-01 2.109094771680327940e-01
8.132073208298430389e-01 -2.265171823790348704e-01 7.979743908019933940e-01
-5.865536364154524396e-01 -5.015448892442991857e-02 -6.360530001293943636e-01
-1.734224937258411342e-02 -3.348851744407850828e-01 -2.490945615892308507e-01
2.418821576076342350e-01 1.725974469349721152e-02 3.708862670890599733e-01
4.776708858670353774e-01 -2.723755876079657079e-01 3.730512923815961779e-01
7.010317307768006989e-01 -1.989683825296907627e-01 6.954083178680483535e-01
-2.064611414495061414e-01 -2.235520821776053324e-01 -3.622499509926408456e-01
6.531887665388175224e-01 -2.201077080904952632e-01 6.213727634118856313e-01
5.819757266400203966e-01 5.907867813196449047e-02 7.972864820417572274e-01
6.624673449643644352e-01 -7.329284788490613156e-01 1.596414607298043131e-01
-7.856238314130604694e-01 2.860979029819814001e-01 -5.534048578482766434e-01
8.000068691207955496e-01 -3.245841998390575772e-02 9.616492898062031225e-01
2.571476381349051543e-01 -4.405422238150102365e-01 -3.334389707667128472e-02
-3.524629528593561933e-01 3.636680336909043354e-01 1.206801225677940625e-02
2.294243997191812434e-01 -5.889507060500194235e-01 -2.016487771732415613e-01
3.945544743305531288e-01 1.713833065127786659e-01 6.869620854307271207e-01
-6.160717557323283078e-01 6.820341053329075365e-01 4.634890861472520940e-03
5.838222868505722474e-01 -3.811504787765952473e-01 3.939364903172507537e-01
-2.464891832770270685e-01 -3.063838532650393631e-01 -4.841918480222689447e-01
5.589842322031089716e-02 -3.718269795891377405e-01 -1.995857178548427202e-01
-6.984112782515586870e-01 -1.049252481070690052e-01 -8.140736913843021894e-01
-2.143801581843754467e-01 6.316280670432522504e-02 -1.072141132936718921e-01
4.755671812155755629e-01 -6.045307841739626653e-01 6.473327375060267119e-02
