-3.349927109202369691e-01 -4.918913873077839782e-01 -7.012861337558361219e-02
-8.146530913794046425e-02 -7.454336496036666204e-02 -8.463838621932997519e-01
-4.638730717131864072e-03 3.055827379572389479e-01 -4.470350837192340610e-01
-1.631811004760533035e-01 -2.593554840066581990e-01 -7.220072715284276965e-01
-1.058701769108913587e-01 5.312870726233639429e-01 8.444615326652497034e-01
-2.555624026758508971e-01 -1.201847362196013236e-01 2.894621302366522930e-01
1.914634500845685539e-01 7.864249680449036939e-01 -6.521291095589363263e-01
-1.847469606029935874e-01 -2.195280774053887662e-01 -4.675261277941205607e-01
-3.388141924592834031e-01 -3.783598392564516133e-01 2.413337825669975290e-01
-3.000162308422831825e-01 -3.784746218581845345e-01 -3.752512081855902126e-02
3.072171499877422995e-01 1.747755098608100854e-01 -5.251212916596074143e-01
3.179970720657955829e-01 2.471224337910758462e-01 -4.215301891149159097e-01
7.350628192110900128e-02 7.759132753889254330e-02 9.098096858636807172e-01
2.363496576288012518e-01 3.520485808444571152e-01 4.271989026670148237e-01
2.520517348366643762e-01 1.517162890820674126e-01 -1.867178883002808265e-01
2.442805914572180603e-01 3.166108333863970614e-01 2.815990575537476448e-01
2.298085419100187946e-02 -5.978175593693946244e-01 -4.170972435278137991e-01
3.379642686113607658e-02 -3.071330833124745197e-01 2.324568817722016123e-01
-4.051208158344211940e-02 -6.138999258846279394e-01 -1.447607846459701220e-03
2.600795364210760630e-01 1.327542863226867931e-01 -2.917955818778212307e-01
4.552935511616935244e-02 -4.763788760267625988e-01 -2.751915197641351396e-01
4.262749207494234138e-01 5.393153790742911680e-01 -4.679874327978035820e-01
2.323239701463081230e-01 -5.094566850851222489e-02 -5.520744033034244991e-01
-8.469564370720000790e-02 -4.530947300991998161e-01 7.180823461766296933e-01
1.395779972436372862e-01 -4.033163769123426778e-01 -7.676847791123060372e-01
3.462349237718327366e-01 2.555515244222593130e-01 -6.031924921876586909e-01
8.823537216676670403e-02 -3.712138515164155050e-01 -3.187301071679253806e-01
-1.351763445459938651e-01 -7.327610043557595265e-01 3.808907140841740757e-01
-7.532079134763793038e-02 -6.000405285257042198e-01 2.831533728743441114e-01
2.492376439658967602e-01 -1.172834813857291103e-01 -8.394741253590501939e-01
2.334022336750252447e-01 4.020185435097402560e-01 5.733723456583603717e-01
-9.318430544250076719e-02 -6.021738472948625631e-01 4.060775402288779867e-01
2.332951207371931068e-01 3.675186503453136688e-01 4.878324175187582212e-01
1.855522413846995636e-02 -4.207488230278004782e-01 5.765510698177143262e-02
8.960710213819397807e-02 -4.250330431412761012e-01 -4.632196560788436890e-01
3.240208969659506139e-02 -3.265646402720861485e-01 1.938560314574391819e-01
1.741128825085243859e-01 1.182541697812260206e-01 2.891750750283838545e-01
-1.804516450189509735e-01 -7.403531686686791735e-01 6.869767004333843241e-01
1.948871443818731009e-01 -1.339666900842245156e-01 -4.909708813327046117e-01
2.477879709378251749e-01 4.435941631807584495e-01 5.740923460584650417e-01
3.644611136307939203e-01 2.347083438437281566e-01 -7.862014170798825585e-01
6.333075286984853058e-02 -3.329223642646457759e-01 -4.411890449624738392e-02
3.211711814837791001e-01 3.170317935958260613e-01 -2.694269822540633630e-01
1.974734477258815180e-01 4.274571197752954355e-01 8.949833831790917626e-01
1.769977060442753380e-01 6.313019669441952142e-02 1.305572259608800967e-01
3.557257731385034261e-02 -3.127084072002245807e-01 2.057561238939744352e-01
1.146386812491557300e-01 -4.204481563961801061e-01 -6.314778390680070297e-01
-1.842226822788189389e-01 -7.677407841599472871e-01 6.455368876469651518e-01
2.908029276991742629e-01 4.374902196070615257e-01 2.499719661421932748e-01
1.649595671919818485e-01 8.507892710574245509e-02 2.719013381658771378e-01
1.594833757117513628e-01 -1.162012501592233661e-02 6.930696509013845041e-02
3.171519400117032150e-01 3.280138064104355378e-01 -2.130946816482722217e-01
-9.203545921841772837e-02 -5.359785455067619386e-01 5.634307353366710958e-01
4.320406403174421039e-01 5.554091458001508830e-01 -4.691235869801299585e-01
5.630138908221087729e-02 -5.197743178638711825e-01 -4.610985462368884513e-01
4.191646012896488860e-01 5.011406977602648194e-01 -5.124371914196501621e-01
4.463558924147842943e-01 5.054263311341017362e-01 -6.969508870098277686e-01
1.394825668584471212e-01 -1.506690232725760581e-01 -1.349471369791252207e-01
3.812404723690024366e-01 3.110709159310387495e-01 -7.156406190995400207e-01
-1.344002653636583444e-01 -6.823892593830162001e-01 5.013343216928517476e-01
1.718692934570344444e-01 -2.319641918597286356e-01 -5.708634160909138444e-01
2.178647185714746026e-01 1.097235356035554665e-01 -4.630703927354581223e-02
4.064130747149986567e-01 5.507129826362984204e-01 -2.968645665672223766e-01
1.503957307404352184e-01 2.433308402950740412e-01 7.723722476952156191e-01
2.401357374752469964e-01 2.154169495461341621e-01 5.820079772716917066e-02
1.444347701205234424e-01 6.618692906902751485e-03 2.229852585075876303e-01
6.904558885874380325e-02 -2.990016319529640310e-01 -2.916697836604096651e-04
-1.262245985138458516e-02 -4.347961189538125382e-01 2.463704209692135494e-01
1.342922345691398844e-01 2.423574197964138144e-01 8.855611165990565636e-01
3.105123762064097015e-01 4.549002985350953931e-01 1.520120229286776314e-01
1.169441066794676140e-03 -3.642426586214718709e-01 3.238485900041221388e-01
4.772657193801542186e-01 6.540443415992228671e-01 -5.470849848826803141e-01
9.932214152220839032e-02 9.455745973612579569e-02 7.668947060270220328e-01
1.594750041417117015e-01 -2.916834314242754966e-01 -6.312723566538157582e-01
2.529104085657408185e-01 -7.987757728103681010e-02 -7.722657753294339678e-01
1.874816046512994827e-01 -1.640657977305142734e-01 -5.130981318127788571e-01
6.864345219050753399e-02 -1.465687892716386331e-01 3.839396908991833945e-01
2.257356711121179249e-01 1.634096706394861098e-01 3.148661089697040588e-02
3.691498553851733644e-01 4.265097195569346189e-01 -3.400339065774128922e-01
4.958478350000457557e-01 6.558762109323207357e-01 -6.759228968627858380e-01
4.236400095923696374e-01 4.968673725206493308e-01 -5.552615530838101998e-01
3.425943866733037191e-01 4.144143736401562639e-01 -1.796231538758989721e-01
1.248699033462005031e-01 -2.901831488882003485e-01 -3.790523215396757184e-01
3.807858827822753756e-01 3.806072192928173781e-01 -5.384164123341319552e-01
7.013398677420770722e-02 -1.924746636565891345e-01 2.583940061806516697e-01
1.413387854827462820e-01 -4.097982531186674104e-01 -7.965431736553983955e-01
2.725892399069744232e-01 2.612649130701797384e-01 -6.011866682423512576e-02
-7.001190630871140241e-02 -5.222264529596265525e-01 4.397041296707417390e-01
1.027358766042721222e-01 -1.827205585866693294e-01 4.871245362400977025e-02
3.998787630658358072e-01 4.718026532228813963e-01 -4.473592030063965330e-01
3.596580719047107189e-01 4.408390199071823834e-01 -2.360344482412523315e-01
2.430082360248804821e-02 -1.284524477649952867e-01 7.476444689455873371e-01
1.378673054851554391e-01 -9.276273444641988664e-02 2.151574722954409380e-02
2.051771656350953876e-01 2.456530396221888179e-01 3.848476652152579836e-01
1.218662836796616661e-01 -1.928081656513644659e-01 -1.138813940233393968e-01
5.054602484364003473e-02 -4.241215967095519623e-01 -1.804785376652028872e-01
-1.148178040379597420e-01 -5.383766275040519078e-01 7.210100467522039258e-01
2.008464871743783908e-01 2.833909982064430899e-01 5.103519351518284175e-01
1.666392720993215698e-02 -6.365858696506551118e-01 -4.687287012290979882e-01
1.800003544661283039e-01 -2.455927703857134770e-01 -6.633397949873345301e-01
-2.032218738402403590e-03 -4.145227318158483665e-01 2.210501373334482211e-01
1.303307651875617590e-01 2.459072438602947774e-01 9.228853692588386837e-01
-8.046607421674037419e-02 -4.593616252964330959e-01 6.720357723419830842e-01
2.835933071678649053e-01 1.629805990817572159e-01 -3.850081890883201852e-01
2.965548405656637798e-01 5.154781243413049108e-01 4.037766274681364176e-01
3.704522192376925593e-01 4.579928777599167056e-01 -2.706229738079778402e-01
-1.863458141940627089e-02 -4.843986246550334163e-01 1.654463393715930875e-01
1.407075707673028364e-01 -2.772881741003031530e-01 -4.605081560674069707e-01
1.432240696496500931e-01 2.508717829447644210e-01 8.427305276121881406e-01
3.126535019003653937e-01 2.394687335820403218e-01 -4.023104268076549972e-01
1.674434957739521501e-01 -1.674359910025786102e-01 -3.776545515030720335e-01
-8.514474608339994699e-02 -4.549960456291150535e-01 7.165503734591291973e-01
2.432722072082702802e-01 4.852227094246741590e-01 7.106586929961842269e-01
2.549151012744196310e-01 4.864877686351105068e-01 6.302268192723551321e-01
-1.058590468561470405e-02 -2.006480596233021219e-01 8.175202571989883538e-01
9.035019369659479105e-02 9.770642443214770656e-02 8.391916648372655940e-01
2.868513831660157720e-01 4.806336316556636956e-01 3.862769516962297200e-01
1.456987872532037043e-01 1.529062724933450967e-01 5.798798168299914568e-01
1.357050961475888828e-01 -3.424090867661907511e-01 -5.875042437115757243e-01
3.215985423073047245e-01 2.032485955669941224e-01 -5.571489400835188954e-01
3.505450732355825383e-01 2.798293796351212226e-01 -5.734032816039271729e-01
4.188406013360393976e-01 5.836085828691800481e-01 -3.037994547145134172e-01
3.250328119605069288e-01 4.428625228015630189e-01 1.763928061688625412e-02
3.097845001480132865e-01 2.271565891109939561e-01 -4.125123319584247383e-01
4.153004888898741420e-01 6.045191445093617277e-01 -2.260689001162429490e-01
-1.343214903042119490e-01 -7.441753847351944007e-01 3.461972465927091736e-01
6.864116299290826118e-02 8.495127448515304644e-03 7.718823275870223544e-01
3.843294132726197132e-01 4.137131197253465786e-01 -4.810375502754947741e-01
-1.138316409049955902e-01 -7.318475654354402726e-01 2.299195963250347530e-01
1.174920199194660758e-01 -2.360318819475849816e-01 -1.906074627530505161e-01
2.228734797746767804e-01 -1.907716363516739067e-01 -8.340244497108459942e-01
-4.679120472440949363e-03 -4.308159851938224150e-01 1.992939283660261074e-01
2.323171105821892624e-01 2.547304421022336673e-01 2.126902936276210965e-01
-7.033616167793797780e-02 -4.855377782728962921e-01 5.338170230275928185e-01
1.732126364889561773e-03 -2.717458887053809669e-01 5.512093142810243762e-01
5.788260227593772927e-02 -4.193610669380818945e-01 -2.212461113964013237e-01
2.709188550925412664e-01 8.800845859508053121e-03 -6.797191162943131415e-01
3.707188121081622656e-01 2.920507927351756461e-01 -6.876774371670549835e-01
8.254335185127863184e-02 -2.488708419084343926e-01 2.820666465429967629e-02
1.360551051937995415e-01 6.253872479353599079e-02 4.230479212530488531e-01
6.295805604583634696e-02 -2.272108540157384282e-01 2.230174754041763241e-01
-5.015600442094937661e-02 -4.956701315657381923e-01 3.635739620917020631e-01
4.612949902303621341e-01 5.898510066185378431e-01 -5.930077928388615138e-01
1.358221251816496833e-01 -2.219043250434323267e-01 -2.868755812786040194e-01
2.656327840068192780e-01 1.540453814148174394e-01 -2.784039239541232780e-01
-5.452097785110471967e-02 -5.937712981854335048e-01 1.494932799449727179e-01
3.705771237776044752e-02 -5.634082888775453490e-01 -4.320876575006863396e-01
4.686603442027000022e-02 -2.001064324441260700e-01 4.063668008115368657e-01
1.804309440187962799e-01 2.073762862440270971e-01 4.667694127930019365e-01
7.169926808211952995e-02 -4.890349049193426501e-01 -4.947549197482186689e-01
3.877730876863610399e-01 4.483361227075182143e-01 -4.191463526083352709e-01
-5.618250506779355613e-02 -6.046525265771721669e-01 1.342013819840714162e-01
1.327256896976142519e-01 3.755452058141754007e-02 3.844498944430095322e-01
2.666948921993684274e-01 1.363179066240120807e-01 -3.303790698245511748e-01
1.470413027988657084e-01 -2.394818949199903069e-01 -4.114040902363542140e-01
3.742297170452236754e-01 4.419375196352056112e-01 -3.379116196006912709e-01
2.312761763181648555e-01 -1.479322414298191385e-03 -4.208003280704430971e-01
-6.335992027721941422e-02 -5.843901259965859074e-01 2.364264778158694513e-01
-1.066679523511768340e-01 -5.092732027223598745e-01 7.353021738277487618e-01
1.017612606330762504e-01 2.433993672830753532e-02 5.737172357831695768e-01
3.121224868152567833e-01 1.975904308782962804e-01 -5.032654118289306977e-01
1.388402827733946632e-01 -6.989179691119275228e-02 7.174634784440873936e-02
-1.090337922435578033e-01 -6.927870579142804131e-01 2.931891248636465108e-01
6.217014215678694916e-02 3.478098929809346485e-02 8.841044701990040666e-01
1.896186563539680181e-01 -2.444904060724537864e-01 -7.296419891622472065e-01
1.214097807250441724e-01 7.200130302360562007e-02 5.518749541250317359e-01
1.125484718526289368e-01 7.896221161927408083e-02 6.329139273269824839e-01
6.512043938632335049e-02 -2.536304058460831512e-01 1.413971602638838532e-01
4.189628319419870517e-02 -5.738171819054066480e-01 -4.928690090526509082e-01
-1.000496356146322596e-01 -5.522714477873024164e-01 5.802127667663127264e-01
2.723252822344036650e-01 1.022188670328870730e-01 -4.561117994248769514e-01
1.131256905786721390e-01 1.076758837088005599e-01 7.006029732732936832e-01
1.778793453659052726e-01 1.040927681552266670e-01 2.267038060240200437e-01
1.558662454062585967e-01 -1.173150052544380123e-01 -1.691406071317370086e-01
1.792229538150650059e-01 3.134291014211144644e-01 7.407570992140165567e-01
2.208210917240383542e-01 4.442110866825605547e-02 -2.309022407514035036e-01
2.075806049031096723e-01 -1.787277472521354386e-03 -2.514350852543600356e-01
4.459424407949494351e-02 -1.606734618669052317e-01 5.213285695740150771e-01
-4.998898482482204246e-03 -3.888344404052428427e-01 3.066159427042218777e-01
1.199199007191806277e-01 3.523934496354673429e-02 4.706043299547790770e-01
-3.302236988689433161e-02 -3.508093694718812938e-01 6.029541967384389745e-01
1.874657318716537457e-01 -7.702573405151046061e-04 -1.044647626154864561e-01
5.012206755225108445e-02 -1.768840640784870855e-01 4.410841009613040153e-01
4.340062973685091322e-03 -3.348095670053563566e-01 3.747166264901999888e-01
3.129077139910831917e-01 4.570957359635864359e-01 1.403057158242880520e-01
1.059701929877699261e-01 -6.890124982964848654e-02 3.102336828506663258e-01
3.318752944814233885e-01 3.079867721307327777e-01 -3.689112651630179762e-01
7.953612014029486088e-02 -2.393794743603670783e-01 7.354349878125478190e-02
3.826272458107976004e-01 3.150444479871504222e-01 -7.156570807832365322e-01
2.814152305962467904e-01 -2.412114541723424724e-02 -8.374452776972008960e-01
1.216107395944869551e-01 -8.571440054312372270e-02 1.558718339477153381e-01
6.793203479584641880e-02 -2.791499812297982830e-01 5.736694988029900077e-02
-1.762765808776346477e-01 -7.793975765951794976e-01 5.593213829699660300e-01
-5.892429801354655272e-02 -3.538401867028418413e-01 7.813493829305790950e-01
1.995999188819634063e-01 6.228077032124746705e-03 -1.740811118962151682e-01
1.402443530544495720e-01 -1.533207617696030756e-01 -1.470507107750896325e-01
4.342118405448995300e-01 6.340646406359241594e-01 -2.879390665563119067e-01
1.984110531126294097e-01 -1.509728005325686184e-01 -5.588172562174027469e-01
2.416046938728642901e-01 -2.845596815739099769e-02 -5.624476808160771002e-01
1.028313616141698639e-01 -4.885533560213751736e-01 -7.170805657128028754e-01
1.634015934128164593e-01 2.587792619999984556e-01 7.176369496147706473e-01
4.459272514744654775e-02 -2.931130586142787209e-01 1.900129452448668654e-01
5.705106542120513130e-02 8.822909838405924854e-03 8.559199598248302676e-01
3.681073341826189282e-01 5.069049474187015125e-01 -1.314223471873494087e-01
3.147422125941734539e-01 3.993005602314275149e-01 -1.745333153949020846e-02
4.285933955315367472e-01 5.044586219081838019e-01 -5.718360030059681520e-01
1.308512240193688558e-01 -2.264625495198133349e-04 3.033913056263643493e-01
-2.615146582426097766e-02 -3.943525993886644598e-01 4.446877987033667212e-01
2.253000180563246579e-01 6.221064546258348038e-02 -2.185568017930370477e-01
1.174549693219238411e-01 1.009596635725128894e-01 6.527163965610445207e-01
4.737411083604478046e-01 6.213605124415955139e-01 -6.035437865748137787e-01
3.884538472927244745e-01 3.061160067714728261e-01 -7.798288802289460309e-01
4.524182125030242613e-02 -4.966981748367621519e-01 -3.239601656239052829e-01
4.118737599747822331e-02 -2.538591502561433066e-01 3.126657727612422444e-01
1.228467128755349061e-03 -3.260602751209253358e-01 4.189463374293587727e-01
-5.049558461686939892e-02 -3.733076264425142510e-01 6.721286570740631072e-01
-1.452129674592557984e-01 -6.859644746343062094e-01 5.700260069517329997e-01
1.363224144205951727e-01 1.729020395201436300e-01 6.972265216109084784e-01
2.201743796920145949e-02 -3.912067426341029885e-01 1.067021547204750204e-01
1.110365950822577441e-01 -1.151441835835300548e-01 1.581698220543414357e-01
1.734941887298097341e-01 2.532170787744202345e-01 6.312564805542959512e-01
2.603480912687176074e-01 2.404340719413183836e-01 -2.433935837424627477e-02
-3.309314104506618642e-02 -3.533135350314932643e-01 5.971976218123542512e-01
-1.892014325303124078e-01 -7.685833605917007372e-01 6.791767318704884371e-01
1.969979050051547387e-01 1.803662416784972966e-01 2.802460982363286779e-01
4.340495144828524499e-01 4.859619115032056680e-01 -6.572848268890669754e-01
1.779771463789460995e-01 -4.684875201902906350e-02 -1.516115375027215495e-01
1.367085464068665268e-01 -1.395590541414570666e-02 2.269881756836133468e-01
-7.207864776368218436e-03 -5.032363430586890285e-01 3.627515112712152712e-02
2.496460037743919447e-01 2.929600911018013787e-01 1.839075782720555052e-01
6.202458143307421068e-02 -1.277558022675535088e-01 4.785283791135789833e-01
-4.765745537302043533e-02 -5.988342369302269708e-01 8.754672132008328722e-02
1.550022969568556341e-01 -2.037135618413157268e-01 -3.790822330730494460e-01
2.870608407808563634e-01 3.258249014298167934e-01 -2.514762303803082764e-03
1.823119622566926612e-01 6.706005156934828626e-02 1.022319285327964872e-01
1.839208331510595318e-01 -2.563030480105172315e-01 -7.182831678791036234e-01
2.481052221005711211e-01 -1.271968991170965568e-01 -8.561438428690344438e-01
4.333238458371678758e-01 5.746017393733345857e-01 -4.303226236415731987e-01
6.556626829075508367e-02 -5.341463144934340823e-01 -5.635756320036131584e-01
-2.041656544519714067e-02 -2.430425304994638935e-01 7.820459926191278832e-01
2.780976414883221115e-01 5.028048370119855282e-01 5.045954598520745460e-01
1.762540216969822882e-01 -1.932615211415111139e-02 -7.038561125252179584e-02
2.458559385751822590e-01 -8.784391615743869508e-02 -7.415437808917491047e-01
2.042083845682097221e-01 -2.506973730263976075e-01 -8.499252159998813561e-01
1.526328424764481217e-01 -3.578461929587428147e-01 -7.476657903333255861e-01
1.480760862389494670e-01 -2.867761877725528152e-01 -5.371508852725525029e-01
1.198122765281866980e-01 -3.724758563753527429e-01 -5.486114021471857338e-01
2.374397771289099013e-01 2.604928564250696965e-01 1.903251688353645721e-01
4.469750886956810193e-02 -5.955477525565131547e-01 -5.673457425581622804e-01
3.724021877181681733e-02 -2.332629221284020782e-01 3.925325600777852530e-01
2.730731530059679057e-01 2.708824993020709782e-01 -3.953270350559420082e-02
2.658980890378965789e-01 1.631687407475634066e-01 -2.574847576247555891e-01
9.081994180616563550e-02 -1.670855040104766431e-01 1.733840963779725020e-01
2.089643030218164277e-01 2.476330442182809455e-01 3.626091991950042281e-01
2.597315570625550740e-01 2.860771506916772733e-01 9.427350931692138336e-02
1.518238760244882413e-01 -5.949068368551951869e-02 4.544002827178027573e-03
3.176191996411993901e-01 2.385973614540187748e-01 -4.401443692591891499e-01
4.347340651869493477e-01 6.362763566650091462e-01 -2.861555816701185084e-01
3.411573467451850528e-01 5.230141646062076433e-01 1.023809389644297352e-01
-2.413465326910753384e-02 -4.084854351547442808e-01 3.948505901636411575e-01
2.504405217065466260e-01 2.393023494819793706e-01 4.396634968221317663e-02
8.244010890787401707e-03 -3.951970166304829002e-01 1.956136674226394145e-01
1.517283105322422276e-01 5.987792808665128030e-02 3.038567801848220951e-01
2.537511253792461563e-01 -1.101310757126561929e-01 -8.539878969845580148e-01
3.892995099346003851e-01 3.810807280084596571e-01 -5.983601933959372676e-01
2.406718679931339408e-02 -1.719666407190891533e-01 6.404617534024539260e-01
-7.521760253036936794e-02 -6.432028059935919195e-01 1.744326219942616274e-01
2.486766399815153183e-01 4.225797875974638962e-01 5.151396048828088547e-01
-4.582179208611979887e-02 -6.572474110642018141e-01 -7.176674630472347494e-02
2.895655817887575201e-01 4.395804646886166123e-01 2.640853897095486458e-01
3.258014323166561477e-01 2.064589999291157052e-01 -5.792944221850951925e-01
3.088205062024355074e-01 1.157467873115562845e-01 -6.843067088080204696e-01
1.298190299109305001e-01 -1.352266293315431411e-01 -2.692983185748792224e-02
4.616221040117655661e-01 5.643592424575604172e-01 -6.591296965505093475e-01
3.997929463725750643e-01 5.542654105697408795e-01 -2.404444649687996205e-01
1.606126228885899621e-01 -3.087785356445200136e-01 -6.822076600729547469e-01
1.964942602345874090e-01 1.394275198722966791e-01 1.814451591692799737e-01
1.184199299682864442e-01 -3.423344904617819373e-01 -4.632090689441137332e-01
2.848279328616754591e-01 3.657988661434742328e-01 1.135212430798380190e-01
1.748062961438275886e-01 4.570151128576436378e-02 1.026900268138298961e-01
2.360657027178745260e-01 2.571418724876621265e-01 1.918078905660292044e-01
3.025265833189427767e-01 3.211256059988533140e-01 -1.253160567735557840e-01
3.899580606810051919e-01 3.683357729849321971e-01 -6.349729123324068247e-01
-4.593295333073618009e-02 -3.960650068489423026e-01 5.824361344896840098e-01
2.087888628647787959e-01 1.148471378363810080e-01 3.167597088857029841e-02
5.460397781959492464e-02 -2.929815222919400775e-01 1.184606023673084735e-01
1.510263681586559437e-01 1.633041600419147740e-02 1.999531723633009850e-01
3.546036240827789010e-01 5.226106371863415978e-01 4.826329181993565913e-03
3.979628212288179867e-01 3.887448925661867172e-01 -6.413897222529287845e-01
2.275574568479121762e-01 1.078206093660987325e-01 -1.206620809255592452e-01
7.819640256737238337e-02 -1.090638605852293497e-01 4.091756771245153024e-01
6.850476208260317767e-06 -4.184206511548139162e-01 1.966579998256793582e-01
9.798690436837223516e-02 -5.316952963402473697e-01 -7.902260358697810183e-01
1.647327077937928985e-01 2.319191750643631034e-01 6.408831020828471559e-01
4.109397923743885461e-01 4.678455551217987063e-01 -5.366776172293750147e-01
3.030077568682792988e-02 -3.175154930370211459e-01 2.315820102533049096e-01
1.155293599988935355e-01 -7.708800644124155776e-02 2.211173191951248951e-01
3.489405045494317070e-01 3.647060120613855316e-01 -3.495449760174922371e-01
2.632690612217550852e-01 1.744910385679160070e-01 -2.102829793951741799e-01
1.655692058304940317e-01 3.632409855362507822e-01 9.634071389999241397e-01
3.197415068330867749e-01 1.021099772439804931e-01 -7.968356187067480167e-01
-9.855189618434977150e-02 -4.833756755486776635e-01 7.418167028864686152e-01
1.954279224275176086e-01 -2.589001952391011829e-01 -8.074021064436767148e-01
-9.340137089998008790e-02 -4.986821380961601324e-01 6.665431609841173666e-01
1.400462417368778245e-01 4.282650231043837880e-02 3.450768926153972571e-01
1.728495361428568911e-01 -1.714692005739394676e-01 -4.265602069144505681e-01
3.449276438326727146e-01 5.651934765044850373e-01 1.808307201967258859e-01
2.050111629150344617e-02 -6.341883971649172613e-01 -4.902821545386855662e-01
3.256183088793873637e-01 3.242434379803382782e-01 -2.833161293988454843e-01
1.896238354860430297e-01 -3.214626268892548100e-02 -1.984539983132533603e-01
2.378224884318138332e-01 3.044258385066906381e-01 2.974852126269506569e-01
1.163074832370783046e-01 1.666807084220236351e-02 4.500816177946876939e-01
-3.000371129608950249e-02 -4.675122829267572833e-01 2.893222568327159516e-01
1.493692726492892031e-01 -8.955459125614023339e-03 1.485930896535896106e-01
3.185143287073299856e-01 2.275868914782395724e-01 -4.741165425161911195e-01
1.732698336364111025e-01 -7.801804993014127554e-02 -1.957895379493876375e-01
9.524446798786330437e-02 -2.620956781494268584e-01 -9.607294165706721512e-02
1.023411120814418235e-01 -1.218271536468362309e-01 2.038850177245729589e-01
1.028288529741925583e-01 -3.296464809760439874e-01 -3.195223551892209524e-01
2.093370178765828205e-01 -2.058769568423777785e-01 -7.746210740667150985e-01
-1.146964262004880886e-01 -5.062192385078552181e-01 8.005872670642713018e-01
7.966775352601847271e-02 -5.269374503416549560e-01 -6.467906173379194268e-01
2.110036357589612221e-01 3.510320879098596247e-01 6.066419192190151133e-01
3.324188735607023215e-01 1.711973222428436192e-01 -7.150228328630956476e-01
1.794619405484034202e-01 1.872309834057851452e-01 4.233290494539568294e-01
3.091085047582926015e-01 3.582303263506388946e-01 -7.974910853674156697e-02
2.769615263646404979e-01 7.135569054057189220e-02 -5.666112831722509569e-01
2.491113615177820706e-01 3.226733514916706458e-01 2.620805425285047674e-01
3.045476036934139374e-01 5.416835900023678763e-01 4.119467834010403506e-01
1.337296883636426015e-01 8.403550637725890407e-03 3.043136144725200887e-01
-1.238469114060963827e-01 -6.325615243327502579e-01 5.502155358711339206e-01
-5.980716575704361077e-02 -4.252486970199279015e-01 6.090444680795783494e-01
1.682872409076006104e-01 -1.994256727654228623e-01 -4.637418578691878679e-01
1.911751796482048793e-01 -1.669604252285333268e-01 -5.468597692424069789e-01
-6.164033544922090102e-02 -6.498147495864015077e-01 6.040579096832929956e-02
3.257784630950440879e-03 -4.864082137002285755e-01 3.230380007362281067e-03
-1.324185149789968916e-02 -5.676381330067664654e-01 -8.151557392267043400e-02
6.567584060379716426e-02 1.663336969962259798e-02 8.135331122205542442e-01
4.485043503603769119e-03 -3.469227450368555510e-01 3.433719011895668416e-01
3.254709540968878101e-01 2.227996639724731665e-01 -5.360418339847670133e-01
2.330390915015289333e-01 4.392657289949770116e-01 6.691616852090288559e-01
2.806121462309001391e-01 4.111882947662945931e-01 2.573424033552844659e-01
8.674766288198891562e-02 2.823394126992482514e-04 6.213304651004322166e-01
2.061119260878276072e-01 2.226107195339118994e-01 3.204906395067487757e-01
4.785957200563190628e-01 6.305057842806413015e-01 -6.155213053330181872e-01
1.264063070920788956e-01 -5.073431159030873383e-01 -9.333568051550358291e-01
-1.055952453649668943e-01 -5.275167213722351534e-01 6.819599317279213535e-01
-1.148942456949126195e-01 -7.320961947467193864e-01 2.369271636077693310e-01
3.801257076204783703e-02 -2.322616667645311661e-01 3.894918839256009679e-01
-6.078719112975618233e-02 -6.115984107862548758e-01 1.498866670689831260e-01
3.686495222116158987e-01 3.668365502882717233e-01 -4.857269285783145651e-01
1.198054348216211207e-02 -3.951959526693466507e-01 1.687877954282497039e-01
2.498612520522621172e-01 -1.034063708258859023e-02 -5.764108253322072217e-01
-1.368953136378623925e-01 -6.969530422292589122e-01 4.828144432024795707e-01
1.831493239309856524e-01 -1.526982527666119194e-01 -4.535536974206351712e-01
2.536488573061409513e-01 1.553044600872600656e-01 -1.892087336335281922e-01
8.067085191729980731e-02 -4.461493824434596966e-01 -4.518839573829067646e-01
-6.005160920673488500e-02 -5.906443899044707679e-01 1.970261959995099899e-01
3.046037710369950968e-01 9.484964768867154561e-02 -7.063090425670286443e-01
1.205211460034027043e-01 -5.080789421494703584e-01 -8.929418165290151643e-01
1.394541605535780937e-01 -3.448826340046570738e-01 -6.206108744220248941e-01
7.728595187421975765e-02 -2.782695682093835332e-01 -7.592204665072644493e-03
7.890725370924796256e-02 -1.246861606461256988e-01 3.649891321032747160e-01
2.962457250855638630e-02 -5.875410478852235441e-01 -4.390906151780539779e-01
3.054780158899370046e-01 4.631728882037896566e-01 2.088547264436950435e-01
-5.424867467053357678e-02 -3.359161421604782705e-01 7.926190257209231316e-01
1.486438320935611346e-01 -4.392256093273716466e-01 -9.226128057622420275e-01
6.995102102679003758e-03 -6.382403964178205991e-01 -4.034451020127925447e-01
1.512601726366891997e-01 -2.175687878296702626e-01 -3.868754193999127677e-01
3.560861213751720378e-01 2.359377053968851889e-01 -7.229929418031163513e-01
-7.758328905237709544e-03 -4.416754343782164915e-01 1.942355541309462863e-01
2.056130310077033396e-01 -5.361757280992850844e-02 -3.669725693521548315e-01
4.261507267818678835e-01 4.550521820770813686e-01 -6.778984737593245491e-01
2.541626743756227325e-01 -5.093463837694110763e-02 -7.088500480170752960e-01
8.608317855009273156e-02 -2.073312120777817957e-01 1.067109332684960804e-01
2.699268262657475437e-01 4.620137976480480635e-01 4.612147358342733039e-01
1.093686898888653752e-01 -2.718538281907599274e-01 -2.218978633923335830e-01
1.706499149863978382e-01 1.236778100105173361e-01 3.276078134222007998e-01
-9.032714788430046271e-02 -6.644928682159698674e-01 2.296583535087800276e-01
3.198794448646717914e-01 9.439546052612636517e-02 -8.171255680110394159e-01
2.892756484869756228e-01 2.659059623831693808e-01 -1.683175094364340596e-01
-1.214038787249288459e-01 -5.921055408287958510e-01 6.338838753815421168e-01
1.085931143240195795e-01 3.286507555067550226e-03 4.719943623868159688e-01
1.722066640045594454e-01 -1.986057902413418952e-01 -4.898324417551051524e-01
7.932815930043551900e-02 -1.833489305835972194e-01 2.152092933838730682e-01
-4.348989664315747183e-02 -5.979923307645319541e-01 5.972960527658810470e-02
3.507133568538208235e-01 2.811826346740226024e-01 -5.712261057652414653e-01
3.325782085604733762e-01 3.732930911646848982e-01 -2.105802340447960053e-01
9.486514798163167214e-03 -4.682259365619577673e-01 3.994645463679685586e-03
-2.734219235737166478e-02 -3.975909789258637583e-01 4.451357758594999825e-01
5.206690892023001921e-02 -3.645901196643497877e-01 -4.246760788440398504e-02
2.203645050265449490e-01 2.127147315915352555e-01 1.933992747837185722e-01
2.765564366230834903e-01 3.480975801607582576e-01 1.286274678617402856e-01
3.212242072726044506e-03 -1.806457911109941583e-01 7.684887514492170224e-01
6.523859731320673372e-02 -3.529550695505507818e-01 -1.079335253927776322e-01
7.262520444157986865e-02 -5.901018217464012450e-01 -7.542441303052038748e-01
1.759016897931926782e-01 -5.754787526443888579e-02 -1.634758214132403797e-01
1.673178878006859605e-01 9.563238101275067793e-02 2.813702173874392809e-01
2.404701582750341238e-01 2.023587487121985828e-01 2.313169903517832415e-02
1.930413200290087006e-01 1.050837850838102494e-01 1.203191407394436085e-01
2.948665605477954754e-01 4.846839489467438811e-01 3.388602372230131721e-01
1.570788978870859554e-01 -7.916092796394536002e-02 -8.239678247476883710e-02
7.054404506877733072e-02 -4.202265773463348397e-01 -3.143213120795500526e-01
-1.559348438017194305e-01 -6.408693633075815965e-01 7.598249924529272281e-01
2.850940632346939951e-01 2.001166225345078209e-01 -3.028798495578754468e-01
8.559474989419099678e-02 -5.509395769716507463e-01 -7.493933691925958041e-01
1.630624030418249826e-01 -2.145844296911078863e-01 -4.641501366634297465e-01
3.204875162687140233e-01 2.244701324553946831e-01 -4.960814028368998874e-01
1.921182610824215264e-01 -9.435798009379056661e-02 -3.720003041030656710e-01
2.385848875972783334e-01 -9.183181565152421719e-03 -4.925502079177396242e-01
3.644876878027037553e-02 -4.557572976714309443e-02 8.677556574615439278e-01
2.703645322001056450e-01 6.644894534166501110e-02 -5.315197525473012163e-01
1.653218396171256821e-01 -2.977566941440452641e-01 -6.884465858238153491e-01
-4.641050765012752488e-02 -6.636849643172524349e-01 -8.364467556333167464e-02
2.672723590376466229e-01 3.870753901216763548e-01 2.927992066191873466e-01
9.625833368985274585e-02 -5.570744428401687154e-01 -8.413062611413538727e-01
2.297648958826031818e-01 4.779354333055452209e-01 7.894113084958099824e-01
3.780711005710468697e-01 3.955516487837968387e-01 -4.815373600784064734e-01
7.518927938200187233e-02 -3.871385732899254584e-01 -2.648975228883374555e-01
4.510753426984541736e-01 5.903138489057089267e-01 -5.184721943574723824e-01
6.373382156663288944e-02 -5.858886514485720509e-01 -6.798632904257461140e-01
3.743972646252999859e-01 5.381533978958992215e-01 -9.840962172217099235e-02
-8.418055427232715160e-02 -6.430450990299229064e-01 2.391817048951671576e-01
1.346742922903227391e-01 -7.302470570365006408e-02 9.382076114454167282e-02
-1.431463440407159393e-01 -7.564037640749929903e-01 3.789682815904817925e-01
6.852731387159310614e-03 -2.466368810968161407e-01 5.772587130830364455e-01
2.851573966099664181e-01 3.498538486312654516e-01 7.126573491738348587e-02
3.649415299688434089e-02 -4.583388091332691316e-01 -1.651870520130733488e-01
2.528333707664930929e-01 2.521122421766123015e-02 -5.088100871269918279e-01
2.887423303284847309e-01 2.922535660201883156e-01 -9.857397655078249665e-02
-2.513570887608009702e-02 -4.838632957790259814e-01 2.134640761091156080e-01
-1.960753140088093704e-02 -5.078895595257604256e-01 1.136644841643259657e-01
1.841653344875224529e-01 3.737444272907320397e-01 8.561624418418314342e-01
3.903075953735640063e-02 -1.756237052818843680e-01 5.238734367501967082e-01
4.195908118473033049e-02 -1.708416214546643885e-01 5.148113327412956464e-01
8.993202310470430061e-02 -4.000414741499699334e-01 -4.030307492306988149e-01
2.429098866036378812e-01 1.581527364769307331e-01 -1.049766792969018536e-01
5.007289486500463016e-02 -3.072998233040427629e-01 1.151737043925267628e-01
3.644041675724263851e-01 4.494498822643273050e-01 -2.485697570953510904e-01
9.831844744372246481e-02 -1.301830686498391676e-01 2.118638537062073612e-01
-1.468876989679353817e-01 -7.265435092055347877e-01 4.805333787116417010e-01
8.029446455563156448e-02 -3.129569842497069154e-01 -1.159716456613955338e-01
4.304263301977174772e-01 5.416540583332173364e-01 -4.919440917354990783e-01
5.900850093072588370e-02 -2.119996673478744542e-01 2.894296242683094267e-01
2.605411031981464953e-01 2.786001441321127592e-01 6.975555598711739858e-02
1.741737379661649765e-01 1.645890238889267942e-01 4.046548701893935007e-01
1.407808966660305250e-01 -2.919858224842927785e-01 -4.978040128537643549e-01
1.733778980370983547e-01 1.913216041106173271e-01 4.772464283999642287e-01
-1.421823712496679271e-01 -6.748251371943122523e-01 5.761336214404576550e-01
1.294544090303337280e-01 2.512532063558379769e-01 9.425517512408642107e-01
1.886912771233290320e-01 1.844618385675052541e-01 3.501342257952821946e-01
4.834496263696711621e-02 -4.877963892861155726e-01 -3.239711539267671747e-01
4.736766172608737890e-01 6.510693994049012723e-01 -5.287574776106042096e-01
3.233473658813586504e-01 4.684796534783532418e-01 9.382772541162802404e-02
1.825818145550288651e-01 -2.965094539986687892e-03 -7.488879987198603094e-02
1.322916661585885889e-01 1.932052305127577030e-01 7.769604014158441041e-01
8.520854897344357082e-02 4.642147227283452589e-03 6.432884075125544499e-01
3.401305455125284705e-01 3.735760088138396773e-01 -2.640986974814102384e-01
1.571924367767719710e-01 4.224043173251697258e-02 2.204999747481064809e-01
1.431998746027233760e-01 -6.988038413900739265e-02 4.047276202376141885e-02
-7.284774798768728354e-02 -6.346859260255416357e-01 1.787237530677181219e-01
3.494932161015736893e-01 3.052478931290292241e-01 -5.022609285802519530e-01
2.776663846993763785e-01 5.035284161148830817e-01 5.095021010158373720e-01
2.129395701504764593e-01 3.011338747141470984e-01 4.679105304137375354e-01
8.877721478354923257e-02 -4.068336748430083638e-01 -4.117313255937583572e-01
-1.499524723969141403e-02 -6.576000688063622368e-01 -2.939854837346977945e-01
1.937324575961466844e-01 -9.596586015663864655e-02 -3.876127968943484103e-01
2.657558633198389142e-01 3.288912857562773027e-04 -6.638429596662946963e-01
2.321013787548281970e-01 1.044164595458298012e-01 -1.618039426406285008e-01
1.052004225670939014e-01 -9.431661501784453436e-03 4.645368246279300561e-01
-1.446668708417673810e-01 -6.848479310452257884e-01 5.688982769203573264e-01
2.438306627455192888e-01 4.060175283171748029e-01 5.084999162942125395e-01
8.729726731054160416e-02 8.303127014836070297e-02 8.243987655517858171e-01
5.176791156155687024e-02 -3.296146418791111032e-01 4.717799578392531390e-02
-1.079373554607969132e-01 -6.621294253480204395e-01 3.620133942640852975e-01
3.092683991537636956e-02 -4.537765982756303274e-01 -1.138000365413839865e-01
1.944298992841266838e-01 2.191616784265863205e-01 3.957397817492222525e-01
2.849990531653342485e-01 3.887130349120149764e-01 1.696173784984435773e-01
2.668036071978697188e-01 2.378690687422988781e-01 -7.710727443926543301e-02
1.378285526524610227e-01 1.781799412990995035e-01 6.996161786818368977e-01
-5.091274340033279111e-02 -5.656110826619826781e-01 1.940348543593493069e-01
2.308858169546858519e-01 3.569908166794763527e-01 4.787936952394145074e-01
4.234667516101635054e-01 4.669916478560685036e-01 -6.287581899137146824e-01
3.254192077412233486e-01 4.130152607339735993e-01 -5.980449924509734921e-02
4.995848975769776601e-01 6.549388684961148233e-01 -7.051002024130388346e-01
1.754696511185299401e-01 -2.709352780540406208e-02 -8.418556628204230952e-02
2.834485252376269249e-01 3.353932779289957034e-01 4.735926562213533392e-02
2.733229937680146104e-01 5.256776236957678289e-02 -5.874884945521853252e-01
2.750148670168782727e-01 4.556609757224075463e-01 4.087893211220189338e-01
-1.483967746258187392e-01 -6.223871053751519611e-01 7.519385906985692758e-01
3.547694957552791767e-02 -4.141480350673703570e-01 -4.733061157418162052e-02
-7.949216724073615570e-02 -6.243814063399022452e-01 2.522100947420199968e-01
2.337958805696206954e-01 -1.360624938964040964e-01 -7.755811094756968060e-01
3.113798059397282752e-03 -2.005021546908475893e-01 7.195205622465906670e-01
1.450235156532582448e-01 1.734601152703517044e-02 2.455947560586194400e-01
1.525928865072536944e-01 -3.641304585552555539e-01 -7.631003647220641062e-01
4.549625790228246924e-02 -8.948232567369374113e-02 6.929522056282789721e-01
9.061863573178802200e-02 -2.935037834901147932e-02 5.194039370169329928e-01
3.912349497876501103e-01 4.790083705978209205e-01 -3.672694189993942482e-01
2.823883058638183008e-01 5.189708439542772139e-02 -6.542558399252511592e-01
1.314726683194196999e-01 1.349503471182371683e-01 6.371035626835100940e-01
2.643508912847477577e-01 3.123959789508929941e-01 1.269486934460395955e-01
1.014673271318180525e-01 4.155416481451227467e-02 6.188928415958785401e-01
4.870841948896119655e-01 6.706132556646293708e-01 -5.761314912067680982e-01
2.268017646956370370e-01 2.837448608012965723e-01 3.248767112814790470e-01
-2.537016398059016228e-02 -4.108135026966815428e-01 3.978974644278382988e-01
1.025582790938362049e-01 -4.220023896330238888e-01 -5.486280622491261916e-01
1.360269641866226065e-01 2.126527856216190934e-02 3.199954497934147102e-01
2.671189554421553591e-01 9.981344009714067378e-02 -4.247477529703137522e-01
-1.396489146172816276e-01 -6.646611810711422486e-01 5.833705996066189670e-01
1.306807401272189750e-01 2.483130080820766805e-01 9.263910714651611977e-01
2.628050565680617456e-01 2.008417917892823257e-01 -1.410292423632816539e-01
-1.032349879307155847e-02 -3.497358465593496946e-01 4.426605584284671879e-01
2.571115444246028781e-01 -4.534016143536860610e-02 -7.160273122910296717e-01
9.991734091999382450e-02 -1.989207141749495256e-01 2.842149139257018828e-02
1.624319192824420222e-01 -2.237404593492642313e-02 2.123296285535529113e-02
1.314380238576558502e-01 -4.196014885775158354e-01 -7.499800276391144216e-01
2.066336683758221993e-01 -6.001722801863164369e-02 -3.903109413834064401e-01
3.127350914798731063e-01 1.474440687075341816e-01 -6.331160106089606110e-01
3.394751715243281565e-01 5.261373682699955756e-01 1.222724354635467831e-01
1.684869973136536581e-01 -8.035807825880453281e-02 -1.673025702255330205e-01
2.117175770962372028e-01 1.046189097457513040e-01 -1.494052023140480905e-02
3.310721178171558976e-01 4.903367825940378455e-01 9.304390613590929338e-02
3.039574381925030377e-01 1.453991890111688556e-01 -5.752076328186899179e-01
1.346828943427700875e-01 2.636407233214139723e-01 9.360009801014246289e-01
7.518398307081035348e-02 -2.444531537602669113e-01 9.209919514709338784e-02
-1.615280039533816686e-02 -2.447024234387655817e-01 7.472793132928945425e-01
1.094114075094022032e-01 -1.555791634932292555e-01 6.868184945673876107e-02
4.654895734634864057e-01 5.866853426048075359e-01 -6.310447571510032772e-01
3.532952783330964852e-01 3.494419168195742054e-01 -4.189989821690703886e-01
4.546434868938938750e-02 -8.541884520984531493e-02 7.033469981803813775e-01
2.587123714067347535e-01 4.429086142587260744e-01 4.939394289523865722e-01
3.743727643496933682e-02 -3.548143875303444994e-01 8.703017835676633840e-02
6.535158211559849439e-02 -2.871668171389421542e-01 5.583889563234023523e-02
4.706456078095116319e-02 -5.244098356920117165e-01 -4.063743098049098501e-01
2.454491811636284049e-01 8.061992134669174193e-02 -3.171742138030314018e-01
-2.108930614042429236e-02 -5.883144867217541263e-01 -7.689677453038390453e-02
1.192299406581416032e-01 -4.265506695299003392e-01 -6.797101311779081279e-01
1.335957882017514975e-01 -4.560953429128826175e-01 -8.567702425677742317e-01
2.414936589134300537e-01 2.484860211253387963e-01 1.311803317425609683e-01
3.991021439941914717e-01 4.020229486457813639e-01 -6.163521771258840820e-01
3.017955680306364519e-01 3.476806555295053891e-01 -5.363407520406553858e-02
1.585078131608692320e-01 4.310738157806429972e-03 1.161660922127179529e-01
1.202544748324724383e-01 -3.598086868150449091e-01 -5.200967263656042228e-01
-1.184089320137188955e-01 -6.339688272474891528e-01 5.076498344007510655e-01
1.068906731414017292e-01 -3.312706110657306913e-01 -3.527495892760415530e-01
-1.406251420476271538e-02 -4.431335336162728900e-01 2.358522389683715137e-01
2.463977003533681376e-01 2.769038146488407050e-03 -5.187455999844217125e-01
2.811731638897467522e-03 -3.248446386702396604e-01 4.106195805654387354e-01
4.381867220823222331e-01 4.800952607817014495e-01 -7.016669378368005638e-01
7.620007157532943110e-02 3.049725244467755073e-02 7.726520125965272712e-01
7.368185548462270751e-02 6.678074625905384976e-02 8.815040305127653797e-01
4.638642877007757570e-01 5.592916740926745511e-01 -6.879063405577215962e-01
1.149683572883796051e-01 -4.015240682631440738e-01 -5.865022003446308529e-01
5.378741400294612118e-02 -3.696919836162560480e-01 -6.758436531528069779e-02
1.898789979866601085e-01 -1.447993976108601366e-01 -4.821124623200077064e-01
-7.228265492767468881e-02 -5.090053478472164050e-01 4.890837217230034062e-01
-1.102087263494438557e-01 -5.941005721523083816e-01 5.485109871743981680e-01
2.370621653134125650e-01 2.699820691437381237e-01 2.167757796701383077e-01
3.111916755271015300e-01 3.726147836090999421e-01 -5.872054629636830336e-02
1.727217862969533946e-01 2.909651802807050047e-01 7.312374845819694658e-01
1.436845416080282933e-01 1.433719786257893480e-01 5.704901092882722624e-01
1.332063062428877898e-01 -2.163969837474296887e-01 -2.543160253255799530e-01
6.951900037510266861e-02 -2.575658477751586670e-02 6.798912743300973283e-01
-9.672977467194532331e-02 -7.164115206790859780e-01 1.457437772241868268e-01
-2.020772433811996241e-02 -3.859222137509167316e-01 4.231018173752554290e-01
-1.283493029115378714e-01 -5.690598584474302335e-01 7.414062477395221284e-01
1.603232423220249669e-01 7.180185132268784853e-02 2.719749355682511416e-01
8.398108263702269705e-02 -1.114983717163992444e-01 3.615508581353327200e-01
2.548861418062503548e-01 -6.823967750007314814e-02 -7.573369174607239573e-01
1.682686839797687683e-01 -1.612200856005879535e-01 -3.680290107816113210e-01
4.397153138218211632e-01 5.231877958874764367e-01 -6.048369474013846059e-01
1.807801185637500363e-01 -1.745305264635059472e-01 -4.911608505120584889e-01
2.407578001132738843e-01 2.455703164824468016e-02 -4.237433528024625029e-01
3.432799233383966309e-01 1.678150080752660867e-01 -8.014674344158612129e-01
3.109724904514931110e-01 2.176379789740494897e-01 -4.448550542104156569e-01
7.818979143082567529e-02 -1.086118603876193855e-01 4.103539225465066553e-01
2.285344746892936929e-01 2.856266343318115686e-01 3.171434138177204320e-01
2.017665803302781113e-01 1.435581744184281361e-01 1.539233098003408851e-01
1.675455628253058049e-01 -2.876337144456467820e-01 -6.790882140913570009e-01
-5.666061875934670644e-02 -3.717399014436471028e-01 7.203159871731743547e-01
3.521247257828314381e-01 2.763582895595597111e-01 -5.934289727208819087e-01
3.939164535428728020e-01 5.290201631995017362e-01 -2.614073763136191553e-01
3.591658673923088796e-01 4.134763386343687230e-01 -3.009541033500625629e-01
9.087770043746375148e-02 -3.478238882164919055e-01 -2.791870931110490006e-01
1.059818881565795651e-01 5.585643761244293848e-02 6.222582699698059328e-01
2.012509336389171205e-02 -5.654261338774778656e-01 -3.155584912450631885e-01
1.479258350578606107e-01 -3.489982067161648827e-01 -6.917340207529630858e-01
-6.112305011125846593e-02 -3.324723956830538674e-01 8.505927467553184851e-01
3.112407732630924004e-02 -2.772508658077464938e-01 3.264013987755519652e-01
1.678746365593202297e-02 -2.164770025065484438e-01 5.813782374138174447e-01
4.437700028332538515e-01 6.313685216917416243e-01 -3.633121888556199997e-01
3.693442747709675400e-01 3.534217147638426537e-01 -5.242754309010728697e-01
-5.714534246467196932e-02 -5.344783737723169947e-01 3.166705587410401090e-01
2.540892310506853713e-01 -5.856127260498082687e-02 -7.274024089745042554e-01
1.983804944788527813e-01 -1.383302705005618437e-02 -2.155127959944332094e-01
4.572108327686248419e-01 5.966213213977925589e-01 -5.467458724527709535e-01
8.480346109110584174e-02 1.811955627441374020e-02 6.799136409574891848e-01
3.068073552372141410e-01 4.325206797523350466e-01 1.226268049007023797e-01
2.331226418836489511e-01 3.553061741812884589e-01 4.585186541775940205e-01
2.423290304919472893e-01 3.230380149624753616e-01 3.116903814552513530e-01
1.877190132258052813e-01 2.656678252275134211e-01 5.602696233395170200e-01
4.357553956807541651e-02 -4.997581834944951340e-01 -3.196514396107447142e-01
3.818829831644128814e-01 4.510206709618611032e-01 -3.701390571848265920e-01
2.503037876730524469e-01 1.741113709414379984e-01 -1.181413395765898572e-01
2.960617714824846924e-01 4.501002536050986436e-01 2.437598941930733676e-01
-1.560718263228498895e-02 -3.583189635490908742e-01 4.591251944909924831e-01
-1.808819989507333137e-01 -7.202834993504487748e-01 7.402753222088849228e-01
1.016431289733390510e-02 -1.199626264745001503e-01 8.703846241147658036e-01
2.455357059647063633e-01 3.192155000764805295e-01 2.791033999118667230e-01
1.087963886389485130e-01 -1.769322580068813655e-01 1.967830068661141629e-02
6.187331463517697916e-02 -3.665721310831324131e-01 -1.178366375590908094e-01
1.831018371295626765e-02 -1.840412413274849501e-01 6.515901431519073306e-01
1.882455148455277061e-01 2.050764815417516207e-01 4.049068508771432318e-01
-4.270739326870413161e-02 -5.755174028275144016e-01 1.103371159409042568e-01
1.653824964719343149e-01 -2.677251512992343332e-02 -1.095609256302817504e-02
1.947392089960893469e-01 1.657174766016196107e-02 -1.133039685198275193e-01
-6.655896942244524106e-02 -4.703324469026782806e-01 5.447360024325675898e-01
1.296599321904680080e-01 -3.101651449281824791e-01 -4.634343433931085721e-01
4.044575455960882082e-01 4.344155910900501794e-01 -5.737670314275811201e-01
2.260605941708598299e-01 3.960455040288070605e-01 6.111429079449852697e-01
2.198367444011231631e-01 3.138346067495086933e-01 4.501620459033769395e-01
3.766355090776077330e-01 5.532068837616795909e-01 -7.682077711701397471e-02
-1.252121726349945396e-01 -6.210276398259458874e-01 5.888727225425800516e-01
1.173624721210544258e-01 -1.097243850360810763e-01 1.263084438853896430e-01
1.301558417558646430e-01 3.500909782538098869e-02 3.965336305911140724e-01
-1.534052759543972633e-01 -7.492374646291686258e-01 4.705561041516235776e-01
1.618266388610921924e-01 1.308256487656802025e-01 4.088413557166771795e-01
1.717243126557093102e-01 -9.113553363486530390e-02 -2.175088481083084502e-01
2.144992700665252772e-01 5.880609570003346442e-02 -1.495239908142013963e-01
