-2.370263421819294447e-01 7.171956344027174968e-01 3.894994410693731340e-03
7.709545559503521162e-01 8.561769243092157144e-02 1.028382526035788169e-01
-6.487519706616369231e-01 -7.488541558741484971e-01 -8.380277535833002833e-02
-6.726826642193509675e-01 2.138889964814467692e-01 -3.410442939289898105e-03
-4.401504843644629683e-01 -5.919766900762735151e-01 2.021436318819433420e-02
1.585119550090323681e-01 8.108117764587475795e-01 2.706055379497516733e-01
-7.622694137745250620e-01 5.936635425653754572e-01 4.700770340694410132e-02
-1.455830230150952365e-01 9.014298971346957901e-01 1.097765809134478888e-02
7.512568999130593284e-01 -1.673793464957006316e-01 5.498849991482534366e-02
8.771701709019116278e-01 4.611078583538033571e-01 -2.152027952375246481e-02
-6.688560707513406811e-01 4.292147625279240097e-01 2.478868193272497078e-01
-2.655273663663400563e-01 7.793188083276870737e-01 -1.452361056104676737e-02
-2.290534144506963660e-02 -7.547727183673393903e-01 -1.409175862134908613e-02
-6.097382835802012124e-01 -4.783513973919641393e-01 7.924680682519294472e-02
8.426156607886764460e-01 -2.461577005059819856e-01 -2.294708735484016215e-01
-6.704599030436606544e-01 2.865822437227988906e-01 1.943566798244162064e-01
-7.681204840367508169e-01 -2.379753374326182280e-01 1.411429257893400957e-01
5.790212705960888773e-01 -7.631320033051592899e-01 -4.144522337029047515e-02
2.452962708064533037e-01 9.169728954363328688e-01 2.116045737593354459e-01
-9.275018214665164962e-02 -9.816134564854064326e-01 -1.072421610528544317e-01
9.028738926328711001e-01 -3.065489053100358685e-01 -1.938878635363526781e-01
-6.295198589912186504e-01 5.737673959262008516e-01 -3.337232314650751680e-02
-7.521950418417471251e-01 -3.601201770377315814e-01 -1.786160535183992926e-01
6.506291046769282493e-01 -4.126546514410473487e-01 1.881947444027838937e-02
-5.248919351531973199e-01 -8.265427452999739577e-01 -1.545659906707269327e-01
9.896861390921827262e-01 -4.956473815356159801e-02 -1.033279086395545027e-01
-2.314528923938701521e-01 7.621266009500080596e-01 -1.120148393809942272e-02
-6.094693435473604870e-01 -3.780117927634348840e-01 4.300054091953412622e-02
6.410827612378298124e-01 4.359448997085218491e-01 1.735169147814542567e-01
4.851219204754175229e-01 6.905426534115650661e-01 -6.672070201130810008e-02
-6.940500966997429355e-01 -4.720875681925041922e-01 1.039858087439909512e-01
1.831818492520867481e-01 -9.017285687609120082e-01 -1.904487982807525487e-02
-8.441196396409049729e-01 -5.191725311571500079e-01 -3.376555438415743127e-02
4.764251259726043908e-01 5.037712935392830715e-01 7.408626895073888718e-02
-9.224044884857965920e-01 -2.116655382574468905e-03 -9.012339739151392637e-02
2.745744943107251285e-02 7.077670074847103310e-01 2.157010570861045140e-01
-8.334305261474905802e-01 1.448928823898447960e-01 2.091073276837426553e-01
-7.457740458639013081e-02 -6.884536353374317574e-01 -1.030613853754049902e-01
3.215435130197686897e-01 -9.076385195102684156e-01 -2.305498746747517147e-01
5.599591222065503082e-01 4.430279466092874041e-01 -2.291108440933129278e-02
-6.861429229421098785e-01 1.020304656579307523e-01 1.019301349870140871e-01
-4.603194833697134558e-01 5.009717585753704627e-01 1.448453257151114115e-01
-1.684574597612729929e-01 -7.000589273861417272e-01 -3.569916663778070764e-02
7.351526034139780341e-01 2.514658764400845015e-01 -1.305506851914936262e-01
-5.634756516514478619e-01 4.084927526546038856e-01 1.736951285381753418e-01
4.690371296555752023e-01 -5.400433465820242418e-01 -5.453049516132120467e-02
7.646086186292460063e-01 -5.394842396823475994e-01 4.639385375719244121e-03
-7.090929326566713931e-01 -4.183918953915182204e-01 -1.896505677571437010e-01
7.734098725407828612e-01 -5.864472300298158025e-01 -2.005992688276880265e-01
9.357326376786395672e-01 -3.462682454322366099e-01 -7.842675439561257178e-02
-7.631190861176132545e-01 -6.312840012609627349e-01 -4.456624976099096691e-02
6.512673314225336796e-01 -6.172910369022486243e-01 1.347793937646309115e-02
-9.376323024378750981e-01 -1.267971164507992465e-01 -8.936045955108694316e-02
1.662200818770750987e-01 -6.777829031677372607e-01 -1.949260230801142246e-01
-9.351568741970145426e-01 -2.847505102826984880e-01 -6.701578935455015928e-02
-5.983405341054546245e-01 3.391431944186455438e-01 1.393430891298503838e-01
-6.275763070385445008e-01 3.417088309567415938e-01 1.891618080439581018e-01
7.164638222640056231e-01 4.754221028565108198e-01 1.893010439290954694e-01
6.982442768305655578e-01 -2.141251928479351030e-01 -1.755705657375872530e-01
-4.947466548552402754e-01 -4.946121092441772005e-01 -1.215378216662325733e-01
-1.907587798825237033e-02 -6.951924728501065465e-01 -1.821453757828455366e-01
-6.370700538607128038e-01 -2.893442555218035395e-01 -7.413793472185294109e-02
4.288504157530512173e-01 7.592101963666831876e-01 2.413668496123917429e-01
-1.275054067359036869e-02 -8.649322244547167360e-01 8.477942173035553364e-03
-1.025436249658846222e-01 7.028084289421947517e-01 4.204781969193493313e-02
3.835785565234609562e-01 6.144212547619032350e-01 1.872670717750787861e-01
8.738402514924822340e-01 2.960914616828653201e-01 -1.306105635696279132e-01
-9.736273596095988969e-01 9.805138267122559537e-02 9.765679202755350730e-02
-3.175878346779263395e-01 -7.099942167453252573e-01 -2.490653742595757558e-01
7.059449751090954850e-01 6.425093329639418593e-01 -4.450572341295371687e-02
6.962664354537499989e-01 9.134648932237245111e-02 -4.379523735624349379e-03
-4.238548954815109515e-01 5.388316111288875554e-01 7.825078574140899301e-02
-8.832348149716171548e-01 2.969133962259143389e-01 -3.827221457900027712e-02
1.356898750093484818e-01 6.759632405940031452e-01 1.644430901304669568e-01
-9.091245215398219282e-01 -3.919246225256629579e-01 -5.456573402265312359e-03
-6.842362994334608706e-01 -2.040869630231006149e-01 -8.625858895165179618e-02
4.366167416118126310e-01 8.370446879821271668e-01 2.037121115790324899e-01
8.147359644218941099e-01 -3.047411681529129113e-01 5.981457469488549172e-02
8.190017650551074668e-01 5.613074477977733068e-01 7.238970235341607440e-02
-8.006868398658065766e-01 -5.841890323358597259e-01 -4.724971747618073731e-02
7.329131456343210838e-01 9.446756122212379703e-02 -1.279385996306836859e-01
7.750060452998451810e-01 -5.335594016997069478e-01 1.702073226947584551e-03
7.324720586183351978e-01 2.905714003898440256e-01 1.481086870247963483e-01
8.753639170018781002e-01 -4.711677861704511305e-01 -1.320082815316246938e-01
-4.729726749987054890e-01 6.736152787590673485e-01 -2.197582448328644009e-02
-5.899267420495312164e-01 3.618307193313135550e-01 1.561974703114829832e-01
5.905792231800707226e-01 7.445956437537027961e-01 1.812270430444929969e-01
-2.748679597267778552e-01 7.283456999339518179e-01 -6.737348842042027025e-03
-6.785143222561774712e-01 -5.132215528643460090e-01 9.689136411943226335e-02
6.075606716331665158e-01 3.743880951107164679e-01 -3.473710189296924655e-02
7.761304426200950346e-02 -9.826286471251242105e-01 -1.130372469344298331e-01
5.022139750589283969e-01 8.432436387032906655e-01 4.547617285496203393e-02
6.262845724733528963e-01 6.673217369257230525e-01 2.003376030678431508e-01
3.122429430252824933e-01 6.358104171342514599e-01 2.372393441903719591e-02
-7.970420656977763585e-01 -2.551781415616004578e-01 1.441950613051437013e-01
8.936000628356374209e-01 -3.102780900442546619e-01 2.783222708291592865e-02
9.641194924767686469e-01 -1.650583543937286235e-01 -1.447420570172700260e-01
4.614537417062918867e-01 6.164649393778048880e-01 -5.201778327973924365e-02
-5.743548668428507531e-01 -6.986582701735604140e-01 5.302230415811797631e-02
-3.075730416437674197e-01 -9.328754826161044234e-01 -1.659818764508327604e-01
-4.959224578840091269e-01 -5.046752201652411340e-01 -1.417880340057052213e-01
1.222808411595232153e-01 -8.761126254437296978e-01 -2.866660089424627467e-01
3.023468654865705818e-01 -6.307450301807664417e-01 -1.947023188038906061e-01
-5.932875887792870007e-01 6.331933608708986139e-01 2.653614331746364519e-01
3.039581155098227683e-01 8.280954521374163102e-01 -3.390134360305182420e-02
-7.934723877100587908e-01 5.529001519665016628e-01 4.329623199491235142e-02
-1.572364071340005831e-01 -8.833307220335472332e-01 7.647348718381494041e-03
-5.375802202222287329e-01 4.379256975428706400e-01 4.859096667887918136e-02
-6.342359660911930375e-01 -3.452926858220920492e-01 5.800418539390681666e-02
6.754199127445537076e-01 6.154507544549513431e-01 1.922993821637635214e-01
-6.913986198795138982e-01 2.936666066101835115e-01 2.116714380185822919e-01
9.143650117210446737e-01 -3.728115352958924489e-01 -1.479944085599594061e-01
-8.514506673804744796e-01 1.407602843195131237e-01 -9.203112108613688280e-02
-7.541390741437880019e-01 6.200306739981130688e-01 8.130237331763594255e-02
8.752067068098300373e-01 -3.640560109234786124e-01 1.873647753148985351e-02
4.706097613501432075e-01 8.677092318919026326e-01 1.118636569790776303e-01
4.640866430358793759e-01 -5.315986708692308493e-01 -1.934726700457746196e-01
1.000029885564141241e-01 9.678569258269686948e-01 7.702256629355445916e-02
-7.312770923319587002e-01 4.623479710764334949e-01 2.475560382117193425e-01
6.718800872411817560e-01 -7.256120787149988871e-01 -1.658978815387039119e-01
8.724968144539212433e-01 3.732984942751374491e-01 -1.000096312535700693e-01
1.217259290311179382e-01 -8.069986400636168788e-01 3.880140126499703312e-03
6.908682018568602645e-01 -2.167354240814090838e-01 1.918196499215979315e-04
2.136764895628291347e-02 9.162596966826583866e-01 6.669156559070738358e-03
-6.458075952431568956e-01 -5.734424375575506438e-01 8.511739134320016331e-02
4.853956333705885529e-01 4.982301258066763605e-01 9.141542193808481487e-02
-3.447545549703011636e-01 5.854944097327162700e-01 1.063959397068109797e-01
3.152626131424475786e-01 -9.302327806291599277e-01 -9.957665385575817374e-02
-5.075622206216346965e-01 4.875491742859097144e-01 3.431959754633771842e-02
8.942425899200752148e-01 1.882699762564181700e-01 -1.525489623438645859e-01
9.354232233176050793e-01 1.801265268560762467e-01 -1.284420491101230799e-01
-6.210432684512203760e-01 4.096148542892412148e-01 2.257500835781129644e-01
4.277941895855812832e-02 9.265224880222444614e-01 1.399090609769410368e-02
7.066670560719345850e-01 -1.884235243772459656e-01 1.516179023810159711e-02
-2.551143042999655108e-01 6.889229484810096560e-01 2.527623327657103069e-01
-9.551537505532080308e-02 -9.666464003247617898e-01 -6.519861536976520600e-02
7.247105498134964914e-03 9.704092244446436144e-01 7.774905754094807442e-02
7.816430713705040390e-01 4.600945433782945848e-01 -1.083951641085730971e-01
4.238680210581868835e-01 -5.651924171609034042e-01 -2.007958250924807841e-01
-7.499443943513192101e-01 6.287802195241610770e-01 1.249640870027458606e-01
4.970293006399342794e-01 4.856175491375096520e-01 8.009429224126274338e-02
-6.808783875413223496e-01 6.696696666823384048e-01 3.706999309721538405e-02
2.083779198322744108e-01 8.370398254786274306e-01 2.645718851151139805e-01
5.361745595236275808e-01 -4.558643282667176888e-01 -1.747579232757474899e-01
2.438509013836988870e-01 7.786995637976849016e-01 2.622173297128099212e-01
3.576665964676184473e-01 -7.956950243292975067e-01 1.976118014874066620e-03
5.422118289136205194e-01 -5.328845242044404351e-01 -2.531289916759273950e-01
-4.157625157389411852e-01 -6.375969223578199507e-01 -2.244525188942507465e-01
3.779259700903385144e-01 -8.536083112215395730e-01 -2.615909064491122593e-01
-9.145108047394940876e-01 2.668215372382067296e-01 1.642896651274053932e-01
-7.316245916085137857e-01 -4.951603911567986627e-01 -1.929213018294638760e-01
-3.642309108447412958e-01 -5.875623739743185414e-01 -8.487765494038308767e-02
-2.230574179463069573e-01 9.495615589003347790e-01 1.101634833785754830e-01
-9.280055956422270658e-01 1.090218709845672540e-01 -6.389010965436349443e-02
-4.034406387008871442e-01 5.866721011956191889e-01 3.281204270888159885e-02
2.259224321086750198e-01 6.832579370948026476e-01 2.082689314620725096e-01
-6.419138061543754326e-01 4.523159525299467743e-01 -3.820105360619209522e-02
-4.908295551490826636e-01 -7.404642612128334855e-01 4.765300853914315043e-02
1.264459053489788432e-01 8.511956945296308419e-01 -2.414783526904292280e-02
-9.557760639436175820e-01 1.921581532839783113e-01 1.166997472706897271e-01
-8.851813169650524227e-01 -2.963015709079258042e-01 -1.287023305926441041e-01
9.473664621256905338e-01 2.369670463998669041e-01 7.143477509879034293e-02
-1.916714730559638744e-02 7.225251382877790896e-01 2.363291831731079151e-01
-9.718807731364682567e-01 3.076748490045421933e-02 1.057644887487463603e-01
-7.348857937939604623e-01 5.259051308438196237e-01 2.370921340601820082e-01
3.075724226645331072e-01 6.156380086258529394e-01 1.125084773265508098e-01
-7.796996569830433321e-01 -2.115468756142376006e-01 -1.496365613592413879e-01
-1.196458151835131517e-01 9.589928996950762841e-01 1.922622977572838454e-01
-6.460885230251638411e-01 -7.503594571643648070e-01 -6.739913617845355587e-02
7.581482684416264162e-01 -4.562996120370658715e-01 3.670477656908720243e-02
4.208558139066186365e-01 6.244828438944685089e-01 2.097271408191244968e-01
-7.263412105349289494e-01 8.954582985992627642e-02 -5.651440003540349200e-02
-7.667374594712229596e-01 2.266729910756458966e-01 2.192461012518841512e-01
-6.353739255395363106e-01 2.783705541656246174e-01 1.424696883415507709e-01
4.740590432714202884e-01 -5.516815437847115700e-01 -2.293330290520312065e-01
7.881736290696803593e-01 2.618473539337013989e-01 1.518224807953010014e-01
6.528942098645529324e-01 7.188223412193276429e-01 1.475959936536934969e-01
7.438438115289128794e-01 -2.929664533076392630e-01 -2.347085780862323556e-01
5.127569801530607041e-01 -4.684576705775461147e-01 -1.340234396528736938e-01
-7.193016081039225185e-01 -3.006399707867444815e-01 1.188944743905448048e-01
-1.816062138183986707e-01 9.605831189859951325e-01 1.267799725613880935e-01
5.485513270326870527e-01 -4.471985912934374752e-01 -1.824749906278711475e-01
2.556561501319581931e-01 6.402337883313898859e-01 7.576525241002106392e-02
2.834271625788745488e-02 -9.419476223565134143e-01 -3.262243327369934026e-02
-7.811191445988590054e-01 3.577592707714917220e-01 -6.079160215643756443e-02
-7.125749672796687362e-01 -1.366083299038493848e-01 -8.888110611797027383e-02
-7.053748259716399183e-01 -7.034704171817471319e-02 9.759806552343294750e-02
-1.920547713181678384e-01 9.497145306586374236e-01 1.854826165855320563e-01
1.070956566482561129e-01 6.767255008491953605e-01 1.523788857235851835e-01
1.189873286832076188e-01 9.740764247285986777e-01 1.253674119656722208e-01
-8.632080427411796819e-01 -4.852962189638442836e-01 -1.986979502990633348e-02
6.534561371724157963e-01 -3.332328046395697796e-01 -2.006551399043138562e-01
7.072698303096200401e-02 7.624452699180291892e-01 2.612404246108802619e-01
-8.305153197850104752e-01 5.213572992362617287e-01 9.383641866012262800e-02
-7.090963305183448084e-02 8.845568720420633468e-01 -5.290453253611111795e-03
-5.364911557940302833e-01 -5.599827373490028348e-01 6.134350327933483366e-02
7.828151342997465845e-01 2.822559147964123771e-01 -1.461724607822426358e-01
2.136652705224349469e-01 -6.558440866172253747e-01 -1.455765644829306593e-01
-4.040376623283268298e-01 -6.678635031133475231e-01 3.860170981877118074e-02
8.814313348352939004e-01 -4.231278423761898888e-01 -1.737053352206733015e-01
-7.568839152622027777e-01 3.533940937817567907e-01 -6.236444029263588790e-02
4.407374019364170836e-01 -7.142533298785375129e-01 -2.907015768158401903e-01
6.581708461107496078e-01 -6.264481131295633887e-01 -2.625356842051517203e-01
2.522470460325634822e-01 7.314017862887138843e-01 -2.644548929991680578e-02
5.787880323187641896e-01 7.679097410455071326e-01 1.698471782067078883e-01
2.499446006732888512e-02 -6.885600132737526025e-01 -1.403257210582824210e-01
7.104557554377899375e-01 -1.455187451543313477e-02 -1.017308979461470919e-01
-9.525008687908391725e-01 1.133493821748823675e-02 -6.047340675217759837e-02
3.622782155883997879e-01 -9.196723473343927369e-01 -1.258823107481172043e-01
5.293878800327681544e-01 8.356975139200533143e-01 8.761144475835362655e-02
-8.762958351263097079e-01 1.052350546521176695e-03 -1.109508246510518686e-01
-7.658450414180900667e-01 -3.628393132028251977e-01 -1.780696083794014728e-01
-4.769042439500336128e-01 -5.200607249508870655e-01 -1.291691055839823236e-02
-8.403419959979105958e-01 4.068438967333177225e-01 -2.121129455840227787e-02
2.607932712044142010e-01 -6.631707240196551556e-01 -6.612018054067970996e-02
8.723987576493416052e-01 -2.568988493484589686e-01 -2.195983123494827105e-01
6.419677479332192016e-01 -5.954745665993085302e-01 2.075088481031961071e-02
2.800737990394150390e-01 6.530569844494136245e-01 1.868570661955473444e-01
7.925699150278241456e-01 4.683464026323814200e-01 1.632694994261966182e-01
-5.816613223933785742e-02 -7.354245940179847674e-01 -2.469478079919583680e-01
4.238684386681901284e-01 -6.202199883935705094e-01 -2.585810051131785525e-01
2.463358728292357747e-01 7.836981228535674360e-01 -3.696308493261261929e-02
-1.383054947555880654e-01 -6.827436344099050425e-01 -8.292431786343075484e-02
4.752199595526298004e-01 -8.015116098996241112e-01 -2.209833903896411822e-02
1.317117777874451390e-01 -7.710313955639367389e-01 -2.831739789578983646e-01
4.463771889534136061e-01 -6.991409367666887587e-01 9.240549925374900650e-03
6.151649933082117272e-01 5.965824956288037217e-01 2.130240982835105157e-01
4.553323929273533910e-01 -6.892319903728596486e-01 9.541027345306225121e-03
7.714051690092023073e-01 -6.102197500202688474e-02 7.548240481358707565e-02
1.488091835150435471e-01 -6.731090615907381336e-01 -1.466922220075145555e-01
4.682875107365178091e-01 7.360344059759255098e-01 -5.815234204171144256e-02
-5.637678521990208136e-01 -4.715848611223153464e-01 4.596941902763422572e-02
4.371362734014856422e-01 6.029016116046623797e-01 1.991027513110497638e-01
4.935355002755917875e-01 -5.806654726273547951e-01 -2.603727201423458593e-01
-9.639513663704849522e-01 1.029416025044225663e-01 1.196795630135392280e-01
9.759591462496919334e-01 1.714522993058369416e-01 3.252477392308796011e-02
4.180380024501449965e-01 -7.229845890683643805e-01 -2.915535708008452076e-01
-5.223099747467341292e-01 -6.147363342019116494e-01 6.529620703780597557e-02
-6.585551551931055903e-01 3.847980753789523867e-01 2.319203644997642755e-01
-6.631887420998693328e-01 2.124133707189735099e-01 1.557141937430695476e-02
-3.224886638738156397e-01 -6.430793811493851209e-01 -1.972314005244414914e-01
6.811068640643133110e-01 -7.224864720901243986e-01 -1.238772467819013595e-01
4.555546605885543165e-01 -5.330730174821733947e-01 -1.829405104228783718e-01
6.654233819200759958e-01 2.363289007455796065e-01 4.849650923735569080e-02
3.897580380012098944e-01 -5.736847016720925119e-01 -1.165754302329678610e-01
-2.432925255425581745e-01 -9.545555380041347293e-01 -1.600959846113765295e-01
9.417543356987095882e-01 6.708110563027573636e-02 8.391372272737193660e-02
-5.456110230759469992e-01 5.891797888007224149e-01 -2.718587619845419870e-02
-7.509890654677111588e-01 6.101495916024622934e-01 5.244835678284150843e-02
1.699777368159298974e-01 -6.682259089841016131e-01 -1.486533584073720382e-01
6.717646401234510511e-01 -2.991094933524053312e-01 3.294158709678809364e-03
-3.000151894315428169e-01 6.882267271055445557e-01 5.287294073010742092e-03
6.839891855423064770e-01 7.032589610590898044e-01 5.978070584632550095e-03
-6.594849100099009487e-01 -5.680768389343091584e-01 -2.113235162157508507e-01
8.426139207942774378e-01 -3.175532264028860935e-02 1.020664634421998285e-01
-7.127346215394693152e-01 -2.166045452702186347e-01 1.117066275655650837e-01
-7.404528146667070931e-01 4.145029891240660236e-01 -5.389182892749567327e-02
9.987159105486000943e-01 4.480251380202504574e-02 -2.455507228961765695e-02
4.284793406813828809e-01 -6.388466180221497037e-01 -2.706874480128569904e-01
-2.152744678485052909e-01 -6.799169143824158601e-01 -2.026062032918982958e-01
-4.227474022786150698e-01 -6.174713125712936179e-01 2.520752854491228878e-02
-8.073253335763436178e-01 -2.255507528025761377e-01 -1.542512578910862908e-01
-5.374143007358268553e-01 -4.418786988274313043e-01 -9.525227965944710329e-02
7.464138606019005140e-01 -2.778967013551921217e-01 5.222405919728343587e-02
6.907836908598835590e-02 -7.818560748111011982e-01 -2.922186120634495243e-03
2.924390093454838357e-01 6.260851707341780203e-01 6.828142418342124376e-02
7.718659058447950860e-01 -1.691497126732238732e-01 6.632452100255996352e-02
-1.223709034754907610e-01 7.000182731378600254e-01 2.275651793459106675e-01
-6.818944145007900248e-01 5.266391434540163008e-01 -3.805994569481880446e-02
-3.544640192274173818e-01 5.842310505494457962e-01 1.723554706932486913e-01
4.114217207744328975e-01 -7.571035522217023361e-01 5.831217850376006241e-03
-6.072815479899106306e-01 4.300273720411983969e-01 -1.751702525052585210e-02
8.335340210682123940e-01 2.806878827306782398e-01 1.503956126962228690e-01
-3.458848864461827044e-01 -7.805418897020723890e-01 -2.621668291365066850e-01
9.002792296331597610e-01 1.914168302502400887e-01 1.191849190550451770e-01
3.520256033722615752e-01 -7.083278135932805641e-01 -2.124040738724415622e-03
-5.942653931754415808e-01 3.684980068558794120e-01 2.865531232410359688e-02
8.512588775108662631e-01 1.419077987044550238e-01 1.301472127579684779e-01
-5.089029634034000771e-02 -8.098822617076513186e-01 1.049716451812819640e-02
-2.333107051413942368e-01 -7.681383396707245348e-01 2.341236651488206449e-02
7.867297839663570658e-01 5.998407505307054022e-01 3.291371994487250763e-03
8.877381259361499799e-01 2.005104861036602626e-01 -1.521586160817309241e-01
-7.959027626369016284e-01 -6.818010155918402537e-02 -1.224265969019758815e-01
2.406072004560367017e-01 7.588011596488888344e-01 -3.262957936835411688e-02
1.031801641752119331e-01 -7.377877317996034412e-01 -2.606672020046750804e-01
-1.554194685673226384e-01 -6.899373983222752971e-01 -5.663562541935238115e-02
7.434029316869935622e-01 4.022795859714156097e-01 -1.258673647656559647e-01
7.934831241116867273e-02 9.591983129822857501e-01 5.472019954808812064e-02
-7.728561789378809443e-01 -1.787989148465618516e-01 -1.403219754029874089e-01
5.098551333828179599e-01 8.394806917561029591e-01 1.356291750324473411e-01
1.837160933573049881e-01 -7.346207935120114829e-01 -2.006729488822599217e-02
2.597258553954782251e-02 9.796219680803126550e-01 1.262047742563922603e-01
-3.979495041309346615e-01 5.546543772737326794e-01 1.656787404261782226e-01
8.734410713135886128e-01 -4.774727467074417753e-01 -1.238151430577506262e-01
5.302133570562763687e-01 6.495484361023559083e-01 -7.494675794174877892e-02
5.483782289729057791e-01 5.738321483954317292e-01 2.100394910697471196e-01
2.840865107236264717e-02 -7.895955213717822385e-01 -2.828849708325300583e-01
1.509748703336562595e-02 7.136500395931743013e-01 2.239509554497596255e-01
-5.312319305209941556e-01 -5.420444529720882532e-01 5.323739309397118591e-02
-6.799528908258883897e-01 -7.180754544053503663e-01 -5.070547793443635348e-02
6.049993874511895298e-01 -4.443995237240465634e-01 -2.341494311631618086e-01
4.453294601471730063e-01 -6.181768341262088295e-01 -1.110100259758434703e-02
6.228466871694799956e-01 7.348059199510839079e-01 -1.507889901784992964e-02
-6.426352041541963378e-02 -6.914147264426242501e-01 -9.592641896252815381e-02
6.985303939859955902e-01 2.999847607758193146e-01 -1.091853281101118900e-01
-6.322358994616688044e-01 -4.904100531223144488e-01 -2.018667291025589561e-01
-3.057308634186851060e-01 6.303368942574297806e-01 5.315844455875473606e-02
7.014322352539246186e-01 4.506844411963566166e-02 -9.930510543255256783e-03
-6.325354229552069274e-01 -6.011823816559016542e-01 7.907951521253311911e-02
4.028780088213667621e-01 5.612919928483499632e-01 9.106430439773370578e-02
-9.516728079971641385e-01 -2.497488252920667118e-01 -4.334825911604243270e-02
-8.073166832064760934e-01 -5.658278815732129541e-01 -8.977483399704724865e-02
-8.490596871354649799e-01 4.488727112744290704e-01 1.602587560683964296e-02
-7.959497722097075290e-01 -1.620268768580966356e-01 -1.415546656609353859e-01
3.548352414354908890e-01 6.239111300491722023e-01 1.839402129180112422e-01
5.503316026570349573e-01 -4.248900607340778679e-01 -1.178719509186034881e-01
-1.149134390213972096e-01 -8.422228018018534934e-01 1.654443780701426656e-02
-9.203129394417667308e-01 -2.697909186490036193e-01 8.834092535652461609e-02
-7.740637292553691484e-01 -3.671328882157989804e-02 1.668139443333897243e-01
-6.734571516826536319e-01 -4.708578713227181689e-01 1.009757271271740087e-01
4.607844005941467702e-01 -5.731691736214660216e-01 -3.031827782901890672e-02
-1.317025387843283046e-01 -9.225220742274308217e-01 -1.507392069864228745e-02
8.176163748317756552e-02 -8.205776925299981261e-01 6.137585030464933616e-03
-7.849627883247346505e-01 -3.469423993075125279e-01 1.281310043515206110e-01
7.980467901425192245e-01 -1.162366497625804684e-01 -2.088105840325635287e-01
-7.039709072736479722e-01 1.902132447081364974e-01 -3.798589102020195896e-02
-8.626857155917466713e-01 3.608575550886868877e-01 1.945088153111925455e-01
-7.278142495110566379e-02 -6.863264563362270199e-01 -1.527814139307606678e-01
-3.870072275589335753e-01 5.876302704833982204e-01 4.470896178855354036e-02
7.956068450748510212e-01 -4.991151051788814651e-03 -1.865034688039294286e-01
7.643158493696425859e-01 -3.411384581178620312e-01 5.402669184173809758e-02
-6.420119193525364309e-01 3.147068837048076495e-01 1.848056082737422334e-01
-6.513910056847981300e-01 2.280430793526663502e-01 1.210367603195857539e-01
3.029604043279764403e-01 -8.029868768626892139e-01 3.440468808860135900e-03
-1.386151819471992952e-01 -7.341923955217788400e-01 -2.487695683005259062e-01
7.972672208114958137e-01 -3.430483388736521033e-01 5.453504778259267438e-02
7.136863663215639031e-01 -1.412099334938320128e-01 1.752993793572735562e-02
-1.809884147647564390e-01 6.541373679294798515e-01 1.525292984177233635e-01
7.665828763375768240e-01 1.480761956379542388e-01 -1.521045848570353187e-01
-7.311618598225644305e-01 -3.312616655552869105e-01 -1.708214548434803803e-01
-1.758781659442398559e-01 7.167361214373160205e-01 1.530478461925816394e-02
7.495996894951602041e-01 6.046112455492244075e-01 -4.333909289595699876e-02
-9.072693570036796107e-01 -3.732408027656726190e-01 3.462059230660393533e-02
-6.240520164437522999e-01 -3.391370498988282023e-01 -1.076727478505123264e-01
-6.887024269351903483e-01 4.929815803412833652e-01 -4.361797647189533805e-02
-5.692162939842844160e-01 -4.902940010586293584e-01 -1.839683998306203550e-01
6.379356703329521761e-01 -6.647999851152925910e-01 -2.582889959893981402e-01
-2.163518984489914143e-01 8.485629988701512971e-01 2.771744054887023134e-01
-2.841961009754349621e-01 -8.772972534726333205e-01 4.387442504582259734e-03
4.537385258414459305e-02 7.524021589554388267e-01 -1.021646051071575106e-03
1.795707259270390155e-01 -8.266598062793472090e-01 -2.947995969040489994e-01
-1.961104124185942821e-01 -8.870692895596836713e-01 -2.611960709026223126e-01
7.342878536522381427e-01 -4.012560899803336856e-01 4.556135425673128042e-02
-7.885675320438625402e-01 5.456389778386215861e-01 2.718213007431998299e-02
5.748974128398653960e-01 5.420592036899595234e-01 2.020562827785960247e-01
4.001652256424128029e-01 6.466706338855192637e-01 -3.776533038328308556e-02
-2.039900954395289512e-01 -6.611934309605077553e-01 -1.485759404731811228e-01
-6.792143268007517776e-01 -7.205218844108707277e-01 -9.080947991319174295e-02
5.427296870585613942e-01 -6.993364499781127286e-01 7.617589306769999291e-03
6.934778076315233353e-01 4.288615720063002068e-01 -1.143611860875728276e-01
5.721239302949089611e-02 -6.923280143510327500e-01 -1.018287287801792895e-01
-5.911723698910855695e-01 -4.865286059748610836e-01 -1.907350154839400347e-01
2.463840929191042362e-01 -7.271164360457739173e-01 -1.406770280380529280e-02
-2.541864569772374627e-01 9.433553710989243113e-01 1.453543290738938953e-01
-1.062509204969928206e-01 -8.596213947811812695e-01 -2.814856006029793911e-01
3.730689071073442498e-01 7.322218044316510799e-01 2.485809877134688706e-01
-3.853106532189910088e-02 7.347080987262054608e-01 2.490592967387716128e-01
-4.686854011055805458e-01 6.424006737561518410e-01 2.736305701276077751e-01
6.675510906483705931e-01 -2.259285139832517830e-01 -4.411441207409175225e-02
-6.875354349708342472e-01 -6.638839397022337774e-02 4.454177314722684855e-02
-6.159963498237710500e-01 7.351719768106914632e-01 1.961068375667424646e-01
-2.850989524554498056e-02 9.535766774766257781e-01 4.779471531098972853e-02
7.379798366883408844e-01 -1.893744354902487242e-02 5.280766764478201508e-02
-1.589953245487785438e-01 -8.874400454620721135e-01 5.796837055592824611e-03
-5.172092499395084669e-02 -6.913360670905766003e-01 -1.011275017842530044e-01
-4.392526086150163045e-01 5.872112680962322528e-01 1.001407594318755485e-02
8.185725669409069649e-01 -2.618234429192276003e-01 6.669300828826042749e-02
9.178342347309411675e-01 2.122798348882593833e-01 1.074433903819495828e-01
-3.915780411608785899e-03 -9.839903960405966821e-01 -1.763881833455138437e-01
-9.777028344165831358e-03 -6.902154402536450073e-01 -1.587200945096503002e-01
3.176290213733392598e-01 9.234664914408784453e-01 6.128330160601914989e-02
4.023952110511744840e-01 7.371325330636011586e-01 2.466823955516656008e-01
-9.325085684404708086e-01 3.131377647490514726e-01 7.056717995137526400e-02
-3.792499601829563693e-01 -9.044874843557149102e-01 -6.312397600048666457e-02
4.811034851890421127e-01 5.216685881088399812e-01 2.113268596861168794e-04
6.360819820466790953e-01 3.429937284091323368e-01 -5.733237269207802633e-02
5.842091330956997730e-01 6.917652748776890181e-01 2.109989893650768833e-01
-3.628186869584393293e-01 -9.147141585159708210e-01 -7.540618732621245934e-02
-6.291292126081015068e-01 2.800431580193049608e-01 1.284132075438054743e-01
-8.968353113025587797e-01 -3.439009877816663618e-02 1.695688393703197461e-01
7.800715855153966816e-01 1.371298800898590187e-01 1.201635077921707068e-01
-6.665688731054788541e-01 -2.302992393167777041e-01 5.419006227409468857e-02
8.750196847899852637e-01 -4.536342554855632980e-01 -4.523617912456720513e-02
-1.748218430560520009e-01 6.663577180464941296e-01 1.919633990727392381e-01
6.505569935970669793e-01 -3.989352572882037817e-01 -2.353449434459194411e-01
-1.133771913344613358e-01 8.374404364433363224e-01 2.828683866242875933e-01
9.048438920346623116e-01 4.195300061155179949e-01 3.503536697619501900e-02
-6.995862726695987188e-01 5.203599607281330641e-01 -3.700489083429918391e-02
-7.201290855214226294e-01 1.263942737341295641e-01 1.669007210757354476e-01
-5.652992046917308944e-01 -6.966286378134330937e-01 -2.246710533041881563e-01
1.772135680023491019e-02 -8.833771462449170331e-01 2.533039779302896904e-03
-5.006156677786066656e-01 -5.058320530973861029e-01 3.284079751713344861e-03
5.992933835275644494e-01 7.120470681710925343e-01 -4.756746516933126750e-02
-7.776054643831543656e-01 2.592106896214452227e-01 2.265336670517347495e-01
-5.943763345090934402e-01 -5.031452113166874351e-01 7.615208392171658736e-02
6.745824499561838827e-01 -5.369224062984736534e-01 -2.698799753175144533e-01
8.309537982735172301e-01 8.294195284452192396e-02 1.206058525099264478e-01
6.071776268210613559e-01 4.395410943998523390e-01 -7.202998419691122867e-02
-8.901593733741017811e-01 -4.327656954436973069e-01 -8.591134057749671635e-03
-6.445470504163444136e-01 -4.617595095870416499e-01 9.260957982670173227e-02
-2.666791459162948796e-01 -7.308510660210765231e-01 1.917546921488217856e-02
-9.009690010120322556e-01 -4.099523523673389014e-01 -4.235541038062196756e-02
-1.206794055383500763e-01 -7.665159690360969780e-01 -2.682314842640273200e-01
5.038689691990785313e-01 -7.976939666844435894e-01 -3.072962148350370098e-02
6.322750382376969291e-01 -7.635629618671216923e-01 -1.518619597662811682e-01
5.349521855248789981e-01 7.019602816473898832e-01 2.250266707307212455e-01
8.530124165982920781e-01 4.094305396304422917e-01 -9.601736848446146277e-02
4.608654494384340494e-01 5.175842118069766684e-01 8.163279056931241340e-02
-7.899832486246951557e-01 5.306200511902695593e-01 1.919348064454670377e-01
-6.987873146203069652e-01 -2.533187413807445887e-02 -2.538715209014203930e-02
7.598668506622062724e-01 4.821160738529428058e-01 1.771981008605114372e-01
3.420033372607105271e-01 6.852722723747332045e-01 2.320756676117998185e-01
2.536174907427921621e-01 9.293487603496751737e-01 3.985654096810151842e-02
-6.682867332649724545e-01 -2.927718658127535512e-01 -1.237746228266019544e-01
5.959948235663904414e-01 -3.683806270632713487e-01 -1.458813092971241732e-01
-8.841499195728140803e-01 -4.829204823094235266e-02 1.720804644158842323e-01
-8.616019842489693881e-01 -3.351303047243894134e-02 1.799927635354868771e-01
-6.677275410149667856e-01 -2.788754437086660154e-01 -1.142222986275337332e-01
-5.648993817527487860e-01 -4.000175072180072178e-01 -3.751726780012058782e-02
-6.845003847562582955e-01 -8.397042826447050079e-02 1.115818384516280293e-02
-4.666344531002815654e-01 -7.557361301210671067e-01 -2.418347784398265365e-01
8.011564452909942791e-01 -5.503102097311844965e-01 -3.337395312912773415e-02
8.075861586025515626e-01 -5.809873579315426584e-01 -1.054716672943496469e-01
9.427888270848951979e-01 3.305499893719761606e-01 1.209458782989389705e-02
-5.385620994308489839e-01 -4.565440475496930217e-01 -1.268073022227771407e-01
3.100801558731685614e-01 -6.662900190474847495e-01 -3.765145836724181905e-02
-3.325431507937128828e-01 8.966309396194451775e-01 2.109165653759891845e-01
-5.421692684969838805e-01 -6.209425304221747322e-01 6.998504480431703978e-02
4.782566188485843361e-01 8.534547717049056903e-01 4.063041383865618333e-02
6.061674672193116953e-01 4.502381578625749836e-01 -7.502374453361045081e-02
3.686245345735525425e-01 -7.442324143672366388e-01 5.941625162708951205e-03
-9.095552643656766856e-01 3.715239292859681131e-01 9.449765070614556117e-02
5.223307964916618085e-01 6.124023534247838851e-01 -7.273530966960563282e-02
-9.530018315983347366e-01 1.825557246834912661e-01 1.263015169732808474e-01
-6.548002765323369945e-02 7.722489297661465635e-01 -6.965384783862063611e-03
-3.087039926986323568e-01 7.889464466350927241e-01 2.832358478008639158e-01
-7.833617560453014494e-01 -1.249522143505739282e-03 1.768388679378947170e-01
8.228249754647173342e-01 5.110985903143223652e-01 -5.477813425508717277e-02
6.858199598732069857e-01 6.422846577627850939e-01 1.764140510505178838e-01
5.176972232413566966e-01 -6.273427156132939109e-01 1.262701303370124609e-02
-7.367756242543286316e-01 -3.144169674858521835e-01 1.256120772903401295e-01
-8.248512047917118117e-01 -4.522334482614427942e-01 7.879943763652730304e-02
7.597915726257922220e-01 -4.963244082386347733e-01 2.494700272273151637e-02
6.386470476062682256e-01 -2.952022694062208519e-01 -1.399842834354620147e-01
2.290502978675033052e-01 6.755277811977153934e-01 1.993155514781866366e-01
-7.244527931728594883e-01 -6.165477610199756597e-01 -1.647615028277409355e-01
6.124112312101496203e-01 4.013291559582975454e-01 -5.998687157594185387e-02
-8.194262507848517618e-01 -5.066342256613087791e-01 -1.297303278502422996e-01
6.542655353728128453e-01 2.583829993504789813e-01 4.440212189463958736e-02
-9.725274189867451069e-01 1.434099095720644812e-01 8.479477843644525614e-02
6.272736914294609889e-01 -4.373534054968306606e-01 -2.420402119026847376e-01
-6.139133813031034670e-01 5.182095646011368739e-01 -3.568523383939176813e-02
-5.421256053857214097e-01 -6.768652008031992295e-01 -2.341529726847918491e-01
7.538736624551868326e-01 2.759811997549780904e-01 1.499477135854059284e-01
-6.714362573812763246e-01 6.784746535773886755e-01 1.999180792542012142e-01
-7.991108006074246206e-02 -7.013111005478991355e-01 -2.034039324513718661e-01
1.956386913244381465e-01 9.240054890110642738e-01 2.195907504589258152e-01
3.916471214980099536e-01 -7.847051663300895763e-01 1.836451981259356334e-03
6.261585160276237350e-01 7.501902678845278061e-01 1.395978690903528219e-01
-6.835588079118845029e-01 3.670108439437184678e-01 -4.566652057622073990e-02
9.720805219552648424e-01 1.268857903306768765e-02 4.587618149864772232e-02
1.568790693982351769e-01 7.638344959393629230e-01 2.605454384821528913e-01
6.893896017813490040e-01 1.586107274943099055e-01 -5.827314321031069194e-02
-2.480723359264257188e-01 -9.436420526509871065e-01 -6.324130765881595673e-02
7.973602634858165672e-01 3.815134619554161333e-02 -1.800618576324060083e-01
-9.210517329222419614e-01 1.192806749715460135e-01 1.716049889097059911e-01
-6.540482315203708374e-01 2.257623550946589452e-01 1.259794616790416155e-01
7.425005285656227638e-01 -6.543054164105531756e-01 -8.784190111568214443e-02
-5.545909957461357953e-01 5.213022115760730379e-01 2.504781309011223644e-01
4.818330264723982848e-01 6.423853333880078509e-01 -6.525975023110444639e-02
-5.229179959603318384e-01 -6.162290523498528128e-01 6.557577610127518497e-02
1.632338705275704349e-01 -9.497827310556397062e-01 -2.275448940734428604e-01
7.817798448928673372e-01 -5.592010427677517326e-01 -2.048248871241925909e-02
-5.461450555625942949e-01 4.416237509003999584e-01 1.904302817109515544e-01
2.405142833302572059e-01 -7.841987147978994876e-01 -2.941038850603721055e-01
-6.224769769773840222e-01 2.830034807814003628e-01 1.050457147814051334e-01
-8.959096008357415597e-01 3.642760927089201961e-01 1.546759464586240987e-02
2.258604501831637801e-01 6.574915286215683441e-01 5.704112947679488427e-02
2.572934991791447357e-01 9.493980844580586220e-01 1.149801896492891329e-01
1.742318357438888132e-01 6.637522951508538771e-01 1.432639983274561768e-01
7.317021695935714831e-01 3.447670232574456817e-01 -1.283183611130875312e-01
-5.776964341051559204e-01 6.258368515720870162e-01 2.692571696392275227e-01
-6.833145106607582120e-01 2.278831639708340517e-01 -2.227927472747694496e-02
-5.840674004373351824e-01 -6.327040510546418917e-01 -2.269854296951487882e-01
-5.277830403596961428e-01 -7.155501220955418074e-01 -2.328274261313306448e-01
-5.954383584940617924e-01 5.914425596218133574e-01 -3.170191920867556495e-02
5.587899762422335881e-01 -5.586936495787262480e-01 1.155287538294630031e-02
4.420170142055145912e-01 -6.530080220664512547e-01 1.068177051551196053e-03
6.522693733561470975e-01 5.415405512953794798e-01 -9.905395104716671617e-02
1.938688013790199755e-02 -8.464855916889920673e-01 -2.903552289540202724e-01
3.307969427241156946e-01 -6.087079440887772641e-01 -1.194593068410238351e-01
5.730245181897086759e-01 4.658675343779429823e-01 -5.495800895132377933e-02
5.375810046190265812e-01 7.129619373746352018e-01 -6.124993142854157080e-02
9.649017692357294562e-01 2.425329534338572512e-01 2.904402767423033827e-02
-6.610880821918047046e-01 -2.004844226145225394e-01 1.028130238396991117e-05
-6.782027196262626623e-01 -3.013796393514601157e-01 -1.371002172538467734e-01
6.623786195169285573e-01 -2.238397667194083063e-01 -7.562985188171945927e-02
-2.187872810426433057e-01 -9.644103546221071133e-01 -1.307008519484783582e-01
3.331423389786598577e-01 8.623763157180899253e-01 -1.360694578619419878e-02
-6.313596470844450304e-01 4.730025595758940993e-01 -3.689010392025198620e-02
-6.412920251894905777e-01 2.373418673211344643e-01 8.333101697387544637e-02
1.649827560294542250e-01 6.890514916643996068e-01 3.488268918115363521e-02
4.754695022752803424e-01 -6.312881286905378531e-01 -2.776884436962802072e-01
5.379358111653295138e-01 -8.303613728614062106e-01 -1.633967578835991696e-01
8.252178984992237787e-01 -5.021935072880184814e-01 -1.998585598737853131e-01
-9.587788742639901107e-01 -7.908260981663853273e-02 -6.210704461121065861e-02
6.721149447759920958e-01 -3.273818823864704797e-01 -2.130210035668416990e-01
-5.837875392972117217e-01 -3.803100214019643488e-01 -8.431384222320985333e-02
3.381373927666755930e-02 -8.658788852689744964e-01 -2.885261101932371508e-01
8.042432058658581795e-01 -2.740978765478303478e-02 9.557321377939047291e-02
4.083702705196504135e-01 -5.673490687976624480e-01 -9.289568207157454516e-02
-1.865577351435972475e-01 7.653274712959434734e-01 2.796351807233021791e-01
-9.518999471691402814e-01 6.717843333749133616e-02 1.391875653336688556e-01
6.999497035870173578e-01 3.907948739513855685e-02 -2.731264104186643255e-02
-9.321789067789362782e-02 -7.191192623166707820e-01 -2.312304979903750946e-01
-8.247512037830514453e-01 5.224756754272654735e-01 6.473645748581378923e-02
5.636445617614777026e-01 4.446632952063314104e-01 1.292052001831963393e-01
-9.212660760253489345e-01 -4.990293878079283402e-02 -9.744299139008458233e-02
-8.300564121946132357e-01 -5.302817917588827923e-01 -8.704436211050937955e-02
-7.963254131930050939e-01 4.209910540086345687e-01 -4.039799409706269773e-02
7.032601372692601771e-01 -6.987448655012924725e-02 -1.016272912069592638e-01
-2.847729651290260566e-01 -7.136868771598144923e-01 -2.480259363746980528e-01
-6.355247654884061959e-01 -2.934409764737672122e-01 2.606543667749356905e-02
-8.782737578634645104e-01 -4.077052873235701425e-01 5.480082965267787237e-02
-8.079853517965918108e-02 7.931678907543474599e-01 2.797725959513985283e-01
4.670092446886794924e-01 6.078602824915696479e-01 -5.134040489584450889e-02
3.270263828867182587e-01 7.514941271104057519e-01 -4.543800754236393402e-02
3.469384548061493767e-01 -6.009613130300544004e-01 -1.703072021529576097e-01
-7.238135726904982858e-01 6.580304687988896006e-01 1.285459968692110599e-01
-7.141874872243654249e-01 -1.348294993004329756e-01 1.099111183362736499e-01
1.954372348865020537e-01 6.574563845355849701e-01 1.352705630363343348e-01
-3.014476960514185788e-01 -7.212125641118110053e-01 2.475888842648572494e-02
-7.776429701193754429e-01 -4.347263554018097609e-01 1.073814375105231200e-01
5.735444027602869532e-01 -6.113824476886970949e-01 1.925617207954084462e-02
7.560260358404937708e-01 3.892840174146239840e-01 1.748191321951300947e-01
4.984837447920221765e-01 8.423822599542752920e-01 1.459288443514085709e-01
-6.250247968407171006e-01 4.136295715727214550e-01 -2.371838438251917119e-02
3.523525312077367966e-01 6.607134465652537703e-01 -2.409920615644287056e-02
-6.132689616870181659e-01 5.591908221599038997e-01 -3.509073514624100332e-02
5.501478945927260611e-01 -8.202657133300044201e-01 -1.061132784070191321e-01
-6.640751692516780880e-01 -1.989924223910337353e-01 -3.273524970822434127e-02
-6.927516425574219427e-01 -5.600947092344799733e-02 -1.769444289300026868e-02
7.466116419484594147e-01 4.962084005944881193e-01 1.812276970595207148e-01
-7.854859633208072234e-01 2.993569766821543507e-02 -1.017547844672917895e-01
8.085673128529387022e-01 2.371670618029654010e-01 -1.557014032979850138e-01
-1.753428903856268650e-01 -7.172344887699781957e-01 -1.537403432067337497e-02
3.405512948448555233e-01 -7.115332082600810404e-01 -2.845668603539556751e-01
-1.642933181529013797e-01 9.435047943587341335e-01 5.943028562619568494e-02
-3.971849348280777348e-02 -6.895964683125760386e-01 -1.598165807706470876e-01
5.508210259281290933e-01 4.373617279263740110e-01 2.188362228153147102e-03
-8.131749510343317944e-01 3.187259738880033333e-01 -6.379544371639848943e-02
4.868832325061305810e-01 5.084829261307804993e-01 1.234354169847659416e-01
5.582004424636733964e-01 -5.180386105972544231e-01 -7.958434619195791553e-04
6.417032978380714514e-01 -3.645186053526462966e-01 -2.106380362086399671e-01
3.319409248718559191e-02 -9.747345374495680614e-01 -2.027456835853159445e-01
-3.422409925963250665e-01 -9.135944280732378742e-01 -1.804110961171565553e-01
-3.236197038006477511e-01 6.218547418582974773e-01 2.135876031913969686e-01
4.012966293091078246e-02 -6.879553620537584013e-01 -1.473475257073636746e-01
-8.242937859206970197e-01 1.153834070118839872e-01 -9.762207988369417389e-02
-3.149339097467966919e-01 7.577750147456665530e-01 -1.518130136462250354e-02
-7.028401982301425432e-01 -1.500854275559533602e-01 9.598504484826818339e-02
-4.544552041623395322e-01 -7.010455033751686882e-01 5.438698788950453722e-02
-3.403240271996994526e-01 9.126271414766092827e-01 1.053512092991770732e-01
3.418591243849581351e-01 -7.502551242856945191e-01 -2.932462127073086622e-01
-7.611261032364905477e-01 2.566077411919460149e-01 2.244567468025468748e-01
3.961635099166517238e-01 -6.085598345143283794e-01 -2.356682588637286913e-01
-4.923221450480350647e-01 8.424532926600657445e-01 1.501675219344336121e-01
-5.253456365417930041e-01 -7.257422668222223150e-01 4.951080596621165730e-02
2.608842690136478626e-01 -9.498034655384782754e-01 -1.805022615256012264e-01
8.450696516020680393e-01 1.340875134099547561e-01 1.294979476828843068e-01
2.965635813632387929e-01 6.834162174975890736e-01 2.238613177230855400e-01
-4.299152197852091906e-01 -7.826781918306972008e-01 3.708633557392165825e-02
-7.218780017247503622e-01 3.800242960417372640e-01 -5.655591153918965858e-02
8.030887361331816576e-01 2.188556029844980488e-01 1.441736259473635207e-01
8.146859187688112458e-01 -2.348131229870497050e-01 7.057773495569388822e-02
7.225320682136411321e-01 -6.510548326877337866e-01 -2.024354638193235634e-01
-4.779866532516083288e-01 -6.678076184610821642e-01 -2.413430936170664898e-01
6.556403176868328408e-01 -2.702597299646739004e-01 -3.686774465748028640e-02
-9.434165998994817892e-01 -2.947040509494467941e-01 -3.135725284787941464e-02
-9.401931751267436632e-02 -6.833189381305443399e-01 -1.465216807707526714e-01
-6.925753069190339062e-01 -5.203338788628621980e-01 -2.034796881610550501e-01
4.109118798615509771e-01 -7.834136127751518686e-01 -2.862233637087715499e-01
-5.836697598105732299e-01 6.381059805564900378e-01 2.668261339146217326e-01
3.424631852229731988e-01 7.261432023271395808e-01 -4.516088468686431379e-02
2.631466590448311438e-01 7.703504002932488604e-01 2.599767824846359598e-01
-6.052716360571912535e-01 -3.419784211165574073e-01 -3.026785971236553140e-03
-5.259869141857459462e-01 5.349907559084940978e-01 -9.097107330937529227e-03
-8.081936765038941761e-01 -5.371720525073568897e-01 3.070370105063897209e-02
8.236666853504521768e-01 -5.356017907012610157e-01 -5.009005734790574621e-02
-7.046816928419994408e-01 1.788871048235612861e-04 1.052804248896437589e-01
5.405457166701475025e-01 5.774736571645143757e-01 -7.363581491790473221e-02
-5.705705464017892803e-01 -7.742907633515848653e-01 -1.788133173422196132e-01
6.896753909830811713e-01 2.346894418938147431e-01 -8.729137839260603382e-02
-4.058296403489110027e-01 -7.321220256882204902e-01 -2.544837483150609314e-01
8.225647324004538019e-01 -2.156424936934811798e-01 -2.290727769608936759e-01
5.055396979710676808e-01 5.706902531432822556e-01 1.997115865825962178e-01
-6.128292035380795283e-02 7.813086400840102419e-01 2.755467489060748343e-01
-6.899806951400475619e-01 -4.970074317039475109e-01 -2.026927691569939127e-01
-4.499897667006017010e-01 6.255716540163238637e-01 2.662347257228834252e-01
7.652441147537781818e-01 5.687044942504768663e-01 -6.038091569964500194e-02
-2.287072561699794448e-01 7.140324346880336792e-01 2.634436211494379787e-01
8.377548264710391601e-01 5.272401253140536204e-01 8.060157650792464101e-02
-8.906723848843932645e-01 3.988631212642599344e-01 4.242851092418700037e-02
8.046577398781090684e-01 -4.401542131594562979e-01 2.822347365966892951e-02
4.112586449889044093e-01 8.705622957130122463e-01 1.929654805852934474e-02
-1.563108116613937393e-01 -7.299215295810997928e-01 -2.466237438612581545e-01
-7.227521783304243774e-01 -4.270407337021237537e-01 -1.907939569309015371e-01
2.441830426957040667e-01 7.472826152047765680e-01 2.544159592495452427e-01
-3.348271644617811793e-01 9.008503234563376427e-01 2.021759935613762216e-01
-4.117124656225820689e-02 7.478303212191681482e-01 5.491930751717773868e-03
-4.272540259917708139e-01 -8.558998191651232545e-01 -2.024711483048868554e-01
3.161741044775825404e-01 -6.158802583510916140e-01 -1.644107002309458387e-01
5.562997377067498972e-01 7.432648477308283486e-01 -4.185455471599304478e-02
6.393831646299341642e-01 3.534118458025999332e-01 1.220911640620132022e-01
3.337229043834357700e-01 -6.118563173883474482e-01 -1.007547679442357957e-01
-4.184758990937799128e-01 5.747315636560493823e-01 3.304732131700618969e-02
-3.932076354765302040e-01 -5.712918597625321615e-01 -1.221403714464082552e-01
