-4.341911536581578579e-01 2.653297662556175496e-01 4.282092499571200084e-01
8.290535020301771363e-01 -4.657483281286066701e-01 4.216433458258294076e-01
7.071603369332809530e-01 -5.769189027732021247e-01 -1.353330398998291717e-01
-3.980955275712714236e-01 -4.534813386784756761e-01 5.451092091512667048e-01
2.105317168560117899e-02 5.639184122955356315e-01 -4.642613062753152553e-01
3.491763261513168848e-01 -7.616423669500292648e-02 -3.863998985239552320e-01
-2.876154804446004465e-01 2.901489773388212789e-01 -2.490460797395950832e-01
3.907317093926374052e-01 -3.862490836067600797e-01 7.513258084545597348e-02
-3.209252112056538708e-01 -1.611565495870899700e-01 9.391481738465627949e-01
4.739362258713751275e-01 -5.541513152993264857e-01 2.484895150567396557e-02
8.931704035591649937e-01 -2.670857620824363954e-01 2.492205098940227792e-01
-4.433538455618457608e-01 4.854508071862623231e-01 2.285911093996228702e-02
4.060456116770031487e-01 -3.183804002411990686e-01 6.889542085993158316e-02
-8.220359157979504339e-01 -1.405697295320410545e-01 4.852008684816819795e-01
2.900560197151527131e-01 4.181474825331593648e-01 -4.655451751798367344e-01
-3.190401417937991924e-01 6.374954959138171007e-02 3.992084702928526685e-01
-6.164331477422065886e-01 5.067655392379017548e-02 -6.691744671185062554e-02
5.036395472127747075e-01 -5.354733370009974180e-01 -4.071883974988559779e-02
5.964554447161766193e-01 3.268235170411529222e-01 -4.941230120943493898e-01
3.063317836228592883e-01 -2.745957775607099638e-01 8.237735694931116459e-01
2.982063695754055832e-01 -5.794849666470319738e-01 8.300758506756701349e-01
4.184584163601657303e-01 -6.877137729887591866e-02 -2.692048394629416030e-01
1.152787245447238068e-01 -2.329814868999412480e-01 4.305040548172335280e-01
-4.312064193548517665e-01 1.952516994107500459e-01 5.825236937802550502e-02
1.987703090181063836e-01 8.128664871726233587e-02 -4.538804586368899718e-01
-2.089410869813655147e-01 -2.772979824947670036e-01 9.656309676216078275e-01
-7.834486771836579599e-01 4.703206742589360334e-01 2.824833773816767812e-01
-7.637685298513049448e-01 1.464723643230839492e-02 7.001063674461451836e-01
3.150721499104500722e-01 5.029750274218346417e-01 -5.777534489387879946e-01
6.272753001662502437e-02 3.162101240473986774e-01 -4.054196381235125601e-01
6.004332301089165824e-01 1.852296295794357839e-01 -3.018872204612528809e-01
6.410113667840841023e-01 -9.608054552645298174e-02 -7.749417144523200740e-01
1.175657886556706055e-01 2.991223377322872468e-01 -4.115266989541371823e-01
6.184709646514442438e-01 -5.755254314633247992e-01 6.342271986770604553e-01
-4.857569955173780540e-01 1.261927260483773627e-01 -4.946051660674426198e-02
-7.736043642517143049e-01 2.746206557337673715e-01 5.500855771059740551e-01
7.187783481464764535e-01 -5.256168061794787988e-02 -7.533603682949818747e-01
-5.265416665338672475e-01 5.837084032095207764e-01 -2.772823952628552212e-03
-4.216378222182600721e-01 1.658411241296095795e-01 1.709949113952416722e-01
1.649907798944439397e-01 5.941791685276469615e-01 -7.104774499662231957e-01
-2.827741885428568525e-01 2.479746702744429210e-01 -3.006815564781581407e-01
-6.309218839817800628e-01 4.795192957990225824e-01 -6.322257643295283724e-01
9.883068648848397642e-01 -1.677180480003491458e-01 -1.404084625855832880e-01
-5.890706275207399090e-01 3.974073435303060453e-01 -6.722249125006237724e-01
-5.613862969106485634e-01 6.855801559480835250e-01 -2.321008364729167384e-01
6.601510185232991601e-01 -7.350348373363337247e-03 -4.332518384114775190e-02
2.658537381637171015e-01 -4.610914726265400998e-01 8.877177391655571848e-01
1.129419212655878996e-01 1.039377399908203159e-01 -4.872253581590371696e-01
3.574558317346880343e-01 -1.600938041399248557e-01 -4.968128599216861119e-01
-9.376729323795027771e-01 8.311738356801116889e-02 1.510141672505440347e-01
8.656074476612805046e-01 -4.557950132870038917e-01 3.598723340626215905e-01
8.299049824224196126e-01 -8.350311600468668383e-02 6.785859294165705324e-02
4.911076029075205907e-01 3.604092384277202826e-02 -2.246308659163380739e-01
1.513924746717138503e-01 -3.182196068978385695e-01 9.190906404866537871e-01
2.630908840219055578e-01 -7.513365103706004522e-02 -5.545346003079033581e-01
-3.566637315308325284e-01 5.260469480339944326e-01 -1.374150891997731050e-01
-1.034775063404621692e-01 4.006850585752032567e-01 -9.343738241873068562e-01
3.762442280602556477e-01 2.808440995756228409e-01 -3.943214562422133751e-01
-3.925022968155270631e-01 2.119835077137889878e-01 4.251023655638840326e-01
4.111865064292148375e-01 -2.622907080111920863e-01 1.313840234293371378e-01
-2.763341632754234278e-01 2.110210816709828241e-01 -3.617885047781616570e-01
-5.880986677277094676e-01 6.559618514034245562e-01 -1.226576040233375714e-01
4.062285225110878750e-02 5.068154861173028436e-02 -6.288640299327060701e-01
-7.298914804415120861e-01 7.181128339720971310e-02 7.147305202079011766e-01
-4.102692422066732403e-02 1.347565767834816575e-01 -5.156898295844372093e-01
7.293651167617754005e-01 -2.289412187613695249e-01 4.167625310721534970e-01
2.074094638045815009e-01 -1.616100945841388303e-01 5.348064090073815224e-01
-3.375222360156695522e-01 1.511466424848006140e-01 5.262193746592234156e-01
6.362825078682772251e-01 3.011001242697209923e-01 -7.203625575762861999e-01
9.304587540526829681e-01 -4.493352488592127769e-01 2.055968156815315417e-01
1.684799843646901940e-01 -1.424643785151401276e-01 7.344903424229578537e-01
-2.879515372955512298e-01 5.938975457187872786e-01 -8.003777201082622472e-01
7.638681209310721476e-01 -6.468904748204321598e-01 3.110677660383213139e-01
-8.634866382036965327e-01 2.998791637987032188e-01 -2.956155476692329254e-01
-3.121376379851201199e-01 1.081045165258888580e-01 4.711318027540856712e-01
-7.473468116557279162e-01 1.788185954844964329e-02 7.153258563194780928e-01
-1.981540277101389025e-01 1.964461488363633823e-01 -4.267555006105673288e-01
-2.409466161564141617e-01 -1.366885262458259753e-01 9.326425461645928561e-01
-1.597323409512566017e-01 -6.054389221496794260e-01 6.875324790995037683e-01
-2.311839325753736740e-01 1.784731000303026172e-02 7.936818263503425674e-01
-5.641447936474444091e-01 -3.552153986671516273e-01 7.404876598028135026e-01
-1.155548796367934644e-01 1.234198995643207841e-01 -5.656351700500521495e-01
6.736120196082415745e-01 -2.003393474308896860e-01 4.190595197169578734e-01
1.250310817651645312e-02 -3.490489341909136511e-01 3.945793535545458197e-01
-4.199074334166577604e-01 -1.279700221521430648e-01 9.145286347767703772e-01
6.212926281991548727e-03 -6.275374581802771745e-01 8.006823393905769803e-01
-5.548224307704104907e-01 6.867673348088562113e-01 -2.374150512749656217e-01
-7.383711250529098047e-01 6.385637406763269297e-01 -2.038444344678726206e-01
-2.993957848969228674e-01 -2.795691441073053785e-01 3.929148760256637174e-01
4.053137439813565557e-01 -2.438192284213830663e-01 7.241971458256595273e-01
-2.024891422596196700e-01 1.388347778759047302e-01 -5.599160908729428066e-01
3.424083393581552337e-01 -5.749064170502445892e-01 8.160042089626975415e-01
8.019527601238846115e-01 -5.767479774747206328e-02 4.125032234807180648e-02
-7.579048875969119914e-01 3.076030517186198465e-01 -4.556286858558139530e-01
-3.083258060254058242e-01 1.694255553914447432e-01 -4.401170645270254256e-01
3.864418416456760763e-01 -1.658273517326274982e-01 -3.866734314331885525e-01
4.615658677291248901e-01 -2.831366532792491952e-01 -4.411374093005395736e-01
4.308224480685889923e-01 -2.393246475601360501e-01 -5.035730038046175583e-01
3.333799685419913672e-01 -3.802151303023686424e-01 8.563747064712498025e-01
-7.101096081196481835e-01 -2.561131422983837103e-03 1.477299337782602383e-02
-5.578113843948696166e-02 -6.306300050048100347e-01 5.867467295439218189e-01
-3.795359983135357385e-01 3.165702133174891908e-01 -6.116662510900261474e-02
6.621992165553924892e-01 -6.806965418339210316e-01 1.500288737224771685e-01
-6.395060449371687827e-01 5.433037061079498686e-01 1.576949222409899376e-01
-2.323126645529726975e-01 4.234730854287692137e-01 -2.483048786210982350e-01
5.095435411953758154e-01 3.964368698780688094e-01 -7.591963474815957014e-01
8.895250488775828523e-02 -4.345002471484819551e-01 9.401151762418515911e-01
-2.274271832735076659e-01 6.301394084650755456e-01 -3.556305454224074070e-01
-3.163744434640107239e-01 8.578096691909521676e-02 7.417943424264110686e-01
8.589637725795371548e-01 -9.636278150031540868e-02 -6.092467064393819465e-01
-2.042958600663667967e-01 4.390126594294060242e-02 6.220533140997612787e-01
-9.470101420490263378e-01 1.488949664666322781e-01 3.686366203954825616e-01
1.242899828116536404e-01 2.855694481315799171e-01 -4.127484722405548867e-01
2.408617631456036745e-01 -2.288113265616045500e-01 3.987599257068683012e-01
9.811640875492139147e-01 -2.237845730684671908e-01 -8.754257745606548388e-03
2.244324937965406774e-01 2.801890773007989499e-01 -9.664171038155108251e-01
-6.933394016313589869e-01 4.498282158869211234e-01 3.451129930095286902e-01
-4.610144159565360833e-01 4.516556250140713602e-01 9.418244911848148992e-02
-8.698423365013222552e-01 1.783578481561421403e-01 5.252410057388523512e-01
9.484200228215011741e-01 -1.697437744270419435e-01 2.279993483841443944e-02
5.435333882562174423e-01 -7.016321446815299012e-01 2.331783827878249893e-01
-7.338314116194405434e-02 6.675390703509491708e-01 -6.846952756533638551e-01
8.319976648838474376e-02 -1.417704299865620021e-01 5.386819751729219341e-01
8.957405791154179342e-01 2.087451379376157809e-03 -5.299100672232859299e-01
2.658014946493287844e-01 -4.075313242356788934e-01 8.907202578810722304e-01
-8.445108885557616185e-01 2.515565870084505717e-01 -2.904081883858739555e-01
-9.321052285351042466e-01 3.378212925683588552e-01 2.783523641871144538e-01
4.810542572385105298e-01 -5.980013246381469250e-01 7.196657892718003047e-02
5.111706732180619772e-01 1.109142485390176153e-01 -2.614019220925479781e-01
-5.530441173997734383e-01 2.905953738376795270e-01 5.602365976168776074e-01
5.959988348989022633e-01 -7.096593426858093245e-01 4.313634965172207236e-01
-6.694479879297484670e-01 -1.516199052136741054e-01 2.451701726144434323e-01
-4.832930076649592510e-01 2.332815094723270644e-01 6.116273977653471361e-01
-2.476650882965122369e-01 -3.947777955984057424e-02 4.283512623097319727e-01
-2.040242137757309060e-01 -5.509026256870235283e-01 8.213365694378560455e-01
9.577440646898882637e-01 -9.199238968337393463e-02 -3.960749124406410249e-01
7.735320093916107087e-01 1.537493441357897471e-02 -7.881687779647500447e-02
8.422680153688363314e-01 1.299160161609140274e-01 -4.724766257065494135e-01
-2.389821222077935792e-01 5.817853526853243862e-01 -2.967725848955687362e-01
-4.513031686690722188e-01 3.229415200825722088e-01 -7.546204077337375082e-01
-3.419340519144368346e-02 9.084463207050540168e-02 -7.734382424441411663e-01
1.114735461431805713e-01 -6.605154105124756425e-01 4.902994690487234575e-01
-4.603613979796075673e-01 6.160790126005497580e-01 -1.213870723217193859e-01
4.534190656289271981e-01 -2.964800717660528440e-01 -2.707703394395459262e-01
-1.579198893631493239e-01 3.733291511240031113e-01 -3.149820455819029030e-01
-1.662094865988608394e-01 -6.027654706012760544e-01 6.902386429348768004e-01
1.230783000189668991e-01 1.761575464221209752e-01 -4.402891115789457355e-01
3.257117485105345267e-01 -5.171581610820645825e-01 1.891467093211535444e-01
1.168920783996982155e-01 1.956009467993705953e-01 -4.339259569686799156e-01
-8.180553597278264477e-02 9.989855553877051431e-02 -6.178025143682417397e-01
-5.056451752451710524e-01 5.188258722593235284e-01 7.745656045419128943e-02
1.000000000000000000e+00 -2.929813949801268191e-01 -1.622341870745383496e-01
-6.011185781892776081e-01 3.918104863634361279e-01 -6.602978862191365428e-01
-4.091946772207697425e-01 -4.964325114490578811e-02 8.890523970021174671e-01
6.736733655396519582e-01 -4.235397082850592132e-01 -4.126712766731671644e-01
4.852488873556171090e-01 3.215392266987114889e-01 -4.283425245210662480e-01
4.513147017564458352e-01 1.193892664590209401e-01 -2.984287713915110274e-01
-1.581738977022848214e-01 6.907695464733056845e-01 -6.048291895739922319e-01
-6.773520796633489827e-01 2.184608624468613036e-01 6.498925976680564043e-01
5.566449682288920897e-01 -9.494245490023009437e-02 2.342698846530196291e-02
-5.812658370236257754e-01 6.205416665490556816e-02 -6.211410814011979198e-02
3.983255872064475067e-01 -1.788043374134372643e-01 5.607519461968906160e-01
-4.690507553401128127e-01 -3.379874821647474437e-02 2.082617031399299767e-01
7.981813487076824254e-01 1.809756938267298720e-01 -4.979929847290338607e-01
-4.603756430414979173e-01 1.584348306159516773e-01 -1.469523971592254230e-01
-2.918383884611515100e-01 6.965673046163498028e-02 4.563607005883343892e-01
5.181562943342006289e-01 -2.900237626887068876e-01 -5.460480779844453236e-01
-3.219981824037089213e-01 -1.580941155929349862e-01 3.596586786359068366e-01
-7.961922033309578595e-01 2.165630205049831336e-01 5.823083922914915611e-01
4.375336941802205337e-01 -3.675872173594494918e-01 7.926017396172920781e-01
-9.239146564945233120e-01 3.329136941042692976e-01 -1.774596112186161423e-01
8.741013662304937537e-02 4.164038038438828138e-01 -4.156077130663621833e-01
3.141622446653286743e-02 -1.387100774883353871e-01 8.499631089914144733e-01
-5.790682863624539989e-01 4.293365103400132443e-01 3.298164301331760750e-01
-1.595913164380610427e-01 -2.147868462216183383e-01 4.184860581966985404e-01
9.916614698769021796e-01 -2.149378683967673731e-01 -7.291843752449116145e-02
4.312991662443616536e-01 -5.799754703240770359e-01 1.081686404245662675e-01
-7.060460871440348285e-01 -2.650222946306897698e-01 5.292125428991352187e-01
-7.851907822602863796e-01 4.850207097958975783e-02 -5.213950966141792098e-02
-6.116476008796944974e-01 2.541988517275086124e-01 6.244729890360967151e-01
4.196831823636461567e-01 -1.979304497072418845e-01 2.992499600735393783e-01
-9.582306324259025621e-01 1.723471359124377211e-01 3.223840562298032064e-01
6.028051248470550627e-01 -5.941062520755446830e-01 -5.546040938143274174e-02
3.268550009234013481e-02 -3.340150472848633090e-01 3.931941093866714310e-01
-3.579773297008415622e-01 3.646086233039002589e-01 -9.162449089288671189e-02
1.552057639264556865e-01 -1.414384182205495888e-01 5.741874463364992076e-01
-7.916965416663315214e-01 3.466175041099095466e-01 4.599854517546569932e-01
-6.612070436561062747e-01 6.620143129161175644e-01 -3.848481259822555400e-01
-1.841887492469201082e-01 2.120101400900019084e-01 -4.104047871743936038e-01
5.446382653317799472e-01 4.283618050716816311e-02 -1.856949901284276894e-01
2.691353189318785311e-01 5.136406436201942372e-01 -8.232251216896140367e-01
3.510064855451387467e-01 -6.280444090771000187e-01 2.449634781519439974e-01
-6.689992081476821284e-02 -5.201360006971107036e-02 5.994544240862781370e-01
-3.428221070307232998e-01 6.534577552268376888e-01 -2.900602087289100850e-01
-5.011626891415619234e-01 7.036506468574788009e-01 -3.292183400230966339e-01
7.921087473434385018e-01 1.840706222914454682e-01 -5.504193512874993033e-01
3.130266102342336154e-01 -2.491652150222803952e-01 3.189721821969646598e-01
-3.558888033711032906e-01 -1.412747157317697511e-01 3.388669433970686318e-01
8.616757149593562426e-01 5.284107365258601530e-02 -2.344401542924403892e-01
-9.376950458919408593e-01 3.698341886212822560e-01 -1.292009069478143313e-01
-6.303625585528315201e-01 -4.346423411846964124e-02 9.752671890373931785e-02
4.436702881372321383e-01 3.919095948443052091e-01 -8.410288675659391977e-01
7.108405250066948122e-01 -4.160376910097068337e-01 5.774612108015007017e-01
-5.022654506089061499e-01 5.118206809678929048e-01 8.325260083873600725e-02
-3.350052324407470361e-01 6.196093108868168109e-01 -7.575541730754556946e-01
2.373348142797677141e-01 4.053783337126649206e-02 -4.492486598098726636e-01
-7.357261211092782638e-01 5.184763971836532370e-01 2.136932786413087149e-01
4.463861687737690764e-01 -4.896013458822973119e-02 -2.303737972747613993e-01
-9.603673639723707411e-02 -5.468631650114369469e-01 4.877365813748470447e-01
-3.162419124309436003e-02 -6.242256402372302615e-01 7.909580487672486226e-01
4.328670843475838081e-01 -2.616195339566693701e-01 7.244643875727442284e-01
-9.021528138418278830e-01 4.445192686340523891e-01 1.660118377579247184e-01
-7.125802604495395931e-01 2.677148293820552638e-01 -4.763691156241080527e-01
-1.989268877959164405e-01 4.762003735075757138e-01 -2.805602392763383301e-01
5.106359203146335624e-01 -4.243008306406327867e-01 -2.192032482666023685e-01
4.727736948549682849e-01 -1.803337452346693293e-01 2.337699278240002454e-01
1.155034433003930550e-01 -1.849289724273979474e-01 4.811833754326566570e-01
7.396106224427422271e-01 -3.654186447558923079e-01 5.296355623231995269e-01
-2.872620351061049848e-01 7.225684240193087915e-02 7.408991013725859665e-01
5.067529398401435792e-01 9.663068349428916709e-03 -8.672291511117625751e-01
-6.851079050311963403e-01 3.941298641002113357e-01 4.349388757342842471e-01
-1.239566513782169518e-02 -5.498911654885710876e-01 4.471621853737944852e-01
-7.040735700613248715e-01 2.295725400597485935e-02 -3.407971034057673959e-02
4.534968258644297284e-02 -1.022223015969512677e-01 6.010695103238934411e-01
9.470755914968222999e-01 -1.409808380095767255e-01 -1.906820859043877048e-02
7.723804228173781761e-01 1.750826683412891605e-01 -6.415145215034282478e-01
-6.108032121848547824e-01 3.669543208457141104e-01 4.633864516913764331e-01
-9.205798097552775339e-01 4.972005857248824184e-02 4.263859847307374107e-01
-5.615648539236068881e-01 1.038543487872569809e-01 -1.720732479619796473e-01
6.713927364881772109e-01 2.983819525394013628e-01 -6.254283388033448077e-01
1.541219856620434370e-01 1.169837000597003102e-01 -4.583071706955057500e-01
8.599201410689112368e-01 -5.629442683112786394e-01 -4.726109267796425872e-02
-2.992113599579143690e-01 6.356265405730426865e-01 -7.529447141188119197e-01
-3.088358602284170806e-01 4.739312942686878943e-02 4.045414726769109848e-01
-2.721847014244253848e-02 5.011036499226272367e-01 -3.969684786666117238e-01
-5.976128533711398960e-01 1.675734409136314940e-01 7.157179429214459709e-01
4.174476489890425746e-01 -5.229275140856401993e-01 7.480061365440297816e-02
4.397338030229631656e-01 -3.498140769041813147e-01 -6.582208278868084683e-02
1.872989906029757234e-01 -3.920605376146147347e-01 9.188081408002747308e-01
-5.094592808799165429e-01 3.242831748794590685e-01 4.547722923958372188e-01
-5.743075316713222023e-01 5.261121327097207923e-01 1.460947374143299615e-01
1.718751946857579871e-01 -1.684283514599308612e-02 -6.023378401866110732e-01
-6.082206607988936975e-01 4.097889531437681754e-01 3.885185982472714183e-01
6.860772578363429908e-01 -4.424669676076562613e-02 3.575257410192374252e-02
4.949821519027322592e-01 -7.250136646313282140e-01 3.560703396570870094e-01
1.190555998030668750e-01 5.205261733802848956e-02 -8.357845255362936765e-01
-3.053357724313167654e-01 -1.877797873041879284e-01 3.712000280476968062e-01
7.548030130833495166e-01 -5.165896509695914324e-02 -7.269317870234958123e-01
4.389039670371510105e-01 -2.479629322879666475e-01 7.030853237268662737e-01
-5.105952949789607231e-01 6.942539671332063067e-01 -5.086899005059243306e-01
-8.004835788141737019e-02 5.300961477582446513e-01 -3.808189985296461799e-01
-4.195973889631070541e-01 2.189891355863191058e-01 1.650078955476790843e-01
-8.381170416594138084e-01 -8.017389909576389667e-03 1.048965138861611968e-01
-7.837622470572064293e-01 1.453024348041271341e-01 6.380752090987269476e-01
7.947091986208706382e-01 -4.970601825967409515e-01 -2.747918708649850217e-01
5.085543585863201432e-01 -2.235409556274959852e-01 6.048573322952360831e-01
9.980597669751591072e-02 6.167875543902470170e-01 -6.345605314041197209e-01
-2.902540205702934251e-01 6.699278269146495546e-02 7.541568828310821759e-01
-5.650936089268291385e-01 6.976534137446590567e-01 -3.141755095854303903e-01
4.566069250263930512e-01 -1.681616395285983889e-01 -1.385462971448227221e-01
-5.060536817939638166e-01 3.338585388118029962e-01 4.274004987136650335e-01
-2.670695554838832253e-01 2.462636472029012813e-01 -3.176296684513099100e-01
-9.621412922603460594e-01 3.347007089127651547e-01 1.659533553420287078e-01
-6.186847727990716361e-01 -5.395721995159402824e-03 4.306463338122479279e-02
1.539820979618033159e-01 -1.592679751816992728e-01 5.276345653137078928e-01
6.567675935164599688e-01 -5.488380213589441059e-01 -1.785912680499428251e-01
8.602813294673352651e-01 7.963826999842354981e-02 -3.005131696268918962e-01
3.816473502963474984e-01 3.777117312561741325e-01 -4.566843196590663068e-01
-9.769206908091357944e-01 2.443335055624183128e-01 1.644908947299699442e-01
-7.494554677315384827e-01 2.153065549232722475e-01 6.176344907866972989e-01
6.733259984522291797e-01 -1.499332838204958940e-01 3.001731658250527679e-01
8.563404650591353029e-01 -4.332129977366624418e-01 -3.338965366096952603e-01
7.670631893792291267e-01 -5.719719847039355515e-02 5.811637762790598793e-02
-4.281075114158359729e-01 1.965873546608800093e-01 -9.031252808984698011e-02
6.245080733278236818e-02 -1.520407124621792894e-01 8.475415987887571223e-01
9.180639783750450533e-01 -4.108976087769203311e-01 2.579604834439889749e-01
4.417518239758458920e-01 -2.278499419359713285e-01 6.703272689506498683e-01
-2.232615660902751709e-01 -5.332703331755104248e-01 8.359349264115363276e-01
1.182229873932654773e-01 -6.369179724648661445e-01 8.066317377556327939e-01
6.359983687889867454e-01 2.096779562589143331e-01 -8.059252872397117962e-01
-8.732684077380131749e-01 -6.385500665132017029e-02 4.548537563544456930e-01
3.155949166050279753e-01 -3.304173192101805268e-01 2.269492687548864962e-01
-4.117484966493891729e-01 6.613360437902845446e-01 -2.454220037632592055e-01
-8.436880069708814212e-01 4.113338158646043241e-01 3.266256129988967527e-01
-8.362741865874914193e-01 1.792355188359451568e-01 -2.193168646604518601e-01
-1.368001615393985848e-01 -2.316486455658935822e-02 5.651344109311572383e-01
-7.416878102085248253e-03 -1.344765927499287639e-01 5.123429205477846304e-01
-9.350680464815943616e-01 5.952385350518347301e-02 2.056106564452609697e-01
4.539285473652944214e-01 -4.423035570556771989e-01 7.953947154806819686e-01
-2.404703634572706861e-01 5.885990983161648593e-01 -3.011705029576369208e-01
7.481836809878471550e-01 -5.236227973929417079e-01 -2.420627078384806063e-01
6.551121715139358592e-01 2.781223249304091705e-01 -4.547252781517423514e-01
4.680073850062181906e-01 -1.963455871725022783e-01 5.727535031182842129e-01
2.892397336048236345e-01 -1.882049911646420104e-01 7.267670858661393618e-01
-2.714547458561424320e-01 1.478205576471864346e-01 -6.334931905928811169e-01
-2.349427632653011428e-03 -2.885505569901015699e-01 4.119679450230566697e-01
6.078568651054930827e-01 -1.735558314985764794e-01 3.970805150045708110e-01
-5.502747996458698942e-01 6.316617741308159228e-01 -6.030127740466253439e-01
3.541352432898959846e-01 -7.306802833493736271e-01 5.157748623406580579e-01
-8.326170901928329204e-01 2.999325861839822749e-01 4.768726931491894527e-01
3.209199986073859034e-01 -4.166485600563676339e-01 1.822645903731903438e-01
1.727750815351245528e-01 -6.239370847613862070e-01 8.211681371208290336e-01
-4.467122638614373642e-01 6.649084659377094697e-01 -6.363435082524114828e-01
9.726267900177933967e-01 -2.207043916900812142e-01 1.965589776253273344e-02
-2.710005662621070011e-01 4.207390079993185150e-01 -2.093236412500503185e-01
5.469784479061403637e-01 -4.404521012018314807e-01 -2.657196068807083922e-01
-4.330374631892728449e-02 -4.966977104675091015e-02 6.581865297372165857e-01
-3.744300375505026091e-02 2.553226042648494287e-01 -9.333482057662939591e-01
-6.626423544584424119e-02 -5.152814813613042499e-01 4.499369038576321866e-01
7.207353213998121122e-01 -4.119164779170644830e-01 -4.345607790284800598e-01
4.376118734831265789e-01 -6.926189741599602101e-01 2.739320837330876945e-01
3.897480497123548826e-01 4.899826572129389324e-01 -6.873136540447600806e-01
-5.234218178048568593e-01 6.323303857768601821e-01 -6.262101219851538003e-01
-3.609409876374549131e-01 2.036905933082956976e-01 -2.822120545518873036e-01
3.012759551905609401e-01 1.171790054122586189e-01 -9.330576141439366200e-01
-9.036025319497014152e-01 3.023076960100155586e-01 -2.174157909989930249e-01
-5.069977461237575728e-02 -2.076269713263547700e-01 4.440137293275314700e-01
8.330623701831471051e-01 -5.997235729613463739e-01 3.602261047156858631e-02
-1.281494813973718949e-01 3.245078520646348386e-01 -3.484531212884018347e-01
8.810473732178887296e-01 -5.597393383431346070e-01 1.131634747284553620e-02
4.465067179365580508e-01 -2.517474599654488943e-01 -1.009106448200512846e-01
-2.044802149468264163e-01 1.336278091721434802e-01 -5.919581717011164201e-01
7.792163465498598285e-01 -6.469177026271789588e-01 1.713217678961646562e-01
4.290720780186211281e-01 -2.819282852836505482e-01 2.389032139752872083e-02
-8.280413668339410282e-01 -1.082859785795353691e-01 5.535215542880672634e-01
2.987429528204168377e-02 2.586403508177475552e-01 -4.163152108327634604e-01
9.659738546795063607e-01 -2.864640489709944227e-01 -3.313938417559167959e-01
-5.482623818233381963e-01 -1.034843490147943357e-01 2.086395546651768906e-01
3.530490408962246862e-01 -3.379121759994246910e-01 1.679745804836073886e-01
4.486104372419738029e-01 -1.955714516731525410e-01 -1.538310892880927760e-01
3.324826920138469477e-01 -1.698360253037524970e-01 5.874874623620891523e-01
4.458802025616859788e-01 -2.413705967889259729e-01 5.144421383021464955e-03
-3.070736202834516981e-01 -2.264384869906355680e-01 9.515425269705949374e-01
4.810115188855503821e-01 8.493709577273758637e-02 -2.624093693884588796e-01
5.016638259822209234e-01 -2.793923307978670167e-01 6.894784764418163681e-01
6.592948873854294067e-01 -6.181559984318366618e-01 5.537404464610971022e-01
3.434293031736756485e-01 -4.200483992381047194e-01 1.514940777019630758e-01
2.706620243966029737e-01 -6.446750995986153532e-01 3.361122936831049124e-01
2.614280890392010059e-01 -6.663854898649022029e-01 7.526474629481294532e-01
-6.391109626292028612e-01 5.768980239614875799e-02 7.755976981371710544e-01
-3.226027915217174469e-01 1.367376122438777042e-01 5.825298107063371367e-01
-3.714657758834209456e-01 7.056458142562719305e-01 -4.031971350469325532e-01
5.905955367527053745e-01 -6.915018141788509265e-01 5.083737805121745224e-01
7.901531617485223480e-01 -4.882600073912550243e-01 -2.929990888255088466e-01
1.913161680648117480e-01 3.057979245733049578e-01 -4.125253370948161469e-01
-3.011328900316028179e-01 6.877386051178933091e-01 -3.986724952157919000e-01
5.543141595496953178e-01 3.890043178581663041e-01 -6.455877727825946044e-01
-5.588616667563551799e-01 6.690943837392939741e-01 -1.708917600147678573e-01
-1.460921603142620318e-01 1.615385962798698560e-01 -4.911348132764931651e-01
8.293860803662178593e-02 4.389262977073013494e-01 -4.204593404647214427e-01
-5.842491125526796392e-01 7.339090064071543407e-02 -9.636722250575308069e-02
-1.303744119705219362e-01 1.903547807046792606e-01 -4.503592251303085159e-01
-8.857554693164588766e-01 5.073838408071884576e-01 -1.486408459223520495e-01
4.741436233309215820e-01 -7.284881929865610894e-01 3.879542770647749772e-01
-3.926196284128186109e-02 6.599469519898168990e-01 -5.973586586500780893e-01
-4.922379452167290892e-01 -1.928292978043732731e-01 3.053659913803543624e-01
-3.730698648326514349e-02 -6.375824079608214401e-01 7.534343345014530291e-01
-9.334252580229888130e-01 3.097349748211550846e-01 3.097768086339352522e-01
1.890051272099159962e-01 -3.669430072675629595e-01 3.186824068919189012e-01
-9.091494744775892034e-01 6.523758637559286255e-02 4.720046173667827860e-01
6.152186712703126004e-01 -5.246868319215231002e-01 -1.961890155707126104e-01
5.058642114190894379e-01 -3.310938323787411264e-01 7.272898848945686945e-01
-6.419725793303432404e-01 1.944001907784010941e-01 -4.476491592650551632e-01
-1.694807783806305812e-01 -2.149380601965703297e-01 4.159473856541257009e-01
-3.059718048610918575e-02 2.241811532830005338e-01 -4.298316287970267990e-01
-3.716845545967331979e-03 4.611730511595770188e-01 -3.944637757383140930e-01
3.736227446803466745e-02 1.113792911402331498e-01 -5.160987987695032642e-01
8.138384940563281322e-01 1.001462519413076485e-01 -2.645006039619288707e-01
-9.232442990023376206e-01 5.860680632420579850e-02 4.232005494107625165e-01
8.956021140113131773e-01 -3.346394186360839018e-02 -1.086995761021555262e-01
-4.092459182950030638e-01 2.803857246627437516e-01 2.681217158217368696e-02
-5.886138522855941524e-01 2.349101540750929418e-01 -5.609905295850010631e-01
4.538114591095735451e-01 -2.682613823634752426e-01 7.156030801400293795e-01
7.164782232884676638e-01 -5.333230102995763222e-02 5.934611253426537447e-02
-8.725930422098100436e-01 -6.027847405557627131e-02 4.695454988500771809e-01
5.799511212351879941e-01 -1.012927843742391226e-01 8.510369780432447406e-02
-9.602302108830981231e-01 2.777712099560714631e-01 -3.389308507387456260e-02
-7.552096919448786361e-01 6.199543824331519293e-01 -2.948211602621610417e-01
-2.421407094843718855e-01 -3.931381795939405399e-01 9.401282043789654930e-01
-2.220421041195156375e-01 -1.159108490447137291e-01 4.172242948736430979e-01
-8.501034447474697942e-01 -6.043872709906852880e-02 2.371248737584752131e-01
4.433224849287919489e-01 -2.993221298198484592e-01 -9.598685165214440596e-02
8.943940524519358726e-02 -2.549537865564096561e-01 9.168408963896809150e-01
9.086254555689976531e-01 -4.482147424670547831e-01 -2.371402430379020709e-01
-9.289519670725162603e-01 2.893032236011233160e-01 3.422804334280308836e-01
3.067797783630331621e-01 -4.277894016497429952e-01 1.980223283909589016e-01
-7.077953753629012690e-01 2.007079446876942341e-01 -3.977952919119299713e-01
-4.704299963444848465e-01 4.170998604188554948e-01 -7.677526871103278472e-01
-3.352293379136504492e-01 -4.530193397320785853e-01 8.597777076069118563e-01
8.091505795291583647e-01 -4.879189824288934774e-01 -2.826042439235611492e-01
-7.530257308890639933e-01 4.873042334640007578e-01 -4.860338333204797245e-01
-7.677469900611204601e-01 2.053088956711691671e-01 -3.409740699935396857e-01
-1.461756995731881836e-01 -8.831451033571155462e-02 8.824669347410010189e-01
-8.475654551719348229e-01 2.563314685726086339e-01 -2.899176115048411329e-01
-9.651121370175147485e-01 1.724431902169170361e-01 2.838044775550772614e-01
-9.235580310344659871e-01 6.995985638534839290e-02 1.253406794248084488e-01
6.959219782349608252e-01 -1.666920090372954744e-01 3.300542730776563349e-01
-4.955294216212993708e-01 3.371496390031581414e-01 3.989122614587148896e-01
2.305989342596945768e-01 1.916793782036969873e-01 -4.066004176429887651e-01
2.917315852865776105e-01 -7.247246364011576958e-01 5.689390670866438793e-01
-6.853856589781358588e-01 2.290824299748684956e-01 6.372797395605589443e-01
8.674359944500193986e-01 -4.356149446837401240e-01 3.610033242572901480e-01
5.822480750819744033e-01 -6.793415665702275952e-01 5.466811601949106425e-01
7.430499356615372086e-01 -5.094194960799219851e-01 5.314857993106391065e-01
-7.406798808076268115e-01 2.485519380194692596e-01 -4.250736938803387766e-01
2.322482853688245807e-01 1.861093383194071804e-01 -4.066233957575782210e-01
6.885890152041783674e-01 -6.809561417501892588e-01 3.741555263763162720e-01
3.798707273665648532e-01 -2.801828532829018226e-01 1.785860496436425804e-01
2.909989795936302470e-01 -1.655761593260689224e-01 5.493452599850464635e-01
-4.784645755588039506e-01 1.427735119604459368e-01 -1.207395375586723801e-01
-3.516043383402451261e-01 6.701445818496801765e-01 -6.802748548851249577e-01
7.065354344487156935e-01 -4.198208255703511083e-01 5.827637337158007025e-01
3.292147076770371439e-01 -5.741657194863315494e-01 2.169246997901053964e-01
1.120521557749796643e-01 6.135066650196215887e-01 -6.447451607454404154e-01
-8.346392395353567639e-02 -3.917932702377957543e-01 4.127298711623765826e-01
5.245657772758045567e-01 -5.324549026440111854e-01 -7.533195648213981965e-02
-3.994138965441437206e-01 1.201198257369997385e-01 7.415754538837820986e-01
5.441565413703026710e-01 -6.801015434171343854e-02 -8.183536838140291758e-01
-4.950826447957294707e-02 -5.614497450892985686e-01 4.762090624911828884e-01
-5.093299703580022042e-01 4.278259474290246334e-01 -7.404130618271926867e-01
1.724477743100817917e-01 2.996505624352938102e-01 -4.122366372377448962e-01
7.515800911649064275e-01 -5.102448115450669563e-01 5.201504702819431669e-01
-4.207823409402988712e-01 2.580293669307532900e-01 2.865460429996918301e-01
-2.100959234625191518e-01 6.996854969203322172e-01 -5.848304612930146362e-01
-4.352598796007858262e-01 1.621547639830804577e-01 -3.009389106656126800e-01
-1.947473027807120338e-01 6.940684991349327371e-01 -5.366137602489290392e-01
7.742888338768983969e-01 -4.389404488136361415e-01 5.042550759997871390e-01
-6.311118591097805153e-01 -3.206093503733605243e-01 6.703773761446621959e-01
-4.176260809757110226e-01 1.783952241465061872e-01 6.566083706496544936e-01
8.759130852219111363e-01 1.030133211288629738e-03 -1.455972730462411491e-01
9.259828689875902741e-02 -1.104042932922227743e-01 7.262024632061157003e-01
-5.349050790158036417e-01 1.227440025954569663e-01 -2.220161080619565130e-01
-1.177126864676072554e-01 -1.313808459498081588e-02 7.284710935333766901e-01
-1.952387435388700798e-01 3.914511444383586558e-02 6.455714054014434211e-01
-2.263464130082017689e-01 -2.645592529848500574e-02 8.504026507046255068e-01
2.598168302688925180e-01 4.518897479368587655e-01 -8.982859340721806030e-01
5.798651509857581932e-01 2.289771000783112354e-01 -8.448499803916876827e-01
2.341759335805832232e-01 5.115604810093877797e-01 -5.309791878290167633e-01
7.332905615242367725e-01 -6.509047201454764009e-01 3.808768430980977171e-01
8.286215318287450948e-01 2.770269868812219594e-02 -1.379088005562428554e-01
8.551183264966536468e-01 -7.770355371851488113e-02 -6.175236346120893671e-01
2.404967974143689402e-01 -1.863341521597654538e-01 4.729779598088006964e-01
8.679991670743590904e-01 -5.103458555051832990e-01 -1.782603218902923392e-01
-3.949540690324865322e-01 1.665241217829632192e-01 -3.699163262081429093e-01
5.174863398517366431e-01 -4.877252642809179473e-01 -1.301982329359322177e-01
1.403206164508199738e-01 2.257405782487973203e-02 -5.609536185994821178e-01
8.808160740350149398e-01 -8.098905264808629878e-02 5.018694494218729936e-03
-1.540617906334862675e-01 9.624009106478656830e-03 7.111229381161711105e-01
3.064376677501803869e-01 -4.727725600707672893e-01 1.990276620024628296e-01
5.641749583375919030e-01 1.166550349172174317e-01 -8.726843150798003768e-01
-5.659289359219182858e-01 8.171106538119718432e-02 -9.741309217340571314e-02
4.742096022379346798e-01 -2.508867655812448971e-01 -5.755862570891963070e-01
-3.457806424641473586e-01 1.141699077743024288e-01 7.140461463174184731e-01
4.773548373263844513e-01 -1.731610387140648522e-01 3.154383709699220550e-01
5.012259719411259473e-01 -3.751322890035099222e-01 7.514873964494624969e-01
5.156436995894668751e-01 -3.731724510916970550e-01 -3.425260588029655495e-01
9.828926334822342126e-01 -3.563291554980417830e-01 4.790573070759292229e-02
-4.321388153142040056e-01 2.925806605898564339e-01 2.453680757821501413e-01
2.256448029788839515e-01 4.526187047829998700e-01 -4.709930427456362478e-01
-6.318229816748688332e-01 3.858026055837479595e-01 -6.301541417471311357e-01
-2.339950219620638150e-01 6.017681842439299711e-01 -8.098125293587203899e-01
1.669221226531810709e-01 -5.621159520095225792e-01 3.477947905496110992e-01
4.796051027854654758e-01 -3.226631730879206406e-01 7.417431372468751283e-01
-3.303268135595014421e-01 6.786899361955525123e-01 -6.719248920637400646e-01
1.707031876180160612e-01 2.804508698705028835e-01 -9.686842168558678079e-01
-6.560163246297696649e-01 4.346700422487069226e-01 3.657771775427481331e-01
-1.082472725172823197e-01 -1.436268174253275617e-02 7.005583527012672063e-01
9.224559222206930587e-01 -2.362647944565105657e-02 -4.712538258469207708e-01
6.550420248191167749e-01 1.827974390475210209e-01 -3.039357917452547575e-01
-2.620884059017872247e-01 6.658878518715107830e-01 -7.176212937384219837e-01
5.497034067558588255e-01 -2.553407017202694584e-01 6.209170587714311074e-01
-9.380162511253689051e-01 3.063886181946344767e-01 -1.286472275650078212e-01
3.202207115344202215e-01 4.653729861610472196e-01 -5.218870163112194760e-01
-9.650392662869458626e-02 6.245841709575438161e-01 -4.525277996627931620e-01
2.372001498643412365e-01 -5.619246408055420527e-01 2.940775913717408319e-01
-6.637847145251717373e-01 8.350026996406159641e-02 -1.680495224594481807e-01
4.177016936566180783e-01 -4.607819241395888499e-01 3.550887259816576380e-02
-1.803117588036264318e-01 -2.953960121656982185e-01 4.097784688553677834e-01
-8.470629852139228977e-02 -4.356114126234700845e-01 9.496968086871739878e-01
-4.726470615458326363e-01 1.491656965720863648e-01 -2.696478270498887664e-01
8.874751812775918958e-02 2.229671739692456467e-01 -4.280576721812492380e-01
-3.972482723575221919e-01 1.965983216659632493e-01 -6.619993387386197137e-01
4.130804800373641950e-01 -7.070381068030291427e-01 3.303598876051184186e-01
-9.532904000663933175e-01 2.853983472757498085e-01 -6.695500185747693678e-02
-6.116887261190497860e-01 -1.715349467875422820e-02 6.636528923865041285e-02
6.771431261520310940e-01 -3.654787464687005993e-01 -5.029630378413690872e-01
-3.057305583484425937e-01 -4.554479243898989504e-01 4.955030372469541033e-01
7.214204130043128105e-01 -4.524798710805606056e-02 4.295657414028655752e-02
-2.932864093873903122e-01 1.581280221061037161e-01 -6.579848338228015958e-01
3.557699353220541427e-01 -6.428510794937030148e-01 2.585551033123798526e-01
4.101310405804961534e-01 -1.766462610629745134e-01 4.596308458752356718e-01
3.981687742138330099e-01 -5.602777114226920041e-01 1.296066716032378552e-01
-9.306980635656103562e-02 -2.786440087506238950e-01 4.162038904873366363e-01
-9.493888425416200372e-01 2.667020585191935966e-01 -7.160996962662882770e-02
2.723588162151757697e-01 -6.832474279442474208e-01 7.217526533236470199e-01
1.818110753169750737e-01 -3.738776259851031014e-01 3.207695716916209583e-01
2.970796234651539858e-01 -2.415693746949789111e-01 8.004713653547460561e-01
-7.780517081227182885e-01 -7.142104577448533942e-02 1.634817340577855438e-01
4.336629342670184628e-01 -2.033698142211207704e-01 6.254633142874551632e-01
8.146723638326121009e-01 1.384187823169464870e-01 -5.901114818869007683e-01
-4.127440191676816084e-01 2.436393929084297583e-01 -1.159353458050202228e-02
7.413075877652733903e-01 4.720361630658779367e-02 -7.495195142607584682e-01
2.968539035862743924e-01 -1.845921854354369285e-01 4.645673515028531653e-01
4.640332312962617278e-01 -1.841753846951404150e-01 5.261575542594760790e-01
-8.679886828608909255e-01 1.482098480721111000e-01 -1.279232066439675575e-01
-3.831931764358600945e-01 1.591797861548650828e-01 3.229824566555055121e-01
3.986117819725439326e-01 -2.467816327578447044e-01 1.973084845758476813e-01
7.647418064662717674e-01 -4.861058136495887694e-01 -3.069776137416575512e-01
-1.655697938107329736e-01 -5.982920438161405396e-01 6.379372258161103426e-01
-7.555570569743161879e-01 3.304685160080992889e-01 -4.721718987692620773e-01
5.692607108119140946e-01 -7.181548972426364807e-01 3.168497972663035234e-01
-4.955598178023793987e-01 1.267509392788882805e-01 -1.015181287926848197e-01
3.421659944334172754e-01 3.750458424143107705e-01 -4.467317033565249007e-01
3.080797771165494359e-01 1.682369982576298884e-01 -3.798804909576762312e-01
4.980012755171285277e-01 -1.089781888622337741e-01 -8.260957857907699764e-02
-5.103644669365131614e-01 -3.807787886127393939e-01 5.068514705835679424e-01
-9.053217921456797601e-01 9.982242308833835787e-02 1.816792383800060195e-02
1.015340275303168033e-01 -1.825315755612398338e-01 8.592274518489489976e-01
-3.184271844268039553e-01 5.984837895536784247e-01 -7.848253601567339865e-01
3.291093161782281395e-01 -5.865039166197869580e-01 2.263388569019396668e-01
7.012363319083976254e-01 -5.315929515212897138e-01 -2.271704953564882834e-01
-8.539852946793007327e-01 1.956681073719888572e-02 5.812604688669856801e-01
2.499307097426038127e-01 -7.107765703595920748e-01 4.898916492065871764e-01
-4.742910071786941573e-01 6.853295155286039941e-01 -2.599973077529159071e-01
-5.089868584865259171e-01 -3.031775988637393504e-01 8.524760592336633191e-01
-3.395602946052391213e-01 -5.158167524933495729e-01 7.386008509222657947e-01
-3.819788433347084955e-02 5.421603362095582801e-01 -8.861474665929680583e-01
-3.031753296934539543e-01 4.334684745117160509e-01 -1.712523655223661678e-01
6.844953948279837164e-01 -1.292478371966164774e-01 2.412928744989381591e-01
1.418137955767147518e-01 -7.268557140528793606e-03 -6.486058619887901111e-01
1.931973205998499254e-01 -6.928333043638028599e-01 7.026817659897183210e-01
1.445397156206203459e-01 4.653741901675662040e-01 -9.225166921783538587e-01
-2.960262442197194033e-01 3.165014194771981204e-01 -2.170981894024693881e-01
1.464037552548297649e-01 -2.052162284529235603e-01 4.551824852301524782e-01
8.679904083074533316e-01 -5.467639491401581342e-01 -8.269470779174059594e-02
8.241168791686142026e-01 -3.873305370279844784e-01 -4.261293032676908843e-01
4.205065971889957455e-01 -1.106044569215268586e-01 -7.757588487335093097e-01
5.413122368512598426e-01 -2.276299465199316252e-01 -6.656633804324232351e-01
6.767156165651249111e-01 -5.728206371676840547e-01 -1.385256222406657800e-01
-3.284140076859470292e-01 2.547159251222156917e-01 -7.923038283275988247e-01
8.289906506217316340e-02 3.989653559153076845e-01 -9.563375393977493477e-01
2.775752490357951130e-01 -1.607123768485496651e-01 6.294792449921895461e-01
4.301978034971888909e-01 -2.371223795446015803e-01 1.262632787937802703e-01
3.614633343069296734e-01 -1.995619207277525842e-01 3.774838416690393661e-01
9.962574208240632112e-01 -2.845233229613914894e-01 -2.095815331072228560e-01
4.162939884887575243e-02 2.695215648297576427e-01 -9.560975053830564896e-01
4.321367718110877276e-01 -7.116142853489085818e-01 5.980798767355373080e-01
-6.222315531152422530e-02 -4.476475298901626959e-02 7.454011722632870596e-01
4.313130879627665171e-01 -3.375001229701449779e-01 -3.087389935765325749e-02
4.477711563359529912e-01 -7.209087121491016825e-01 3.549543089397101392e-01
4.106900105937184020e-01 -2.207832390664886957e-01 -4.343747688243607685e-01
-6.416019717715455428e-01 6.532878617525523790e-01 -1.141418879660503899e-01
-6.541591389527644518e-01 -2.257110943574364426e-01 3.482628235339424450e-01
6.219883690244888408e-01 -7.101063651620063144e-01 3.431932039220396691e-01
-1.108228361962897285e-01 6.756064211905813410e-01 -5.602192647846325757e-01
-4.345134862042374091e-01 1.916059641490261423e-01 -4.754519021550806385e-02
5.192549661922196691e-01 -6.452089805261386202e-01 1.103582817425894647e-01
1.965301661215919093e-01 3.211955681274805685e-01 -9.658216864252882061e-01
-4.038988026889157035e-01 7.372081844124823979e-02 2.471293073931144779e-01
-8.545111077274627487e-01 1.257551878506311394e-01 -1.138660316456338029e-01
-4.560743629013192524e-01 7.100460672335515699e-01 -3.820198527453035897e-01
5.066143629584189956e-01 -2.764285976513806142e-01 6.824003303726751124e-01
-6.742009289952657358e-01 -2.512628966612976966e-01 4.090879664538831229e-01
1.126746476520449347e-01 2.057849661742767178e-01 -9.502683103363689376e-01
-1.943945662413455039e-02 7.306462575356312272e-02 -6.442240722262271291e-01
4.603661504364977564e-01 -6.081747618321703408e-01 7.325598103028952979e-01
5.069740226768307823e-01 -2.670997761491465394e-01 -5.804423994421938904e-01
7.793179051072854913e-01 1.547881281211981319e-01 -3.371014858451483187e-01
-5.919276297681539400e-01 5.475042143781509996e-01 1.212335128291500280e-01
-8.710427101740585432e-01 5.309203753735317610e-01 -1.344103393806013458e-01
-3.692461959637910462e-01 3.625646018084959232e-01 -6.860055595013282714e-02
-6.476212613934689832e-01 6.100409881169703841e-01 -5.250605849354580412e-01
-4.241332158104491046e-01 1.837987636946693537e-01 1.459041805286792892e-01
-2.649572179639658742e-01 6.982976610736739698e-01 -4.694287795080521741e-01
-1.091546432093953994e-01 2.456323502620884613e-01 -4.016720607541481303e-01
-2.189529545244701392e-01 1.973803190277014508e-01 -4.176057059767188662e-01
-3.799200739189707021e-01 -3.367917759685931656e-02 2.993537418404901840e-01
4.167416723653466493e-01 -1.761456125628429459e-01 4.674980765790277548e-01
2.259959205097880064e-01 -3.488785260242800723e-02 -7.683708701652941508e-01
-8.302018649738961420e-01 1.344189084650337651e-01 -1.604376644011733521e-01
2.251050768462020679e-01 -5.248967549691863077e-01 2.877159715763630832e-01
1.463717923463398081e-02 -1.064302310285919623e-01 8.133392571425569484e-01
8.411098114994938202e-01 -5.714368828410620882e-01 -5.871127829624780275e-02
9.666883982270653153e-01 -2.972963935092482468e-01 1.050519342946504425e-01
-3.469846327117769302e-01 -4.142840573029120677e-01 8.865666098006675933e-01
1.846485339776402640e-02 -6.681929911210361395e-01 6.648161017066832601e-01
-4.852949335777258510e-01 -2.670428767041396756e-01 3.649451280145768473e-01
-9.299353394120347255e-03 6.102669476696577222e-01 -8.078474956693753040e-01
-6.036426771925712531e-01 -2.378369689020592981e-01 3.458801223781749479e-01
-4.268122130637912459e-01 6.759835165658552025e-01 -2.661386717659697809e-01
-6.786747277033873260e-01 -2.655056090205429320e-01 6.784939138571002282e-01
5.120512775199197453e-01 2.592199586108390186e-01 -3.736394812079014693e-01
4.864607736206614241e-01 -3.545089043006579566e-01 -2.945028743280171946e-01
-9.475367418483866544e-01 4.075853293504635988e-01 1.268002083383270966e-02
-5.290352653250326442e-01 1.668131361396391066e-02 9.086354732153439917e-02
6.463923200005178282e-01 -1.598665232004587156e-01 3.383947964410997655e-01
6.844893664175941694e-01 2.612208431325797608e-01 -6.953622103724763637e-01
-4.113587648413438158e-01 2.389236257607503244e-01 4.079814158819586312e-01
-2.439169656814375864e-01 4.376489362107346959e-01 -8.873261828033677245e-01
-5.213305550388652732e-01 -3.109165424841083269e-01 4.128059576528286811e-01
-3.488438290769457217e-01 4.748048653530086982e-01 -1.195493360239140990e-01
5.362844672845799021e-01 -1.081709591112522406e-01 1.277177113637343979e-02
3.568840635701726050e-01 -3.216849312632671237e-02 -8.420501865759946192e-01
-6.513785463557104638e-01 2.422919252105566190e-01 -5.117901180346274836e-01
-3.915227778498514555e-02 1.014504559208502382e-01 -7.937475931331693380e-01
3.709177456807391526e-01 -3.672402594208243332e-01 8.329532489099983339e-01
4.514488811287192815e-01 -3.180397761478457874e-01 -1.591356430601390537e-01
4.007119381384136592e-01 -7.099079569240276943e-02 -8.140389840387309839e-01
-4.120083135344176362e-01 2.209715630303670242e-01 5.313431782950789328e-01
-5.457125744670165979e-01 -1.163112922210093880e-01 2.222028315131787668e-01
-4.936871249601181844e-01 -2.849273657059053777e-01 8.722336486957252832e-01
6.178011275441785966e-01 -1.031687476869540820e-01 1.415306513111869724e-01
6.500311613716309722e-01 -5.064757417189170718e-01 -2.555037810181787217e-01
-5.687355321744234082e-01 -3.067975099141055373e-01 4.261137498481936681e-01
3.524937717119882574e-01 -2.967225860088315570e-01 2.064485514853358628e-01
-3.555081166937733017e-01 -5.110718658968488315e-01 7.148043810318930324e-01
1.660315874708364892e-01 2.406689458867279086e-01 -4.150027156855017885e-01
6.271142307549270045e-01 -1.001627882676128511e-01 1.403845946074429585e-01
3.298979968513291450e-01 -5.135356076469123066e-01 8.497372873076188826e-01
-6.184905522171624259e-01 1.066679743531080971e-01 -2.274617004539150056e-01
4.335288227210098988e-01 1.587095975898030198e-01 -9.251700007208982779e-01
6.312930200246540391e-01 1.332500574828205664e-01 -2.420256531386890675e-01
-8.372432651299076545e-01 1.748171771782140449e-01 -2.118501590085879183e-01
8.001353865320452730e-02 -6.824792590969644968e-01 6.800034059530848385e-01
2.981606350296545083e-01 4.387895821085602832e-01 -4.844503886984008467e-01
3.083877327850707006e-01 -6.720015214832862904e-01 3.427886146031527970e-01
-7.201938215063498072e-01 5.182067031947795721e-01 2.180811666429514073e-01
