8.244284971738736756e-01 4.248272882148941831e-01 -3.816037446067840899e-01
-8.374371837359709247e-02 -4.706383485703026781e-01 6.247386461549412351e-01
-9.367962777719181233e-02 1.274911950790489842e-02 -1.496767045918917793e-01
-1.588571402596212767e-01 2.727470699371025570e-03 -1.273732728947886972e-01
5.565016805766168639e-01 2.061723483490333353e-01 -7.894419852075558186e-01
4.084722057037623033e-01 1.628517253753113958e-01 3.155057574439351642e-01
-2.600369616503805381e-01 1.007782272427946470e-02 -1.521961687945907471e-01
8.279887111507114872e-01 2.162735654568578580e-01 -5.787299309819547710e-02
7.224096023487332902e-03 1.227390140588233668e-02 -9.811663795913706451e-03
-6.013995003936747352e-01 5.260977294022596285e-01 6.118023366217145709e-01
7.028681982633144809e-01 -5.137715039154621133e-01 -4.214862702673037864e-01
1.141154938248199330e-01 -1.011086945423798067e-01 1.917696967764888349e-01
-5.084544548791327667e-01 -8.291259717971115606e-01 2.802027166316036211e-01
-1.963694069622553273e-01 -1.266126498665381128e-01 8.134286391821481388e-01
2.522227805919223173e-02 7.540339068884624636e-03 1.816806104470235217e-02
2.864073683889643562e-01 -7.958722569341107889e-01 1.066337623355359393e-01
6.028516862977908453e-01 3.568523637436992191e-01 -7.126024989265374865e-01
7.917586178024214882e-02 1.293322627332052846e-02 6.387906393878461930e-01
-6.463692269477153696e-01 -7.500524272498004796e-01 1.294620262458889559e-01
-6.762928207204194075e-02 5.931344161001013415e-02 -9.514986040642404996e-02
-1.187002144927357394e-01 -2.071891847321069222e-02 -5.491984024161640221e-01
5.049927289245701445e-01 4.352185855396250580e-01 3.867698830474439187e-01
9.261739901539405018e-02 -2.176719343115334285e-02 5.727982032812543173e-02
2.279609006154095438e-02 2.014212795747287454e-01 7.609130550374541002e-01
-6.568568857271271932e-01 -4.123443058807462203e-01 -1.997692900615914147e-01
-1.958405308596435773e-02 1.955627078952912323e-02 -1.286308228470210008e-02
-7.230735757193551549e-01 -1.531622358383540744e-02 -1.898954348504263909e-02
1.411476113119260190e-01 -3.794805494975555527e-01 -8.215937371867236827e-01
1.191221422808107083e-01 -3.479617830454543453e-02 -8.059704555660456293e-01
6.313503039450970578e-01 -2.013940509310194749e-01 3.640917356100636243e-02
1.922612857193127800e-01 -6.659652145299435055e-01 3.000159296751603311e-01
1.777453668216137095e-01 -1.366433427570003245e-02 1.206509437522103184e-01
-3.043648351872457747e-01 -9.564184039045452446e-01 1.063374485116924673e-01
4.289719713298841275e-01 -8.004329796341691505e-01 -4.141322389474780263e-01
-2.649817033888950957e-01 -9.255208103293650623e-01 -2.797884946530907468e-01
-1.282204950556958267e-01 1.813165131272086728e-01 -2.920075648998352591e-01
2.335548127857597633e-01 -8.292829633786467092e-01 1.247043072618242432e-01
-8.108197870110044059e-02 4.560631553333404503e-02 -6.054527242850817059e-02
-7.052304830181651552e-01 4.949159230144029586e-01 4.023531216168627078e-01
-1.514661645718605176e-01 -1.005019768404353392e-02 -1.797480333458765789e-01
-3.939113420698613782e-02 -5.777680664092122997e-01 -7.122693024996297195e-01
7.019504187675794649e-01 5.540303939136463907e-01 1.213096481904122753e-01
2.145247755749042085e-01 3.947552318082459544e-01 -7.185616641482753808e-01
5.478929596694978033e-01 -7.062799406964196391e-01 -2.086638894129637101e-01
-2.516692517146520425e-01 -1.087684698783318443e-01 -3.809454874266346991e-01
2.974413068631041601e-01 -4.079723638191239121e-02 1.437321797650422395e-01
3.691946104896908221e-01 -8.023601178738628548e-01 -1.274449363488623296e-02
-7.687642201695220612e-01 3.014547697613959021e-01 2.031820106391951097e-01
-7.993919086692072851e-01 -4.204023434174486429e-01 5.614108594176041300e-02
1.586851538592897182e-01 -8.516862181031091203e-03 3.617195762509215484e-01
-1.923515982329117302e-01 9.350351250716230078e-01 8.103374502554544501e-02
8.730695266998267368e-02 3.138446442571054540e-01 7.320779585424336267e-01
-4.057342347332139054e-01 -2.575571550677817068e-01 -3.885299413589237139e-01
-3.139355661883148074e-01 3.380535414865322719e-01 -1.871649034838354375e-01
2.997600976123051542e-01 5.972646740269474952e-01 5.636822646423327310e-01
-2.798372061066250471e-01 1.648480818571320533e-02 -1.515700185003814870e-01
-3.153572924240636288e-01 1.128409128875495354e-01 8.710021320158183311e-01
-4.976321608302194943e-01 1.451249099041286295e-01 -1.040732477023964125e-01
-8.408107769422619171e-01 8.523974855663796202e-02 2.268051692854164136e-01
-4.732423152148841350e-01 4.624548638523911515e-01 7.623391731556702355e-01
3.380519154974153118e-01 9.060472102755181556e-01 -2.529441733824012717e-01
4.147780911899129896e-01 7.902464146007746049e-01 -4.288506780993630585e-01
-1.237408475564453075e-01 5.384742966825806915e-02 -3.291620947232123950e-01
5.379100090443376947e-02 -2.771556884321408828e-02 8.505308476081566149e-02
-3.029965635905319463e-02 -8.652396811393029408e-01 2.938119149108105455e-01
2.061043302540301880e-01 8.796695022334680703e-01 -3.230724438160532674e-01
1.404990037895093302e-01 2.979832030422610023e-01 -7.216013692700974369e-01
7.735842832448082129e-01 -2.948268596931254426e-01 -1.759686841341981944e-01
-6.328259346183829903e-01 1.337912009128595925e-01 -4.272514212855152427e-02
-2.381974654515378320e-01 -1.908912296857203650e-01 8.096836885368857706e-01
-6.999474995731300719e-01 1.552736834043811354e-01 1.908667008809370944e-02
-1.236708034338817180e-01 1.489456415200563488e-01 -2.430971332248453298e-01
3.049566655936164841e-02 -1.760786633527859635e-02 1.243201098650027238e-02
-1.329602275519977117e-01 5.490944489187070399e-02 -8.449639972614958472e-02
7.477956552089329301e-02 -2.661305500074046503e-03 6.331711490699216960e-02
-6.524296212121158400e-02 7.464798932341015943e-03 -9.713840315377712809e-02
-4.415793721516921844e-01 4.015268978136508626e-01 -1.151691758600911636e-01
3.382911196637572449e-02 5.080554940777750987e-03 2.860597309381206904e-02
-1.608710372496321150e-01 -1.999322986712413763e-02 -4.051841948173549035e-01
-1.123512788243920257e-01 6.354419803031137459e-02 -2.662988625457132219e-01
3.061559584437794079e-01 7.558801324786647291e-02 2.682018418382650093e-01
7.111573703982266847e-01 -4.844738961842317559e-01 -2.430347034201671974e-01
1.096575912466791480e-01 -1.455130592696159686e-01 4.506638925632689419e-01
-4.238001279881665750e-01 3.034389108639130028e-01 8.395412680433821384e-01
-1.468143064110805363e-01 1.163988534867858998e-01 -1.295093514867333984e-01
1.021029538435760109e-01 -6.076180641110012770e-02 1.864373713369363583e-01
1.435600167456645704e-01 -2.199472599876023046e-03 2.079023938238304670e-01
-4.008288156521732509e-02 2.523033107247774944e-03 -6.184327158446670247e-02
-6.523020213472366935e-01 3.663280999729058296e-01 5.216120754127346465e-02
6.991683754717888943e-01 -5.223521937432191731e-01 -4.093488037953953440e-01
-1.107915079002544240e-01 4.714698291327532216e-03 -9.592831726739516063e-02
2.868102571601162665e-01 -2.357436959218977002e-01 1.707956800417640697e-01
7.687934885712213173e-01 -3.643914645996262358e-01 -4.904805745123417271e-01
-2.203243980194973251e-01 -7.822675569591686084e-01 4.602551166810585070e-01
-3.678940361238061674e-01 -3.143858856800721968e-01 -4.624249420346655537e-01
2.849570457080028429e-01 -1.122517438784721294e-01 1.307251294490621440e-01
-8.758603737835343739e-02 6.924977024267808812e-02 -9.068859418393705740e-02
-5.308460484683441560e-01 1.241954838257480626e-01 8.325466516276969209e-01
2.425666339399924487e-01 1.519155296205510486e-01 4.914201920631069420e-01
5.518876471816619445e-01 -4.187950371500267499e-01 -7.437268466275145373e-01
3.074991716485191845e-02 -2.517423980202842734e-02 2.527255031126806467e-02
-1.449936766982844738e-01 -7.969950698850444479e-03 -1.865022021258127272e-01
-4.966575478523128639e-01 7.327130763534811519e-01 4.399466355322985134e-01
-2.522313225065629938e-01 2.846593450084460297e-01 -2.058755935344682431e-01
-7.467571550019699855e-02 5.083411353557239394e-03 -6.218486658400320527e-02
4.645073517430699517e-01 3.708653798095060683e-01 4.098227163457734412e-01
1.567548686180989664e-02 2.182062477228980668e-01 -6.443155152434406618e-01
6.167684738607286110e-02 2.014707122009680995e-01 7.323593116202131714e-01
2.737428682118162593e-01 8.363694388191619811e-02 3.138592696538982652e-01
-5.200182216660006324e-02 2.035323984405399550e-02 -3.226894609359504118e-02
-6.920380826943222097e-01 -4.715437027757971578e-01 -1.461319713852109459e-01
-3.931812699899686070e-01 -2.138021455901623069e-01 -3.636093135619138383e-01
-5.625557768960615102e-01 2.257177252451630922e-01 -6.225193468420910786e-02
-3.318080633083234782e-02 2.455145887723325301e-02 -6.623973834793907001e-01
6.696886434140254807e-02 -3.255475759788440393e-01 5.182812349273222541e-01
1.027328353424620394e-02 -1.210737848235298115e-03 2.600771706930057880e-02
-4.074233963311503226e-01 -3.691491761498140733e-01 7.646705316049573486e-01
1.522770403550161855e-01 -6.575383824394135379e-01 3.412581640564269492e-01
-4.423034956052662725e-01 2.132981045552715671e-01 -1.137977751097146578e-01
-1.234084607747153728e-01 2.961025394693933555e-01 8.336205572407394682e-01
6.583068392984575690e-02 -8.705249825474376327e-03 8.830709933990014970e-02
-2.733712502993549537e-02 9.812969553517337795e-01 2.376787949587743642e-01
1.570667201210980413e-01 2.050850913630912209e-01 -7.635181192489147728e-01
7.524937075050518176e-02 9.667714755150028649e-01 3.027320004406331422e-01
3.248814696873083552e-01 -5.561126915160773121e-02 1.426546581379062872e-01
-7.752893537803835500e-01 -5.333622346055588714e-01 3.336313207225084509e-01
4.591750512932455952e-01 -1.735844393440529598e-01 -8.516432698047535776e-01
2.810460031361980970e-01 8.654172141952908293e-01 -3.475307813901906129e-01
3.484803934854438512e-02 -3.824485220628678905e-01 5.493145914787582740e-01
-1.367165921354352998e-01 3.585005619099339985e-02 -8.580511590894103480e-02
2.470965521964987588e-01 4.270952218933417588e-01 6.224779308626353647e-01
-8.595886365678014063e-02 7.489943971657412325e-01 -3.251738780841947896e-01
-4.018713629525259151e-02 -1.202037437650776280e-03 -3.422253006057309616e-02
2.873476185778667813e-01 -1.968701012538224826e-01 1.535417106807383247e-01
2.095007576817270734e-01 -6.466285801175509773e-01 2.927186565297673071e-01
7.675754259099256682e-01 -3.006797237511742438e-01 -1.675724506415859905e-01
2.760948930084508590e-03 1.513698930040551817e-02 -1.090310072503819679e-02
2.872083193141750646e-01 5.167333412277103771e-02 2.359028759529129271e-01
-8.158121517570491310e-01 -1.316481200133718110e-01 5.706246311017252326e-01
1.007887354731993174e-01 -9.719748180508478441e-01 -2.434355840205742472e-01
3.691178526679718686e-01 -5.256616594659820896e-01 1.747371484579023082e-01
-8.033970664410173823e-01 6.549520647802947737e-02 5.929016021531828828e-01
2.233423495672927916e-01 -9.120661023934875100e-01 -3.731658185196228827e-01
1.171901031283004435e-01 -1.016563941748321043e-01 1.495268635069929852e-01
5.977440518299835803e-01 4.352406714554953870e-01 2.887975189937850296e-01
1.966289907414512511e-02 8.470682143126335648e-03 1.849299698391381266e-02
3.786334837957973098e-01 -4.269097443030581696e-01 1.704788019404972488e-01
3.947087927715142164e-01 4.144184456484786838e-01 -7.406454362226265742e-01
2.844390319239192833e-01 7.954224525241654353e-01 -4.449572911681889953e-01
-4.261324293003259656e-01 8.140088135444000228e-01 2.372658921729451642e-01
-2.102630920012576732e-01 2.728584643040504187e-01 -2.341901481922989137e-01
2.634771081795373449e-01 1.200514002137032937e-01 4.084132156318777129e-01
-6.346921964260109350e-01 4.317160852349107847e-01 6.429495783326523439e-02
-1.030823534140739156e-01 9.895109871971674576e-02 -1.505540281415418402e-01
6.616266336879261800e-01 -5.067593275274603348e-01 -5.568193203134721436e-01
-7.055558028056437836e-01 -6.173839282373506654e-01 3.771792258256594366e-01
4.604023210829377155e-01 -2.192138590175741752e-01 1.152134031652017887e-01
-3.802477356818357301e-01 -9.370525973137425746e-01 7.229204265362372539e-02
-7.523712788548005959e-01 2.002790185910576504e-01 1.018190705143785929e-01
8.368232859032233295e-02 -5.994209044998755759e-02 1.296295763475885932e-01
4.082701264251447082e-01 -7.014076392082123634e-01 5.580939866640431679e-02
-5.040945625161615817e-01 5.072525729336911926e-01 7.177516385841319346e-01
-1.290290984166430344e-01 -5.966600892373401521e-01 5.835711664622966754e-01
5.646224358657657705e-01 6.312093644697093220e-01 2.913541253359877015e-01
-5.908327554445780283e-01 -7.679895048872069363e-02 -1.443545854083913005e-01
2.906191190996333662e-02 -6.448393262668198345e-01 -7.046200959377743045e-01
-1.157183789677259794e-01 7.665494065016359437e-02 -4.157118593301584175e-01
-6.201588136949994778e-01 3.587158690751472423e-01 7.162393185773798798e-01
7.337108637927139410e-02 5.866674245807614874e-01 7.027370627313401785e-01
4.007956934215052835e-01 5.528615411723732942e-01 -6.600613360595295465e-01
-1.050025362511375765e-01 1.690976885648252243e-02 -7.386183724090682190e-02
-2.732231500233529009e-01 -1.254445876048627118e-01 8.354109433877788815e-01
-7.605982049240739284e-02 8.570821487798596650e-02 -5.551966548075663033e-01
4.219774076698993293e-01 2.022924040614719199e-01 3.431062295034609799e-01
4.975107579628306187e-01 -2.351346972893823828e-01 1.009404926933624436e-01
-2.755413138634465464e-01 7.150700818859662133e-01 6.586171028708143194e-01
3.863079885799861612e-01 -7.937888277033141593e-01 -2.586597548031382629e-02
-6.059432844599875745e-01 2.964390593654896988e-01 -1.752262120780869945e-02
-1.133391565783149757e-01 1.804504488131238593e-01 -3.695834456986635264e-01
5.021815054835497838e-01 1.797106964869397416e-01 2.671638962304881404e-01
6.652517188664803793e-01 -5.572262766234570286e-01 -2.314155282624720256e-01
2.690647229808172947e-01 -2.128476889076660883e-01 1.664050500445907743e-01
7.432872957652342932e-03 -8.319139804940854921e-01 3.138978582486831592e-01
-2.522787117770520018e-02 1.033188222617113100e-02 -5.520936742509380962e-02
7.524708466810524632e-01 6.197613026000289294e-01 -1.345104127494491097e-01
-7.425930962449933670e-02 -4.197135783740542081e-01 6.402580380672014959e-01
-5.360223554117099498e-01 2.733927089879598094e-01 -6.901814575282445852e-02
-1.163297180376640788e-01 1.293846897694373166e-01 -2.267712174954644444e-01
-3.650356233409917106e-01 -6.446130821526805388e-01 -4.815062521549085539e-01
6.079423340684403376e-01 -6.535800987082361901e-01 -3.289962279803780310e-01
-3.304651575897225579e-01 -2.068379933710490226e-01 -4.184211364190704718e-01
4.388466196399143371e-01 3.163805430038691968e-01 4.101168146896349564e-01
2.743229459238279433e-01 3.574260518349546834e-01 5.871979966085378866e-01
-7.188175983619552456e-01 -3.613339115261225976e-01 -1.141792854491167908e-01
-5.252922799135216758e-01 -8.134512243282936428e-01 -1.360263464292287561e-01
-6.086865567796222870e-02 5.344255085461448868e-02 -8.459763553935858993e-02
5.168129968509838079e-01 8.112469185219466361e-01 1.805858236443127207e-01
-1.354883792681230714e-01 1.701026559500944391e-01 -2.393397047173464187e-01
-1.546288675100287169e-01 -2.483552279425912390e-01 -6.495502204617283892e-01
8.861062591231277930e-01 1.459725796729240133e-01 -3.554991515867110818e-01
-5.756328777462971225e-01 1.426071153450876317e-01 -7.345957149195449232e-02
-1.302088502084286781e-01 6.286452236315392961e-02 -8.627998321035437734e-02
-1.400773892215991245e-01 -2.166789494573613806e-01 -6.517507651525473733e-01
1.497023500734273871e-01 -1.842195490028121496e-02 4.173022904801175770e-01
-8.739668484240360399e-03 -4.410546758007025635e-03 -2.683131577353675690e-02
-7.879595524202842594e-01 3.261294785782467565e-01 3.268199182578407358e-01
3.781378469472096993e-01 -3.506403224160944410e-01 1.618873898145513357e-01
1.202296057069640739e-01 -4.441800650914783377e-01 4.315495358199201159e-01
-5.370260477367354568e-01 -1.931532100666629448e-01 -2.400872027127225472e-01
-2.025114126585904339e-01 -2.234420702335537801e-01 7.876971516841070331e-01
-1.310587693769013073e-01 -3.251906204374155340e-01 7.165389628241735087e-01
5.325742018190643412e-01 8.481253665371153438e-01 4.437850226748200899e-02
1.659122709777473281e-01 5.897445729749308148e-03 1.569442314935551031e-01
-2.466298295308561594e-01 1.239843426492207995e-01 -1.274762558864871720e-01
9.048173142188074836e-02 -1.510811082054770021e-02 1.310145758595960275e-01
-7.851070943963371906e-01 2.057962821661576958e-01 5.741750751562544330e-01
5.479826203749132985e-01 8.441033763434045989e-01 -3.962324232645724441e-03
-7.239037894188113942e-01 2.558274681543962203e-01 8.883402943487118952e-02
6.872593502396016907e-02 -2.517300032910922414e-01 5.292828687439999902e-01
3.153072691002455769e-02 5.733551164313196655e-03 2.387366462544416451e-02
-9.895146902813821421e-02 2.969556827004408636e-02 -6.444023968595714857e-02
9.462719395571764225e-02 -4.539493654045813516e-03 1.102124292478133261e-01
-1.792114658273023797e-01 -9.921468593338997888e-01 -1.073630839129801201e-01
7.043954546336140821e-01 -3.077579701717866323e-01 -6.935233441742395810e-02
-2.240787436140346811e-01 4.925109669293409320e-01 -2.956961347990630928e-01
-9.783834578871400400e-02 5.938193104246291404e-02 -7.602035547207112998e-02
-8.329382992791738438e-01 -3.394224856861511319e-01 4.213004702563423742e-01
1.690074087630576427e-01 -4.039117360516950583e-01 3.666075548759302194e-01
-1.297905232199786651e-01 1.029193321509085379e-01 -1.206646382516282923e-01
-6.879074115124695910e-01 -4.820383213821478607e-01 -1.502819323931588735e-01
-1.900387109289904120e-01 -3.274312365282624343e-02 -2.622452468689461802e-01
-2.104955952698578103e-01 2.626577885840588600e-01 -2.264723658411419427e-01
-3.264406431295976407e-01 8.777015053922729848e-01 1.727786855036371472e-01
6.191011699619332065e-01 1.399322507943474569e-01 1.672151853865007365e-01
1.349939903478961784e-02 8.124576403513087408e-01 -3.366646240141645263e-01
8.062311284137487766e-01 -2.786812081876287595e-01 -2.547166498204345708e-01
1.974379778050893985e-01 9.588950996743575983e-01 2.635903487200982331e-01
1.665768345800617556e-01 3.725874150557563057e-03 3.140824202565596912e-01
1.823632933875352080e-01 -2.638667185184613573e-02 1.122291969102002379e-01
6.728822484495815548e-01 2.039308317330251474e-01 1.497588043614641318e-01
-2.289444598158305311e-01 2.651839862893267119e-01 -2.118170178317696495e-01
1.666634400403076144e-01 -3.991117289640104537e-02 9.833215725340077595e-02
-4.770218962564568010e-01 3.282217989999130503e-01 -9.645847818356251269e-02
-3.256034559808431705e-01 3.472110656271847895e-01 -1.823602007177630435e-01
6.180691668872204669e-01 -5.977581744964695076e-01 -1.682251833166250876e-01
3.542891996208202832e-01 9.529372649626254299e-01 -2.007493577175423205e-02
2.652647027627911824e-01 3.427784129506765143e-01 5.913236258834209114e-01
2.448618730796397192e-01 1.221047690384958889e-01 4.452586131393274083e-01
5.719880849911944676e-01 2.688820067470754638e-01 2.663225992949491139e-01
5.530896178256992923e-02 -3.963679795824816970e-02 7.769813740387093715e-02
8.219649225504430112e-02 -5.928857535110176706e-03 1.003288667407652435e-01
-1.541990298494649025e-01 7.106548081015916507e-01 6.810687031284407000e-01
-1.620045324405672282e-01 -1.659007283343857109e-01 -6.000478987158055499e-01
-4.601131414689738075e-01 6.643761666187081305e-01 6.094330258435776138e-01
4.804622806488066389e-01 1.805578784969817663e-01 -8.180342462208505250e-01
6.185161504211948713e-02 9.974918525306977202e-01 1.367844881908813204e-01
6.874427094922277437e-01 4.776050689425811457e-01 1.728391406762536664e-01
-4.006621242281969142e-01 -7.662350033394359494e-01 4.668365235637952360e-01
-4.252879464201869131e-01 1.797786854000020251e-01 -1.191260354047312953e-01
1.267203276336149320e-01 -4.575147940418474168e-01 -8.011664579263609864e-01
1.822532978973925161e-02 9.938429549737046731e-01 7.716350540508161437e-02
-4.975662889580725334e-01 -1.387217689421872957e-01 -2.300559703656423760e-01
7.384372182040507271e-01 4.061835137249270034e-01 -5.719057878297971742e-01
-5.070374046493746345e-01 -8.184514004322880343e-01 3.086489440201767853e-01
4.509040862058114052e-01 -8.011780000293655668e-02 1.348658050641127759e-01
-3.264410378898720544e-01 3.442682897287506205e-01 -1.810746867787157155e-01
4.823388131492992725e-01 -2.594195585609421206e-01 1.058581764590978969e-01
2.759215926590617984e-01 -8.271878651020287895e-03 1.591009646741163852e-01
-3.349923773383073344e-02 -9.716045378660532750e-01 8.037823316516920502e-02
5.425654726652890010e-03 9.032802971718190133e-01 4.553308475636431707e-01
-1.978353981922151283e-01 -2.007961747366785593e-03 -1.489786170606311744e-01
2.359071640411669335e-01 9.072792710863988863e-02 4.017664877072102403e-01
6.591393244915183525e-01 6.759411936377034413e-01 1.005048307810216257e-01
1.232380251933298948e-01 -1.852961708146420305e-01 -8.269074311064029681e-01
7.850971728115903048e-01 -3.647187318011871904e-01 -3.378007804368460265e-01
1.028008026916576167e-01 -8.385923688445153304e-03 5.850846689656158395e-01
-7.324069590135992014e-01 4.478621608005049493e-01 3.294693137995385324e-01
3.119576196392467859e-01 4.038598500458555618e-01 -7.404742469992203757e-01
-1.057482779135116430e-01 3.257312047943553002e-02 -5.250274814966674475e-01
2.375636410104897678e-01 3.377659709683301648e-01 6.154714246228580876e-01
-5.945599334350593068e-01 -7.263727099610921556e-01 -1.435741554859889246e-01
1.383272941864790440e-01 -1.642191915675205727e-01 2.666180154942138780e-01
-9.365138063856803807e-02 1.110480696756772356e-01 -4.869440083557670107e-01
3.053795842225002777e-01 1.127042679118229890e-01 -8.380150287266867615e-01
-2.692146991675762324e-01 3.873120753701496666e-01 8.386529350543722172e-01
2.715826931302364831e-03 -9.089331309748190091e-02 6.886726240357168294e-01
-2.720949858234488206e-01 -5.216538249363383839e-01 6.777886782348787609e-01
4.270322713492177846e-01 7.099232744396494210e-01 -5.225117533971493922e-01
-3.469131034068914654e-01 3.613068729872226936e-01 -1.722256152305060295e-01
-2.633082767889461384e-01 -4.346735010313040326e-01 7.226482192295022866e-01
1.133396980318732289e-01 -2.067960027653238664e-01 4.261385370360720182e-01
3.262038684943833339e-02 -5.934452575970657236e-03 5.073802304963098697e-02
-1.454704307604345187e-02 -5.927753004456011166e-01 5.153056777647011533e-01
-6.233465440917545369e-02 2.042031622985293615e-01 -5.277275077736471864e-01
-4.855772116797929527e-01 4.787868623600092244e-01 -7.033210647102731972e-02
5.050051614252275556e-01 -6.565316181947922214e-01 -5.845121024095598639e-01
6.015683769463882336e-02 -9.566802851224021076e-01 -3.340532562693123708e-01
2.298661892320637834e-01 1.114715300489041577e-01 4.562328441575986826e-01
1.237454234082821097e-01 2.562506189754528707e-01 -7.262505062183949311e-01
-2.762363740538013590e-01 2.341574561204119165e-01 8.650780862250209147e-01
9.904790353874849684e-02 -7.989147313930873573e-02 1.514856559281058945e-01
-1.263673183521962506e-01 -4.198403117227437198e-01 6.745888770775912979e-01
-1.804262341036700912e-01 8.399449382456470811e-03 -1.284682818419179695e-01
-1.844489353820135957e-01 -9.532186685828580863e-01 1.757593974633562539e-01
2.969215233233714613e-01 -2.996161494602279651e-01 1.943030919177964333e-01
-2.285366918492243993e-01 -2.954040357851718257e-01 7.721585074930751302e-01
4.865723287769641581e-01 -6.858981664363819064e-01 -3.555815603462687130e-02
-4.199435110912311253e-01 -1.946558863039589971e-01 -3.240825259793991275e-01
1.244712252827473303e-01 4.855629480322115610e-01 7.041363264574416192e-01
5.264395440334816989e-01 -6.426587093531153094e-01 -5.785912960712882303e-01
1.452284043414034387e-01 -2.741053652742901203e-03 1.219548313406033924e-01
1.815825993032201824e-01 4.062288290788211298e-01 -6.994376943477995656e-01
6.568682475482043315e-02 -3.093553459482769816e-02 1.049542678814354701e-01
-8.408412178603794640e-01 -3.867932003113742634e-01 2.330630617195664500e-01
1.158199770838868464e-01 -3.554332867135737151e-02 7.107620223452806862e-02
-4.309938327422362936e-01 3.836595916178578425e-01 -1.224719564326419291e-01
-1.539656114405374594e-02 3.817328970128048282e-01 -5.549562543900866673e-01
-4.328397489981895135e-02 3.598775494794267255e-02 -4.344169734856694054e-02
-3.294066328527717746e-01 5.469034089021406198e-01 7.681728056713145181e-01
-2.090949751060793005e-01 4.583909191864353749e-01 -3.095596400372210288e-01
-6.971712102707727787e-02 4.466588732731144318e-02 -1.308701267087182263e-01
-4.730038695437109864e-01 7.413179206966719059e-01 1.223425210401497681e-01
3.784398414155447643e-01 2.819402587107053826e-01 4.480155624395820158e-01
5.944741248701811663e-03 -1.062530369484142138e-02 2.008418182422907691e-02
-6.811954375590864030e-01 -2.829271507104116345e-01 -1.500847553854291472e-01
-5.268108123571673129e-01 -8.454323919643784713e-01 1.851253987730677175e-01
1.435530168083561098e-01 -3.710239231542261651e-02 3.818413120733022414e-01
-2.924845508046843845e-01 -3.305300494284867385e-01 -5.455717800433479425e-01
2.447019621982949589e-01 -2.961248785577698731e-02 1.357052449671469208e-01
2.000532954340029090e-01 -8.735253940614925439e-01 9.535563950382192067e-02
3.980448392484351450e-01 6.263575349816061788e-01 4.725290140174466247e-01
-1.080615768930178328e-01 3.373755631416441858e-01 -4.274156885793808924e-01
-1.314813529636623957e-01 -4.120345415041408166e-01 6.809845909874848724e-01
-6.502285508424487936e-01 4.815838732141435319e-01 5.889326958453215966e-01
1.039223268225155650e-01 -5.708156663545153886e-02 1.917723021618163715e-01
3.254134309049844798e-01 5.069130452083477900e-01 5.591346701269049868e-01
7.261372311065735774e-01 -4.541321742347549928e-01 -2.388067940276717427e-01
-3.833129976179980303e-01 -4.579622992379375201e-01 -4.929515551141995244e-01
2.227350632176964551e-01 -1.723753508916002208e-01 -8.557685461705618613e-01
1.372718592941223059e-01 -8.514454724595482693e-02 1.038051957755845578e-01
1.162489514229533699e-01 -5.085906613206099026e-03 1.484267219546137329e-01
2.847317824021322608e-02 -1.622844095877936377e-01 6.271122291623419942e-01
5.858447270632156922e-02 -1.508868873508504085e-02 8.742703498313905697e-02
-6.415929088806586744e-01 5.796350031173272965e-01 2.483530137913761704e-01
-4.800537924649531107e-02 -2.593496404614994977e-01 6.791578308089900595e-01
-2.517503866016083114e-01 7.121393646765197261e-01 -2.011364605310288767e-01
-1.881260074628802736e-01 2.247749175989017523e-01 -2.176029220442528833e-01
-1.349323849199351444e-01 2.153899789246299379e-01 -3.112235031619201009e-01
-2.238377068409777571e-01 -6.354054571661857942e-01 -5.928652059002194052e-01
7.400941561410882830e-02 -6.277627975590950316e-01 4.257437479110486311e-01
1.573849746399129113e-01 -3.091115587369663506e-04 1.338139411399615064e-01
-3.694314922545116064e-01 7.243521064105629126e-01 -6.388973745032625051e-02
-1.942057035343702498e-01 -3.437726743778399263e-02 -2.576846897086296218e-01
-3.091311831040372549e-01 2.034275403941162019e-01 -1.450037654988740043e-01
5.506060029087461033e-02 -5.784145527164733609e-04 4.110200266086331405e-02
-7.393903966983202125e-02 -7.666844071550944772e-02 7.618515029773733627e-01
-5.817934125412971280e-01 -1.337933773859657505e-01 -1.775660037670128977e-01
-4.367108659780102320e-01 3.893680426593831845e-02 -1.448215765794620968e-01
1.065157644196387116e-01 -7.854621821715040975e-01 2.908833452496799032e-01
-3.641943663311025120e-02 3.200317909217562790e-02 -6.690429676999092024e-02
2.317014975988077874e-01 1.710053767670917102e-01 5.284841302600411517e-01
9.847448377995390162e-03 1.939870908057307053e-01 -6.461801683966085230e-01
-1.844704681671958391e-01 -3.324689343538853731e-02 -3.038180667376590982e-01
-6.954564282767646821e-01 5.116172903886052614e-01 3.975488072011499896e-01
1.158352721533019852e-01 -7.467935276451119486e-02 9.467379037438736211e-02
4.350143325308631903e-01 4.612835656427338171e-01 4.591222213266329955e-01
-2.200683568909034826e-01 4.138258100979412268e-01 8.303990908673832827e-01
2.075761559266476874e-01 9.024632639440596238e-01 -2.839547738507067209e-01
3.183098041401801193e-01 -3.502828176749079314e-01 1.987337530551834264e-01
-2.089016389997466194e-01 -5.798820836277911450e-01 6.260488917470788950e-01
5.612184674794610389e-02 -1.444167337507173132e-01 5.906419440690592326e-01
5.235907241862525208e-01 1.808566593187153626e-01 -8.072260139183863314e-01
-3.574250264459903903e-01 -5.557126711970543642e-01 -5.132718431044634988e-01
3.761623126778005366e-01 -2.681707005971474891e-02 1.584473298265684504e-01
-2.622845328322721548e-01 -6.864177124960256782e-01 -5.430494151624869481e-01
-5.211507125707218746e-01 -1.648906724285171266e-01 -2.333672359902742022e-01
8.118455872604571910e-01 -2.202641181103667800e-01 -2.073180691513057672e-01
-4.698315853512437940e-02 1.458682927543811514e-01 -5.814994424979709198e-01
-1.073326718092812160e-01 2.721247047935207095e-02 -7.031108122459861498e-02
1.713025497891236537e-01 9.865684816737066432e-03 2.946940142543562069e-01
-1.846334020523150710e-01 4.702107398640128499e-01 -3.371031557639413423e-01
-8.940503674740446494e-03 -4.685722507380524551e-03 -2.656998725465311434e-02
5.413484634420749897e-01 -6.153331736506195693e-01 -4.626025770276938343e-02
-3.171727222691368975e-01 -9.618873042988335120e-01 3.430122554199806217e-02
-1.851157585950654050e-01 -2.951691664219118633e-02 -2.580670329437963484e-01
-3.230422314243490134e-01 3.201663361541122743e-01 8.521514164306606132e-01
1.521190915675285638e-02 -1.785218136312285639e-02 2.578845830959636959e-02
1.541400632106529611e-01 2.707051834468359730e-01 6.719773504988064694e-01
-6.358789512415410350e-01 -4.563026702568996340e-01 -2.265345886931010855e-01
4.982881300751575981e-01 -8.370206900110374604e-02 1.247754206096849672e-01
-3.667438637682253200e-01 -7.203841350824698175e-02 -2.292853031830682509e-01
-1.188491784183336175e-01 1.444167370885785506e-01 -2.756155353242727979e-01
-4.205534009956443664e-01 -8.934667287731430374e-01 -1.472437704031752947e-01
3.217323091302943805e-01 -6.619203980210286442e-01 1.765917686515488250e-01
1.275452346411752036e-01 -2.071460190940328447e-03 1.161718161602332405e-01
-4.705614119029427806e-04 -2.975402346599664294e-01 6.167211374567898030e-01
7.757912181679917918e-01 1.613431491614693847e-01 2.092738211977713744e-02
1.100916520942550325e-01 3.173278178871339894e-01 -6.945364315420089474e-01
-6.809875689953237554e-01 4.880061790419066292e-01 5.194291851964037976e-01
-4.254840266584917763e-01 -7.590215780389625300e-01 4.669480685196470970e-01
2.005365325034082769e-01 -4.840934251198428934e-02 1.115996386311118860e-01
-1.067636043015610520e-01 9.557351496550334224e-02 -1.281705547959673397e-01
1.488149337511306125e-02 -7.345587909233031523e-03 -6.476746783971846014e-03
-4.079722517353782107e-01 -2.424339074137878414e-01 -3.748172331449873829e-01
1.701446291259957888e-01 1.194298001204043350e-02 2.379433310312780159e-01
7.287175595592430000e-01 -3.645111275194753420e-01 -5.879069554913185502e-01
-4.057143174154659859e-01 8.302570139996687804e-01 2.857012357969936911e-01
2.092227572109197145e-02 -9.313153314043275399e-01 1.517567829693309833e-01
5.823941817058840842e-01 -6.618092088889494518e-01 -4.434921951274569674e-01
-6.380007466874697553e-01 5.977213441815746320e-01 3.069015961178853669e-01
-4.992630561889076501e-01 -3.421342836525744779e-01 -3.504848809654163011e-01
8.234930316431059438e-01 4.667219870426983497e-01 -2.975909239163467279e-01
8.653830267761416506e-01 1.577760298845715947e-01 -4.663167088076026756e-01
5.511375109105479675e-01 1.309615011684610031e-01 2.059679838502586069e-01
6.026660041522452493e-01 -3.613260830797629941e-01 1.538521325479349881e-02
-4.889168268296740227e-01 -2.146903729575641018e-01 -2.882883764997017373e-01
-2.001232401590379850e-01 -7.924236479260327037e-02 -4.294974381188606527e-01
3.217856859154872851e-01 -9.929350079017346120e-02 1.339116313397378244e-01
3.496002714385705867e-01 3.919106590113280442e-02 2.066136024965397888e-01
-6.402551947463477333e-01 -3.095182729958093071e-01 7.084705826161602493e-01
-6.696531673471910473e-01 -7.093236342785007587e-01 3.484696129175185453e-02
5.507095318471237899e-01 2.694714425390624113e-01 2.849075027842694618e-01
1.289779443684908877e-01 7.645989990909035638e-01 -4.441984135273031042e-01
-4.027035905357524426e-01 -5.966261257080941460e-01 6.314575181916938229e-01
4.543243170178887236e-02 -2.416850609444365534e-03 2.447876283321560875e-02
-3.130664471752050287e-02 2.636792348339934283e-02 -2.608625933290330268e-02
-1.855439298497044490e-02 2.337913727539015288e-02 -2.011565034150234604e-02
-8.260614556296617117e-01 2.204979909114329617e-01 3.911068179416056778e-01
5.733417763173068171e-02 -3.796749442742491237e-02 4.810481095707504900e-02
6.926403673623343638e-01 6.667748664650827717e-01 2.709587405085006270e-02
-1.972445403533862884e-01 9.394741156294129647e-01 2.667261168316554243e-01
-2.356367536661679862e-01 -8.069910859646863693e-03 -1.656790987361100032e-01
-1.813606562928682386e-01 9.303899296151180165e-01 3.403164111077829346e-01
5.506540948185829620e-01 -9.839229587257473930e-02 1.045881104514701232e-01
6.770399860847521600e-02 -5.020085138937498831e-02 7.562774956672038695e-02
-1.287602652859529406e-01 -5.519171160486263661e-02 -5.626506712828517331e-01
4.599347250372028961e-01 -3.302533219403863685e-01 1.156717984954477307e-01
5.588095819800183994e-01 1.291087803563213121e-01 2.004604142931047106e-01
-7.701907088819068270e-02 6.408390966368349151e-02 -8.876947860861462980e-02
-1.348997714290850469e-01 -4.663556907732881174e-03 -1.726161559944056345e-01
2.166858163329347595e-02 -2.197502909684020955e-02 2.915683596068247702e-02
1.448476206027638491e-01 2.822312196868505541e-01 -7.300063254914767041e-01
1.401942099277893872e-01 -3.759690387124127453e-03 1.165659979147778968e-01
8.575410361759835398e-01 2.761025179187741596e-01 -4.280848366339948252e-01
-8.265412901679968297e-03 2.194027617733936789e-03 -3.275991759559780669e-02
-3.772727248375429832e-01 -8.092592729595563528e-01 4.163711770162977222e-01
4.580677758141522837e-02 -1.395446409377941732e-01 6.103699901463478517e-01
2.312775529484157322e-01 -6.636115501258680327e-01 -7.097804542197649891e-01
1.240182683549947568e-01 -1.801315953159123295e-01 3.769239048998142549e-01
1.868195000475967107e-02 -2.088750601995437509e-02 2.300090434953368235e-02
-1.496246879214019332e-01 7.261355728109489954e-03 -1.151915230627207909e-01
5.660942855682737918e-01 -6.920826668662294345e-01 -3.943840210964794091e-01
-7.108528938755571680e-01 -6.849718359035951443e-02 7.173702304388026585e-01
8.790310706159657483e-01 2.526615530751044059e-01 -3.061785453254494693e-01
4.679730388252218987e-01 2.297977580239703166e-01 3.284190625230910543e-01
1.036803462712079793e-01 -2.635282497757274276e-03 1.077398552388829506e-01
3.387791650949786293e-01 -8.596029537953056021e-01 -8.526467941385879046e-02
-1.935181503636730083e-01 8.972800660533629402e-02 -1.117058989626172893e-01
3.116382558054037744e-01 1.641029940853628022e-01 4.081990319905230424e-01
-2.360641307954234880e-01 5.519572195671513803e-01 7.784787325222498611e-01
-1.057062636679857899e-02 -1.556678047356256922e-01 6.786816853000643412e-01
-1.186182780185068009e-01 1.485276442996130153e-01 -2.929347851731752828e-01
1.047673485828603535e-01 -2.349712137708251380e-02 1.685258800353410247e-01
-5.118094230032660397e-01 -1.662145138973576408e-01 -2.400720997014167135e-01
-1.141117265093174044e-01 5.658315483932981928e-03 -9.608603934557785609e-02
4.221569809996447709e-01 -6.271818900733463487e-01 -6.792483913867529699e-01
-9.732032754844223421e-02 8.962281510562920828e-02 -1.821394337522278806e-01
-1.826583003690437634e-01 -4.997134666802856007e-01 6.634678630881490902e-01
3.484367555894893886e-01 -5.009473966068830192e-02 1.470849813491119373e-01
2.788827287157773505e-01 -8.934820822212685698e-01 -3.683323058588333088e-01
5.835509278224525476e-01 -6.568920717329920222e-01 -1.902947937268697765e-01
2.479974217957451876e-01 2.955602481511610535e-01 5.908786741420110067e-01
4.679875859354741818e-01 3.831314770192862929e-01 -7.477877606975563696e-01
-9.064840523738287859e-02 5.201339903524779817e-01 -4.354044337477998572e-01
-3.460194183185557604e-01 5.082975514894533253e-01 7.846204838964149220e-01
-7.869411550902118968e-01 3.333374686417869825e-01 3.821017203752372082e-01
-7.752752531628778754e-02 6.240591314725046912e-02 -1.396789145362913598e-01
-9.427952220787938487e-02 1.290391306001950344e-01 -4.715266080114013381e-01
-9.402560775541538018e-02 -9.113100264681520679e-01 -4.151228350680289392e-01
1.036260898293681898e-01 5.531134754072046800e-01 -5.847252319166758028e-01
1.586021220058943249e-01 2.787069516334024777e-01 6.702405418111632152e-01
3.582020750452077906e-01 -2.933960147043379596e-01 -8.519977839637854489e-01
1.251168716791652424e-01 -1.107624708139375164e-01 3.107571926941880003e-01
-5.610246948584546312e-01 6.736260317972426748e-01 4.384258157161387004e-01
3.692820304428724998e-01 -4.750881984170408218e-02 1.492982376047257143e-01
-8.332313156751511851e-01 -2.357675764607731761e-01 1.009250904554319511e-01
-3.454576680583253956e-01 2.085243182919272187e-01 -1.381599631256791305e-01
-6.908202212541751652e-02 -4.954300267255058038e-02 -6.527285605082773223e-01
-4.051608176356926161e-01 3.227002881905176590e-01 -1.340957369178061576e-01
-4.536665036919512173e-01 -4.969068695406522185e-01 6.909357302910473786e-01
8.131741957096667861e-02 -2.696795940337615508e-02 1.296679399119901044e-01
9.471685359630476961e-03 -7.652774296482686145e-01 3.805062017866038815e-01
-1.794804486628523987e-01 -2.028242921153594960e-02 -2.018010807786749794e-01
7.839613018918153986e-02 -2.034936396868975705e-01 5.221017772394999090e-01
2.776728216976019972e-02 2.102200862912447692e-04 5.628847388075468652e-03
-1.680323893980915362e-01 7.879756164269521856e-02 -1.027916973898398145e-01
-7.649812597327970698e-01 -5.452115029067329255e-01 6.322037676214135871e-02
4.037985416051295129e-01 6.827593712756123701e-01 4.418924898989722849e-01
5.226108226559726955e-01 2.514194495351630698e-02 -8.343811714064890417e-01
3.511368289102232421e-01 -1.066949603263044194e-01 1.348533020428775708e-01
4.656307412776140575e-01 9.003827587614972039e-01 -8.555096707814997814e-02
8.935455644692362476e-02 -3.318519894141061348e-03 7.964937740704819413e-02
-2.839034634395341539e-01 6.472281089915296048e-01 -2.054998476089591464e-01
2.379494160837267516e-02 -1.474050241911194388e-02 5.783519822104784408e-03
1.544550279151037930e-01 -3.143014248175963754e-01 -8.337843365133816853e-01
5.139164627867811586e-01 7.929422741919672779e-01 2.153716140515001265e-01
-7.412698254709375323e-02 -6.846182028731929992e-02 -6.561365547384703234e-01
-1.557904572803980869e-01 -2.314326080189811063e-01 7.642007985628082034e-01
-3.294389168811929780e-01 -9.171720771713196552e-01 -2.276126203273584059e-01
6.256883696219067616e-04 1.632420480761948359e-02 -1.055223056486067658e-02
2.808660134011161102e-01 1.339901853861671654e-01 4.049670808012566514e-01
2.664751557447154195e-01 -8.163204223284289962e-02 -8.601711821308234418e-01
1.802118747472588045e-01 9.811493738366042910e-03 1.694153466649613027e-01
-3.873041227238003814e-01 5.533897538286466911e-02 -1.426792694083177382e-01
1.385244347566756684e-01 -6.670967735282861376e-03 2.103566016169991781e-01
2.828864793670092248e-01 -3.529474554523519547e-01 2.256007362941278016e-01
5.751857028933243798e-01 -6.747606788394708843e-01 -2.105000788673863366e-01
8.088588972269644684e-01 -2.062053637312877552e-01 -1.873797057087136231e-01
2.489620412708072050e-01 6.522634138389452607e-01 -5.781867131056137588e-01
1.138149011102420477e-01 -4.034924552620740568e-01 4.421596843789903919e-01
-2.695653917388291855e-04 1.483931881652431929e-02 9.255918105867649414e-05
-1.952308970770519625e-01 -1.713220567329803434e-01 -5.594403760234524237e-01
1.572025575184943513e-01 -5.441993429263907167e-01 3.760803424551523721e-01
1.264583358034227223e-01 -8.936806199922216198e-02 3.168324063510847277e-01
3.373243133417306444e-02 -5.995673958555631788e-01 4.737539954261676955e-01
4.006657531246152759e-01 1.599302683770984501e-01 3.181281671433371927e-01
-1.326568146972301465e-01 2.690879299722415130e-01 -3.588082124990712996e-01
8.420312964428847691e-01 -2.611420783283181432e-02 -1.565733875782550077e-01
-7.158038892825290267e-01 2.095273782379973582e-01 5.724646192259053717e-02
4.210154377051044672e-01 -1.877079902916002629e-01 1.261001172981343899e-01
1.642055595595324768e-01 8.724500699497534165e-03 1.770016698974913316e-01
-2.655387076420566150e-01 -2.869638280125102470e-01 -5.527338216795446568e-01
9.234298228552180465e-02 -5.603257447408676456e-02 7.342130044532098332e-02
5.295547278981503903e-01 -3.914339579268562019e-01 -7.702185254418665306e-01
-3.555587304109192326e-01 7.214908798200800888e-01 -8.308730844836292873e-02
2.013786702063505296e-01 -3.081676710484610449e-01 -8.442081772021131636e-01
4.049534901239616458e-01 1.410415042133000320e-02 1.806756533916235030e-01
7.554070423583624239e-01 4.608316973828927715e-02 1.108511310587565954e-02
-5.569688172570792517e-01 1.278542232062538364e-01 -8.582147167252206221e-02
-8.758898775890023858e-01 -1.413736064518624769e-01 3.340763453391193960e-01
-5.192359303177994656e-01 -6.630719196964375284e-01 5.325703832747993305e-01
-2.065239458839342179e-01 1.728551427302649213e-01 -1.576260961411888317e-01
1.610483271589529530e-01 -9.493574436804681493e-01 -2.967783331509042388e-01
8.244010236099827971e-01 1.970088232532523631e-01 -5.540102762652733270e-01
-3.365956205952199873e-04 1.302536885309208380e-02 -2.204896360912732625e-02
4.306900887398136812e-01 8.871689955851727594e-02 2.321980275553953144e-01
-2.903484738687779343e-01 1.635465530938121775e-02 -1.535075001393328142e-01
4.323730653662279377e-01 8.397829535590509153e-02 2.275784841036007089e-01
3.545891988366767777e-01 -8.113921553797134312e-01 -4.919805163839828799e-01
7.414344520948655815e-01 3.694579340102543963e-01 1.014212889624482028e-01
-1.434533297184749367e-01 2.532933733965219147e-01 -3.232833797362291706e-01
-2.249047095502326385e-02 2.637775801579004750e-02 -2.755632488064105670e-02
2.617909533635141006e-01 -3.350791007023233292e-01 2.357721453902486553e-01
1.546518588094492885e-01 -1.346913294517397552e-01 1.580208086723954020e-01
7.456165327647151786e-02 -4.766796950578710557e-01 4.798811868600064701e-01
2.328489316117639540e-01 2.468831621003058155e-02 1.994129667911271608e-01
-3.423218393159781492e-01 4.921705367794477204e-01 -1.871862776364758285e-01
-3.115386762015737165e-01 9.351292598232955125e-03 -1.609783801916709889e-01
-2.578724506710605453e-03 8.792174080527237479e-01 -2.425092767496126733e-01
6.353895924293833097e-01 -5.426171757955093877e-01 -1.310419015744734017e-01
-2.518173186829975388e-02 2.852746353463084250e-02 -3.386891159822842667e-02
-2.941312262107288397e-02 -2.132877875807749346e-01 -7.465230274340891592e-01
3.791579326776157131e-03 -2.060246976192698642e-01 6.432136861113343373e-01
9.954561230967118313e-02 -8.216157253345240594e-03 1.302264356025077119e-01
2.173517298024013611e-01 -6.699847095017622545e-01 2.743295502308256695e-01
1.061049580181024077e-02 8.837508472234500978e-01 4.855183093539910399e-01
-2.294992257964678373e-01 2.317831615718897453e-01 -1.887023393953305150e-01
8.366794860140851497e-01 2.636062285129291416e-01 -7.717657505769004445e-02
-7.013367395428105056e-01 4.940695541622842635e-01 2.826145012277383461e-01
3.555244288219062132e-01 4.212353249297446506e-02 2.087149667322454882e-01
1.209183895042968276e-01 -5.584149865197504843e-03 1.602187860801930208e-01
-9.640917511455136812e-02 7.197539317666047654e-02 -2.003244368877213355e-01
-5.556681274651619207e-01 5.287709550362735822e-01 2.152388545013638257e-02
3.648091134162442101e-02 -9.861497153077776190e-01 -5.198203769917763423e-02
1.039671696771519126e-02 1.093313771898890736e-02 1.096545311661922817e-02
-1.797518845350596639e-01 1.504838641642684827e-01 -1.501807059286183743e-01
-7.678458221284254481e-01 -5.727632456001057193e-01 2.433851113495415774e-01
1.577391265323384029e-01 -2.142602051916594336e-02 1.023226320571141851e-01
4.968532995424487231e-01 1.282516672943711036e-02 1.624228106184908149e-01
-2.078804485541815850e-01 -1.472220738015797836e-01 8.121734398800906085e-01
6.955025107801812156e-01 -7.655883715753782071e-02 2.681550115931502151e-02
1.664462099464942002e-01 -2.065286901142420473e-01 2.490307789321782872e-01
1.298435422459084596e-02 -4.640542684435229881e-01 5.478808108742240224e-01
1.064607357451214931e-01 -3.137270464082221322e-01 4.523825475708596611e-01
-4.241258995647517044e-02 2.043649894865457242e-02 -8.129057766278273423e-02
6.894849812744635598e-01 -2.782703650524083194e-01 -6.946639408674784022e-01
-1.204203089687538308e-01 6.529601616237424265e-03 -9.871327434837690040e-02
8.559465822241028865e-02 -9.844168998553455563e-02 -7.996837823882693153e-01
2.014329993022535292e-01 1.482220494986689618e-01 5.517131489403197531e-01
2.532477585278819499e-01 9.180057658253371056e-01 -2.516891078626783962e-01
1.666458855855521282e-01 1.038788682248173965e-02 1.910275906762571863e-01
-1.286444557576384429e-01 2.090290336285098929e-02 -2.617550423734140708e-01
4.217357032414736223e-02 -2.824401478884341343e-01 5.655259443056238622e-01
3.434394630971204787e-01 2.384994082133730930e-01 4.514205005487266775e-01
2.512250627958622640e-01 9.823963849362370437e-01 1.814892910074554847e-02
-6.210969456418455881e-01 1.367155003132885724e-02 7.903582009092395833e-01
-4.300768660589931458e-01 -1.880326793277065367e-01 -3.106451718356772473e-01
3.320366800897009418e-01 7.007824368473041243e-01 4.941641813320310495e-01
-3.994791016130136430e-02 7.055884782203610157e-03 -6.867720187465904680e-02
6.996130515052867427e-01 -5.212145483891647002e-01 -4.114461314030363193e-01
2.202769774089265442e-01 -2.741068533867040968e-01 2.394187277988388263e-01
8.380118571732355637e-01 1.137842725228276064e-01 -9.723708329752132895e-02
-7.667221016283772839e-01 -5.396949164250102182e-01 3.531336566980727287e-01
3.437499096678622856e-01 -1.441604274863346122e-02 -8.621215161207771427e-01
6.685161363754771324e-01 -4.054041517623667712e-01 -7.433041793481187653e-02
2.356883768332812545e-01 2.578206962859225793e-01 5.859024597763027309e-01
3.046402172079724080e-01 9.053306348987090191e-01 -2.681740887096833448e-01
4.902296567822894691e-02 -3.206183598657454809e-03 6.229631642569938982e-02
6.796212720365308879e-01 3.811842856153763726e-01 -6.479999068105799509e-01
-5.915697510441850770e-01 5.493363777538049497e-01 5.992707535534654850e-01
3.880016250028184843e-01 -8.457997385305802140e-01 -3.322228806488783937e-01
1.552029333047673376e-01 -1.329108024714537734e-02 1.087159235123934392e-01
5.665134854649220286e-02 -8.189688926170038755e-03 7.761910069575797544e-02
5.142559933758453772e-01 7.455136196556380046e-01 -4.371732851276977638e-01
1.032257881127902066e-01 -7.259893104816955711e-02 9.580915974623986642e-02
-6.567968724603916175e-02 4.277972660226928014e-02 -5.402274208119345333e-02
1.685242040548376452e-01 -3.067456452477180379e-03 1.317112092256155775e-01
-5.911936474806729347e-01 3.152357177702168611e-01 -2.413127125896278452e-02
6.464114011913328905e-01 -2.489103341089161092e-01 1.179161592035386265e-02
-1.043371720411178372e-01 -1.538235727371148887e-01 7.592344057359372567e-01
8.028283667955170566e-01 -2.862447005122670252e-01 -2.519569742196650641e-01
-4.661302577980963036e-01 7.797106842242498281e-01 2.314991636964846555e-01
3.120564580723962922e-01 -2.693002440375898421e-01 1.739851840407470041e-01
-1.178663177673048429e-01 1.301734200508464917e-02 -2.035949449805123934e-01
-2.313459422283048739e-01 7.910018167945636058e-01 5.896313753620364695e-01
-8.498701279219493809e-01 1.081232660279691921e-01 4.266585405637342010e-01
-3.692725800618697901e-02 3.458080318525020430e-02 -6.298465278430914749e-02
