-4.085255706256360475e-01 -2.035626406306918768e-01 6.141453217748789051e-01
-9.632723853279319404e-02 -2.056364343064529324e-02 -9.697844688627752507e-01
6.758620115370677084e-01 1.482044457480288235e-01 2.355078971026707269e-01
-4.142985020500732918e-01 -2.100939807806994630e-01 -8.714756899406830848e-02
1.662817637998026121e-01 6.682205911428558132e-01 -7.108275602845659513e-01
-9.645617840300214907e-02 5.259744342261265526e-01 -5.331608441215393013e-01
6.919259903609671358e-01 5.368041741623422736e-01 -4.126957710306603522e-01
-1.914665047108582707e-01 -5.337826704036061631e-01 8.206833473881303131e-02
-3.773418417230494648e-01 -2.237182713361928754e-01 2.683035842375882662e-01
-2.139882373298133134e-01 -7.506534595922310649e-01 3.453529631302971747e-01
-2.099487340869670704e-01 -7.520787712945798953e-01 3.833021066249785447e-01
-4.571379150776939126e-01 -3.348475381034911325e-02 -3.200338520638980055e-01
-1.532613106925756197e-01 -4.954157942276115056e-01 1.632995751385801775e-01
-3.849137067317854322e-01 9.677366490463379378e-02 -4.224004317634602601e-01
-4.981898684809801803e-01 -6.901237695363640068e-01 5.643325735861396408e-01
1.987507441076581394e-01 -3.509696522958818399e-01 4.752100052700634070e-01
-7.915587744673963089e-01 -2.825827496201812061e-01 -2.262280810409401377e-01
-9.563927623344756213e-02 5.322297404001371524e-01 -5.429521834292205806e-01
-2.120341918614352950e-01 -2.025308837128945438e-01 -3.574514561025281534e-01
7.027913783951316162e-01 7.294025304533995335e-01 -1.426275269461514672e-01
-4.055842605292502706e-02 -6.439134493524949487e-01 4.734251151414168302e-01
4.215523642067997012e-01 1.982894340020111557e-01 8.932749105046947635e-01
6.802035595614311925e-01 1.532977673370326255e-01 2.307451595009124001e-01
2.291447162102102642e-01 2.603017538007035281e-01 8.485741292559511040e-01
2.329076400612080655e-01 9.183809665820022450e-02 -5.460544583602405799e-01
4.521934655249834449e-03 -5.269082205709393341e-01 8.366048818006402987e-01
-2.688731960832472789e-01 5.857573058660202336e-02 -3.953014886133348615e-01
4.554777261870673194e-02 3.523165692228218959e-01 -9.652329826509621347e-01
4.294640748313215406e-01 -1.859151849296508396e-01 5.170990569553342020e-01
-5.803790985010802705e-01 -7.854684029051626215e-01 2.792628258524328944e-01
-2.581221281614240470e-01 -1.225112592030943026e-01 4.887632833510611730e-01
2.545799114395841944e-01 9.108861130516433813e-02 -5.884990058122567813e-01
-6.207090178240870504e-01 -3.362971329451406449e-02 -4.079434388934102818e-01
7.448986926410298137e-01 6.288857237608419526e-01 -2.368873970443909904e-01
-3.081890906432002142e-01 -2.686108653267753610e-01 -1.591405012922009754e-01
5.908448928423079560e-02 4.777057301975178721e-02 -4.822869331871677545e-01
2.415228931980426541e-01 3.974133878535854869e-01 -2.094310007507181257e-02
4.842494387902713804e-01 2.667855619072507234e-01 8.442806766994174206e-01
5.387684867068316397e-01 -1.274936232265091451e-01 6.762484596422283500e-01
-1.051593519535080484e-01 5.915217662568456221e-03 5.614279817266565331e-01
-4.674333373468110842e-01 -7.471817474771679235e-01 -2.274191573914775277e-01
-4.492371984832084220e-01 4.992981250283008710e-02 -9.115892246682141264e-01
2.752524966598588474e-01 6.773879468875615428e-01 1.875161551016277933e-02
-6.213690018768549539e-01 -7.825378442041914795e-01 -6.361152534464525887e-02
-1.427717946383178227e-01 1.193638325109465902e-02 6.706719264497483790e-01
1.088007634777276265e-02 -6.195044755010721271e-01 6.218413497567453208e-01
6.789725756716692706e-02 6.567570155186109870e-01 -4.464614475896914736e-01
-1.305580291188932485e-01 -9.196055571590498745e-02 4.601444951984018927e-01
1.328544608513271275e-01 2.728721089296027302e-01 4.975728964664577481e-01
-3.982677265506088249e-01 -7.094379971778308480e-01 -2.529326712929922394e-01
-6.607773964788669074e-01 -2.652820882086296406e-01 9.040056857910318266e-02
4.372679517219441037e-01 2.620537272225754721e-01 -6.802525399526843097e-01
3.723260315252977515e-01 2.342318890200363324e-01 -2.295844380533390572e-01
-2.778171222714491406e-02 5.984705050612274535e-01 -6.972683470695095753e-01
2.529194952364057780e-01 3.744949630330347834e-02 3.512361516129371974e-01
5.345078323330464398e-01 -5.206098819203162920e-03 3.722322712634009712e-01
4.014230867711513495e-01 6.194040577988021434e-01 -7.136721576983529047e-01
3.123839002339288684e-01 7.432723262114750984e-01 -5.828518610704698233e-01
-3.445581271290872327e-01 -7.329277794572872651e-01 5.902895814877423541e-01
-6.378294620752119615e-01 -6.432832080786711204e-01 -4.408258197503355236e-01
-1.930223683566960058e-01 -7.394395697585490757e-01 3.601556703317381203e-01
-7.448403272759513971e-01 -1.868138740643749685e-01 -3.180309240468364718e-01
8.091383718531285352e-01 5.739952123623953684e-01 -1.661150829259062239e-02
-3.294379731425246538e-01 3.545488708931113231e-01 -7.155539745358627801e-01
-2.497683413801138896e-01 -4.177017882155324435e-01 -1.096927390025656118e-01
-1.740673874208091831e-01 -1.055398765602374722e-01 4.632386666250402629e-01
3.450619463561688249e-01 -2.581350647033355261e-01 5.191841228523423890e-01
4.813164788529479821e-01 8.195043061768141346e-01 -1.612241406113898434e-01
2.422258510889210847e-01 4.783537688420850253e-01 4.044319568735016968e-01
-1.605433994019718202e-01 2.860578644055024600e-01 -9.727965424085437407e-01
5.120779154242263015e-02 1.669615723772409355e-01 5.470711882314847063e-01
-6.818589143796819352e-01 -6.528812149487828176e-01 -3.813096689458916888e-01
5.458720432146927370e-01 7.838231599174105835e-01 1.067543454561180188e-01
-2.461123997549234943e-01 -5.800382938359388563e-01 -7.792999585744635194e-02
-3.949518771843281151e-01 -1.727643631636267274e-01 -1.799453633999886226e-01
7.208905845533158940e-01 6.801217905861107749e-01 -2.285349232108101480e-01
5.007260188124971201e-01 7.709014553753774646e-01 1.523449490616077817e-01
-8.125212756958783977e-01 -4.183531439790606488e-01 -3.947878864124186316e-01
3.571711440182137043e-01 1.177539882210838079e-01 2.513401710610317918e-01
-6.538583949360591285e-01 -7.231459971337071968e-01 -2.542636927472916031e-01
-1.741186699075390754e-01 3.519748639113452482e-01 -4.706519616445018483e-01
2.657598686945313732e-02 1.525336130604859897e-01 5.754429214978731277e-01
-1.843693134107259601e-01 -1.931038940774791601e-01 -3.921577114961330990e-01
-1.323818251959968384e-01 -2.497683565462623101e-01 -7.990196008019846419e-01
-2.627553871719004452e-01 -1.596582968263819402e-01 4.157993294084433300e-01
7.960324650895815868e-01 3.248834658624126792e-01 1.191070698670038258e-01
2.758710297393529576e-01 -8.593264937471216391e-02 3.898457708875603389e-01
-7.409892516273112184e-01 -1.951193426935054487e-01 -5.788294706036334336e-01
8.052826810137297953e-01 3.868584519146395784e-01 4.048434447999795793e-01
-2.937384803607699379e-01 -6.384498942712679703e-01 -1.723183342153778164e-01
-3.182129544563533918e-01 -1.959712686506697235e-02 -3.521194929481741287e-01
7.168492848046873478e-01 7.114715171948469141e-01 -1.560111535564726870e-01
-7.303769028539111030e-01 -5.388974031482750560e-01 3.224356172805595833e-01
1.917231576022305761e-01 3.626139111802726966e-01 -1.871792765189391472e-01
-3.088540019162536732e-01 -1.252718707804086895e-01 5.780341778970504718e-01
6.425403834603697906e-01 2.100142217317196303e-01 4.222277702009791245e-02
4.737597661892756773e-01 2.246680171181230645e-01 -4.312754521280190434e-01
6.032714784485768839e-02 6.679551558108280940e-01 -5.828709240798957136e-01
-2.407580570926666497e-01 -2.344841053466627800e-01 8.758309534174778532e-01
-9.268857143452277625e-02 -4.306401363825982515e-02 -4.483745608611251487e-01
3.502501494626013012e-01 -8.392777170129372966e-02 3.923227685854807634e-01
-1.424935706354400929e-02 6.617040156748021928e-02 -4.449131312602875865e-01
5.335138384338951045e-01 7.503684193117499124e-02 2.614897153445286393e-01
3.526379692132008414e-01 5.813710955547131132e-01 4.770101709307226767e-01
1.680562152358116290e-01 -4.011006769392716498e-01 4.818903545369473962e-01
-1.471854803121444843e-01 -4.938549376140843883e-01 1.738606882725658997e-01
2.850531682955226298e-01 2.400304842628197544e-01 -2.725166883745632762e-01
4.061707062089773834e-01 1.966292975626311723e-01 -6.067011536649477010e-01
2.219065583322157864e-01 6.188614026695447162e-02 -7.289693504618729447e-01
2.101302242754447547e-01 3.348210175437616454e-01 3.368198651231530394e-01
2.451624794349470116e-01 4.378945139868908321e-01 6.014980566946374063e-01
-3.582803322658743572e-01 2.968270072198853082e-01 -6.002872923228966817e-01
4.756399462467380407e-02 2.031291638697641233e-01 6.950363151651199889e-01
-6.193267236748944971e-01 -7.845362000718263396e-01 -5.461874704489969035e-02
4.698983894576799214e-01 3.989023376802176002e-01 -7.230848490301313714e-01
6.459194738172424621e-02 1.078508933032292505e-01 8.870267020383645340e-01
3.998864814532087086e-01 -2.654922035330306018e-01 7.759393949046062833e-01
1.781734902350493310e-01 -3.503289244718569284e-01 4.596452967812949542e-01
1.451775007056695377e-01 6.769563124733911641e-01 -3.057657446401349510e-01
4.254799934552385143e-01 2.224057533006044887e-03 3.332536090390767480e-01
2.630841875096878169e-01 2.775446678641807496e-01 2.259798883277046588e-01
1.279181695487854042e-01 1.420614056655969126e-01 8.976726508953912775e-01
3.320855401791857342e-01 7.476709672368133663e-01 -1.024274413631487760e-02
-9.006485915548205490e-02 -6.166824897164771002e-01 3.185563010248650961e-01
3.213699023891038453e-01 1.983939328474950414e-01 -7.857267458576837615e-01
-2.199026493380050462e-01 -3.809342633574149817e-01 -3.453003825299531537e-01
3.427064377910569726e-01 -3.114488824692143720e-01 5.870812319867156903e-01
-5.790108935407648483e-01 -1.362872848315442587e-01 -1.897930660102306044e-01
-7.661527128879124238e-01 -4.076403654121332765e-01 1.519771708465355031e-01
-3.044852415316882666e-01 -4.809440315752142037e-02 -3.419585122223059437e-01
1.331865692204598772e-01 -4.648873099136082154e-01 8.346428647023921288e-01
7.739519778955941121e-01 6.246880965852690260e-01 -1.352587731100430291e-01
-3.750814901524953532e-02 1.686027715677786698e-01 -4.088382063866914939e-01
-4.102111036334528116e-01 -1.931102637577296333e-01 4.659459461398533509e-01
1.942081196471985571e-01 3.880859812648642659e-01 -1.581384490367658546e-01
5.511267683224039260e-01 6.691261107627028970e-01 4.152715377481516201e-01
6.445090300312458220e-01 2.251529761646218764e-01 7.421135308476604076e-01
1.062653370778750134e-01 5.365491671209428326e-02 4.269109166388321830e-01
-2.592755230055285853e-01 -6.545226394076361087e-01 -2.147481519587575091e-02
3.433652391602985410e-01 2.491426254064998402e-01 8.904031885969392046e-02
-5.079659473129621849e-01 1.312530930773245230e-01 -7.901824212104234801e-01
1.512338339181043823e-01 3.256236831180125413e-01 6.456511112214723402e-01
-6.288912193086937386e-01 -3.213519052453706615e-01 3.571232171802239397e-01
-4.476287140267899978e-01 -2.201758524384805904e-01 5.453181411397974854e-01
-1.764035109868158646e-01 -3.050793794634714673e-01 2.509144840175154267e-01
-1.720503028944710966e-01 -2.380533692330571161e-01 3.179746552779473268e-01
-3.588202228098285457e-02 2.979207197147300951e-02 -4.524383056268465597e-01
-6.058586759545337985e-01 -7.675793219648299193e-01 -1.605074897941350387e-01
3.403337227229839140e-02 -5.494639194550419159e-01 4.490119088918890777e-01
4.138819424783318768e-01 6.312929981619871400e-01 -6.960418118863007653e-01
-3.073927248388337863e-01 -1.759804773074429840e-01 3.985132652412820553e-01
-2.832581452981404180e-01 -7.456745643545296121e-01 1.142015352896788016e-01
-1.471643002831376501e-01 -3.476323018418850941e-01 9.314231330241757867e-01
2.639599145764717769e-01 2.933807471760193075e-01 -1.855175144120163877e-01
-2.238537618267900098e-01 -4.362424119576350789e-01 -4.254283113909298475e-01
-2.276617501482278150e-01 -3.187368686005908613e-01 1.844023426468482663e-01
-8.760730774913855212e-02 -2.962592972660827995e-01 3.143796150753176977e-01
-9.872926035397144862e-02 -1.595104143549903042e-01 -4.868948974481372982e-01
1.145724190339391241e-01 4.438138879652740731e-03 9.666257026988912537e-01
2.021068992279441145e-01 2.656846839448856468e-01 3.482080081697684903e-01
-2.310021227460574283e-02 4.413898527969654650e-01 -3.828340737951387851e-01
2.844281770408609300e-01 1.960342056178025205e-01 2.528372217780421871e-01
-2.056517511557701405e-01 -4.549646123762843969e-02 6.294400842171209431e-01
-1.192273997492239029e-01 -9.959654008361935873e-02 -4.439626431254478089e-01
1.058981804683321870e-01 -8.629286435643988840e-02 4.059088681590211078e-01
-1.205968748250604711e-01 -2.678968338087333034e-01 3.148421188139421956e-01
8.273121684160045231e-01 4.517835717884593483e-01 7.549708182339831541e-02
-3.600679688998996708e-01 -7.535449979408184173e-01 -4.850830484596810321e-02
-4.371834100308245596e-01 1.441236179484503277e-01 -4.884917038973806136e-01
1.459543240486266096e-02 -2.740157019513816405e-01 3.673115715392163416e-01
-1.360039962142348402e-01 1.029339249701689135e-02 6.286594780192739096e-01
-1.357707134800191506e-01 2.909104843935175766e-01 -9.769194919855113124e-01
-8.887180126535469335e-03 9.591323858981390393e-02 -4.338462743891893236e-01
6.180341267898130653e-01 7.269530167258514419e-01 -3.732162811269975067e-01
-4.308825393629239775e-01 1.863263507317044002e-02 -3.681176053047953700e-01
-5.984923066521125046e-01 -2.536942161954547914e-01 1.644036867651592071e-01
-6.383290691123186256e-02 -2.355583036371585448e-01 3.545816855552664792e-01
-4.083433607434918122e-01 -7.122353078748369093e-01 -2.605829014888986772e-01
-2.815321739548529711e-01 -2.388638294922591776e-01 2.685443383982638044e-01
7.151429183782606058e-01 1.708164176912959076e-01 2.584482161061567584e-01
2.726282448061477792e-01 2.543658141008798279e-01 2.259657669237222499e-01
-1.831494527816972945e-02 -4.516764995608081867e-01 3.338034875744967933e-01
6.162683311997504410e-01 1.281182536363398572e-01 7.734418223463076503e-01
-7.116862083227075420e-02 -6.752338507889074082e-01 5.587133123328037465e-01
-6.379983192553623228e-02 -2.045376575680586673e-01 -5.965413119699704003e-01
-2.515710134379343654e-01 -1.339739932950133605e-01 -3.356407457755309354e-01
6.914335276649424822e-02 -3.210622438667355416e-01 9.623296463001755896e-01
4.232961632424295795e-01 7.259809853785117451e-01 2.268077741070238518e-01
6.797446105176948583e-01 2.524041307615075280e-01 -2.741764312461733230e-02
-4.750948225561485994e-01 -7.583330628152423758e-02 -9.101457162497781361e-01
-3.511249928508075602e-02 3.331465756669892420e-01 -3.824948333099859044e-01
4.069344749806137473e-01 -1.881937967133817322e-02 3.505587825858719198e-01
-3.878559557400132474e-01 -7.077555964339119488e-01 -2.401396478917119381e-01
-5.019780465057202545e-02 -6.363593358018637680e-01 4.273892977257224279e-01
2.388293619995802142e-01 5.313194878206790595e-01 8.623590380006625200e-02
-5.022827624189053486e-01 7.716451951467070969e-02 -4.586198218476927324e-01
2.154761371847269680e-01 7.145950820745553544e-01 -6.322339781695852645e-01
-1.856709135781523801e-01 -3.865326840398238678e-02 5.957533843455539158e-01
2.082965176952443764e-01 5.640238343550639799e-01 -5.000159207673222223e-02
-7.761122808099785164e-01 -2.349008289468355326e-01 -3.087766603050314806e-01
1.760233755007122869e-01 6.922537405752732242e-01 -2.642365846710541533e-01
6.234296821232184760e-01 3.453246215158978227e-01 -4.312905488557793876e-01
-2.026751582703583410e-01 -6.138293620424760677e-01 8.930489223938298249e-02
-2.131456750413272261e-01 -6.380429991370946130e-01 8.638295683885792442e-02
5.105517952492932832e-01 7.344689377760975635e-01 2.665223402512568729e-01
3.211292797753352302e-01 2.028650404764854309e-01 -3.453408582191747622e-01
5.444144443363061470e-01 5.582542081124381578e-02 2.928810207698675505e-01
-3.931916026373918904e-01 2.929716491727201583e-02 -3.739296713801839034e-01
6.954686053978768878e-02 -4.157958941671544562e-01 9.132708975109282701e-01
-2.000891040867690818e-01 -5.464725393308231816e-01 8.352045340522888939e-01
3.514574041167924379e-01 2.399275030567743217e-01 9.391642325602195251e-02
4.439491055558302257e-01 7.730296466002409828e-01 -4.719071297792639674e-01
-1.776738184346465521e-01 -1.346452406177160166e-01 4.282386020017153738e-01
-5.506961532912346691e-01 -2.506972178217952152e-01 2.714809918076414585e-01
-2.059603611993373051e-01 -1.451289560046753191e-01 -3.722694616302284487e-01
-1.818953018180358983e-01 -2.409857694015680729e-01 -3.999825053558349608e-01
3.662281356721272529e-01 1.699433406139824465e-01 -6.389167367124379826e-01
7.107535112742021655e-01 3.329104163880387546e-01 -1.837632378199396121e-01
2.316653319593108551e-01 4.072788471886972239e-01 2.707815133523538420e-01
2.373523052053276849e-01 4.426134808861674208e-01 2.487079256649953607e-01
-6.460653370278734986e-03 1.019047307038732642e-01 5.615783675843187828e-01
-1.505116343775061427e-01 -4.192045361509785795e-01 1.934767882305036546e-01
-7.389537787800922741e-01 -1.689410889677198935e-01 -5.526166687561481217e-01
-3.628910005904584235e-01 2.204387035487190560e-01 -5.107093048085593612e-01
1.179130976391055130e-01 -2.950012526336551755e-01 4.083894073389998103e-01
3.921238375577838497e-01 7.981184446749439720e-01 -4.068194711644882999e-01
-1.679087570816859276e-01 4.914693654904124798e-01 -6.201185968757081390e-01
-1.748563491385402360e-02 4.658140986983755338e-02 5.158273735089390355e-01
1.951476612507661301e-01 1.447290525964405050e-01 -8.827740131326826667e-01
-3.143726606224732101e-01 -3.435332847690582558e-01 8.454257725473158791e-01
-3.572275531318837016e-01 -7.444437017014551294e-01 -7.142013785189152419e-02
4.897345012861815255e-02 6.396957456826837252e-01 -4.498355944352965263e-01
5.577710302256113639e-01 -4.544782863706563203e-02 4.533416287684376433e-01
-7.512189477563169238e-01 -6.373675798935709569e-01 2.041503271574464651e-01
-3.135719568027668380e-01 -1.334300326845511142e-01 -9.516895219613739076e-01
-4.595281922966756305e-01 -5.427679403749473552e-01 -6.303305426341643258e-01
-1.997727100082971954e-02 -1.160098820318823248e-01 4.156937432700870683e-01
1.406763840661819087e-01 -1.214469674138669332e-02 -7.317147447541499927e-01
-4.865216782639394388e-01 -5.281913643710431927e-01 -6.510283209848202191e-01
-7.708379388173687286e-01 -4.343849848811524583e-01 1.693800756211304714e-01
6.262076903362664426e-01 1.036922461596581357e-01 2.667207739418570589e-01
-2.145501308526959472e-01 -5.433280851690774904e-02 6.173546952700786905e-01
-1.854797116201503671e-01 -7.243197961156424558e-01 3.143620678699290960e-01
4.774308583462013034e-01 8.803109593477859152e-02 8.921627342505658032e-01
4.379474711939966847e-01 6.441425071077345743e-01 -6.686330511477297511e-01
-5.827198583524109687e-03 1.926203623986214586e-01 -3.989505665519049171e-01
-2.255004012116821610e-01 -1.284314958343170665e-01 -3.585671963159618447e-01
-2.473755254273357906e-01 -4.896469401470596727e-01 -2.206324049837084245e-01
3.339696357775893965e-02 4.863691643217513821e-02 -9.454537066237113097e-01
-4.035279804603184028e-01 -8.165380568510135495e-01 2.412608649139066641e-01
4.918124494208102049e-01 1.109860981460120410e-01 2.058439014389846222e-01
4.640076383264578053e-01 3.524146022541319034e-01 8.019753243582032898e-01
6.730009673202644316e-02 1.589707503012304790e-01 -4.089121587647441824e-01
-3.930337655487795706e-02 -1.524530645463725853e-01 -5.677204752990722136e-01
-3.847343853382281798e-01 -3.501816290054914349e-01 -8.265432716746334840e-01
-7.066974187490769888e-01 -7.322472079945402390e-01 -9.998908358765862259e-02
2.477147290170083616e-01 -4.163679795729948729e-01 6.127729946431065278e-01
-1.925650101167887263e-01 1.633384727928153812e-01 -4.220483818220265859e-01
-1.560755237905805670e-01 2.147993111902687102e-01 -9.958602532926417172e-01
-2.501710108408066735e-01 1.263055414454735403e-01 -4.182160425265744053e-01
-1.705547411005855218e-01 3.914078693598886383e-01 -9.028972953200896656e-01
-6.269550503682478348e-01 -3.356103868931542000e-01 3.941349382406346691e-01
8.015176800263671408e-01 4.239947808023734610e-01 -4.992188937346179328e-02
-2.811038441675051125e-01 -2.103439693448629355e-01 -2.666605463919431429e-01
-7.648797253689365583e-01 -4.183143607409850473e-01 1.698355992486923205e-01
3.028134184000950690e-01 -2.109203102021116605e-01 4.548061288238179345e-01
2.218188984462135804e-01 4.163348480311208077e-01 3.433117484758678728e-01
-3.900976941671884801e-01 -2.310611535671069916e-01 -6.520440933420841578e-02
1.092436632864855622e-01 -2.482813350873257774e-01 9.800253832094908413e-01
3.213727240634126625e-01 -3.094723947204744974e-01 5.529435892300021971e-01
-4.420302012294359817e-01 -7.318987059588711874e-01 5.489610444753790786e-01
-5.600801559675198105e-01 -1.166959015260250060e-01 -8.480774185064631210e-01
1.969242569127892528e-01 2.451264597754412022e-01 -3.108504663806672119e-01
9.301085010706315603e-02 2.534856418673085421e-01 6.012995865964239073e-01
-1.218555110609624570e-02 -4.999275172927150623e-02 -5.076904170198575095e-01
-3.695351406038749342e-01 -2.177491809278665202e-01 2.922354110372502589e-01
1.760008241114565108e-01 5.798792830061647585e-01 -8.233716597829265904e-01
5.371776057575768926e-01 5.749082821491692252e-01 5.685759796595861726e-01
7.034806515369746993e-01 7.167691548189387696e-01 -1.917482880746572416e-01
4.977328674969467293e-01 -1.497379477707394824e-01 5.534547012323824955e-01
-7.040240385517649857e-01 -4.662818818260641152e-01 3.682030697592057478e-01
6.643506826030370904e-01 3.181142085891262572e-01 6.983625681200502644e-01
-2.491798856854293143e-01 -4.908873982053095220e-01 -3.798974417825465855e-01
6.404003273907322713e-01 7.528755753412400553e-01 -2.645121683260392431e-01
3.676297197976534648e-01 -3.138910916290979514e-01 6.652317316836580119e-01
-3.111574520081979989e-01 -1.983177346683446807e-01 3.466590536111761045e-01
-5.442698238584285642e-02 2.779401273731162414e-01 -3.946896206135107055e-01
-3.502452809394356048e-02 -1.331842416933177731e-01 -5.521771509863632188e-01
3.711999393554494819e-01 2.084114971481602074e-01 -7.209119609801070139e-01
4.675299780517230830e-02 -5.438420459621738923e-01 7.891625452591226608e-01
7.000110014531321090e-01 3.170152051354440670e-01 6.547734447981667927e-01
-3.590460261267999775e-01 -2.141519877393926463e-01 -9.139899870564908158e-01
-2.457168703308016955e-01 -6.466164257167869023e-01 7.394392116104764323e-03
-3.115479899367547545e-01 -1.574813229547794846e-01 4.495011097159766766e-01
2.383531019501770321e-01 6.772716941668845969e-01 -7.059395310637340826e-01
2.986704686883207560e-01 5.365660006769192858e-01 4.767726290235254072e-01
-1.216474367514904509e-01 3.608472489088052626e-01 -4.382160115185291804e-01
1.088019950435261674e-01 2.487040709958036055e-01 7.501157796874198258e-01
-2.090704665778162774e-01 -6.592117003822028920e-01 7.205615332230396186e-01
5.413112830070258008e-01 4.454776107278484720e-01 7.078381959779858068e-01
-5.337544319212118582e-01 -2.354724452372229104e-01 1.577659900883585098e-01
-4.270101301598990262e-01 -2.011820160449928618e-01 4.946507921538764729e-01
6.281898304748643191e-01 3.958135640271053801e-01 -4.843429194832582496e-01
4.343489886991817595e-01 1.335376261548069654e-01 9.075991506528666708e-01
-7.600846147777040596e-02 -4.456457534500105067e-01 2.746999098109421666e-01
-6.979239467944524655e-01 -8.439858485470345950e-02 -5.575622042227079689e-01
-7.422773697365148138e-02 5.470246267793900108e-01 -5.276916643507180149e-01
-6.107698698882920718e-01 -3.176663064752601184e-01 3.941751534561775405e-01
7.982156257864786442e-01 4.303030216194289603e-01 -7.174982284457954995e-02
-2.754444491780775883e-01 -1.277809995163709245e-01 4.937026793345535292e-01
1.223925525992996671e-01 4.532225658114902855e-01 -2.279537838238644143e-01
-2.066334374127769824e-01 2.897954577159442269e-01 -4.626044359700972608e-01
7.976756055315818994e-01 5.349921821690606372e-01 -1.201298234964944672e-01
2.778213687482308791e-01 -1.923481812227907373e-01 4.352470402662500515e-01
-7.417561341704846656e-02 1.478284327878271473e-03 -4.458531340060364334e-01
-4.135377448258996114e-01 -8.848400590569885371e-02 -2.703711147297697681e-01
-4.290847774803082104e-01 -7.182304039016498276e-01 5.784051945410737527e-01
1.626921739849055970e-01 6.261151808394666007e-02 -5.296095991217405485e-01
-2.382340368684419951e-01 -6.151408290868718431e-01 -1.002642226232304534e-02
-6.055215612088377108e-01 4.252741799426465463e-02 -6.691258815563708717e-01
-5.462000846776597918e-01 -3.076875276702601969e-01 5.261896634865904643e-01
7.264743012030978886e-02 -5.114450674696731369e-02 -6.061809110998381822e-01
3.721402931246505230e-01 -6.295064614434940815e-03 3.419048091578215098e-01
-2.452835313696727915e-01 -4.434066694559714583e-01 -1.217731212201804136e-01
-3.177006202199383345e-01 -1.310882074494884308e-01 5.776645005399893007e-01
9.327678881225127949e-02 -2.499519297949201746e-01 3.958370579003036571e-01
-2.215000659470034716e-01 -3.528435354622009856e-01 -3.287822399611696755e-01
-8.182058428763357982e-01 -5.730826360063163705e-01 -1.325585162747349999e-01
5.376033302971512662e-02 3.972501903650205168e-01 -9.485638284013290233e-01
2.419175561530328977e-01 4.720138649017671106e-01 1.588603632654271014e-01
2.109678835904919003e-01 4.867098227020836276e-01 -3.983510235757764528e-02
-1.289969498879044996e-01 -1.159397518718924963e-01 9.059901668558221211e-01
1.994782011368877173e-01 -3.316326991443200312e-01 9.192111856211553356e-01
1.990257542397254609e-01 -4.727850228729681969e-01 6.814038668871347237e-01
1.696769167733784833e-01 2.316542757736800018e-01 -3.361744894322352128e-01
-1.250985946849377528e-01 -6.508592617813372394e-01 2.944581695752558348e-01
-7.688478046164676227e-01 -2.269730595617888980e-01 -2.933577922603535781e-01
1.205475061916995161e-01 -3.552817159901948130e-01 9.363427577581570072e-01
8.944511378785699896e-04 1.515811391838552125e-01 6.583814095591912219e-01
4.259721538853712963e-01 1.646945811117103697e-01 1.476637551327147080e-01
7.024916656321713582e-01 2.594903283518324444e-01 -2.766413548477222959e-03
5.092724127778771592e-01 -8.410079239964601827e-02 4.597784376816388963e-01
-7.103155652206667448e-01 -2.214030987834219311e-01 -1.304875553655684139e-01
1.548279872772518884e-01 -5.098847462474050962e-01 6.541668390131922806e-01
6.308297649903281679e-01 7.537693071266550193e-01 1.584096713565309733e-01
4.582587778024991843e-01 2.212010887034256690e-01 -3.408294419977829226e-01
-5.230004791011068077e-01 -6.185789905719436821e-02 -8.757296682884865291e-01
-4.625588027073267994e-01 -2.209489470833799485e-01 3.749391085818427616e-01
-3.390463588729221156e-01 -2.088985265496611787e-01 3.208566305606210811e-01
-8.066815003165576925e-02 -3.538572461124871865e-02 -9.574934735906345251e-01
-2.680446613876358852e-01 -2.132757540030084109e-01 8.438721137208969880e-01
-6.035983498299896111e-01 -2.251431088191046259e-01 -8.010857798477366565e-01
-6.695524424993748447e-01 -2.648512665680433642e-01 7.152958875404633043e-02
-6.095692073811694728e-02 4.940952079666590668e-01 -4.464368474915559326e-01
-2.678308245077248295e-01 -1.133853367683095997e-01 7.395545621687292792e-01
4.920432608150563936e-01 2.313844414332965616e-01 -2.811815270000818656e-01
-1.794988518608888195e-01 7.164935367125767167e-03 -4.039647316385874820e-01
-5.064931316543285211e-01 -2.375442389151366518e-01 3.296235183282460457e-01
-7.206110206194397960e-02 7.292427891099446946e-02 7.480780222807973390e-01
-5.122701857041228601e-01 -7.857722684347026032e-01 3.746754555986238078e-01
-1.829061001944361498e-01 4.301082218095185206e-01 -8.510575011913731336e-01
-1.297360505253649099e-01 -7.839872300590909615e-02 4.741868010559939228e-01
1.283480696693337919e-01 3.013962644888018017e-01 6.035512689987611035e-01
-3.393662388439664390e-01 -2.781230392962025788e-01 -1.118256579419770608e-02
-4.608956594516462890e-01 -1.107886539583127494e-01 -2.297837302779396074e-01
-1.302055843780268174e-01 -3.830320687646085465e-01 2.364553967390571887e-01
-1.194166760970990226e-01 -7.034414527854440102e-01 5.386339502222365905e-01
2.151478776568326590e-01 3.999794201455436626e-01 -1.033400231309609119e-01
-4.347870745374526891e-01 2.182563322652003590e-01 -5.877326006342660225e-01
7.558887257838007301e-01 3.320069836659685913e-01 5.553741823854028148e-01
-4.994399179858377003e-01 -1.680644918013277089e-01 -1.219647601254119501e-01
-3.208202658504014093e-02 5.826456611050776502e-01 -5.097314101712631107e-01
-5.043118233118901728e-01 -5.955103203857745608e-01 6.403893158908208205e-01
3.804368665454191389e-01 -2.479188817117899124e-01 5.438206967235319489e-01
-1.160586230798345275e-01 8.276960623925182226e-03 8.027434852294051959e-01
-5.339680529010139981e-02 -6.143899510356239935e-01 7.415994800353226113e-01
4.082565948640793918e-01 6.799186400315156975e-01 3.283015299076161853e-01
-7.678442504112681366e-01 -2.130800388354680275e-01 -3.478446856106893192e-01
-2.989420165200400506e-02 5.886081756036989354e-01 -5.184528879445214899e-01
8.158327820502510319e-02 2.377986668638575607e-01 -9.727073755640173180e-01
-3.975905811540188517e-01 -8.105981255557569432e-01 1.426609641309043996e-01
4.320544432483860997e-01 1.794922972376878645e-01 8.964112239465985565e-01
4.169257309250622850e-02 -5.270378538012622238e-01 8.177043349502806091e-01
3.025583033057240301e-01 6.829863830596857310e-01 8.770064162903379312e-02
-2.394476647570513150e-01 -4.303651285304401219e-01 -2.607644941101485148e-01
3.932646483526839321e-01 -1.307745447728264343e-01 4.367195927348643258e-01
4.012236021982789475e-02 -2.571489678483614982e-01 3.789240923872773115e-01
2.057167677101074121e-01 4.709198006401447145e-01 -6.395636887787115032e-02
-4.390402966239330129e-01 2.426669638413388730e-01 -7.168044712664374263e-01
-3.117431067487873020e-01 -7.008871270087301264e-01 -8.057266650279179543e-02
-1.919009238168814802e-01 -2.575706544033553591e-01 -3.856099935653088950e-01
6.242786081110298646e-01 2.777256137075787001e-01 -2.353599174180187326e-01
-3.880942830508543606e-01 -1.790167290944606748e-01 5.694781891793301298e-01
-6.506012343849904012e-01 -4.707003545013988544e-01 -6.393254870406983592e-01
-5.381237107380952844e-01 -7.984757978207414064e-01 2.962364975368252940e-01
-3.307538330258928405e-01 -2.245265488078165006e-01 -1.825334785748825850e-01
9.071734770758398125e-02 4.693751500612557970e-01 -2.664233589024697646e-01
2.614651364399150912e-01 3.101275564852313260e-01 -1.550916405346854932e-01
1.441893105875793890e-01 1.195572128616582130e-01 4.101972388396327718e-01
-2.185146890031521572e-01 -5.395702938233172263e-01 4.981162808581436965e-03
-6.018657232957855263e-02 4.880771708254226238e-01 -4.412983098407948779e-01
-4.362406201943542783e-01 1.244481772301475192e-01 -8.919729753241842918e-01
-6.451114312575799703e-01 -2.453356023693233079e-01 4.861952460580876850e-02
1.746190752907626209e-01 -4.507521070739457514e-01 8.147745565468800244e-01
-3.106559467780609651e-01 -8.497565204850172915e-02 -3.192006218548887331e-01
4.077197563149883575e-01 4.220487876164575325e-01 -7.864465470528019253e-01
-1.801251400050527529e-01 -2.501103600519301307e-02 6.322482636486257412e-01
8.289591121784848360e-01 4.128743345510849094e-01 2.356575679516201005e-01
4.733344324674628179e-01 2.245609674219136986e-01 -4.348698004016684493e-01
3.635213513936452201e-01 5.984987509599171140e-01 4.554264547170006061e-01
-1.570831306730809396e-01 -3.303383481867734894e-01 -5.420868417217847846e-01
2.425487471535537620e-01 4.346840325168729868e-01 1.661321046440749349e-01
-4.603901000714495928e-01 -3.484117559420422949e-02 -3.187013284050265738e-01
-7.074031015758049934e-01 -9.767667502696646131e-02 -5.198256718424595357e-01
-1.483429254611545040e-02 3.560028836284750975e-01 -3.694135664595668556e-01
2.048986233708326860e-02 -3.426093690969862077e-02 4.420389265701252790e-01
-8.843036527097268562e-02 -4.887914319779396721e-01 8.855445636780761021e-01
3.802576164677879400e-01 7.595050335512213424e-01 -5.340365803682697310e-01
1.381071791548223460e-01 1.980403875797700497e-01 8.548824044248237719e-01
-1.177148775687782709e-03 -1.494211957201286023e-01 -6.655594358582925807e-01
5.137717467836034890e-01 4.066511196875879225e-02 8.640150297249553635e-01
-1.117490070173270678e-01 -6.927045815973540410e-01 4.281544309699581996e-01
-4.635853702450476455e-01 -6.878521512642749025e-01 -3.768324836135106826e-01
1.159424472561312175e-01 2.737608011542179143e-01 5.548367839892133224e-01
-7.297473032727971876e-02 5.637649090358027859e-01 -5.648719707981335603e-01
-7.833056407448134584e-01 -2.995574746250705966e-01 -1.331311681961589999e-01
-7.404625264730397838e-01 -4.617955582926711600e-01 2.789333714932514807e-01
3.634799776438770724e-01 1.929364246419007223e-01 1.618697141775033155e-01
6.627150185210751998e-02 3.191288016810407691e-02 9.393656818340704318e-01
7.848143475119639945e-01 3.877313487906405842e-01 -6.430682459429364062e-02
8.287103893332771198e-01 4.688158332304133147e-01 7.859817893934424593e-02
2.663379891604457095e-01 -3.938824001444436451e-01 6.023728272158899166e-01
1.665269493845169535e-01 1.862235197261835618e-01 8.823849971349975174e-01
5.467527870178168214e-01 7.516176623797622414e-01 -4.269960148918398590e-01
4.367827133884900626e-01 9.988535216583600829e-02 2.326570592396519088e-01
3.008863215231855071e-01 3.032978597705250912e-01 -8.615542733708037026e-01
-3.747130105777384257e-01 -1.757570450909710091e-01 -1.944077697918741854e-01
1.943946877900889492e-01 -2.364898385094324137e-02 3.856552603800729728e-01
-2.232854066979160501e-01 4.316864091915170176e-01 -7.952040941123219575e-01
4.538857439027972895e-01 1.818995007151922028e-01 9.391168918421281819e-02
-7.316912178395359456e-01 -5.295331638275769803e-01 -4.926183691113887875e-01
-2.444217962147954282e-01 -4.707462273956510845e-01 -1.541938936787128067e-01
5.415466178925282259e-01 3.070718017457295668e-01 -5.463275423109350548e-01
6.269095599220785020e-02 2.599453542802752093e-01 -3.553145544731722283e-01
2.046016459075428451e-01 7.069601091859162301e-01 -2.264097774269939189e-01
-9.895134339177347194e-02 -1.250095153796790537e-01 -4.703061302868777327e-01
-7.062173988316591267e-01 -4.869421962062266407e-01 3.714059545683623398e-01
4.266018542622367349e-01 2.340434770561636846e-01 -1.519008913005658323e-01
-7.798326981478367337e-01 -6.556787199697078350e-01 4.113585672392811032e-03
-3.251564309068972758e-01 -6.142008942031914609e-01 -3.484065978059305291e-01
-6.152483286759543590e-01 -9.711624885190336953e-02 -7.858060973103362379e-01
-4.022033380672804248e-01 -9.002250273919426907e-03 -3.440619425764119832e-01
6.625411169136732337e-01 6.804895050725255912e-01 -3.685507098337639786e-01
4.297057297826669120e-01 -2.518962645349206997e-01 6.778373562613163594e-01
-6.363779416120038945e-01 -1.059327521911787584e-01 -2.880210670004274554e-01
-9.845589154458320169e-02 4.571536234072116900e-02 7.542396153053466668e-01
1.181721952314080948e-01 1.804222020202199128e-01 4.551375610783170433e-01
1.313747066113295503e-01 2.115824315596901914e-02 -8.369199080689809778e-01
3.378021784031483565e-01 6.300581460469272255e-01 -7.376555256329605514e-01
-2.233584136510762541e-01 -3.120560683250604428e-01 -8.055890585502049062e-01
-7.058448768835676734e-01 -5.451783945304161660e-01 -5.104987685938539022e-01
3.799396971470273554e-01 4.362892644247896023e-01 7.275889497477833201e-01
3.530019907463934903e-01 6.929267746994167976e-02 2.925492160457427437e-01
-2.367661936465934591e-01 2.512744965515072981e-01 -4.606438118772311907e-01
-6.102193731054621206e-02 3.238041986105012482e-01 -3.964962548730914804e-01
-5.346973711172229304e-01 -2.426495845995188527e-01 2.414140756065853155e-01
8.219166712130940855e-01 4.059233959219490373e-01 3.150683057049413205e-01
-3.784326232864128059e-01 -8.059105531962376667e-02 -2.906163917542919917e-01
4.352689955175005898e-01 -1.347264033352461587e-01 8.709263617411171499e-01
-1.420914262147712215e-01 -1.511764794647485199e-01 4.047670449122669489e-01
1.518008421795827567e-01 6.484943417378552510e-01 -7.398147913694934630e-01
-6.600181257403694435e-01 -2.016382351739226531e-01 -1.019177238342181546e-01
2.234008196375170119e-01 6.244368688268712164e-01 -5.213496838972257047e-02
3.036857530998141042e-01 2.592413458545829719e-01 -2.134983523728862520e-01
-7.221297305007328138e-01 -1.556193621016400686e-01 -3.319090614319682997e-01
-4.102476584506264956e-01 -1.922736978727632995e-01 4.790268099640649924e-01
1.239953569598053196e-01 3.426101108926415395e-01 -2.751573197296471873e-01
5.939820133534052804e-01 3.104634317719508485e-01 -4.304892782494240677e-01
3.507216924571766037e-01 3.579126964568259961e-01 -8.310033914217095363e-01
-2.204090158833100221e-01 -1.614414783540242260e-01 4.022007316355839524e-01
-5.424696982433918624e-01 -6.178830656699416668e-01 -5.231666740717871855e-01
-7.154054896511272688e-01 -2.136481222103280841e-01 -1.610020682778756651e-01
-8.333536954952327491e-01 -4.276185707464806307e-01 -1.741214289460551456e-01
8.553429581712766738e-02 6.615958342611095999e-02 4.442393460806546290e-01
-2.064070858920496188e-01 -5.055029419106827487e-02 7.302069336854075665e-01
7.752583789324301033e-01 2.684364874161305203e-01 1.809019649847726785e-01
-4.910544597197792349e-01 4.074484060266158475e-02 -8.791821311395314753e-01
2.556815053158853490e-01 1.303242379890055536e-01 -4.817634972286267137e-01
2.447699054753904313e-01 3.734734917897993278e-01 -6.065331818279458276e-02
-9.182670062420701662e-02 -2.399931117753760779e-01 -5.849898065898536670e-01
-3.592013227570853284e-01 8.066855163970113041e-02 -4.065525200571664111e-01
1.779361076036696521e-01 8.581775305142337607e-02 9.478182357519824297e-01
1.319038481544624886e-01 6.615657442122900404e-03 -8.134254668425325852e-01
-5.808869274036908559e-01 -5.374661916999339262e-01 -6.185481202559047764e-01
3.278315262698716648e-01 5.952808697756760692e-01 3.954128757688895601e-01
5.692620297766477488e-01 1.409975559466515038e-01 1.598517198272969286e-01
2.389594139312975485e-01 5.699091954213932887e-01 5.460966612370560247e-02
-2.181975083430053586e-01 -4.291400289313694882e-01 5.824208142921583065e-02
2.543075310547318613e-01 5.408795846687135533e-01 1.878486538578424403e-01
-7.286576348445251705e-01 -3.046662495277254190e-01 5.283728312906021268e-02
-5.195243574797653308e-01 9.338488991394640337e-02 -4.986451505491144576e-01
2.417678979029168618e-01 9.937858090391721300e-02 -5.387551949279368868e-01
-6.464493690502083334e-01 -3.228518852620465007e-01 3.156691092332902793e-01
-1.547313920850303115e-01 -3.278710430696427092e-01 -5.478596324729239075e-01
-1.413342282475463230e-01 3.106480512231536428e-01 -4.358367397273764099e-01
6.204238309372663851e-01 1.607414602907367152e-01 1.454591270477240961e-01
-7.349807797490059968e-01 -2.708442953288591193e-01 -6.231166301451049883e-01
-6.998557753052802033e-01 -2.830577977299957304e-01 6.363441152641396981e-02
-2.780633526849166093e-01 4.022245460687891017e-01 -6.881537595024057596e-01
-6.770644045570799463e-01 -6.581717334329629798e-01 -3.769965428680837061e-01
-2.776597567269949995e-01 -6.563714895140825289e-01 -7.696448788231580185e-02
9.840415100822691441e-02 -3.028401130496423121e-01 9.652430770728008813e-01
4.609601568063632915e-02 -2.839049320408334465e-01 3.781084887202670330e-01
1.096471883553594984e-01 3.901650984499046571e-01 -9.437827959821548651e-01
-2.728087972764216551e-01 -7.804787464854876511e-01 3.686797009868055253e-01
6.159207791229460716e-01 7.914659027790335033e-01 -7.518950088274783949e-02
2.857684151408578233e-01 4.655067586714403682e-01 6.172905246138327140e-01
-1.683480244610775500e-01 3.198007259298677463e-01 -9.542483360052848029e-01
2.376595978909044060e-01 3.170812199719786340e-01 -1.802758504036815479e-01
-3.005394221514562716e-02 4.566232289236013542e-01 -3.938300479425058676e-01
-5.562834303221568799e-01 1.011940034978997816e-01 -7.127433361345184570e-01
6.081800212661249150e-01 3.981772864530946365e-01 -5.238525832735146937e-01
2.935410569738404196e-01 2.890883983181307681e-01 1.357914806151037379e-01
4.392883884900817409e-02 -5.320242674784695369e-01 8.093526182128135682e-01
7.837036626723186128e-01 6.418350160947101646e-01 -1.049780668243112738e-02
-1.648053709496188068e-01 -5.251369481940255657e-01 1.401975520589300306e-01
-3.064645581534715668e-01 -2.984902016951062609e-01 8.060048635838382158e-02
6.957703308100608997e-01 1.932567663442839312e-01 1.612258444455118844e-01
-2.993008222764796944e-01 -2.552596597988943672e-01 -8.882948319184481578e-01
-7.376394773970491592e-01 -2.796949600424505356e-01 -3.729208480342976334e-02
-7.101263226117676686e-01 -3.531018610154444959e-01 -6.478730758061643780e-01
-2.810294261896950085e-01 -6.102529396662746686e-02 -3.461158297585044119e-01
3.626701856077491626e-01 7.756304422548704336e-01 -4.942851701267356179e-01
1.391197331670113169e-01 2.515054485619255820e-01 -3.301775162529702601e-01
2.008587278316181501e-01 4.423315165978286556e-02 -6.321269906057949139e-01
-3.148267605999831575e-01 -7.189899826559202900e-01 6.214292002824207684e-01
-1.425409610323513376e-01 5.239566738470623902e-02 -4.156502568330785463e-01
7.617302967626302657e-01 3.307071001701373802e-01 5.424871292871359385e-01
-5.015513799086038782e-01 -1.222711002073952891e-01 -2.052670528777008618e-01
5.087069839859604814e-01 6.987082570994843644e-01 -5.530492001808020586e-01
-4.565798091043556939e-01 -7.200713222886185871e-01 5.576619468118595435e-01
-4.046800564425702129e-01 -2.267707966413574361e-01 2.482355660472944925e-01
5.128828197458271676e-01 5.518934175766418981e-01 6.025869182740316576e-01
-5.920705660372016683e-03 -1.068196662366641299e-02 -4.869515775169123706e-01
-3.746427434424972613e-01 -1.899964802447534629e-01 -1.744847182330931945e-01
6.345255635470850031e-01 6.485935375963082228e-01 4.139729659141764273e-01
-5.229553924773532314e-01 -5.601556675700862797e-01 6.398761504909771247e-01
4.258119977180728766e-01 7.148370046092618058e-01 2.603862564212719999e-01
-4.631719685706111034e-01 6.440787109436690860e-02 -4.202884183827134690e-01
-8.003096228482487612e-03 2.897386415005181459e-01 -9.858364578218626884e-01
-2.807138512057521379e-02 -5.356180813289878051e-01 3.501086314391470555e-01
-6.670764401463322724e-01 -1.594173650002707887e-01 -2.120388100736429193e-01
-5.656927931608539684e-01 -7.778980167810259916e-01 -1.483488799242419498e-01
7.987840763662815702e-01 4.408511931819205643e-01 4.062632932766718774e-01
2.070949900016761103e-01 6.634404234360158359e-01 -1.425423681233675133e-01
1.178215312335006287e-01 1.053990221108869890e-01 -4.557840415841383774e-01
-6.251299957527611806e-01 -6.890494271763339951e-01 4.158287701779134760e-01
-5.558820226537175557e-01 -3.713275607174744697e-01 5.830580885734553132e-01
-3.983330194244053546e-01 -6.381934375619917610e-01 -4.285066118910823563e-01
4.303107227178208372e-01 2.107800859453297371e-01 -5.798048270068580923e-01
-4.995767342718732684e-01 -2.359804685394140400e-01 3.689703025819527360e-01
2.856680462947779886e-01 3.292349883378145048e-01 1.814529441817780420e-02
-2.753884401515677705e-01 -5.447560886601410246e-01 -3.564662564272114142e-01
4.917094435358438931e-01 2.322578628491657193e-01 -3.978668002365356449e-01
-5.769243421064426114e-01 -2.416143652041249923e-01 -8.188296853946056553e-01
-1.750751914998474601e-01 -8.853477328585489248e-02 -4.012313422710299116e-01
-6.535521807176548625e-01 -3.936403682232899048e-01 4.206814341901304322e-01
3.267502039521872903e-01 5.207236246500435151e-01 -8.170496486788113577e-01
7.890940199687307421e-02 4.037186502387556108e-02 4.404405891535491113e-01
2.198085369653350607e-01 -2.853305669311720708e-02 3.798492662175074197e-01
2.091804263407744668e-01 5.303465255227787223e-01 -3.854748453818755694e-02
-2.815223014009885505e-01 -5.408916444301331561e-01 -4.088579987227482504e-01
-2.127538554092372747e-01 -1.696010780187317268e-01 3.899205567556666696e-01
-4.012855301403402963e-01 -2.277559354372066802e-01 6.841112505627090501e-01
4.688104818146323072e-01 2.242162589478569057e-01 -3.373489252175361219e-01
-2.486546676137822987e-01 -5.100635763253271726e-01 -1.826028264422085157e-01
-2.516066607278742984e-01 -4.858529325710850832e-01 -4.598509331617782747e-01
-2.781428509967738827e-01 -3.112025568609812498e-01 1.163985439662105492e-01
3.276253401146745348e-01 1.255195841422868941e-01 2.644054329132970449e-01
-1.067665713549814793e-01 4.887745239404183706e-01 -4.998559006640875824e-01
-1.358482387739889941e-01 3.455442721269870454e-02 -4.179833329152938259e-01
2.957244745817723119e-01 3.773934955789333134e-01 7.604557519593464487e-01
-1.965612016408849472e-01 -6.956965688727697605e-01 2.110390646950466020e-01
-6.328487921127037286e-01 -3.083795316493530003e-01 3.106655395737385472e-01
-2.434926292688487925e-01 -4.594823347934444691e-01 -2.383871053914336791e-01
-9.648231727350499443e-03 4.425502942476828849e-01 -3.706134750587350424e-01
-4.604998053395321089e-01 -2.282533240951276354e-01 2.529633304357924439e-01
4.570247735052915816e-01 5.216936171545826229e-01 -7.270030149000018538e-01
-4.011152864251943950e-01 -4.684867560619612181e-01 7.752276974541723042e-01
4.802208247020916532e-01 3.111826283470329191e-01 -6.640978706347681060e-01
3.274028267577421270e-01 2.412707587403731813e-01 1.398199470487763163e-01
-5.422399794984805732e-01 -2.696072746568278777e-01 4.338318211440291838e-01
-1.953128065797345159e-02 -1.198300149858556735e-01 -5.605223695445016308e-01
-3.347420474106431731e-01 -1.871510881831194295e-01 -2.221563305832711943e-01
5.602338315793776724e-01 8.094286438101702119e-01 -1.306557189240396544e-01
8.175232514307851917e-01 5.524971520910501033e-01 2.045965076002645780e-02
6.416304082324824076e-01 6.961143400070696208e-02 3.529144582749761394e-01
-7.067446520640208174e-01 -7.301874766820651841e-01 -1.123563406444779700e-01
2.440118070358591185e-01 3.547929550109570340e-01 -9.021067070430087709e-01
-3.034920641322132462e-01 -2.440448599105626282e-01 2.443906452279527020e-01
2.316008140516753744e-01 4.399265755388701016e-01 3.073014650824378302e-01
-8.140016242481936670e-01 -5.122911998789995147e-01 4.643545136185860123e-02
-3.460751904382726729e-01 -2.046603179142076623e-01 3.337796598683415716e-01
-1.538453249614404328e-01 -5.322827120743283125e-01 1.616334511938822827e-01
-4.066644028858940607e-01 -2.369540625490666463e-01 1.795026746645050353e-01
-1.416058979859749489e-01 4.379846794438013169e-01 -8.749848913354711932e-01
-6.769665941509405149e-01 -6.491694251297308593e-01 3.724079433016406759e-01
-3.677624115658796877e-01 -2.082660302855461887e-01 3.263562306503111077e-01
-7.643128697127662408e-01 -6.750979367164952061e-01 -1.118467085602796451e-01
3.094285400671966113e-01 2.857107201789853002e-01 9.014605335624102656e-02
-3.839986964786338275e-01 1.896726153121017777e-01 -4.970821095369026832e-01
5.679668272493862968e-01 2.216602676748531120e-01 -6.579955652814185874e-02
-5.509417397794181825e-01 -6.669413091999296661e-01 -4.381394193120021208e-01
-5.355336655444934424e-01 -1.082938323371087364e-01 -8.683028255880153035e-01
-5.656663318386356831e-01 -4.744585614125245154e-01 6.064610133486801891e-01
4.518717586011158915e-01 6.601554127003863570e-01 4.126825787957084102e-01
-4.867767530138739085e-01 -1.236545756472345325e-01 -2.053568414439108092e-01
-3.407613189010266774e-01 -7.617845590379241916e-01 5.273683729941159859e-01
-1.285318977664993145e-01 -6.088786931234949629e-01 7.783712652401891807e-01
-2.092734241101595616e-01 -7.345804441385305195e-01 5.597290071539957612e-01
-5.841521733430490165e-02 -1.294476500698248378e-01 4.131305983521648129e-01
2.243596775245454075e-02 -5.249813648501250318e-01 8.308928387434624252e-01
2.776155232265142270e-01 -3.631838902599430173e-03 9.726948886940994798e-01
-3.797935785763443262e-01 -2.291830125991172751e-01 2.445417071012360166e-01
-4.865517400477237797e-01 -2.886489866006474170e-01 6.162485602655538575e-01
-2.744860645117616627e-01 -3.521017770050781093e-01 -2.399959158164960069e-02
