-2.161850227047880380e-01 1.250141682062480275e-01 -1.838643521106858025e-01
-7.378606053857799107e-01 -5.678206260241134423e-02 3.076803287575391455e-01
-4.698194902394899342e-01 8.627851165338444872e-01 2.597243092065402159e-01
-1.673049926420099032e-01 1.030576506908233575e-01 -1.965495253591598157e-01
4.611765456105117456e-01 -6.427769077800298270e-01 -6.190508622580088716e-01
1.025326149331864667e-01 -6.893310664977422841e-02 6.987383783456619923e-01
2.352649939339437335e-01 -1.740859118735960664e-01 4.713944611269090812e-01
-4.517201286970835561e-01 1.137829837627194751e-01 -4.201031460153487745e-02
2.087974608426186318e-01 -5.769910284295031166e-01 -6.887721869512455353e-01
1.388213250929216380e-01 1.711133147155596557e-01 2.962436056377820009e-02
9.370399674849020158e-03 -4.805701172354782114e-01 -6.212119115175267492e-01
-3.817420549262173779e-01 5.585240976647571909e-01 -4.588903708524982861e-01
-6.283312818328962157e-01 4.034769224423319089e-01 -6.428631012044019877e-02
1.791858861992227658e-01 5.532403973582268319e-01 3.168829117093032166e-01
-6.359466785041189008e-01 -1.697511806983399707e-01 1.877234902523661486e-01
3.973161602735753722e-02 8.047564224304230018e-01 3.343838688090569611e-01
-3.699404078274624030e-01 3.154218447695682909e-02 -6.619344641401118078e-03
4.392756371739808818e-01 -7.897143254186390626e-01 2.573434890793967478e-01
-9.712874912038976793e-02 -4.160389599602387078e-01 -4.926142395848611133e-01
1.115247096428659407e-01 1.997441219888301256e-01 3.214640827994032501e-01
4.154026150747118229e-01 -7.789118284360456723e-01 3.051229363420071561e-01
1.920397067962057169e-01 -1.056376568433344959e-01 2.969246542416277834e-01
-1.188846095117050972e-01 -2.162105414108743684e-01 -1.840494978915185320e-01
1.319176197380736437e-01 -6.635482709232290791e-03 3.496948972684889578e-01
-2.409211392647181427e-02 8.687516529578331870e-02 9.532558480204099405e-02
-1.145769813922113134e-01 -2.057989782435680204e-01 -2.789463094707717028e-01
-5.322294467178083355e-02 -1.365767039161497887e-01 -1.769397221632438427e-02
1.048164059073953130e-01 1.600977976946614534e-01 5.320195681100002849e-01
-8.222792160758757296e-02 4.032104198191815980e-02 -7.183115693612998065e-01
-7.239614705556159102e-02 4.048335326871720929e-01 -7.764059986999457541e-01
-1.130693477007940068e-02 5.330968959351060910e-02 1.354599759055613861e-01
6.971806367217586731e-01 -3.558959648346988747e-01 -7.129246031023528385e-02
1.554784321512629221e-02 -7.267856674376400872e-02 -1.108415662794593609e-01
2.367583183795877733e-01 1.365981491366378628e-03 -1.460186417260253382e-02
5.707516615728618348e-01 -2.333949447568202107e-01 4.916715114085071919e-02
-1.226809236392077118e-01 -4.909404328636839399e-01 8.330583626074663517e-01
2.031735635545738050e-01 7.317168137235173786e-01 -6.710889484374342739e-01
8.499124589760002901e-02 -8.350400202282413087e-01 -3.913813957049891989e-01
-3.348890191900661395e-01 -4.592715213681573538e-01 -7.827754146130741497e-02
1.241630787225156546e-01 -1.831868456452609428e-01 7.131829785862578985e-01
7.379098723980095226e-03 1.297052700890956312e-01 -8.299377705386824511e-01
2.075141982588822043e-01 -4.155180842911278538e-01 6.614304073990023847e-01
-4.802169529469864362e-02 -2.671671720585785254e-02 1.038078630826094334e-01
2.329611342068903801e-01 5.024500641057790817e-01 2.260420514325970909e-01
3.847418534365285719e-02 -6.768447693898238526e-02 -8.142253925531647285e-01
-3.690860178089382937e-01 -6.645483087124502974e-01 6.681472173668207004e-01
-1.306560949597510290e-01 -9.550919879714966365e-01 1.546533512865286841e-01
4.815597827023838651e-01 -8.017621242031933715e-01 1.656426527834757023e-01
-1.616329185889548159e-01 -7.208774130118777990e-01 6.907956266003206780e-01
3.734166840016600684e-03 -2.806619715506086798e-01 -7.059768980740801503e-01
2.479647172056840265e-01 2.918186895426629346e-01 8.019439394516096609e-02
5.735335616107080092e-01 1.005936297756755970e-01 -1.097063186218871916e-01
-1.904785489904890425e-02 -1.223502855868391775e-01 -9.030719958750292597e-02
-1.261089340210352072e-01 -1.112939460875071555e-02 6.221287193987957292e-02
-6.365932414067937417e-01 2.002239251304328282e-01 7.665068701412413033e-01
-6.613831319470682146e-01 3.455317977250950134e-01 7.793842391911528014e-03
-6.907785628570597414e-01 -3.320261931246324960e-01 4.606637981948229488e-01
1.527972092063875909e-01 3.091900321759017412e-01 2.731017556653498324e-01
-7.027413596434621823e-01 5.467699126098755080e-01 4.328108205223339389e-01
7.152488934748968408e-01 6.798963603499015573e-02 -6.627193389615434471e-01
3.929309166802710807e-02 -3.029058395578762553e-02 7.686656564067732011e-01
-2.377122054866362133e-01 -7.452281589920741744e-01 -1.435301393361345379e-01
-4.588272608011497722e-01 1.656559814908490080e-01 -8.257450541583991055e-02
4.613821750710607739e-01 4.392607234402511329e-01 -7.868083016891053161e-01
-5.565634486075495824e-01 2.968754534700089875e-01 -1.065478528947215592e-01
5.893624360940881435e-02 -7.256554535291021013e-01 6.507127534979819661e-01
-4.778579751501181305e-01 7.898066165828465657e-01 -1.962410142678096825e-01
-2.689318631624205980e-02 -2.131111147819016519e-02 1.198808775466532750e-01
-9.923676157271249521e-02 -5.598746457158960688e-01 7.984573644771997269e-01
1.015434024413797154e-01 2.501415510900411587e-01 5.052131492292263326e-01
-8.840067178706009776e-02 -3.092489780044228587e-01 -5.382657371072185892e-01
1.502196383167921923e-01 3.879413289684962574e-01 3.561471218588977972e-01
1.797572850266127356e-02 1.038589214487772722e-01 -4.683334550830546561e-02
-3.317783847234903050e-01 1.687928330630880103e-01 -1.728079725036335834e-01
-5.638046223809557445e-01 1.996053663609850815e-01 8.219670470421871489e-01
-4.752808141694563338e-01 3.320295559180697770e-02 8.899487350467015778e-01
3.421457968838020891e-01 -3.157125903140974299e-01 -8.461798407704359537e-01
6.580938411275339961e-01 -5.665364451228664944e-01 -4.046502358066372124e-03
-4.457135396879992606e-01 7.778442336617484854e-01 -2.648668713961611076e-01
1.353232256222826509e-02 9.687412670372708146e-02 -8.298933665641254898e-01
1.385122634712643019e-01 9.418865103832971819e-01 -6.267841088311890130e-02
8.969519182061311269e-02 -9.949379280731162067e-01 1.045961534606764222e-03
1.209422095293690019e-01 -9.858636779536465722e-02 7.141296441621340640e-02
4.593760951723637742e-01 3.065117087193576506e-02 -3.312959297823150906e-02
-3.243186181674289487e-02 1.094569035005161783e-01 -2.413507462523779151e-02
-1.813449633040709608e-01 9.296360689226919050e-01 -3.404201459599054402e-01
-5.717385062068321977e-01 -4.788987439883642949e-01 2.282156288532339594e-01
5.061211181979371337e-02 -8.111255286872870451e-01 -3.999011413552159833e-01
-8.258656836542178914e-02 -9.419859948723213749e-01 3.561313481291208394e-01
-7.708316637142105521e-02 -6.589870905160082337e-01 -4.202866677299830211e-01
5.630158991740551455e-01 -2.550404190682891703e-01 -8.005916340010886811e-01
4.346890267759503934e-01 5.846251557252664099e-01 -6.050961600864621787e-02
8.690900631067544069e-02 1.697518726577438297e-01 5.938463098506190363e-01
-7.572331745814990800e-01 -6.933798296179211063e-02 3.873580174090023309e-01
7.826082168218473356e-02 9.450545004971024898e-01 4.258766414615689638e-02
-1.191242520850654407e-01 1.007373322593968085e-01 -7.190128490488095769e-02
9.970269712051246791e-02 -2.415617338083367316e-02 -6.353579961461273962e-02
-7.099977540105071316e-01 -1.597711272943977134e-01 6.452373522815078033e-01
4.104747882524680258e-01 -7.002884898208117104e-02 2.751179267988241792e-02
-1.212380729297583559e-01 5.658996747642297542e-01 6.613638541397165449e-01
3.955664395345090956e-01 -9.133726929388877869e-01 7.879237073637984645e-02
-1.325672299378548857e-01 -1.312388083924141413e-01 1.214858493933070743e-02
-1.734619074215880685e-01 2.667159283086491528e-01 -6.760142728069252760e-01
1.667959380269811165e-01 -1.043120516196151121e-01 1.870773536653065061e-01
4.101063408982344449e-01 -4.718679834776080551e-01 -7.643487511444970739e-01
2.113724903912645725e-01 9.007711784116754217e-01 -7.220029457358205505e-02
1.468971442576023634e-01 -7.117368271793310386e-02 2.672423768278432976e-01
3.694524321843897785e-01 -7.755409345220916073e-01 -5.064694780024977527e-01
-2.837633161470718979e-01 -6.030396890570955959e-01 -1.502347900706868800e-01
1.266182188427081579e-01 -6.101777438742248677e-02 2.457587077560563216e-01
1.188521820735355394e-01 3.014544586129995762e-01 4.295757398964008544e-01
4.119725686579104457e-02 -2.421128595187136689e-01 8.052650149031693738e-01
-4.590857520726941421e-01 2.179959335930666819e-01 8.640596379613991740e-01
-7.298163185228367933e-01 1.495802761437806105e-01 1.954763905242502542e-01
3.272390790450249720e-01 2.319349530521869762e-01 2.584490254152509419e-03
-5.294858022874665560e-02 -9.774770725948341843e-01 8.523997286102034943e-02
-2.012386976486361598e-02 2.114687861761620213e-01 -8.180259402076333064e-01
-6.283326612311004866e-02 2.679905073761483791e-01 7.694829569427910076e-01
5.028629743532303520e-01 5.820062017953511191e-01 -1.760768086276596756e-01
-2.261441878426296015e-01 7.473748513020169737e-01 5.519626877757382033e-01
-1.045249260749201575e-01 6.078016792501633042e-02 -6.930811959691569601e-01
9.113664277557828597e-02 2.932496603540233338e-01 5.297298537518950745e-01
2.058638412409627971e-01 2.617425318699226899e-01 9.005901372151615958e-02
3.297299473995629615e-01 -9.134700292267549093e-01 2.130251392274244704e-01
3.396274444615461907e-01 -1.851044814143935069e-01 2.018852453104010292e-01
-7.839375631089471330e-01 1.818360488834568633e-01 4.752597899750737875e-01
5.713816773292461626e-01 3.335439496311418672e-01 -1.618560846283161048e-01
4.448094753225186326e-01 7.272309209457287205e-01 -4.276788164165101769e-01
-2.399797892852564493e-02 1.323343136717800572e-01 -8.062309098578624988e-01
4.450344933558345595e-01 7.342017553379728279e-01 -3.160149361264659174e-01
2.908816251180954549e-01 -3.059441617567187910e-01 5.097090109594915042e-01
-2.485813790921140853e-01 9.467462087320183128e-01 2.254679397046069622e-01
-5.054211134935725491e-01 -4.182293630844461374e-01 7.718908242187775270e-01
-4.075062820997323865e-01 -7.582956787009478283e-01 4.498214400168372151e-01
1.201509287899649309e-01 8.052495121048822146e-02 5.264666283202097397e-01
1.375404225614382525e-01 -1.074573352446051705e-01 6.582762110960509450e-01
6.797349961713944344e-01 -3.559439365279063461e-01 -3.797253569630657660e-02
1.621361208667493059e-01 4.582701284892658905e-02 -4.279818271075283564e-02
5.664064262790967641e-01 5.046116874497806881e-01 -6.142943709061332580e-01
5.732194330650216552e-01 -4.043571121141608660e-01 1.468049988718416743e-01
5.171231615094880052e-01 4.019042237918560856e-01 -7.668260078613695629e-01
-5.095318103488483130e-01 -4.130097919433349807e-01 7.717207833755254098e-01
-1.066593914532121129e-01 8.905209168893736538e-03 -2.735598090789549408e-01
4.181509627744359192e-01 -3.699540392032864555e-01 3.481205204544747800e-01
-5.571239247616052159e-01 2.313874155060110030e-02 5.974336833989792733e-02
5.953549940670866958e-01 -7.152230597672978307e-01 -3.805289401604302069e-01
4.787625880387761379e-01 -8.286932681549508128e-02 1.238665592076063256e-02
1.626403669565661125e-01 -1.053627135089449662e-01 1.526020114038437459e-01
2.745049851019270015e-01 -2.817012776752449432e-01 5.198556871453403616e-01
-2.327998686982800033e-02 -1.216220695917670513e-01 5.278058058127134584e-03
-3.746330557963171715e-01 8.463727411201640294e-01 4.025724926500042211e-01
-2.278503562646383984e-01 -1.317802114776783773e-01 1.493194615418933120e-02
-8.419370778659608645e-02 -6.339163502503425418e-02 6.964663991113605179e-02
-7.527158381028052625e-02 -1.097286322411908793e-01 -2.392987610016060196e-01
-3.775294038778448380e-01 6.256854057133252045e-01 6.676402926233029334e-01
1.800906108402667571e-01 8.269075406112614823e-01 1.384027447240577247e-01
3.262750015455779806e-01 5.947076557289125986e-01 9.032964092580891835e-02
-3.522545676480737242e-01 3.620560403253039183e-01 -4.480711804654167185e-01
5.370289418804824466e-01 -6.650933908392422933e-02 -2.599721012225185771e-02
5.200212227874865395e-02 -9.793251717182751559e-01 2.559510874865499330e-01
1.095835825442432881e-01 -6.575841534187178150e-02 2.074603214250393124e-01
2.393244415080349741e-01 -7.147741791539754530e-01 -5.828023070627640356e-01
-6.434542702891133947e-01 6.769580768796672476e-01 7.037839863818551311e-02
2.013843738859573129e-01 -3.890327144402263015e-01 -7.937149341830181948e-01
1.975737985003870045e-01 3.188638325198628332e-02 -3.200801071633457145e-02
-6.457153174558788455e-02 -1.553864635373859993e-01 -7.785935212283473517e-02
-1.861660814749890036e-01 8.197156578481881728e-02 -4.519438747883249841e-01
-1.336752366287560501e-01 -8.119410391871607624e-01 5.940796310599222307e-01
6.063495381303242171e-01 -7.358459873005949135e-03 -9.926232901496724603e-02
3.160334597510786828e-03 9.082066679532448950e-01 -4.515576109550517026e-01
-7.863558280987349436e-01 2.000075401992213731e-01 4.357667873328259223e-01
5.824235676456004374e-01 4.403210591241026872e-01 -2.238574523801528937e-01
-1.267009710843608472e-01 8.977071268055993869e-01 -4.314348640255683542e-01
5.730706879008985455e-01 -1.404670831198680803e-01 -8.226256404591121285e-01
1.248124212004973616e-01 -4.104318713208392200e-02 2.778049300168614066e-01
3.644433615229075718e-01 6.289594277957383239e-01 -7.044615681607792057e-01
-8.242497381992171246e-02 -8.261494899821942850e-01 -2.623221204942954854e-01
4.238765044459207321e-01 7.574317983472313998e-01 -3.502224365530215988e-01
5.014877442215124465e-02 1.270744450828549255e-01 1.756338277276351945e-01
5.053650266239363420e-01 1.559444362940440136e-02 -8.742127679574537291e-01
5.708432536401799595e-01 -7.882892256647971996e-01 -9.485075078322728614e-02
-1.921331296829142943e-01 -5.551071434683257574e-03 3.379430486356044261e-02
1.296132862312534273e-01 -5.450339835710626968e-01 -6.768592179966529399e-01
-6.214347815129169783e-01 -8.435979740856056064e-02 7.956496347498009936e-01
5.949713858775327324e-01 -8.022989424038025341e-02 -5.903846924530222612e-02
-1.425718933434642621e-01 -1.932452911887303643e-02 -4.600208069127300070e-01
-3.475545489378816799e-01 2.191393607685593881e-01 -2.606431247372977822e-01
2.483498787084072179e-01 -1.918598569613332860e-01 4.639599002446750942e-01
7.241769698001888633e-01 1.758650868255985378e-01 -3.622177997803706084e-01
6.858276137742326251e-01 -5.863414979997931820e-01 -3.970676077788390379e-01
-5.481246944311121139e-01 6.629065587225166922e-01 -1.858550102862458753e-01
-1.161262731994114755e-01 9.859696531100951844e-02 -1.116989011643491903e-01
-6.865308029125728462e-01 4.952536456572090851e-01 5.407578046448567877e-01
-2.910932081103373981e-01 -6.468974744866595739e-01 -1.259597182484303024e-01
-1.556976280041230121e-01 -2.265605058842805053e-01 -1.019840123511122076e-01
4.681803899604244229e-02 9.772740380166700103e-02 1.973332477996577738e-01
3.222649498117893807e-02 1.290237827135063131e-01 1.257340887268251495e-01
-4.155968601798864515e-01 -1.026864316275665108e-02 9.100272886000914108e-01
-6.921622031899105076e-02 5.884677102182626074e-01 6.121629387326728011e-01
-1.116125178716309979e-01 -3.201582097076874356e-01 -4.692667153020954607e-01
1.515401482915144926e-01 -1.506936953576519522e-01 6.581774207298960455e-01
1.237667314140826064e-01 2.231583108804781890e-01 1.595258737841716845e-01
-1.944020545439114345e-01 1.080286576350979744e-01 -4.979064806694981637e-01
1.784361207132480753e-01 -1.099307417792047409e-01 1.558406916459110503e-01
3.042570757154793304e-01 3.024501261926912377e-01 4.468042109833283981e-02
6.039280131560521570e-01 -7.467292455851488597e-01 -1.024543914239555154e-01
9.488901819230229073e-02 1.853057090166803644e-01 2.190566043041177469e-01
-4.209875964030698192e-01 5.230691410106620420e-01 7.352475285356901979e-01
2.926661308137530268e-02 8.251718192202826471e-03 7.679814228104159257e-01
-4.715162926995247056e-02 1.101150046566712892e-01 -7.811634846138207910e-01
-2.259107089116155556e-02 -9.007755978309356371e-02 6.822987279240026737e-02
-6.122539087675049618e-01 6.799889549911939390e-01 -3.075516260153104628e-02
4.940690798397842642e-01 6.033148439766440330e-01 -1.781905842541207097e-01
-6.168456421824494162e-01 5.818510648772585725e-01 5.588247232508251061e-01
9.686568235067506694e-02 1.000006099091722417e-01 3.155436050272853454e-01
3.971583291489850787e-01 -5.287156070829382992e-01 -7.313817696276301294e-01
4.092478362218058274e-01 -5.576253535592530231e-01 4.217870036912695908e-01
-4.571647393773789481e-02 3.495256442259512819e-01 -7.997260274935271696e-01
-4.188411330198912874e-01 9.026263993522287699e-01 2.091346276812452165e-01
2.351896581850613788e-01 4.546343161832053226e-01 2.083680397335372081e-01
1.318959074738234316e-01 9.490308635133153370e-01 -2.703977451121353792e-01
-4.727929441587074011e-02 1.701124257535273909e-01 7.917037236344792728e-01
4.251863001803830588e-01 -8.928395702107913001e-01 -2.194971461716186123e-01
1.549011487847523627e-01 3.612627184656615476e-01 3.263127335906183535e-01
1.964724949082385375e-01 -1.130983918569559640e-02 -2.117697662700826489e-02
2.492205790467555693e-01 6.575222653086931768e-01 1.820629837451830102e-01
1.952842191580214104e-01 2.869919777033440589e-01 -8.977721475489366387e-01
4.858757578778518660e-01 -6.501007261390669978e-01 -5.982282226958788307e-01
-2.330558010203920560e-01 1.070185934480168688e-01 -8.948385269788917962e-02
2.366095517010134708e-01 -9.813753002841488771e-01 -5.793384215715979141e-02
-1.171698570117176152e-01 -1.607235150617105368e-01 -4.309630874130548905e-01
1.294563497362981042e-01 2.231414907421254423e-01 1.389648198123099310e-01
3.848959824958428921e-01 -8.218761394738762771e-01 2.979783626528044183e-01
-1.147387254916924643e-01 8.447934645318951052e-02 9.638055581033639577e-04
-2.215141275158947765e-01 -1.479414931488831075e-01 7.372136812688534144e-03
3.167166342764310416e-01 5.508104726530360651e-01 -7.878460989540279069e-01
2.573462130873357401e-01 -1.916822779304712954e-01 4.319945991659069340e-01
8.664180414397125440e-02 -5.634493186099114037e-02 -5.336446256533638327e-02
-6.705527680195801921e-01 -2.407892377203424417e-01 2.678992352733442495e-01
-1.556699935706551963e-01 -3.427361796829858087e-01 -3.177082450423751037e-01
-6.108136300087703141e-01 -4.733214261856503180e-01 3.236957165627712407e-01
-4.181351245006912354e-01 8.483911151923075877e-01 -2.122295163088152303e-01
2.236010533602827977e-01 -9.602825918815828254e-01 -1.777401245293085408e-01
1.456337261903168367e-01 -8.754114744976461415e-02 3.608302068274156504e-02
-5.365666323564081269e-02 -1.178109941681046019e-01 -1.819201121614968386e-01
-2.060719516994940215e-01 9.912484795393547432e-02 -7.209419465738435562e-02
-6.655791879495071006e-01 -3.409200590471332948e-01 6.008135874657958286e-01
-6.205963613215612629e-01 4.516862731834254685e-01 -8.944506622352069170e-02
-6.769595070905698453e-01 -1.724456567750769775e-01 2.450207763557912810e-01
-1.905821968199863103e-01 -9.287294431309871534e-01 1.739016331419606931e-01
2.442007955854006429e-01 5.530839534339119234e-01 -8.030081051472355291e-01
-6.566801276527621800e-01 -2.629703345112225921e-01 2.545770114267357220e-01
3.110138792154521492e-01 7.238271730790981628e-01 4.746399815443318182e-02
-2.178470692104970963e-01 -5.683138262886798797e-01 7.996973893063648031e-01
2.032132360423246631e-01 -9.866466739377509620e-01 -5.305390199533191464e-02
-6.301673816799555627e-01 1.878944748524682684e-01 7.753912822434824159e-01
5.387996286343941232e-01 -2.249784256756074963e-01 -8.237429828506532825e-01
-8.644724505702040818e-02 -6.051974298038904215e-02 7.022291506761316193e-02
-2.012001877719463427e-01 1.570272792454529276e-01 -5.582887301775379951e-01
-2.392655322909564286e-01 -5.169145524996946461e-01 -2.206589547265977724e-01
-5.768304124082106465e-01 1.555385105736292184e-01 6.421872157509696602e-03
1.482679976121225873e-01 -9.960044761529464052e-01 2.955049475167503825e-03
-4.579611044129832109e-01 -6.054327882624307433e-01 1.089170144361337744e-01
3.389791796793201750e-01 -1.407749913649493645e-01 1.216302469558439570e-01
-1.035491389405283347e-01 2.918532115726574783e-01 7.899507120478624911e-01
3.765307748787631859e-01 2.160948219265824144e-01 -2.078393736775058578e-02
-3.499971689301857869e-01 -1.167656834036343155e-01 2.715844964622696200e-02
1.007092923652366939e-01 1.322672650957793516e-01 -7.310998422755399240e-03
-3.493287573585975719e-02 -9.840160246626128426e-01 1.235229117340089500e-01
1.344307317615755781e-01 -6.500358314886293121e-01 6.607626638624609638e-01
-5.732513229250232323e-01 7.716039490836450465e-01 1.159532900121233549e-02
-3.194750034412168760e-01 1.986008969154174630e-01 -2.628664567747398539e-01
6.454096411070461281e-01 4.321642971974432035e-01 -4.514689667292590136e-01
5.591583137355751743e-02 1.477896839078800817e-01 4.495000294944432456e-02
-2.348288915518578768e-01 -4.306398987309585646e-02 2.867587754188321084e-02
2.400171070163072129e-02 -4.753558192758312873e-02 -1.163321690106951106e-01
-2.489426368109721177e-01 1.377695989427066281e-01 -1.829678523445447402e-01
-2.356502417644328884e-01 1.395752951321172497e-01 -2.533711832542483999e-01
4.910754567483614497e-01 -7.938038431917604498e-01 1.586518143392903202e-01
-3.711703827405062328e-01 2.795866719624021113e-01 -3.271333550301306348e-01
-1.352547120316265894e-01 3.484006696138326233e-03 -3.534664365355202897e-01
6.975548707187427810e-01 1.426090731552806003e-02 -7.049418301163082878e-01
7.660442653829465653e-01 -1.721017133332843341e-01 -5.489392877223427947e-01
2.947069967333330043e-01 -3.619069671678992184e-01 5.382635421473026538e-01
5.363312758566981531e-01 6.188753161213759180e-01 -3.602368740278301673e-01
-4.304823764147362453e-01 3.343874793468281648e-01 -2.983304064031487846e-01
-2.410161559570125622e-01 3.980918086567478142e-01 -6.225475044027571903e-01
4.757591185224299690e-01 -2.042060135145495892e-01 -8.572428763654188488e-01
1.206977033359771245e-01 2.362459310992283124e-01 3.305948982668093228e-01
-5.835320322861706765e-01 -5.477027374676769478e-01 3.760640474326805704e-01
-1.093628342518068730e-01 -1.728079991191055764e-01 8.883805478160468061e-01
2.574895827788444280e-01 -2.153851490997419627e-01 -8.734149584781781828e-01
-3.339403672473860718e-01 -7.748373900859457653e-01 5.148726763050428396e-02
6.833046990187057190e-01 -4.910706854123940146e-01 -3.922732937109636026e-02
1.217914337343243697e-01 1.144765482853192795e-01 -8.897045566875453337e-01
-5.757573765399456311e-01 1.781113692227657974e-01 8.194412536559483318e-01
-2.648545041435803049e-01 6.510041322401301234e-02 -2.898144860224918101e-02
8.536306823564188129e-02 1.722767934237794674e-01 2.052113020400922194e-01
-2.142565171383778722e-01 -4.904535385433281269e-01 -2.578307007323701328e-01
3.048422888854426804e-02 1.444374227430100452e-02 -1.140768339447977009e-01
-1.028954561338495527e-01 -2.058126085130470018e-01 -5.260523650978492505e-01
-1.091209175647094992e-01 -1.415126011935206041e-01 -5.379513964038056262e-01
8.045493213512047714e-02 2.083076583780899271e-01 5.921568303658517607e-01
2.537071488422869558e-01 7.059603328011851975e-01 1.491995475420532236e-01
-3.088117246330112156e-02 9.345972134466518089e-01 1.909024031918484521e-01
9.530928087990465924e-02 1.175894636018081918e-01 -8.789855953683437528e-01
-1.567850153091089882e-01 -5.743310122742060347e-02 4.702919002273354965e-02
-6.569350305019122649e-01 5.139299496818873214e-01 -2.233940449923051477e-02
-4.134201709486697851e-01 -3.011206663087958590e-01 2.620905074178672689e-02
5.029145945011782859e-02 -5.629550682954361646e-02 1.542819916294073113e-01
1.327307296869536801e-01 -1.003479262578294007e-01 9.739031095373687497e-02
3.562434210779366617e-01 6.565365124182475087e-01 -6.820262813865998197e-01
2.288768477602275697e-01 8.264974366737721789e-01 6.343369254478256614e-02
-1.824622442020078575e-02 -3.051342940318382824e-02 -1.650364192313766021e-01
-1.185698044363369674e-01 4.817735323705396588e-01 7.104951433684374429e-01
6.518163424464994415e-01 1.737380704333888470e-01 -2.093825786786714938e-01
5.195768852311628827e-02 -1.028961207286891999e-01 4.370263857479324277e-02
-4.111305074140777505e-01 -2.872296734634693927e-01 2.700344834259701260e-02
-7.067464259892568545e-01 -2.039076089118627977e-01 6.237082920093653948e-01
-5.163212212092236492e-02 6.689165204499249173e-02 -1.374236064979603988e-01
-2.720967286638433652e-02 -1.012322692643245897e-01 5.081509003127657187e-02
-2.088014480675597362e-01 9.145617993116232636e-02 -5.575521324175283094e-02
2.334334839397942396e-01 1.365414302622779408e-01 -1.083817994765428824e-02
5.231096429521249203e-01 2.904258859640773127e-01 -8.162995685884496533e-01
5.818809129917486000e-01 2.408379412528099672e-01 -1.500373414535091099e-01
-5.304681627401770516e-01 8.100467526919059580e-01 -3.519568894681970872e-02
-6.380582266672626401e-01 1.658298005693487065e-01 5.846482438347871263e-02
1.490933527809729930e-01 -1.941934245752779675e-01 6.829519250144777676e-01
-6.941399402609923497e-01 4.429902277410061595e-01 5.328408396490139781e-02
-5.215446263664819115e-01 -1.830710452707929869e-01 9.302918991984722441e-02
-5.738056998626300115e-02 -1.352914188817387620e-01 -1.653099374797952215e-01
-1.591232259714751296e-01 -6.258381578268825685e-01 7.659386619037847899e-01
7.794388272628536285e-01 -2.710573925124286632e-01 -4.042791498600429301e-01
2.962919575495297497e-01 -1.875704662507026999e-01 2.831097530213023683e-01
1.008063785996573675e-01 5.437590360464943373e-01 -8.045710656718613185e-01
1.200032260988917188e-01 2.772538396491124740e-02 3.536441225586172132e-01
-5.980054682652656828e-01 7.030218514284483078e-01 4.149336309440287973e-01
-5.117920607856205617e-01 3.251635474734271281e-01 -1.807771566018806231e-01
4.763769820013487588e-01 -6.750037657036218608e-01 2.954826160904540644e-01
-9.510419284331195211e-02 -7.534352018896367520e-02 -2.952764111890374688e-01
1.159307392098152673e-01 -2.569397539059672594e-02 6.494351307374764959e-01
-7.103203661393758805e-01 4.292989931126325875e-01 5.562707176920590468e-01
2.051313715552426364e-01 -1.148855411083472972e-01 4.249143028071236117e-01
-2.818278303836816226e-02 3.397440284338739125e-01 -8.114538604364628371e-01
6.513285875893066734e-01 -2.732407220733449327e-01 -2.300010905433246683e-02
2.521345828162603331e-01 -6.146404858955388795e-01 5.868126225951141306e-01
1.405658920659516864e-01 -4.710360745957280493e-01 -7.262829933525801751e-01
6.175674036253773341e-04 -1.958823384932373846e-01 8.316470146784721296e-01
3.278842843880349078e-01 -3.747308082025546105e-01 4.937282053111051727e-01
1.636315670614831574e-01 1.492901839190404756e-01 1.646700632062937219e-03
-1.587335787496949036e-01 -2.834903064202486944e-01 -2.137605203004369903e-01
-1.049180119755694363e-01 -4.090966611536744207e-02 -6.330357996319438962e-01
-7.533305814854985849e-01 3.974809921733103990e-01 4.637258619028299389e-01
-5.230322255013885036e-01 4.980431017016245243e-01 -2.542815339422374032e-01
9.445084529207180279e-02 1.584930744032396754e-01 5.765609882584196155e-01
-4.143231408692851780e-01 6.462875421772495965e-01 -3.975944704994905377e-01
-2.207712523241899538e-01 6.515076917381493193e-02 9.033848384190891201e-01
-1.248874192948267771e-02 2.747687558887455458e-02 -1.421985226813450298e-01
1.124117302849032274e-01 1.667069303648012479e-01 3.687011911001712022e-02
-6.131101276336700101e-01 1.070288890308188218e-01 6.285571970675618569e-02
-2.928379301823922920e-01 7.466922460138215589e-01 -4.779124400057248034e-01
4.304602607263202096e-01 1.874098687758048165e-02 -2.125035543814932787e-02
-1.720560486433815317e-01 -3.266990471586697087e-01 -2.443158567858823016e-01
-3.187220179993576763e-01 -2.742141427533611453e-01 -2.206312092159598906e-02
-4.992741402842638954e-02 -1.356257759327278156e-01 -1.784003755360926910e-02
4.854454631892649724e-02 6.564424166991203458e-02 -7.934124524856690786e-02
-6.671168198149080020e-01 -3.892286209058928859e-02 1.776817215028198838e-01
-2.312826441985898693e-02 -7.319760735863051204e-02 -1.618694093403255929e-01
5.733956120792903510e-01 4.701361128818148938e-02 -9.387469963378344828e-02
-6.206862162154282991e-01 2.866663102852419764e-01 -2.415136896843345440e-02
-1.056063094983048650e-01 4.547715004674278416e-02 -2.289938648532927334e-01
4.390434866094963806e-01 -1.551395634131483847e-01 8.727689998842697028e-02
5.656043295044893560e-01 5.253236077255927228e-01 -2.619368144628488326e-01
-7.538126478879843273e-02 2.569255821895509093e-02 -7.222248082424511662e-01
1.351041560558206567e-01 3.055536995242481846e-02 5.060484021361336682e-01
-1.979150682115455862e-01 -1.996655085336289936e-01 -3.400643452555346391e-02
-2.044716802989444415e-01 -2.189847839496114890e-01 9.107519898764152577e-01
5.711225422420921349e-01 -3.344045968490175214e-01 1.133592241970523828e-01
7.754440762291597844e-02 -9.343804105429160956e-01 3.823754242285499760e-01
-1.202787251620782150e-01 -3.399752390273882430e-01 -4.417635249232246264e-01
2.693305402487290376e-02 7.286997986775357872e-02 1.768895839638705836e-01
-1.170974845416041521e-01 -1.294326097110900520e-01 -4.005561699671033593e-01
4.196328971238340033e-01 -2.166017415009936220e-01 1.710483843075961963e-01
-5.900352421570711492e-01 -5.411685331885277561e-01 4.152779451970926572e-01
-1.237133210477295436e-01 -1.581613809878628651e-01 -1.954845746857086092e-02
-6.663998170513465991e-02 6.162588290871525709e-01 5.912008837859870081e-01
7.100822600820495822e-02 -4.267067815226756045e-01 -7.048616786542948320e-01
1.531410012016336253e-01 -5.151769101568006715e-01 6.993356509789324660e-01
-7.625059151771402810e-01 -1.633813949963884918e-02 5.586436973851607313e-01
-1.172800102543447714e-01 -1.927938419085003241e-01 -3.785758716826649328e-01
-1.664286843315535280e-01 7.641883199057994402e-02 -1.576222818818260804e-02
5.110283082362088170e-01 9.076728505580104744e-02 -6.959678786962747443e-02
1.259648309660985621e-01 7.002771237832856877e-02 4.698640940083541606e-01
-3.558581762338584586e-01 8.596175580829776841e-01 -2.873021819555743317e-01
-6.398193243809796593e-01 6.134873999415764168e-01 4.839809252703743403e-01
-3.440680796845941858e-01 -3.301638565478226539e-01 -2.831240914847012527e-02
2.836152737517288469e-01 2.827181373630233141e-01 4.782622489827212386e-02
-1.461249669744248691e-01 -9.168511871610806052e-01 3.907474699907404481e-01
5.947286048403516157e-01 -5.572231178272105817e-02 -7.001559673457956323e-02
7.430691309308166126e-01 -2.423584855684383366e-01 -5.917016919686195475e-01
-5.165895349999490710e-02 -7.337017242864543043e-01 -3.916316289847517340e-01
7.497528388352799056e-02 -5.431855034144078553e-01 -6.434151150298855759e-01
2.095309330219683741e-01 -1.189037535862189771e-01 3.452876903850235490e-01
2.670283145195621599e-01 4.041784257702883965e-01 -8.691901050261886530e-01
7.186382402460546048e-01 -2.139588639584344421e-02 -2.301193395708981404e-01
1.771547197023513043e-01 -8.009882113494469491e-02 5.082561093461583912e-01
6.033221126115215771e-01 5.083645932663393152e-01 -3.809455959493335264e-01
5.526505958399589025e-01 -9.635996086167743224e-02 -2.016582560463531584e-02
3.312388827855958923e-02 -2.210012200199110502e-02 -1.144206400966427672e-01
-5.813401261092892014e-01 -5.476304349442669972e-01 3.590302343857866840e-01
-1.697938008870502336e-01 9.508867712931473593e-01 -2.996028221440888428e-01
-4.056439038855381707e-01 3.332636316378675412e-01 -3.353286835286298229e-01
6.551328931322311089e-01 -4.186850356986744903e-01 2.054887620123561562e-02
-6.950907592451343042e-01 -1.361494029444717535e-01 2.587828960580095261e-01
3.753710199817499316e-01 7.235317060838024616e-01 -6.588451985936472077e-02
-4.803762828780223093e-01 3.086911530968426409e-01 8.278023494016477635e-01
-1.249113132289867006e-01 2.543261116113886347e-02 -2.928300497927595614e-01
-8.166056284603531723e-02 -1.543977772337079279e-01 -3.908450293243250634e-02
-6.517136469717835778e-01 -3.252615197925033952e-01 2.822778472686573448e-01
-9.754890214612416122e-02 -5.720868642398695414e-01 -4.412807495059466456e-01
6.431483784265861203e-01 3.282242354308552157e-01 -2.690138053482930003e-01
-6.196802248689180503e-01 4.728499753589774368e-01 -9.445420709106511215e-02
-1.943018588424740359e-02 -2.396787778724242535e-01 8.452499038663534581e-01
4.431410061030626596e-02 -8.152992011695188168e-01 5.734603549675897360e-01
2.266801209693672381e-01 -1.344983325511643346e-01 2.654876161787806388e-01
-8.200589795704053830e-02 -1.648979945042307049e-01 -7.202966245949039836e-02
2.853301358574640290e-01 1.272771158227632704e-01 -1.644518320487368609e-02
1.668075509771989040e-01 1.527372990789487191e-02 -3.998370104377302336e-02
1.087629574773325142e-01 -5.304585681278564668e-02 -3.955358500950455908e-02
7.753869838024197991e-02 -5.166170778276295561e-01 -6.612243333823542013e-01
-2.940688001206263891e-02 -5.646674812376294150e-02 -1.765187641318468892e-01
-2.883252615188874879e-01 1.715906598623846702e-01 -2.445972226764933644e-01
-6.791050776961660151e-01 6.017502834992780603e-01 4.081132304152220724e-01
-7.818815290696700115e-01 1.197730120410924470e-01 4.972533314286332051e-01
1.085766539014460380e-01 1.832574157052693220e-01 4.918230406838909330e-01
-1.128035162265188379e-01 -1.525201724657029578e-01 -5.059192805274271842e-01
-4.460877673609683347e-01 -2.368526827902152354e-01 8.794623171632144354e-01
5.303514140340398475e-01 -3.806628521918199448e-01 1.950918379379024958e-01
1.242669921217077617e-01 -4.757817739227270804e-01 7.294276141908994093e-01
-4.673826258737790451e-01 -3.345014486697467926e-01 6.214756055355308978e-02
8.913946269638861608e-02 1.639481984229258131e-03 -7.616209839224025169e-02
1.331275432649631774e-01 -6.031542438189266275e-02 2.604373520580328116e-01
-4.527737306356906938e-02 -1.352612137756011301e-01 -1.283752835628980404e-01
-3.300874854308276096e-01 9.368664733151517154e-01 -1.507750673802993324e-01
2.697668104162659342e-01 -1.528760215686591484e-01 2.142480017085800492e-01
1.202961316310646872e-01 2.608570616740898407e-01 3.989989982924598833e-01
-6.878916113095687179e-02 -9.446511095511168632e-01 -5.375391649187862692e-02
-1.209832471276611060e-01 -6.660120705296410093e-02 -5.566551406628199583e-01
2.118803203474676211e-01 9.136678432065880040e-01 -1.392456390286273271e-01
-6.052887130352970768e-01 1.259955980944162460e-02 8.167734935189221446e-01
2.177277036519595643e-01 -4.416367375201428469e-02 5.901897745262776537e-03
1.166592509111572945e-01 -1.932160530286371333e-04 6.291296021874638322e-01
4.619089546240761658e-03 -8.040804607196376796e-01 -3.731935927729664870e-01
-8.484867363833960285e-02 1.289597131549848411e-02 8.280614103665435988e-02
-3.671841160511004065e-01 1.038455565156599925e-02 3.667294954891948261e-03
-8.056667083078804248e-02 -1.677036343576785160e-01 -1.617597745615694249e-01
1.675644378731689366e-01 -1.063963067904813431e-01 5.892673361332491089e-01
-1.256566005368597860e-01 -2.275343068005089564e-01 -1.981506376244630274e-01
6.728915187698915057e-01 2.620827589084325782e-01 -2.881009649999192179e-01
2.157005259715742973e-01 2.620853232689409826e-02 -9.108747362106596190e-01
4.466374531261550068e-02 9.092075691326730047e-03 1.988996892076093370e-01
5.549322355912594817e-02 -1.000177830420948405e-01 6.227003321271094155e-02
9.734939607856457622e-02 9.166698282029869249e-01 -4.201128831788077944e-01
6.513484302858588704e-01 4.184917783526636570e-01 -4.717781586688123974e-01
2.810420406884604413e-02 3.818836841897959022e-01 6.214552699718955964e-01
-5.103096846101121686e-01 -4.342637960935968322e-01 1.139066608740963576e-01
-7.475632107458384246e-01 2.314497400545916517e-01 2.074667481264567404e-01
-7.696403138153901091e-01 3.515711518455260642e-01 2.954630061856073908e-01
3.205099655437280703e-01 -2.585034490007342978e-01 3.934629535559927560e-01
7.031186475161842475e-01 2.789770015160647487e-01 -5.272127049303273472e-01
1.672596037444251948e-01 -1.674247144522309633e-02 -3.017672416532583488e-02
7.581058972440567478e-01 -1.630523796789856358e-02 -5.730202897023696229e-01
4.611101933830369370e-01 5.753113373835921918e-01 -9.683276254742466393e-02
-3.569945989951476412e-02 2.239800619059203746e-01 -8.074491926152619348e-01
2.269174832649544227e-01 9.696238460170278350e-02 -2.244404207285150693e-02
-3.421114605967265909e-01 4.757646758342133908e-01 -5.073178375653358829e-01
4.855808102774363325e-03 6.163446029163405226e-02 1.513640677981852589e-01
4.637801402325035793e-01 -8.855491165612590088e-01 -9.922200500299586945e-02
1.736486116847273387e-01 2.340475202076972849e-01 8.821830773445650531e-02
-3.667633471388525024e-01 1.732854490993537000e-01 -1.512781044684856080e-01
3.903510560351057257e-01 -8.137594459957280257e-01 3.007501365142938865e-01
-1.706290942025743274e-01 3.816703711613207983e-01 -6.978975247392932291e-01
-4.655745209496085502e-01 -5.022744268424621517e-01 7.412982351269697956e-02
-4.100524622837205951e-02 -4.660836155969114158e-01 -5.678522200905520290e-01
-7.650706960066117057e-01 2.300820077345510362e-01 5.493505695123922505e-01
-8.815559312284575177e-02 -7.747536892807894982e-02 -2.781239115651020222e-01
-6.495183517997040745e-01 2.936603218001808055e-02 1.314449035668742993e-01
3.928191595790536672e-01 3.872315749249085060e-01 4.840081428059701818e-03
-1.004630386082409760e-01 -4.987178138516403236e-01 -4.644501520960643282e-01
-2.927471963705207125e-01 -1.025415753603118457e-01 2.310435981294082022e-02
-4.600147059650719350e-01 4.834892642961861053e-01 7.489826757396200740e-01
1.431417448564533124e-01 5.527197759183570813e-01 -8.057510249763054633e-01
6.095220699455223823e-01 2.551674399617941957e-01 -1.841976910824234537e-01
-4.244728812205740276e-01 2.448794829552374264e-01 -2.007530279581115074e-01
7.335742796721563819e-01 -1.266841983937062877e-01 -6.421865711027812118e-01
9.271398542623034145e-02 3.549998123395408101e-01 5.114775545563789994e-01
-1.164420588336294027e-01 -2.142288275346647675e-01 -2.021367978774087637e-01
4.623096960014891343e-02 1.238321342120761726e-01 1.707810076811813182e-01
-1.122153083801814555e-01 5.594766396469918329e-02 -2.235411273241978136e-01
2.007901306193593527e-01 -2.695374061537603727e-01 6.382627653063754902e-01
-1.310554390038700667e-01 9.327310502491774347e-02 -1.624002629491089478e-01
2.800347062155317257e-01 -4.335937244316037109e-01 -7.901537986059251617e-01
-1.235650742394545920e-01 -7.228851320354969801e-01 -3.178280252366827430e-01
2.900511248339788795e-01 5.956159826479190400e-01 1.413728603903529890e-01
-2.927021863399303370e-01 -4.292117942841657263e-01 -1.188020267932796969e-01
3.385910816407591839e-01 7.353931180448249894e-01 -5.973886807530514043e-01
-6.735614044557854951e-01 3.226334608890653322e-02 1.574034788130735385e-01
-3.070337693557148029e-01 -3.571563434327818531e-01 -7.026873301495303870e-02
1.663014123177062320e-01 -4.824826020288725675e-02 4.661375868569642700e-01
-6.654598970243674749e-02 3.895308638192668815e-01 -7.821902663959185986e-01
-4.534749838525872073e-02 -1.090583869725249150e-01 3.691207284960181662e-02
4.483877628643415658e-01 -1.774485998263778674e-01 1.035532311761229035e-01
7.708389272511637635e-01 -1.929642901483711592e-01 -5.241822766956444335e-01
1.631103983729467188e-01 1.073531954695370327e-01 -9.030249385071325019e-01
-6.557302006818850337e-01 4.638192683043090847e-01 -2.766645578823967791e-02
2.482468430768489664e-01 -6.500131494469313376e-01 5.755900600502739106e-01
1.626441527800726317e-01 1.719446684352219645e-01 2.178319072476641097e-02
-3.482128496694178454e-02 -1.247113749714896247e-01 -1.260475945828365141e-01
-1.224269719584493016e-01 -2.260626514161385436e-01 -2.373839372828843719e-01
2.769235851072532340e-01 -3.338408829756706053e-01 5.516822909213007220e-01
6.887128863616457375e-01 -6.049534788435370070e-01 -1.645984759619550652e-01
4.017594440588718729e-01 -5.053399244071626883e-01 4.303136176998277329e-01
-5.856017834531859201e-01 6.030060971332664582e-02 6.261523367460287981e-02
5.063062543000947935e-01 4.952936671693777271e-01 -1.284044799747784682e-01
5.046570012262173721e-01 6.282399830493520243e-01 -2.378288507683263553e-01
-1.181721928509361919e-02 1.026842615706464595e-01 -5.263704498865236919e-02
-5.078669511213066735e-03 2.538535400576664713e-01 7.185068267929649588e-01
1.280337867467608581e-01 -7.352874652401758526e-02 -2.028662965705454058e-03
4.341627138182159173e-01 1.294846055157110321e-01 -4.461856512018617243e-02
1.283647763325311275e-01 2.989565985296351314e-01 3.813733034906203190e-01
1.932977665541526502e-01 4.202864776024837212e-01 2.683249688201844174e-01
1.634499860550287509e-01 5.325528814194949723e-01 3.461435704527509039e-01
4.699554305031664048e-01 1.980245226437991335e-01 -6.339536568027390184e-02
-2.035032283216523519e-01 -7.630010049204043465e-01 -1.772417737088760603e-01
3.965163251438224012e-01 -8.317361876410558352e-01 -4.076617692390198666e-01
-9.758136033079872762e-02 2.692239675071041172e-02 -2.391614723145041588e-01
1.432719782078097082e-01 7.540918894627085534e-02 -4.199213636494276980e-02
7.655907260291465455e-02 5.824299184075329427e-02 2.619021393072094028e-01
-5.878599263621427790e-02 1.051982169255363392e-01 -2.544490374767570395e-02
7.264033116421568792e-01 -5.273180393180820769e-01 -3.000913495638782291e-01
-7.401639831253965518e-01 4.474473045758934342e-01 4.523899002509951806e-01
-1.946161300832071617e-01 9.471610715469991337e-02 -4.101215189550099782e-01
-7.485647285694779773e-01 4.574898212115841578e-01 3.857041258546802243e-01
3.479693127332542102e-01 -3.469254562132202957e-01 -8.335618359645106112e-01
2.599588472946762208e-01 -1.912019578830720379e-02 -4.813609048663124255e-04
3.591048228989481284e-01 1.494909970917243924e-01 -2.435520976420869552e-02
-3.943551812669897627e-01 2.974650890407165016e-01 -3.126118072146910620e-01
2.266583353725156735e-01 4.475153016387286020e-01 2.194743707503335473e-01
6.673236230048463780e-01 7.175437559651567931e-02 -1.908081283376394655e-01
-2.459643923485800854e-01 2.919090549693743042e-01 8.494301967681615606e-01
-7.365051758367555657e-01 4.000308805592369885e-03 6.444709807530235590e-01
1.020157288458922451e-01 2.226564085859132625e-02 6.487467245631870494e-01
3.265893541285498913e-01 -1.347332895404778630e-01 1.181003053372965961e-01
3.770306781964186810e-02 -1.233801817734348112e-02 1.804333183277636310e-01
4.348607841503126514e-01 -6.636429130322957226e-01 3.610160940889500791e-01
3.307041540008491542e-02 1.393406393125882214e-01 6.304195154046109140e-02
2.263559776702277651e-05 -4.963260149313796221e-01 7.948819147342510716e-01
3.496198210258152916e-01 2.338353351566793414e-01 -9.035896260489256759e-01
-5.359327506285510578e-01 3.765172622271265035e-02 4.136156286283896449e-02
2.348625179980213529e-01 -2.660028095589993535e-01 5.812321769738615362e-01
6.246662216723640748e-01 3.633579512242738480e-02 -1.313744850435673572e-01
-3.166992422396750495e-01 -4.896373900586113437e-01 -1.061849651254353349e-01
-2.834286145849758687e-01 -5.182447827962844977e-01 -1.548943180009109688e-01
-3.124506492009956893e-01 2.363616112839968808e-01 -3.730328821277962836e-01
1.791254210846913442e-01 -7.283861755633468105e-02 4.428126188150363629e-01
4.859246238136878393e-01 -4.518620279715340748e-01 2.948179447567325639e-01
-7.150880003150469344e-01 -2.627032585536449028e-01 4.898282861385981346e-01
-3.300330018902134510e-01 -5.462771816317931739e-01 -9.256660763300855743e-02
1.968351057660677750e-01 8.765684492121043059e-01 2.693647110249779153e-02
6.068822257527657360e-01 -6.873266275987606200e-01 2.791306565288089250e-02
-2.129014530732295518e-01 1.090886448871261905e-01 -9.938496157598120107e-02
6.935163115045618332e-01 -4.341346986361270810e-01 -5.627752638269647306e-02
-3.850199287487512945e-01 -5.715797444823157436e-01 -1.569634413288667138e-02
-5.797742487319825777e-01 -5.112337467060916740e-01 2.794296211209510439e-01
4.847110741730152328e-01 -8.251536955896364711e-01 -3.312565659611421687e-01
-6.278471914941206045e-01 -1.506997528065746050e-01 7.754341181976621700e-01
1.099521263309499557e-02 3.972496865407463273e-01 6.377789478899454911e-01
2.146078840065677729e-01 6.104096073991867044e-01 2.497363139557297884e-01
-8.930608171644482951e-03 -9.821967886412201476e-02 -1.190943664932664764e-01
2.828628768901323212e-02 8.399091891872522142e-01 -5.594020873814916639e-01
6.389448658726861741e-01 -1.778787662814086401e-01 -5.310465311472040845e-02
-5.917500446229252004e-02 -1.526690733429930114e-01 -9.269372683190990614e-02
-5.706191828618230669e-03 -9.582532692516236572e-02 6.385435116328787297e-02
-7.782001695500119220e-01 3.202497067946221687e-01 3.649185243609387452e-01
-7.159359723299607570e-01 -5.027338165364176464e-02 6.759309498831201912e-01
-1.396277385808220028e-01 7.476565469568360323e-01 -5.937004261821460238e-01
1.260314324543416187e-01 6.237471453223036172e-02 5.116536766635596534e-01
-2.564193107358965773e-01 -3.250858302503363273e-01 -9.928632908940683566e-02
1.458178476375191213e-01 -7.743517511616566928e-02 2.477028484214684190e-01
-2.753073042611915433e-01 -1.910850686838736975e-02 1.776248616225508184e-02
-5.253217264917220408e-01 -4.894724818207759065e-01 1.533252912574305238e-01
-5.499335292916629481e-02 -5.981221837983414780e-01 7.694625275535000863e-01
5.162321331883820141e-01 -4.420663511028240511e-01 2.462702736049360297e-01
7.085066192144866548e-01 -1.398574017081027909e-01 -6.848520672461000380e-01
1.695188716431080267e-01 7.178366839774338315e-01 2.615124303662159089e-01
-1.029035160385853853e-01 8.571443446703824742e-02 -1.488832962477848743e-01
-2.569523690516852810e-01 4.680342348639684319e-02 -1.171028682048688360e-02
-6.802380710399259511e-01 -1.798317128235564499e-01 6.944967852845117529e-01
5.008304642414244112e-01 1.677557231303419827e-01 -8.636348073726046737e-01
-7.103681363752107902e-01 3.343454914175834625e-01 9.917218965383280127e-02
2.814549890046275094e-01 -1.933098660595157781e-01 3.482826971865812249e-01
3.563933638294291550e-01 7.653009757637716515e-01 -8.522698684163404481e-02
-4.004632354608870237e-01 -7.256391964063083622e-01 5.469983581667118289e-01
4.852305075651095478e-01 -8.635554502517966968e-01 -1.855790109328443183e-01
-5.264347278682955933e-01 1.645423891929860272e-01 -3.757700706636293853e-02
1.899806051905476856e-01 -4.703304984835116054e-01 6.764883759808566488e-01
-4.627095481188298054e-01 1.192905417785778133e-01 -4.133146575453115062e-02
7.674627772990537666e-01 -3.182212819050529440e-01 -2.832065976738027402e-01
1.502238509119729060e-01 3.654168515983545751e-01 -8.750192505281014776e-01
1.886212966124602153e-01 -9.750382293813940615e-01 2.009065812360228964e-01
-1.838274367201533088e-01 -9.024300614945981458e-01 3.993575352408906265e-01
3.723338212424042726e-01 -6.069123074867815992e-02 2.864192743265339333e-02
-5.531615841955139085e-02 5.893151206080117221e-01 6.008965070982595913e-01
2.259429928983481273e-01 -1.688029907300571397e-01 4.943170908515854833e-01
1.022535781659268533e-01 -7.269993280154227189e-02 -2.212990091373025214e-02
7.513680957316504205e-01 -4.422976990624566951e-01 -3.523963008999731472e-01
1.984175687498361262e-01 -9.349046784842199864e-01 -2.550043473753472179e-01
9.516284319591206131e-02 1.427746485580837221e-02 2.792917643632583102e-01
-1.466949035992302398e-02 8.359553446012689404e-02 -8.941621733162258279e-02
-2.371469797631442222e-01 -1.731372823443227682e-01 9.184878216247827076e-01
1.739177435521005455e-01 5.959463067796450658e-02 -3.790141887635191387e-02
2.565812737372578575e-02 4.679261099912274124e-02 -8.303735527793556503e-01
-4.825947587132156658e-01 5.654384192664244635e-01 -3.199769663947631959e-01
2.211899338649050278e-02 1.164615531179326868e-01 -2.183698469771419223e-02
3.346875701586665697e-01 4.182761033264597028e-01 6.687063135586311657e-02
5.162716025089579830e-01 6.484133365068712740e-01 -4.068059172525489431e-01
3.569703985102827826e-01 -1.265196162816130954e-01 -8.992326879628221858e-01
