-1.168262190424264740e-01 -5.825496947160320182e-01 1.795252774049189981e-01
6.568547167942688780e-01 -1.661514630573922569e-01 -2.183617030069382181e-01
-4.516913560694468810e-01 2.752884350444216865e-01 -2.876992155126471551e-01
1.236091881812642276e-02 6.083286406753140030e-01 3.537181389627331307e-01
5.688376059800094309e-01 2.777823478283417136e-01 -1.754477995757690034e-01
-9.195857578550977948e-03 4.245863052541162808e-01 -7.072094406958941148e-02
2.107738916181143840e-01 3.330017402146324690e-01 2.905365058676744397e-02
8.189724211675190046e-01 5.032024834515623768e-01 5.295719080734396372e-02
8.046265908147424151e-01 -5.426035234953719977e-01 1.511304702912548148e-01
-3.886700216624449089e-01 3.758675235178003948e-01 2.289003036941674452e-01
-4.150967226129029242e-02 7.785498813551314790e-01 -2.167690307272321093e-01
-7.774423593163475310e-01 -3.561157809358810877e-01 -3.699620244054063756e-01
-7.640471846608860862e-02 8.293456696345173906e-01 -1.962066001728727249e-01
-8.774670132209266837e-01 3.005157862949207059e-01 1.150751971321146427e-01
3.708711439450694813e-01 7.029952744361087635e-01 3.691703364666326648e-01
-4.565189016887084561e-01 2.980372781001803806e-01 2.078583105409267939e-01
-4.862825649275464013e-01 4.344492839852881483e-02 -2.907834360282590680e-01
-9.149595428948489317e-01 1.137524388352196825e-01 -2.830180201579425292e-01
-1.919911270462902608e-01 6.986195760977869096e-01 -2.536495226204291131e-01
-3.855504364349531254e-01 -3.211790682217472992e-01 8.556743812039563357e-02
-3.266668040540062767e-01 -9.420604816820524752e-01 -4.120267114451023338e-02
-6.588486266638070576e-01 4.039213432920039093e-01 -3.332453025637282518e-01
-8.069306658304156166e-01 2.991458738156831387e-01 1.781510245634161105e-01
-5.202331700346713994e-01 8.156248085177699725e-01 1.061363373246187181e-01
1.183801681997740385e-01 9.546352667002058201e-01 -1.897478992137667997e-03
2.585611096152004573e-01 3.506661041542899482e-01 2.756185048624231748e-01
-4.014884115808944332e-01 1.357426336099515352e-01 -1.608373164815997403e-01
-3.999443331278165759e-01 6.055359448414382451e-01 -2.908134805174977799e-01
-5.723418648507724305e-01 -6.818334227691451588e-01 -3.465267201022151355e-01
-2.617439664357321671e-01 -5.143136055231525283e-01 1.519598489922304174e-01
-6.189060621806504736e-01 7.688727654012335044e-01 -1.576773543480943299e-02
-3.249954186025367786e-01 3.879146078033756662e-01 2.169913495887600685e-01
-1.321807015084308923e-01 -8.935131099603955684e-01 -3.067808418698387274e-01
9.214196348038655726e-01 3.002730716801549904e-01 1.395574090295877978e-01
-5.615653512515595969e-01 9.512641983361685982e-02 -3.472551327883166006e-01
-4.301710401250000704e-01 3.423378152991678469e-01 2.222305775416399121e-01
-2.340607361876788084e-01 -7.916346747425334618e-01 1.733471681612180626e-01
-4.630708419674562371e-01 5.146498408108937106e-01 -3.102192258479432585e-01
8.037968578755986249e-01 -2.183690267306948041e-01 -1.838947793760092320e-01
1.089001075732757839e-01 -9.776181314336938044e-01 4.777956307075294229e-02
-6.559972342948521273e-01 -5.690450632884060944e-01 -3.645412359565724514e-01
-4.912876811996181869e-01 -2.155196764125417441e-01 1.191024640153630770e-01
-7.782697471906766529e-01 4.465713075504703644e-01 1.658222753904196323e-01
1.415682883030698058e-01 -9.274534756130009550e-01 -2.419314396078622587e-01
-6.585627717776594559e-02 -5.073501392126088527e-01 -2.977968863125673438e-01
-1.494747829828519947e-01 9.520437286348634176e-01 -3.972482288911207554e-02
9.721498060952710185e-01 4.303147770746600098e-02 5.504182675131846780e-02
9.851287087376424043e-03 -6.581650077544789479e-01 2.198050023224056571e-01
2.667321752598842410e-01 3.197079733276217417e-01 -2.464915291052692525e-02
8.124226063501538420e-02 -5.019825126557493356e-01 -2.667722056374794426e-01
4.116278124345847389e-01 4.564157169600798758e-01 -1.741091850691049436e-01
-6.828043997501352935e-01 4.978163594983278650e-01 -2.940890438808101970e-01
3.339695391989847550e-01 1.905489884178187820e-01 1.170440368597524400e-01
6.984536268802671310e-01 -1.678118564091495291e-01 3.688512722563156987e-01
8.278815238941193977e-01 4.702734817726815786e-01 2.088161570979844284e-01
-8.279146343446884826e-01 -4.732064938760827122e-01 -2.756787906158821300e-01
1.274941889725095256e-01 -6.527041893488575441e-01 -3.426696530560406351e-01
-4.907810310115763852e-01 -1.015766786882963818e-01 9.907221621404624368e-02
4.410304785744808553e-01 -2.741372945563531061e-01 2.795253991840956909e-01
4.346491863330767536e-01 8.320528782388515732e-02 -6.320645382805814561e-02
8.362961674752711350e-01 1.828728620411526340e-01 3.391217072638659791e-01
-5.250272339875573513e-01 3.756419387843219493e-01 2.514828847166965531e-01
3.449596664404567803e-01 8.603079095675599808e-01 2.474606041920942578e-01
-1.860127232898189098e-01 -9.057674929285302046e-01 -2.903974415145924026e-01
-2.905570774825615987e-01 5.996145798583467634e-01 -2.759461770273649028e-01
-9.852634899722466644e-01 3.973229089397738861e-02 -2.362730063816381731e-02
-5.373439118935335879e-01 1.481170326284168559e-01 1.800635265416844211e-01
2.541087850575242113e-01 -3.293552092220544125e-01 2.827743395674436541e-02
-1.973938930667913649e-01 4.853653214888717371e-01 2.710736870218212191e-01
9.413846606200133582e-01 2.399392505275076692e-01 9.326536880230723581e-02
2.595885573224681053e-01 -5.101008080444884296e-01 2.435771395749480317e-01
5.878311586750515350e-01 -2.082152034260853490e-01 -2.187645856852565018e-01
5.719565211341154365e-01 1.709892465515578386e-01 3.891540356256271704e-01
-7.165683616027019864e-01 -9.078238155991676106e-02 1.853754991198386382e-01
7.016101508188568037e-01 -2.018210044607150755e-01 -2.192805055652709556e-01
7.998347552956001083e-01 5.418555393166902823e-01 8.738008141463027290e-02
1.161156562715448884e-02 4.687979105377743094e-01 -1.311908103686937055e-01
3.040219512496606380e-01 2.460922933643406862e-01 1.807874306602265113e-01
8.624785435463117045e-01 4.398850369184592601e-01 9.954067542445617367e-02
-4.265939547857073300e-01 2.121801974381371803e-01 1.335379051869124145e-01
-3.197020744076298771e-01 4.868427779881430162e-01 -2.701460642162085146e-01
5.719041377990344843e-01 -5.451388758575624882e-01 3.035218664378070419e-01
4.276063607450695803e-01 -5.616181681147185412e-01 -2.930784724738050850e-01
-5.562571878960506089e-01 6.269051081205629927e-01 -2.717844541755786159e-01
5.329235308615536404e-01 1.522043486800709333e-01 -1.553856230888150392e-01
6.534619481508266992e-01 7.055053027668242160e-01 5.824470451310772429e-02
5.902561375747997774e-01 -7.817139121879921326e-01 1.074109427722089033e-01
8.993465716428843126e-02 4.436295583831743605e-01 2.695992183696538369e-01
-6.568224131581609226e-01 3.602413876100635931e-02 -3.844938021610275203e-01
4.040300369068360875e-01 -2.779440506778765307e-01 2.476122959749681718e-01
1.721035990984855490e-01 -5.029032018022805417e-01 1.989366165683898180e-01
-6.141872013690294896e-01 5.829538001083395260e-01 2.293487723629035469e-01
6.739388504495089083e-02 3.823573383930063962e-01 8.547440615855898816e-02
-2.504491406286148969e-01 4.697059717494381226e-01 -2.333213382553402659e-01
3.498151460155441428e-01 2.593111047711477157e-01 -5.171009907382207588e-02
7.969971548918384219e-01 -5.904560390978103035e-01 6.250219109647010829e-02
1.966015219066298558e-01 -4.032149709448452635e-01 1.128554514794436886e-01
-4.151957043026075489e-01 8.209206753414473035e-01 -1.677659423377768910e-01
3.147451626492419052e-01 -2.871546430787623172e-01 -6.577698154643707440e-02
-4.126840715530327719e-01 4.794728453558833592e-01 2.778161838843581366e-01
-8.882837469105817618e-01 2.779442547984514733e-01 1.085984925473365559e-01
3.611874984778724595e-01 -2.845417568756034576e-01 -1.315350508418952624e-01
-9.041458435547929939e-01 2.625457831513974827e-01 9.218042057225726837e-02
9.095405245142553774e-01 2.931791333170398750e-01 2.019973857554457075e-01
-2.782743007311394567e-01 -4.786598580927830526e-01 1.356372166204416752e-01
-4.363193453630002105e-01 8.694481046781167288e-01 9.578096646614657483e-02
-4.891641290281112386e-01 -1.029074442405128464e-01 9.759931245487443729e-02
-1.905712161550709161e-01 -3.809437125065284757e-01 -4.334960254543512165e-02
-6.393991128083941211e-01 2.908539440821838462e-01 -3.556401347569306259e-01
-5.711211399465154770e-01 -7.827835101540164819e-01 1.725395286464810954e-02
2.219927151253186515e-01 -4.463190483243387741e-01 -2.242268071938176011e-01
-3.411289103937190093e-01 -4.120840385000852923e-01 1.166456560713009238e-01
-4.888955727242372817e-01 1.182562430624947147e-01 -2.945900720301836695e-01
-3.175458306339818543e-02 -5.217066562183547695e-01 -3.016489726217244094e-01
3.680958369797250329e-01 1.231884342440856678e-01 1.373455958853304348e-01
4.106953825611644460e-01 5.369277304160410269e-01 4.012409566852168097e-01
3.718752717119837986e-02 -9.330258952373341463e-01 1.239703462903932185e-01
3.585662718118106662e-01 3.816088907289709176e-01 -1.376203898227057187e-01
3.943205003010061827e-01 -3.757614990003176059e-02 1.088981532475259001e-01
-6.431477760229453722e-01 -7.686014761893109060e-02 -3.935471335167480267e-01
-7.708362623930214985e-01 -2.752559974949151389e-01 -3.858802041887892109e-01
-2.828124619815758356e-01 -3.296793892270045157e-01 -1.900572795015329983e-02
3.874321968919912651e-01 -2.666801172041156631e-01 -1.410994169084122951e-01
8.575054146390332921e-01 5.418277500408193864e-02 -1.360707944308459649e-01
5.502593703863595254e-01 7.533964475150128903e-01 2.451017682211855397e-01
2.492505302734619455e-01 -8.803696811582080173e-01 -2.532736419617139800e-01
-3.767361849708192323e-01 6.531682819917654648e-01 2.991214326449517236e-01
8.580292682451400310e-01 -1.786312041003506879e-01 -1.477053867560244038e-01
-2.861032703049898318e-01 -9.456554924455723432e-01 -3.529003952886798287e-03
2.525607839874803862e-01 8.782815841735251983e-01 2.624540117128458805e-01
-5.330430798059104802e-01 -2.858699283863171403e-01 -3.941023891924256839e-01
-2.302061421479317804e-03 7.780812822347014102e-01 3.442033063773540791e-01
9.125393171333619213e-02 -8.335491593001986832e-01 -3.257613091752253887e-01
4.015541530269333137e-01 -6.503778446626850007e-01 -2.992827657354618642e-01
6.712253122517932713e-01 5.620514741174859052e-02 -1.932499707417843215e-01
2.518140157619060404e-01 5.303566805312286414e-01 -1.787055120582725087e-01
6.021721588067107112e-01 4.861557531199202642e-01 -1.604079175110637301e-01
5.284252135042863951e-01 -3.764684759447330942e-01 3.292472909161072159e-01
2.797138810182140944e-01 -3.245456125813900305e-01 -8.007643527906842251e-02
2.453333667483293401e-01 -6.210685001740964273e-01 2.627809193929854792e-01
5.508524353052642875e-01 4.664775387569718990e-01 4.018547814095678183e-01
6.595298232742700106e-01 -2.549978896411264073e-01 -2.300970647957288062e-01
3.961311863994916860e-01 6.524063502079944232e-01 3.837430079984747722e-01
-5.985316907429063527e-01 1.481890511570622959e-01 -3.602682681304498757e-01
9.616470143042568641e-02 8.225465816479301528e-01 3.301906246895302544e-01
8.630073729986259545e-01 -1.203658145967975157e-01 -1.448476205899507652e-01
-8.474701407560876198e-01 -4.132781667483431121e-01 -2.900311649123812341e-01
5.595625591828584655e-01 -3.406153059418319806e-01 -2.458337936560909820e-01
-3.396070168474588646e-01 7.768986073583638019e-01 2.713611228018660282e-01
8.735430934928891666e-01 3.904981532198104621e-01 2.851985081436597333e-02
1.945995191750634623e-01 -5.343245769432599657e-01 2.260937422637639416e-01
3.563534320363537788e-01 -2.062901353109336811e-01 -4.784759717899518885e-03
8.498587490052330606e-01 4.618387110099301807e-01 8.982013639455491139e-02
-8.266290116340048177e-01 1.619495779220873621e-01 -3.411004411326736818e-01
-2.431474193357232305e-01 -3.711880426798414567e-01 6.435229901972448763e-03
-7.194097928136594655e-01 -2.541064254845619153e-01 1.696529068512765692e-01
7.541788276921512768e-01 4.616886494717938327e-01 -9.012564830961061757e-02
-2.142831828170519981e-01 -3.757465513725617989e-01 -2.080538374612697292e-02
-3.182472701199275944e-01 -5.725452385367875152e-01 -3.976296716581995683e-01
4.037063374227948254e-01 8.014248514944926072e-01 2.918379067998591592e-01
9.504456592756877972e-03 -4.456774566986861363e-01 5.091109747979361000e-02
-4.427546847384989381e-01 1.107771809278232100e-01 8.108046426336056045e-02
-7.688961540062370925e-02 7.772670505242977868e-01 -2.211861234792531494e-01
7.045741766131841111e-01 1.055035919188558186e-01 -1.881781890308265037e-01
1.397608015816195759e-01 5.006302505954535187e-01 3.359270058801779868e-01
5.709648078197170351e-01 -3.877587266170636621e-02 -1.799149096192754760e-01
6.779932068758210972e-01 -4.411689050420439240e-01 -2.312741837648563392e-01
3.838562075552974240e-01 -3.407724940656693402e-01 2.527028766225898337e-01
-3.035104645769108878e-01 4.072722897948287124e-01 2.261055603305917316e-01
1.050414983328684104e-01 -4.080477602628109768e-01 -7.229254314244583368e-02
-2.922471836853611782e-01 -4.135712512567762400e-01 9.466825016425763073e-02
6.419109675085354905e-01 3.297956789951706491e-01 -1.749661347020943225e-01
-2.861288486551906152e-01 -4.745735644243676554e-01 -3.595579129454630762e-01
6.482498804916905222e-01 -4.399873296159030334e-01 -2.425865413749647148e-01
4.509339046249244420e-01 -7.616225211626708180e-01 2.235784387024316311e-01
7.727312961655581625e-02 -4.815970452710998106e-01 -2.441772114378086833e-01
1.516792477882502044e-01 3.549802901229349161e-01 1.207161557407995106e-01
-2.942770043798655366e-01 -6.618856848623358990e-01 1.871215839559683125e-01
-4.600429429076783872e-01 -2.414115685383514398e-01 1.041071710200642542e-01
3.162811587510928057e-01 -7.831330318878745311e-01 2.327343651020150617e-01
-7.449136555563772299e-01 -3.823241848829463385e-01 1.404201577336301743e-01
-3.775296013432280495e-01 -5.143299776126596390e-01 1.674164870112993808e-01
4.640134137628997291e-01 -7.416897307085575930e-01 2.338122946812821179e-01
5.266049360444770011e-01 -5.907576324776030452e-01 -2.706306454288617269e-01
-5.716088600232024364e-01 2.550480120823207519e-01 2.240779416795381229e-01
-5.701716047474473248e-01 -5.607542125162194857e-01 1.567783318382896252e-01
3.978426583919153492e-01 -1.040960522095211449e-01 1.595561924037476875e-01
-5.838438495692516161e-01 1.086823621733737193e-02 -3.649640556334606267e-01
-9.943722854321588311e-01 3.752680126909380826e-02 -1.003455312629000090e-01
-8.624812707123612199e-02 -1.000000000000000000e+00 -6.628878425529105556e-02
-2.399447909658395661e-01 4.754246129880878025e-01 2.666449123883262162e-01
-5.756531400977265012e-01 3.963723716277699483e-01 -3.370688609288165494e-01
5.040874460506948873e-01 -8.018114825967360693e-01 -1.783718668015651654e-01
-7.895651272727948200e-01 2.713611864293536402e-01 1.909623549580745927e-01
3.943582904127670430e-01 2.599371421803860494e-01 3.234719825351257683e-01
9.095140727940911329e-01 3.297193007421364563e-01 1.501918593200758101e-01
1.715696009213751871e-01 5.817571583813306857e-01 3.746451542137835822e-01
-3.835959826705351294e-01 -8.401337504486623420e-01 -3.058340154901163510e-01
-4.497743720734230788e-01 3.466719449150619803e-01 -3.001739488036954673e-01
5.810681937192477831e-01 -6.922476261250243290e-01 -2.092413451549413050e-01
6.643557281870352549e-01 6.510232019674884185e-01 2.540940521809089137e-01
-1.291155313782053060e-01 -9.161792117519824696e-01 -2.848827095786090613e-01
-5.928117594652152489e-01 -7.758721208860420993e-02 1.658291015687389236e-01
3.957598632371771563e-01 6.179991704921248274e-01 3.923313103676772662e-01
3.573036122906096956e-01 -4.155008655224443626e-01 2.606417050298212024e-01
-8.951856092556204070e-01 -1.436081453734196489e-01 1.020000987865195136e-01
1.217205822028251255e-01 -4.021473684334686549e-01 -5.492113683813409225e-02
-6.598411005826062548e-01 4.429146137839891084e-01 -3.219115018337003753e-01
-3.468148445754591913e-01 -3.147272661677180672e-01 -2.876749822390634037e-01
2.344444712177362888e-01 -9.733191553693751885e-01 -8.439663169512207075e-02
5.483653089586211227e-01 -4.935628600130664845e-01 3.183256895541261566e-01
-8.698583580286173289e-01 4.470511326564967081e-01 -1.466380204343651905e-01
2.765853203185708042e-01 6.320323405538500472e-01 -1.943349981168106533e-01
-8.645283059273189963e-01 -3.938874032030867389e-01 -2.787930132355180279e-01
-7.858882266101250291e-01 1.013504884414867385e-01 -3.682306016772077806e-01
-2.169709825440928885e-01 3.425503642111392133e-01 -4.064962678410663499e-02
2.655078139488934591e-02 6.788922770640061222e-01 3.644842355281555091e-01
-6.494610076359149664e-01 -6.697095901211588820e-02 1.830196837050493963e-01
4.131067529936414129e-01 8.049294046001983505e-01 -8.039190460287391760e-02
5.789222215503510294e-02 -4.165823685349607230e-01 -5.111827389237930813e-02
6.237040026100908463e-01 2.238065216039817895e-01 4.020701247211199147e-01
-5.097311781004728592e-01 -6.422724420459698935e-01 1.528817118894008897e-01
1.554585749699885500e-01 -8.287436106139042247e-01 2.111555089179115163e-01
-7.947081639643061024e-01 -5.503174192025381828e-01 -2.542868902785180851e-01
3.405864821004226939e-01 -2.477595899962294623e-01 1.241379895330058242e-01
-3.986619361857225985e-01 -7.845271761775842734e-01 1.296488152052959197e-01
-2.697267401594982128e-01 -4.161351176145476338e-01 -3.128008937444551329e-01
-4.912237352247668110e-01 6.231456566802329178e-01 2.711695031349602991e-01
-6.917886754476192390e-01 -7.219884648382985937e-01 -1.134756942864632856e-01
-4.881171107988342417e-01 -3.915899763905696385e-01 -4.015589173489177433e-01
-4.235845875901286806e-02 -4.236795620926675499e-01 -1.370622228808406340e-01
3.571386922281659104e-01 -6.375289692883485682e-01 -3.090771127638100579e-01
-5.965888736686083549e-01 -5.829675442442289190e-01 -3.834182889505596825e-01
-3.356726254510472574e-01 -5.774228364727745921e-01 -4.007044228522438911e-01
8.367439249878911856e-01 -1.358900033301640442e-01 3.283558472691969210e-01
-8.606639001554028390e-01 4.227440452082864564e-02 -3.413113650614162942e-01
-2.610202849200232711e-01 -6.449872944410709463e-01 -3.957655191078485735e-01
-9.676955446692672158e-01 -1.630308733094856521e-01 -2.010759426854274445e-01
-5.626214630207808653e-01 5.843469790762848698e-02 -3.500663788470881332e-01
8.821631431846441718e-01 4.010163818214859677e-01 1.098286075066889494e-01
5.453063912404398916e-01 -3.825106897691164520e-01 -2.544624526968017886e-01
-4.562943936144254753e-01 -3.957075639530878708e-01 -3.938935324455644094e-01
-8.070945799860644587e-02 -6.839425374608915087e-01 2.106508516431002398e-01
-1.888435825590347450e-01 5.259758493134869539e-01 2.966356604894053728e-01
5.147458543191966163e-01 -5.715368042958627326e-01 -2.759712459859662292e-01
2.890061091498320467e-01 -8.205943559044427404e-01 2.125794472780095368e-01
3.420703909623362127e-01 -5.032706002685227720e-01 -2.820573848503092895e-01
5.564994654973339783e-01 7.899936391332462726e-01 8.799545833953779927e-02
6.750105049451956551e-01 1.054454768187236963e-01 3.955295103913495924e-01
7.204227477694605253e-02 3.900304653634462659e-01 1.544258596824415741e-01
-5.698270240375986617e-01 2.058081369925373813e-02 1.654535683986637640e-01
4.788661281213538179e-02 -5.787831630565533070e-01 -3.267123165674837848e-01
-5.040920293897779292e-01 -3.388831428258721745e-01 1.527868152451014594e-01
-4.130253069576871328e-01 -3.381893701083660830e-01 1.130664718187201212e-01
4.760506080081837732e-01 -1.595872030011702067e-02 -1.113177574011835341e-01
8.974514883697782830e-01 3.653814341799592191e-01 1.302609144372016969e-01
-8.613119260028102575e-01 -1.872968037990875231e-02 1.460176999397670428e-01
2.240608326189169885e-01 -3.864684758749012405e-01 1.198143091983514957e-01
3.583120393445389240e-01 8.956897542351793806e-01 1.459480985289900723e-01
-1.188064605636094534e-01 5.748901925778977517e-01 3.246417077070063995e-01
-2.333056115504910932e-01 7.859857895003677930e-01 2.999895432474502521e-01
-2.959324892106295901e-01 -2.948221904545732519e-01 -9.185740621837300279e-02
-4.203952792692558504e-01 -1.923780278050267745e-01 4.176944671253102204e-02
-5.288685395029684155e-01 6.372451760653775610e-01 -2.730460991102490742e-01
-4.511197938769080373e-01 -1.789500114959061659e-03 4.865248133836128780e-02
1.250992344357928776e-01 4.692051370352215978e-01 -1.314347510534340235e-01
3.574116905450483994e-01 -4.783472516365195326e-01 -2.724803508223669901e-01
7.750306181071807687e-01 3.203807139971431295e-01 3.551455707273728502e-01
-1.621319765687711523e-01 -4.203903802001032752e-01 -2.347683424109342498e-01
-1.578115343953815641e-01 4.306533924620097875e-01 -1.500356438645291390e-01
4.049560120067198232e-01 -4.662753717072579650e-03 1.343083281639412090e-02
6.859741585396025298e-01 6.953611236482237778e-02 -1.923272431878549349e-01
-4.376865552995568565e-01 -7.757474846114955636e-01 1.189711522522214904e-01
9.208189109973341502e-01 -3.479488850502003294e-01 3.051670978579101856e-02
6.864029016199121314e-01 1.822203590994947442e-01 3.981699880568666527e-01
5.092403778723934016e-01 1.121350660568995045e-01 3.513602736771851420e-01
-3.527968096664027553e-01 -2.456604764263400076e-01 -2.131656812301327419e-01
3.617192248598778970e-01 -9.152756291045486270e-01 -1.334774042569939478e-01
4.568125292123219605e-01 8.486898596919478788e-01 1.506175492702684082e-01
-4.086348232222778987e-01 7.105972381733797194e-01 -2.557332648204366787e-01
6.100550989482140807e-01 -5.704555033243449147e-01 -2.412238025684957654e-01
4.559950805814028119e-01 5.776589344115200531e-01 3.952371960598298206e-01
-8.925818675774530586e-01 -4.456804196960112985e-01 -1.249956492702843508e-01
2.355072885725960352e-01 -7.935520074532965706e-01 -3.110262485297708435e-01
-3.963839654246015254e-01 -1.218856505711679306e-01 -8.667246035218854894e-02
8.853827129548959007e-01 -1.156946611225737748e-01 2.935643257744264822e-01
1.900581041425395690e-01 8.309653838062976972e-01 -1.506475428419073170e-01
5.217463649609093146e-01 7.682709157875017292e-01 -3.778543703675288357e-02
2.177878230694570844e-02 3.941856505974055680e-01 2.128934464737228943e-02
-6.220969630869340738e-01 -7.526510514131377061e-01 -1.651103007958488588e-03
1.602387418090226445e-01 4.743877141058059355e-01 -1.400214482255007775e-01
9.534503971509812326e-01 -6.684996676087411049e-02 -2.509242340009782204e-02
-3.690401077259810037e-01 2.459771801315427664e-01 -1.855097135536302178e-01
6.553133181373511640e-01 2.073557573214193372e-01 4.012432814420849314e-01
4.103924617608996628e-01 -4.403950318966619315e-02 -1.030078063387680418e-02
5.366247697186170562e-01 4.637735208573893764e-01 -1.759704349624316988e-01
5.453607544875006541e-01 2.389487706851100846e-01 -1.678219100994559065e-01
-4.217359445786911937e-02 8.898096189515003474e-01 -1.457356304784294954e-01
-7.517247268489550827e-01 -5.777505281099986068e-01 4.299239805863601382e-02
-6.655756414712299396e-01 8.547107047132140867e-02 2.032531260179437915e-01
4.050937901599025448e-01 2.461513193530112942e-01 3.246792996126504627e-01
5.123154430695935346e-01 6.940160012383590482e-01 3.323028714160854435e-01
-5.258556739874898911e-01 4.526503081937779255e-02 1.431126857671980168e-01
2.993032530608729508e-02 4.133635912806084001e-01 -4.388550367551415088e-02
5.455339321262997476e-01 5.823073303362769071e-02 3.609792113339242992e-01
1.496669965189661999e-01 -7.252452356597759442e-01 2.437635817632673729e-01
9.017124158886115071e-01 -3.926643903267448832e-01 1.078776857758820262e-01
7.378765097065301815e-01 -4.750879768436696016e-01 -1.910754822783725382e-01
3.077199951337893924e-01 5.872857868335915610e-01 -1.902808986861650176e-01
-6.925365163106407262e-01 -4.559573405044249905e-01 -3.862512447445011210e-01
-1.499530666862561035e-01 -6.893424822215629133e-01 2.027822770606090841e-01
7.357127724021956805e-01 5.863295110486395068e-01 2.347944047741591378e-01
-4.358793157040172783e-01 8.816160332177069847e-01 1.563387464512412672e-02
-1.058707548461950282e-01 3.818798817312628602e-01 4.167904620799691567e-02
-8.509434060519233123e-01 -3.691087978859377561e-01 7.073706498897744388e-02
-5.011495155349763309e-01 3.789633191752966312e-01 2.509966695496843037e-01
5.506624432455174967e-01 -3.629611905848871278e-01 -2.503999448984764453e-01
-6.556280201014459408e-01 -3.950329131279960992e-01 1.645779700382989930e-01
-6.889366244735847244e-01 -1.610373620651819881e-01 1.801979798412791933e-01
4.062086865484706988e-01 8.582211852747102521e-01 2.029370496592484419e-01
-9.078395330023990573e-01 -1.456797413407968367e-01 8.881654087083933058e-02
5.191975857496700097e-01 4.470935127168717549e-01 4.053708510074486293e-01
-9.665340124604879790e-01 -1.515432467316908949e-01 -8.167668576094458052e-03
-6.580153724477014188e-02 5.097224856597140086e-01 2.944458708365046973e-01
4.161688481818331953e-01 -1.216767625292231869e-01 -6.282065967573420562e-02
-2.291178972559966276e-01 -4.198372104634784385e-01 6.753128284755918753e-02
-4.507736776016953439e-01 1.138881788702638953e-01 9.404460167188945230e-02
3.095289487875482193e-01 3.567426044121816409e-01 3.211612407503824929e-01
3.240686206070916842e-01 -7.640776188712364858e-01 2.419232944763283211e-01
-5.955440330854747666e-01 -1.004311877659490870e-01 1.658662396353282331e-01
-3.790808094357541735e-01 5.478756879415817016e-01 2.955846414093553087e-01
5.688653686257404835e-02 9.390402756243079185e-01 -6.407417672026727296e-02
-1.478844362879793983e-01 -4.113648574749076969e-01 -2.255758449901364767e-04
6.537510810262272543e-01 -3.589384238863465026e-01 -2.403645647518095063e-01
3.932030311012594259e-01 5.103048545362638411e-01 -1.811521163232955867e-01
4.445816913371565815e-01 6.556564973506230354e-01 3.747546934625055060e-01
6.115893833057567397e-01 1.493168716991246370e-01 -1.809015822315850897e-01
7.010708701551089383e-01 -1.870317023834331127e-01 3.660288317730819863e-01
9.711947368615689302e-02 5.274277786380676680e-01 -1.732214682434253250e-01
3.236608985469611316e-02 5.157137710723144197e-01 -1.700311708361807728e-01
8.887200110450113044e-01 3.215512431373663271e-01 2.287751888426050872e-01
5.894275928428837075e-01 7.661532438432233638e-01 1.186720219245567809e-01
-8.424754634081849103e-01 4.461876047703018933e-01 9.163059962399644487e-02
-4.189427702496333894e-01 1.307535612824765880e-01 5.566233465091163096e-02
-3.462452181108161553e-01 -9.045865553231950962e-01 3.561139110678411546e-02
-3.238086645046683865e-01 3.769380001116737211e-01 -2.283977455984254612e-01
-8.519901479871000438e-01 2.407797984881744346e-01 -3.045258158835142392e-01
5.949582637228920667e-01 -4.634934702808561346e-01 3.234265531876998057e-01
3.946647611760450980e-01 1.231731221053344177e-01 2.306883987063578778e-01
-9.796170127254461013e-01 8.139740547505372459e-02 -9.946746320326490393e-03
1.492074214430259560e-01 -6.991369754418471638e-01 -3.444329294253285489e-01
5.934902935360213405e-01 6.379909304435957829e-01 3.276265352760066030e-01
-3.325051947621429638e-01 -5.457979560273321651e-01 -3.960039350889025811e-01
8.691591717750355439e-01 1.337298666902178579e-01 -1.125464465673580161e-01
9.241059500733308507e-01 9.374859483173175745e-02 2.573249103480080291e-01
-2.904032664629097593e-01 -4.553604126338013924e-01 1.246110447422070777e-01
-1.812250558680677387e-02 9.451678243799708223e-01 1.937624336029815375e-01
-5.895219895407781685e-01 -7.249018979609799240e-01 -3.026896095370604778e-01
-7.394110594732696828e-01 5.439499160840380876e-01 1.559511598317646630e-01
-1.003988990745023208e-01 -4.717217893928959960e-01 9.104860674395162667e-02
-3.920217302188910291e-01 -8.928044806546600043e-01 -2.287389541304567508e-01
5.869788015684018756e-01 -1.864650277466801953e-01 3.544755258298821210e-01
-2.294783154754676535e-01 4.499027427620088115e-01 2.458724023509488710e-01
3.389615123424927212e-02 -4.783141101323296063e-01 -2.426568723754570500e-01
6.176800429079737365e-01 2.351860154731677532e-01 -1.803987025974508329e-01
2.874256089522857494e-01 -8.133417244898242249e-01 -2.866819728783688292e-01
5.682523942408237438e-01 -3.414957867702778094e-01 3.398301386285611514e-01
-5.431736208795721055e-01 2.861122564011572139e-02 -3.407542303003053830e-01
7.446329766412818074e-01 -4.611702731513344644e-01 -1.901272969383687172e-01
3.373462118648247743e-01 -4.270356414167417736e-01 -2.408961629238456081e-01
-1.553942292150103377e-01 -4.339546830027939395e-01 -2.518388906015089912e-01
2.892226458217225793e-01 -3.288501230267961706e-01 1.317860511768277065e-01
5.623966141591657530e-01 -1.416972984459196339e-01 3.481340559890310216e-01
1.164192005977275068e-01 5.548628689148856763e-01 3.557072519173919423e-01
-4.060854581713829736e-01 2.683711390273637587e-01 -2.464674235395781510e-01
9.069221390051122045e-01 9.331340136687082953e-02 -8.158787284675886320e-02
9.409354358899226778e-01 -5.700156114710610428e-02 2.301782459494214617e-01
4.349041209104469868e-02 4.439452432642100321e-01 -9.808180423592069430e-02
3.889874585696128095e-01 2.613602262528659237e-01 3.199073412661473381e-01
-3.235628165912068921e-01 2.490365784339180211e-01 -3.476370568778353737e-03
-1.519878277349688556e-01 7.461576721421553371e-01 3.313634994425229130e-01
1.783651365398162270e-01 -5.070530014999782287e-01 -2.727119227872652485e-01
6.897252450516473399e-01 2.414123600469177677e-01 -1.770595969888001942e-01
2.857435150219072573e-01 -3.016326245106714099e-01 5.529028361540247460e-02
7.799885112773198292e-01 -5.203538300630787816e-01 2.116853426064212174e-01
-3.888936237788861439e-01 -1.789414086684080474e-01 -2.085861002413330612e-01
-8.031896537004886705e-01 -5.258962493763256196e-01 2.318223700789819389e-02
8.258268670106893028e-01 -4.378328851159667967e-01 -1.202417557724252822e-01
-1.212710613632570107e-02 4.676610380860912186e-01 -1.337938680353782106e-01
-4.769620548354849832e-01 -1.178226821308284156e-01 -3.119899582614301115e-01
2.147751415254218199e-01 6.150855593294545232e-01 -1.984399545420979794e-01
-8.535233410584510683e-01 -4.507688416680292187e-01 -2.544343680534794649e-01
-8.007228708258035121e-01 2.732583670007445731e-01 -3.263468811982448980e-01
2.962381739132481373e-01 -8.410384804552948346e-01 1.967874688982045595e-01
6.432432429551604436e-01 -6.484778816576870497e-01 2.237409583836418581e-01
-1.425391891587318161e-01 5.471237545599525465e-01 -2.272786028507028655e-01
5.922049466501057013e-01 7.600513240190241993e-01 6.594197476106805622e-02
6.881039513825096821e-01 -2.158362347447024404e-02 -2.009938864043557538e-01
-5.081999190638174513e-01 8.434217326883794996e-01 -4.444179813564012524e-03
-5.311233354207994806e-01 2.749876511482596264e-01 2.218416648873167141e-01
-9.160467386865677186e-01 -2.780986379567284006e-01 -2.616999300536807516e-01
1.697359243088766845e-01 -9.851349751732692006e-01 -1.036736880794117410e-01
-3.990426746936266977e-01 -4.563535539764204119e-01 -3.920184207371042451e-01
3.498340084509323766e-01 -5.747789793534192615e-01 2.843429712873964399e-01
4.710778577640593601e-01 2.762157299856690118e-01 -1.471188132836536433e-01
-7.630066897649042668e-01 3.491591616272665677e-01 -3.199672205963258187e-01
3.961834642451671495e-01 2.008932545928615934e-02 4.681609713893511437e-02
-9.157273512679866556e-01 -2.737642889749896669e-01 -2.641505850096653174e-01
3.968875609388358150e-01 -6.171671149939802481e-01 2.878660290295136370e-01
3.869836155781387621e-01 3.216923245022161870e-01 3.497091941039150442e-01
5.519893712784819106e-01 4.057222943354525935e-01 4.058812513296022884e-01
4.038410099775709416e-01 -1.037060061276882661e-01 1.778671574015610046e-01
-2.882115894787910526e-01 3.040043792317330684e-01 7.622698177745107495e-02
-4.317920990524296010e-01 4.184845292329616995e-01 2.580477871851603044e-01
2.135664544299692158e-01 -9.789802297311720469e-01 -8.051893890431406631e-02
-8.925741149863845036e-01 -4.445611552876840289e-01 -1.377782940955013524e-01
6.986407766561236396e-03 5.933709111790618218e-01 -2.124843329952214033e-01
8.801557598673716010e-01 3.969100344139469549e-01 6.681315902203587009e-02
-5.531869222486521798e-01 -2.704262577661173395e-01 1.578284833323601311e-01
3.517627474947949695e-01 4.496278023202157637e-01 3.823977054219708793e-01
-9.830856933865406155e-01 1.481270047550005686e-01 -7.364244200739829271e-02
3.019647930506828004e-01 -3.966971265934768343e-01 -2.041685290001030995e-01
3.421129544866075567e-01 -9.245693907628079744e-01 6.572662105952059575e-02
-3.000797292657990112e-01 3.795937553717233515e-01 1.997306746598474236e-01
7.108052271711526870e-01 5.675732734259686385e-01 2.877477171452341165e-01
1.732572567255627749e-01 -7.858383306082635800e-01 2.310519280972446465e-01
-6.994406585159734790e-02 6.657997981861670800e-01 -2.379021003816115531e-01
1.705662012779029790e-01 -5.285028463097191098e-01 -2.879183798303429631e-01
-3.659499412683129282e-01 -5.208516382662530253e-01 -3.980830762091581709e-01
4.502217611931804697e-01 8.165542336917408495e-01 2.422446704227553815e-01
-4.320741121363076975e-01 6.080187678128369522e-02 -2.075235719036315207e-01
-7.797928024517609691e-01 5.122642859448297559e-01 -2.208956188685267386e-01
1.678893563468380201e-01 -9.772566651840458585e-01 3.065556418591967522e-02
4.789323634864475210e-01 -8.132328332242538815e-01 -1.870678630825250710e-01
-4.009420972380119408e-01 -1.431570967724465071e-01 -2.000655658088867361e-01
-3.071009053037049991e-02 -7.945151552553150198e-01 -3.571849248536033694e-01
3.702131595232407979e-01 6.940936920323983461e-01 -1.683470118934679294e-01
-4.441921384376880666e-01 -1.523363584992663555e-01 5.615228156971713291e-02
-1.804561278514292821e-01 -9.010987024706734738e-01 1.171884458305924165e-01
-4.666051842150796269e-01 -3.502540792219162591e-01 -3.857856511307227176e-01
-9.382448098803952696e-01 -2.339179270722370474e-02 -2.742136921338819699e-01
-2.250922305721710648e-01 4.825187841610224515e-01 -2.277526278994647657e-01
-4.097982462122921055e-01 4.012330164631227464e-02 -1.068908113454829917e-01
2.504593171763873083e-01 -6.149444322668564666e-01 2.635064793947405892e-01
-3.526491743928278355e-01 -2.651378554079734107e-01 -2.415738166678941812e-01
-4.855441002102257597e-01 3.056190591546873586e-02 1.031945681861695246e-01
1.518488554292000969e-01 3.545818219445805441e-01 8.037605842460474048e-02
1.447845897829016515e-01 -9.168498814636630856e-01 -2.530748058351384167e-01
-2.826254378098978504e-01 -3.134283474250165180e-01 -1.746068688425637394e-01
3.918284791924638855e-01 3.902741160296621659e-01 3.778686166685639725e-01
2.400018956841260265e-01 -3.521200265822619913e-01 7.579317654917841485e-02
-5.501157918737836772e-02 -5.419752719053559931e-01 -3.224993368020403484e-01
-4.436626891136875583e-01 1.868646261366800621e-01 -2.580968612312660171e-01
5.368621408593610145e-01 -1.033770304708856863e-01 -1.754715999632413259e-01
-3.296432691697281370e-01 -8.184715951319604388e-01 -3.398763458315705033e-01
4.742273832756461749e-01 -4.155522127962116841e-01 -2.598018340716873320e-01
-1.243761245755653916e-01 -6.622761595044528438e-01 -3.797604414958820618e-01
-1.948006355760030506e-02 -5.502971367628184396e-01 -3.205359100054671617e-01
2.930847918239681826e-01 2.875247679225899078e-01 2.363361247161329115e-01
1.697383300788606331e-01 4.641333216088729952e-01 -1.334256668278517577e-01
3.787446230534103897e-01 1.468151587723575402e-01 5.378571804959363448e-03
-2.926132116987415488e-01 -5.695480651368810543e-01 1.754828208937700418e-01
-2.607376193626806948e-01 5.699479030048291150e-01 -2.672278166021871404e-01
-3.968506157575479171e-02 5.773653345871476716e-01 -2.146438008498846028e-01
-6.600172677302537094e-01 2.837202218847276192e-01 2.313295342287527701e-01
1.903487206798134060e-02 5.687909005970641640e-01 -2.014502754205952650e-01
-1.428998934418615127e-02 -4.342263816369112406e-01 -1.647992015183183945e-01
-1.921082310941179816e-01 3.661884470007292780e-01 -7.191726813688366360e-02
5.822134992773518869e-01 2.833607637488520514e-01 4.033414487927369785e-01
-4.609072482566656248e-01 3.759549105857969420e-01 -3.091028854441266183e-01
5.324206999771630144e-01 3.966263390836607394e-01 -1.772001677546826415e-01
5.032556170029324205e-01 -3.366669414708824415e-01 -2.380107328426624425e-01
-9.606338599319187710e-02 3.895311134489650717e-01 -1.286914943280765763e-02
6.345406660312392644e-01 -4.836746994734195115e-02 -1.997708581429091523e-01
9.648196447259714814e-01 -2.641207360387981887e-02 6.900547860821030707e-03
2.458099401377774884e-01 7.244110500616461890e-01 -1.868566879770952593e-01
3.058406168945959069e-01 7.530710601037092777e-01 3.555730043792628692e-01
-4.783877970689083270e-01 9.526055044901136915e-02 1.171075966167535454e-01
-2.472494584623288472e-01 -9.569147361726358936e-01 -1.867340501244577899e-01
7.985527785939096068e-01 5.330535267407325861e-01 1.790574509900945133e-01
-4.140601835600584701e-01 -3.988714352193112322e-01 -3.801853170612004562e-01
2.194313105578706569e-01 -3.767309459638706337e-01 9.477130409462290739e-02
1.315357074827105260e-02 4.387660488934185254e-01 2.335672876252638808e-01
5.741938044377710160e-01 -6.402185380262622738e-01 2.623635467184862735e-01
5.597297418062112673e-01 -1.859532565530647996e-01 -2.062753055638897604e-01
8.964284818262268084e-01 3.034762190651479341e-01 -6.395832844923932635e-03
8.246116325640204803e-01 5.061001915907989979e-01 1.240994717989928886e-01
-8.214892968949704111e-01 -5.375274052470130348e-01 -2.187384445522845278e-01
2.377464164021301785e-01 -6.486742364596000954e-01 -3.280309683053190262e-01
-4.142480093316452394e-01 8.551630476037926920e-01 -1.183660510504093016e-01
6.232254845514819674e-01 -2.067894293153718366e-01 3.610813596343716569e-01
-8.526953277188986657e-01 1.826635013239174266e-01 1.569581038935620176e-01
-5.515764340459354820e-01 3.912440918494777264e-01 2.548153530409487666e-01
8.489169924900252795e-01 3.985734062070824257e-01 -1.835957215912602594e-02
-1.733850714294192241e-01 5.977553535079456193e-01 3.262500990813551049e-01
-5.461352534311143536e-01 -4.749059881727544230e-01 1.701756518106206095e-01
4.141376657494003632e-01 -3.915880776378012906e-01 -2.405491936957914745e-01
-2.269586292486429902e-01 -4.782239198670358848e-01 -3.366171230397035363e-01
8.949690696707651716e-01 -1.467593076975337030e-01 -1.135286824516876653e-01
1.335358587393209451e-01 -5.004075779518727396e-01 -2.650265570876593757e-01
-3.144333958524253569e-01 2.659400369943901166e-01 -8.724562783053238513e-02
6.484949944140121214e-02 -5.487629913241002244e-01 -3.068222648456568891e-01
-6.770325617464426071e-02 -9.932568756043640423e-01 -7.702083809767365334e-03
4.485904612405326453e-01 4.276493763511149404e-02 2.781066194046807882e-01
2.562538508852011954e-01 4.864789587255139991e-01 -1.616262035095168692e-01
-7.927005561252715715e-01 -5.939868304826172452e-01 -1.906041266001386181e-01
-9.811728588492946157e-01 1.296667403930863716e-01 -1.423322609266481076e-01
-3.549841006835167123e-01 -3.211073754093264343e-01 5.972261503454055764e-02
5.388364377918084536e-01 -8.159512582151308147e-01 -1.187113938588880702e-01
-6.029471348925148355e-01 6.478199399611483944e-01 2.082156734846392909e-01
-3.792352884443390137e-01 -1.768269883684181198e-01 -6.903565080498703932e-02
-2.772092231048568500e-01 -3.131046200785134737e-01 -1.474324106331116879e-01
-1.709990729709333079e-01 -4.938590031497856470e-01 1.240015190731339617e-01
2.143131663409958421e-01 -4.239180729466084374e-01 1.587879580145715452e-01
2.798170930540088142e-01 -7.549283738421056489e-01 -3.121767723988317922e-01
3.979368799466967421e-01 2.998321748698340450e-01 3.461296776247818618e-01
-1.470288895755753056e-01 -3.928811403570097727e-01 -9.350827430938285501e-02
7.112195287380229658e-01 6.322856692346399132e-01 2.061386464147401121e-01
1.993130114811587639e-01 -9.258345094531171826e-01 1.251018704103841195e-01
4.438633080751481774e-01 -8.218735104994486784e-01 1.717743642272649696e-01
5.995042025426138288e-01 8.381907114651494795e-02 -1.798507754651313406e-01
-5.077268803475427639e-01 2.714008047877191077e-01 2.139900209386040586e-01
1.442613464432183634e-01 3.739490354612885481e-01 1.898931719898844517e-01
5.143248095892357652e-01 -3.073850560447466407e-01 3.253292741475876659e-01
5.401677612592139521e-01 -6.965845531303720417e-01 -2.331625580084315807e-01
-9.478883532662096822e-01 -2.493535373758315743e-01 -2.102068946838809571e-01
7.568573870332404585e-01 5.940155635998894956e-01 6.150090297272706868e-02
-2.803456144356721857e-01 4.639363641962379603e-01 -2.453370694479389824e-01
-9.309019776152875902e-01 -1.049649106884216893e-01 -2.825163501098078567e-01
-9.892354445142432784e-01 -6.591805936607961214e-02 -5.378637769165663107e-02
-3.530974703554544125e-01 4.861924720609037687e-01 2.793458068717317166e-01
5.914532451462141127e-01 5.574799761626627603e-01 -1.439624597018455132e-01
-3.784802553699049832e-01 -5.096855160150741693e-01 -3.986047382514606441e-01
-2.608814813189857529e-01 -3.839014527833756740e-01 4.358996539742762688e-02
-4.903485923575860439e-01 2.763665628885856110e-02 1.076595316572506594e-01
-3.884521233303823706e-01 1.581881542121792439e-01 1.294355216312781734e-02
-1.331267696844987969e-01 -5.200707072717505319e-01 -3.291823843054409449e-01
-1.824042387604245530e-01 -4.051492680742920793e-01 -2.256164317025310950e-01
1.114611625227925062e-01 8.687938216139967640e-01 2.957672285448992300e-01
4.505012855125363203e-01 7.545807701043146798e-01 -1.052212369167117578e-01
-1.686538667567203664e-01 -4.934171362498263047e-01 -3.226656976249179798e-01
4.214816839333148657e-01 4.015922215114330757e-02 2.349281229387360226e-01
-7.736417861399261797e-01 -1.661411034357130889e-01 1.678112119394148394e-01
5.596546582388991498e-01 -5.070250682189605951e-02 3.537278020415799418e-01
4.471148807377692963e-02 7.785853494826989740e-01 -2.052933817783641757e-01
4.167962912167653688e-01 -7.962599648018731102e-01 -2.425463488665645373e-01
5.061705465067233289e-01 -4.560819254940178258e-01 3.200403765023392966e-01
-3.618948121486048053e-01 3.192111087413638248e-01 1.741208614870675409e-01
4.801916560829422864e-01 -4.470172581917170596e-01 3.153406715105902536e-01
-5.865531014899637574e-01 -1.807413437388992739e-01 1.624908501466899025e-01
-2.957778344506364551e-02 6.904440548297240410e-01 -2.319140241533196867e-01
4.853758228352041959e-01 -1.295112487237934373e-01 2.998312474496870883e-01
-8.904963263823654218e-01 -1.383146512128048955e-01 -3.242419475712864374e-01
6.557660299975531792e-01 -2.131195508193207619e-02 3.838200049314567930e-01
8.112343681609851531e-01 5.123867612998698196e-01 1.824558310628334734e-01
3.901899865649992583e-01 5.152846423416895805e-01 3.996892108289329393e-01
3.988351325293896799e-01 1.313256442853344419e-01 2.449017243728461579e-01
-3.348973533905345024e-01 -5.376443928964429464e-01 -3.949723745136717312e-01
4.077178610734428776e-01 -3.877730879664881974e-02 -7.956257503572558218e-04
-5.171917447243012944e-01 3.650519776778079484e-01 -3.283305543216920031e-01
8.035997731770298802e-02 -8.918253845911749966e-01 -2.914053037918161726e-01
-4.923259404065694622e-01 -6.892852920859340315e-01 1.421442262912462617e-01
5.546825847998004821e-01 -8.319670206116944744e-01 -2.367578766340871360e-03
-3.382257485985607492e-01 -2.444319140941814683e-01 -8.704611930564938593e-02
-2.603111970152692800e-01 9.438036085573122680e-01 1.504084126815257404e-02
4.158153906443678993e-01 -1.170472007732635128e-01 -5.924298178152793970e-02
-3.464617835650520838e-01 -2.717980502519076746e-01 -2.393119307701965515e-01
5.479122196487878904e-01 -5.615731609313120432e-01 -2.670302251557410411e-01
1.915485390177140146e-01 -4.527440473038788493e-01 -2.231728672991599438e-01
2.169067987880759774e-01 -5.295135788334507376e-01 2.330280650365153250e-01
1.388244948839426340e-01 4.885653765133073367e-01 3.281769475079002185e-01
4.115265099569134777e-01 -3.957659337055370596e-02 1.908285334828269397e-01
-5.264985379465622062e-01 -4.669390584446379000e-01 1.707090854261748836e-01
4.005156593058111225e-01 -2.110919649691094524e-01 -1.070525460012426849e-01
-3.649156327587439463e-01 -4.968052935327983977e-01 1.610666477892380988e-01
-8.341999241668522913e-01 4.394940803848240152e-01 -2.185152815351540379e-01
-6.571959041163034643e-01 4.813823087844572579e-01 2.321900469237102860e-01
-3.017347828710265634e-01 6.835742247132886584e-01 3.125085033904989595e-01
6.437491571599307516e-02 5.599878178871828815e-01 -1.922882194240047304e-01
9.061687230593047648e-02 -6.109219745607196161e-01 -3.356449488092009270e-01
4.095520621635417857e-01 -1.608297445405538692e-02 -1.927429802380498016e-03
2.969509051940660491e-03 -9.118110031662056691e-01 -2.856657590600644170e-01
4.635357138684374489e-01 6.969800574709331675e-01 3.498833856017178889e-01
-3.209674826374083745e-01 -4.318923752622412793e-01 1.205044534070035256e-01
7.306149199307923059e-01 2.260273237257223178e-01 -1.701798589536102635e-01
-6.765970486495498371e-01 -8.401430096452097707e-02 1.853162933555758674e-01
3.745602743429219394e-01 -2.837385231168552679e-01 -1.443121716054039383e-01
8.510249468641479798e-01 1.132210513609592656e-01 -1.314358176290459645e-01
3.537245480674910958e-01 1.664619195128111129e-01 1.699677287768285028e-01
6.233219887449269470e-01 2.133828303416717975e-01 -1.812737956544591689e-01
3.988061475336683315e-01 2.272556710156763415e-01 3.086997763737356348e-01
6.217030928385250954e-01 2.043466032966413104e-01 -1.813291684809346660e-01
-1.219989214532075233e-01 -7.167132302233196750e-01 2.064071579695784253e-01
4.584382960613777036e-01 -2.151385055451446315e-02 2.765576357882681968e-01
3.161310069636080744e-01 4.235777804755691545e-01 3.614438730962999946e-01
-3.930299561656425689e-01 5.649233241132184391e-01 -2.954533906742546900e-01
5.299351059054143720e-01 -4.345342793685983418e-01 3.255968732177977332e-01
3.494199478084404342e-01 1.635591597924570539e-01 9.663516639606535563e-02
3.450281658836633070e-01 1.790636825189690362e-01 6.639298113285435621e-02
8.804448171484620111e-01 -1.396678932609512758e-01 2.935701493081272484e-01
-4.087267617394302333e-01 -1.873225490549367545e-01 2.058984345892631365e-02
8.516243328483630304e-01 -7.892171545145114375e-02 3.271433659009672090e-01
-8.093283797246968447e-01 5.714120862009227642e-01 -3.621527872331495312e-02
-4.105636523915422997e-01 -3.881298525948742584e-02 -1.113454752968217193e-01
-4.169946839231321034e-01 -3.480120191960543036e-02 -1.640452020141400236e-01
3.871473773684050990e-01 -2.850377847200777359e-01 2.327473071733191234e-01
-6.032111381917091286e-01 -1.174625147517036478e-01 1.680567766203705793e-01
-8.471045036945986650e-01 4.082811291914508756e-01 1.088398573295339122e-01
5.189867061853024044e-01 -1.740342459131117292e-01 -1.860612092847448440e-01
2.596844195845648962e-01 9.214477715524984625e-01 1.754297487382200094e-01
5.202439082211219867e-01 3.425954674090926355e-01 -1.725921936585862737e-01
9.179078673773936048e-01 2.930858291255007408e-01 1.736844512032876819e-01
-3.387854550149032584e-01 5.378284464865301651e-01 -2.843357807138341964e-01
3.332578996926295334e-01 2.330902953220193308e-01 2.276779752556307157e-01
8.607989682921759478e-01 -5.673772053464429949e-02 -1.445530744778005805e-01
2.811670022049179152e-01 -6.629285021610179518e-01 2.683984958673017451e-01
3.136893868751941539e-01 -2.718063724586686214e-01 7.880371794509914707e-02
-9.241676969411746212e-01 -3.527799209831723459e-01 -4.986893724467886257e-02
8.582976396551453835e-01 4.471802789227201647e-01 9.470729424291551846e-02
6.149229720670258414e-01 -2.386977972743539456e-01 3.567627854081842909e-01
6.262900839437989253e-01 -4.212972071264809992e-01 3.305982398986775928e-01
-2.099614405854627330e-01 3.490627966587432907e-01 7.098658396700945061e-02
8.091660133339518834e-01 -1.288385418699563960e-02 3.581531167028493279e-01
2.023766417456832889e-01 4.579353060915465345e-01 -1.349646957065392949e-01
3.825331917823150962e-01 1.022215761049993371e-01 1.765129933076425850e-01
4.612414189802900577e-02 4.278270363914042362e-01 2.282503570281111116e-01
-3.980807861189072927e-01 2.566667365659305311e-01 -2.324071204610395625e-01
