-3.223954013101437144e-01 6.347157302670576318e-01 -6.206408857461526152e-01
-7.283990469541813395e-01 -4.993996730824374342e-01 6.083915271113526924e-02
3.510379163364009680e-01 -6.067468230528074713e-01 6.118760284179359799e-01
-1.431588348737312388e-01 1.848069236906618451e-01 -3.118362002726544902e-02
-2.934498966073615378e-01 -4.230217799167345083e-01 -8.146795816942369040e-02
-1.860997182795519692e-02 -1.450809789181345955e-01 2.085163568988500915e-01
-9.759142655159828150e-01 1.718186820070924659e-01 7.560976480570326397e-02
6.343186802059284091e-01 -5.976631752106786877e-01 4.404749770490736238e-01
-1.135042039522710933e-01 1.511879950583879528e-01 -1.772930446010724248e-01
-8.294270697562258210e-01 -3.993919669344087042e-01 7.793399230882368245e-02
1.192687289990805415e-02 1.521877539968240489e-01 -4.110226134387511832e-01
-3.896982189337400704e-01 6.289245918761602328e-01 -5.939770778899051695e-01
-2.392861925814912805e-01 1.107963344437059433e-01 2.056006463765114312e-01
-8.050622583420442568e-01 -7.098734939935136268e-02 -2.276303421065947741e-01
3.418416347455242171e-02 4.706543026897555548e-01 6.012540402025700476e-02
-2.095530617715123112e-01 5.028562110283661957e-01 -6.707179087613357460e-01
1.122240957992636651e-01 1.604891534827122546e-01 -5.137329692895207245e-01
-8.711342584885253260e-01 4.740058745716704824e-01 -9.807585031690674304e-02
7.473513073711367249e-02 -1.902070645687431727e-01 9.437969234509888117e-02
-8.443481717548686483e-01 2.232204787444790062e-01 3.239449991128105499e-01
2.315742588413042813e-01 -4.867969385227557087e-03 -5.369784316008915925e-02
1.992903277343788249e-01 2.098538191615094972e-01 -1.296362042567424620e-02
9.607328447349984257e-01 -2.554221155110442676e-01 -1.221399240039575812e-01
3.658503452356692276e-01 -4.206326000906066565e-01 -2.435395281392324640e-01
-2.149235283176206546e-01 2.912724042296086988e-03 5.117051269212447712e-02
-1.160261721795354112e-01 -8.518877359363855040e-02 3.225878960265862738e-01
9.478709567737242381e-02 2.345811282612518256e-01 -6.079529036599663760e-02
-3.539548948212814516e-01 -3.196849868121540150e-01 -1.117569448230825574e-01
-7.428995258818384961e-01 6.151052591331239716e-01 -4.623391736089879503e-04
-6.921530174542313008e-01 5.369909617452375272e-01 1.743930600795688957e-01
-3.482158571130666846e-01 8.561881078525175326e-01 -1.316824679183929703e-01
3.120019394359777043e-01 -6.003145291805841305e-03 2.061738729125060787e-01
-6.407093890351133192e-01 1.635812076371521984e-01 4.570106081898379080e-01
1.108526434781823833e-01 -1.368101586592930241e-01 2.333922642197449882e-01
2.418229745572829936e-01 3.139645739049587436e-02 -1.087986010474318102e-02
-2.722342805159229107e-01 -6.048415863817298288e-02 5.062197074945018471e-01
-2.133349466745463052e-01 7.704112105704922220e-01 2.074023222753745149e-02
3.781082940800033487e-01 5.725125483058286502e-01 3.852233253852808265e-02
3.875318262682213577e-01 4.958319861934009087e-01 6.788787738394366778e-02
-4.456233430765116910e-01 3.158135063637761974e-01 3.355258983309082343e-01
-5.836676220287618788e-01 -3.860740484457338972e-01 -1.168673993204728534e-01
2.129595465381361741e-01 -8.552011723769901985e-02 1.016310198868290438e-01
-2.698774932988750597e-01 -2.051859067677751225e-01 -7.055215321136334983e-02
8.679750538163338858e-01 1.239917555447227898e-01 -4.442330028887198079e-01
-2.199309413123375911e-01 1.680840173783192948e-01 1.323346033588085890e-01
7.087578206460003472e-01 -5.318872502045358663e-01 4.028838578641502632e-01
7.301283333272659548e-02 -1.474261338930415721e-01 2.114672546096846018e-01
-1.612327485612848055e-01 -9.688849420347198094e-02 4.618780153619380657e-01
-2.830816722615586145e-01 -3.032261511579212865e-01 -8.286717313564298526e-02
-8.188829024954423774e-01 4.082699327898085540e-01 -3.152967839469611455e-01
9.364677707647464100e-01 -7.787690673277068709e-02 1.605233370415241889e-01
-6.195867113366855250e-01 1.375697852142420408e-01 4.735718800165759079e-01
5.500306394790775988e-01 7.301004536828101799e-01 -4.064679663071629756e-01
2.267122659733908918e-01 -9.451471897229909991e-02 -8.989784714261725429e-02
6.688780505301189505e-01 -2.058929007283749890e-01 -4.343928260667536678e-01
-2.709151125138628546e-01 8.752106570364362459e-02 -3.130706765870766572e-01
6.829591721510880342e-01 6.057191148434412087e-01 -4.299781791155031230e-01
-6.340749301141535010e-01 5.380441182536884748e-01 2.015327869236024361e-01
-4.789952554036069898e-01 1.970760882791512125e-01 4.196184462351576494e-01
-4.639561113022412642e-02 -3.282168738694153376e-01 -1.959922132790547361e-02
-1.025812221369006294e-01 4.733827581157898923e-01 9.925432414873705533e-02
-2.648767669264504576e-01 -4.261558553469517174e-01 7.015064726658877259e-01
2.949838973577360024e-01 6.115345018168952956e-02 1.021510331825728618e-01
3.719261217849922918e-01 2.272628480688429209e-01 1.244501924156594247e-01
-2.676994268073209504e-01 -7.237349140940303460e-01 6.086394724716022164e-01
-7.662780766154204670e-01 -5.042694079297193044e-01 1.368055006114883565e-01
-2.884325703172518351e-01 -3.635668800605859063e-01 -8.442356719271465471e-02
-3.424182832621342487e-01 6.693450680132368991e-01 1.143251698337549305e-01
-8.061768190782310217e-01 -7.588293737395244987e-04 -2.636920157563786282e-01
-7.453929783213172344e-01 5.598034970577054903e-01 -3.309810669507700642e-01
-6.263416714254109452e-02 -1.130634997744504044e-01 3.317745001483161094e-01
-3.100782841876214557e-01 2.264415341840415596e-01 -5.221683683258684372e-01
-5.103580764445522222e-01 2.425826017673184121e-01 4.021952664165946434e-01
-8.231667777254511043e-01 1.511602524122206692e-01 3.830744960101048480e-01
-5.688975889924886564e-01 6.463326906593057641e-01 -4.698066713713923148e-01
1.297915531247348375e-01 1.045905242244691974e-01 -3.913033156153685743e-01
7.951238555602321290e-01 3.700320301210651142e-01 3.217756485833028757e-02
-2.732699474619044652e-02 -4.041482116509277356e-01 -5.412833562048093711e-02
6.805230906436948723e-01 5.635060064683072856e-01 -7.060941990532511314e-02
-4.750985578385287234e-01 -7.612881129539650349e-01 3.839131272146628637e-01
-1.601264167863343524e-01 1.355330129358340574e-01 -1.107507345524733761e-01
6.179557505596878775e-01 1.567369646610830003e-01 -6.056614939497285688e-01
-4.281732914322251005e-01 -4.360243255123139594e-01 6.758246878120631740e-01
-7.924432465212113419e-01 -4.839848303850787792e-01 1.634953672610219011e-01
2.362628693161450688e-01 1.490106117548344392e-02 -2.989229329976395705e-02
-4.637516064532845594e-01 6.482860380770499864e-01 1.348689818536101537e-01
1.263968756295583140e-01 -5.121204515244872635e-01 -1.125591131139709461e-01
-4.113631078515705974e-01 1.841825566847128670e-01 -4.819421653515968962e-01
-9.173335702998106633e-01 1.519932964794845284e-02 -1.490176148037872794e-01
-2.947904736870913256e-01 -2.076559085080169620e-01 6.337253098313834210e-01
-7.681349347201245070e-01 4.162387768887849115e-01 2.409595134563482510e-01
1.178603369812456919e-01 -9.079748008203634146e-01 2.681170726064163179e-01
1.985479721822702714e-01 7.411178250660630518e-01 -6.337755368063063832e-01
-7.752030456558903770e-01 -2.991823528586892711e-01 -9.711038825685729126e-02
3.000169244121013712e-01 -1.974354775457186351e-01 4.953688089763659264e-01
6.496228564800275995e-01 5.980562630719016282e-01 -8.651707025616488245e-02
2.769568984003413781e-01 -7.471864810126052636e-02 -3.054255123654645021e-01
-5.558023898076394076e-01 1.817614573992692717e-01 -4.616144814872919500e-01
1.572346499399680242e-01 1.269562835479036145e-01 -4.889437575642580081e-01
-6.057663687614509573e-01 2.480260627818634822e-01 4.111174173917584995e-01
2.766069286553915485e-01 -3.057891562942833263e-01 -2.059665107969627651e-01
2.471883743003752409e-01 -1.713560410474422591e-01 -1.703371930599174577e-01
-3.188248332068401303e-01 8.696449510334574029e-01 -1.546748964995797726e-01
-6.088481710583549811e-01 6.690912784667936430e-02 -3.839799265800160621e-01
-3.856076614270861902e-01 4.443217579124487115e-01 -6.128472940968575644e-01
-5.282109739912964619e-01 -7.371670125526282868e-01 3.136432608438718406e-01
2.331066683338491596e-01 -1.771572715745476367e-01 -1.400054188120149756e-01
3.822485589153452046e-01 -8.419846252838026901e-01 1.250243653793737530e-01
-1.365721345967491340e-01 -1.595207406556526653e-01 5.419687285305453406e-01
-6.868665712976920745e-02 -2.864965030891044040e-01 6.393949446377109602e-01
4.851416529946906975e-01 -4.802478793245527067e-01 5.732869883204666506e-01
-2.431838459321098156e-01 -8.657128643832132653e-01 3.016844325214166345e-01
1.399520811638164941e-01 8.319829721424204516e-01 -1.046132112415941867e-01
1.091029799177144627e-01 -1.495643353955131427e-01 3.912378704422972975e-01
6.143043700177834854e-01 -4.650466808010784159e-01 5.029209654354911407e-01
3.188330393149620967e-01 1.343606643573126147e-01 -5.891910926956839267e-01
3.064670152375901790e-01 2.213254743400787927e-01 -6.439596406657910332e-01
2.094422307488698343e-01 -6.162654160896582356e-01 6.544793283333475431e-01
2.779762107146094841e-01 -3.921133463386631268e-01 6.284601914170186987e-01
5.546145288437767662e-02 1.326246936389186837e-01 -3.564523536608542598e-01
-7.519397166648043029e-01 -1.736164694026207655e-01 -1.988191289147436258e-01
6.811217440443894100e-01 6.383841008022071994e-01 -2.360726574090888930e-01
3.377895201874977493e-01 -5.060877384452730499e-02 -4.259854378975961864e-01
5.982845025004044359e-01 -6.603211992938062824e-01 4.272873278844149803e-01
4.474518035225943380e-01 -3.610868007856177231e-01 5.718186809269787396e-01
6.443784893135623415e-01 -4.539254878998163489e-01 -2.740235940965605743e-01
9.211782159535446546e-01 2.936333799252395238e-01 -2.874754099296166210e-01
8.832760889249940961e-01 2.164494112904649381e-01 6.911967060333998325e-02
-2.060533638403282963e-01 4.003707732029622712e-01 -6.493384301099262013e-01
-1.577599775577673627e-02 -3.914765172810728000e-01 -5.125324340144948865e-02
9.149256928308494574e-01 3.271586524233774940e-01 -1.578995565919266986e-01
-5.347135567459769812e-01 -6.953816509576717930e-01 4.566261973037851751e-01
4.763546176068350069e-01 1.720356596895900470e-03 -5.434604757582187640e-01
-6.379396603132547749e-01 -5.300772286877610817e-01 1.199701807637462182e-02
-4.130207128975872943e-01 -1.138247862108642677e-01 -2.156009637682662072e-01
-8.472809235136099515e-01 -3.706539604607022587e-01 3.543183005307094513e-01
3.369171563259581309e-02 -7.598349474497005929e-01 -2.499260781117059599e-03
6.214517790570418532e-01 -2.307073181993130884e-01 4.639108679689918358e-01
3.482201625411648349e-01 7.201010419629779724e-01 -6.050165856828852995e-01
9.413632264038289676e-01 2.352386749829752099e-01 -2.792593924986814247e-01
7.407559837008250714e-01 4.936214968725504137e-01 -4.769798738398753901e-01
2.939145393234432121e-02 -1.541241873074586100e-01 1.969742437407329960e-01
-2.228695868124603297e-01 -8.172948493791439006e-02 4.797902581728491489e-03
3.112665595550972997e-01 4.068375032564985339e-01 -7.055312615432894896e-01
6.019434040189199919e-01 1.291008508309910707e-01 2.597880733703486489e-01
-2.378337111327465947e-01 -4.508569457516605761e-01 -7.058779990097820145e-02
1.337848080079326873e-01 -4.755512016056585578e-01 6.791019298916040059e-01
5.378859575646213198e-01 6.524331147954365306e-01 -5.498342452968343341e-01
-8.724124294176595074e-01 -3.577455897520077088e-01 2.909002009775084052e-01
1.052490426840248516e-01 1.126244648981001573e-01 -3.618276627594376738e-01
-8.997551419282150409e-01 3.527204879553838546e-01 1.331230162466258415e-01
-3.361807805579494213e-01 -1.585168663296601110e-01 -1.342576834896235805e-01
-8.313526270903423554e-02 1.472166323273955413e-01 -3.093436617904758434e-01
9.820673725645175933e-01 2.411722417548767955e-02 1.187075110216364443e-02
3.895644978098633526e-01 2.127910525576345857e-01 -6.484243195417205285e-01
-2.140436659677342757e-01 5.122502345366131832e-02 1.116525210165500298e-01
8.016032357693568811e-01 -5.419749975985377333e-01 -5.821551444910579021e-02
-2.334633304885125327e-01 -1.106432288626485287e-02 3.954049206564385077e-01
7.744508112023503754e-01 4.829831524817510546e-01 -7.396169864192568555e-02
-8.139778631218546057e-01 -4.082795386917173475e-01 3.898088134606904065e-01
6.041340904296688130e-01 -2.139290765420426010e-01 -4.340452459526369378e-01
1.778243419725162311e-01 -5.843567431409200097e-01 6.686174790259928891e-01
1.984324270334236195e-01 -5.292200546732425126e-01 -1.375298944254241817e-01
-2.135343163917643172e-01 3.257844238398281411e-01 1.498437047004315958e-01
2.524767362442054131e-01 -1.371818991148287814e-01 -1.884022564787501131e-01
-1.380678296865081589e-01 1.403860840604382321e-01 -3.278267928164953493e-01
5.236786653692094839e-01 -4.437151849377838908e-01 -2.849673812634009873e-01
-3.930174610243557520e-01 -2.830865422175022350e-01 -1.352540298211920566e-01
-7.225541564688110485e-01 -2.795590687747055991e-01 5.510822774895304255e-01
2.432261465792476818e-01 8.230538626516915590e-01 -1.311726154500513220e-01
-2.036681249471104793e-01 -9.899313813671507811e-02 5.035400857042768852e-01
7.517870366391727899e-01 -5.241074818862173634e-01 3.553596248485220155e-01
-7.559345974687567971e-01 4.461352882919479290e-01 2.224396513596878233e-01
-6.988768605163797609e-01 5.929240422760821971e-01 1.011130153839012585e-01
-6.376403619176568283e-01 5.775856778125051244e-02 5.115645638520783800e-01
2.039350336211210868e-01 -9.666569902097489619e-02 9.466311470435286035e-02
-3.356391376876328159e-01 -2.790381228981089201e-01 -1.099083430300520914e-01
-9.358219933066673768e-01 -2.019518942886933954e-01 6.462648509530609375e-02
-4.076677820317885503e-01 3.893761241827926600e-01 -5.938120055113611517e-01
8.444210061604469075e-01 1.464439792345946512e-01 1.608354156523939260e-01
-6.190027635034743847e-01 1.818189689091100625e-01 4.491315434830884246e-01
-9.587602839908588859e-01 2.596565852009289910e-01 -2.596318392767895528e-02
2.102700614969668924e-01 -3.147253287244343722e-01 -1.409337314737887092e-01
-8.336405435464446789e-01 3.125912802274596891e-01 -3.166302600870312678e-01
-8.977697983511141455e-01 -3.087508729490836545e-01 2.714436603492396127e-01
3.707289383854781017e-01 -1.339787814810701819e-02 -4.884467015778420351e-01
6.831801895083289278e-01 -2.372785949796797911e-01 4.372372823538269726e-01
-2.968398535347936407e-01 -5.610154370674418772e-02 -1.358000703341415427e-01
2.217029528749595579e-01 9.297352112342718291e-04 -1.291881112255354180e-01
4.792579656258675880e-01 -5.257572792107872983e-01 5.722711858449366362e-01
-7.310335753076439014e-01 -5.681835699805689588e-01 2.439832710486148082e-01
2.109626003279115869e-01 -3.224764384426627717e-01 6.101904767263320872e-01
-2.159747509614102362e-02 -1.372039792297146121e-01 2.345703110110396172e-01
7.126022293440245070e-01 6.133719768097642966e-01 -3.012567244258261834e-01
1.395598732949561993e-01 5.441928951204423326e-01 5.388080092083238209e-02
-8.459606206675234219e-01 3.258906547447751878e-01 2.473579192218700873e-01
2.987587235046176293e-01 -6.382954170468900790e-01 6.210917250569494286e-01
-7.136912216125593234e-02 1.517903681101543945e-01 -2.445286327249727998e-01
-4.326534503600043546e-01 1.619403467835105470e-01 4.209164107675221200e-01
7.074077054572623924e-01 5.709169309419203087e-01 -1.150211417699218558e-01
8.479878690159501353e-01 1.680926035731761248e-01 -4.677051689028499104e-01
-4.251047306594004649e-01 -6.519042543258543043e-01 5.979681838671123684e-01
-3.060410702943857086e-01 3.376333819100360012e-01 -6.003972763145583036e-01
-8.477711682763137968e-02 -2.200142420632215379e-01 5.893634092830468685e-01
6.719673345408943010e-01 -5.563842671554797281e-01 4.281110208588780330e-01
-9.068757244054970190e-01 -4.855637428699847991e-02 3.576498094960826601e-01
6.879777785580744043e-01 -6.915947405095415057e-01 1.014824126294986001e-01
8.157837124814161234e-01 -5.570435248646443682e-01 2.092379817418582241e-02
-5.412846851881283339e-01 7.102855077195966427e-01 -4.387192307485659470e-01
3.917650397767369341e-01 2.752197133185048106e-01 1.236726423024992333e-01
-1.384776695602300128e-02 2.001400624508377635e-01 -1.228993413561583481e-01
7.661735237006329913e-02 -2.637620435537226804e-01 -8.709866705585637796e-04
-4.083762401898593519e-01 1.127906939640374168e-01 4.413700970552307812e-01
-4.712090125954725983e-01 8.063462090287611128e-02 -3.979868509859829651e-01
-8.052654613131847439e-02 1.691626548022200915e-01 -1.586175924975330997e-01
4.506332125644018083e-01 -2.882194593319091780e-01 -3.488264810484781320e-01
-9.693825814796687146e-01 -7.447989730927330465e-02 1.948950981134925098e-01
-6.585474326421748570e-01 -4.991498879551750645e-01 -4.808910085972714632e-03
1.951970915993290479e-01 5.784334310656652489e-01 4.601551350532327028e-02
-4.600234723477606424e-01 1.443506914960512588e-01 4.456577265472030369e-01
-1.741255414419316250e-01 -3.421313193712798018e-02 2.567658508190466260e-01
-7.293296375657305486e-01 -3.674430457008514561e-01 5.279853719936749012e-01
-2.463674843641636483e-03 -6.505246964011816013e-01 -5.587729302985847829e-02
-1.844435025021149144e-01 -8.076823537135884024e-02 4.570273104554886112e-01
1.603553983736435151e-01 -1.477259854589905441e-01 7.242002805841796231e-02
-7.474784472185899697e-02 -8.469689609209390957e-01 1.185752828362766631e-01
1.737360414256174101e-02 -1.455907010377426591e-01 2.265397751108013669e-01
2.620317094767437016e-01 6.035454139150325803e-01 -6.939005768049854028e-01
6.253122241955519911e-01 -5.497653967003749420e-01 -1.979815770204761405e-01
2.559767055032173833e-01 8.358379704198518612e-01 -1.601516496785908295e-01
4.032141423232715183e-01 -5.297041182856065955e-01 -2.099211329218027555e-01
-1.652624942979188105e-01 2.722035915777490378e-01 -5.789694411992558631e-01
-2.329428038850037408e-01 3.548446834233166119e-02 2.999416850323169959e-01
7.517056734529493633e-01 -6.363583749332613060e-01 1.675144510689219324e-01
-5.615267530204151036e-01 -7.404838968176402636e-02 -2.952173307932609569e-01
8.170828445337620094e-01 4.104570511668375610e-01 -4.297633631660475184e-01
-3.495038277049121733e-01 3.729755083782736458e-01 2.548504109488937686e-01
4.573114905895737103e-01 4.356930461669213384e-01 9.306214429529315046e-02
2.521417867571701388e-02 -5.772006966805008910e-01 -7.920323007208197874e-02
3.357375237559985237e-01 -2.518723555617377596e-01 -2.800855975492538841e-01
-2.040184568212131400e-01 1.125879724628463252e-02 1.635052583193141174e-01
-5.988082087052584157e-01 5.779734533809531838e-01 1.756942794823115050e-01
-7.850569711281852880e-01 -4.974017395515373252e-01 3.138075065644449491e-01
-2.126018596791744153e-01 3.529929291216234444e-01 -6.271905583216224045e-01
-2.147616399708734969e-01 7.947274582729663139e-01 -5.618577730855848218e-01
-5.475916412624812768e-01 -4.467051991893173368e-01 -8.720309800205734707e-02
7.737615377965214591e-01 8.890797648725694280e-02 -5.199337853515569874e-01
-4.904851672421518538e-01 -5.669830273995044578e-01 6.157236531900115439e-01
-7.953665136070968422e-02 -6.231843608059716155e-01 -5.184634468218329156e-02
-2.357218216382647447e-01 1.533939806111961068e-01 1.739556240012229416e-01
4.328984749552853839e-01 9.809968563090529226e-02 -5.934806666818276399e-01
3.856563885933373959e-01 -6.729670924781132602e-01 5.695865444527579147e-01
-3.557711521057452808e-01 -7.928707442149817153e-01 4.720633316330266616e-01
4.925981950530156084e-01 -6.342480734218545191e-01 -1.459899463561472321e-01
-8.147276327070854252e-02 1.573468716142935042e-01 -3.888184471706984113e-01
-5.470504162879101795e-01 2.912857671071937826e-01 3.809746058340334196e-01
3.319747809111213699e-01 -3.263937971482988587e-02 -4.385777149787753459e-01
-3.654746604388806053e-01 6.066873474102466579e-01 -6.117683290959342601e-01
-7.308883130085164215e-01 3.157376488290829508e-01 -4.185780817202454096e-01
-1.776049360632803165e-01 3.025425578688346606e-01 -6.020128258031950397e-01
-2.205426698159849153e-01 9.062809313077400120e-01 -2.663132796093755084e-01
-1.306053774845938320e-01 1.557636253530719495e-01 -1.222461288833145976e-01
-8.085053777918345119e-01 3.355779703716902929e-01 2.767558605238598646e-01
6.641118719321474906e-01 1.866300186277240411e-02 3.224985771577081328e-01
7.984287295106528015e-01 -5.855291452564631571e-01 6.767345235826736916e-02
3.753339807467142575e-01 -3.705333615916794332e-01 -2.674302488393877630e-01
-6.057807349963695298e-01 1.963899098258708731e-01 -4.542546211895613362e-01
2.375699234370204638e-01 -3.513785125402149601e-02 -2.386558190117256117e-01
-1.851520893885040819e-01 2.796178723263558208e-01 1.088382133823376924e-01
3.879873512310600403e-01 -4.732302555790392495e-01 6.125042940729391594e-01
4.673632247826300379e-01 3.224508197482790772e-02 2.964009136664862432e-01
-5.575040899532516248e-01 8.232389367348795159e-03 -3.503072145265684889e-01
1.704290218477271246e-01 8.738819716635566337e-01 -4.636852314679565934e-01
-2.746586404003251713e-01 4.538209281071401979e-01 1.870009097021189670e-01
5.162085816233089597e-01 -6.329996539052826776e-01 -1.443310222591311642e-01
-1.894326436513585898e-01 1.044044576294156784e-01 -1.611883221672376354e-01
-1.868999083231974445e-02 -1.719674571554733467e-01 4.983204005308264906e-01
7.704134256514799661e-01 -4.080672242752290679e-01 -2.573309818932392745e-01
-8.120715210658505656e-01 -4.168054150976863159e-01 3.844349188956340813e-01
-9.796226532463184755e-01 1.518052003330751798e-01 2.656521232336930827e-02
5.907857763088572882e-04 -9.052242464636225394e-01 2.594333635022540441e-01
-9.035577747808354321e-01 -1.856677680404739128e-01 -3.985101851537668077e-02
-1.848320591954130676e-01 8.965389254610103276e-01 -1.819389664556410324e-01
-9.291740489127054969e-01 3.255724666659253197e-01 -1.143568467550421103e-01
2.016542513198648356e-01 -2.998069236086697287e-01 -1.289282082327622703e-01
-9.330540591271041517e-01 -1.839263316801319215e-01 2.854016856649785328e-02
-4.401945079943924144e-01 -1.446366021609493679e-01 6.161575509578336440e-01
5.512496500045409586e-01 3.366041730259473064e-01 1.424303325453066815e-01
-3.855566003766227601e-01 5.673932975621136521e-01 1.855494429684636515e-01
-2.430340174590652491e-01 8.793292759528197056e-02 -2.770335043710325240e-01
1.924675829601170118e-01 -1.144260616180614448e-01 2.922314691904147055e-01
-3.989956870353526530e-01 -1.458051555518850330e-02 -2.833955578072785420e-01
7.285163304473595003e-02 1.255626310636354104e-01 -3.406194180975987695e-01
7.046809092789654838e-02 1.412737186942630285e-01 -4.333978653293304451e-01
-5.330885306737731533e-01 -4.476196498628182141e-02 5.701746079283762647e-01
7.575284923229685941e-02 7.951884621841037726e-01 -6.030135452636459226e-01
-2.514093639189999840e-01 1.855273141213779897e-01 2.009248620034295996e-01
-5.077302050475220874e-01 -5.568438870988218214e-01 -2.546335370378437560e-02
1.309788741248759936e-01 -2.245958536495586411e-01 -5.119475686465699456e-03
2.548134095166565416e-01 -4.324046147109682214e-02 1.524330085299687720e-01
-9.183271865174615911e-01 -2.101849793091822502e-02 3.351893216339609238e-01
-6.248175811405400903e-01 3.560902475477650264e-01 3.425441306033612521e-01
-1.302416409274007036e-01 3.345634464757537563e-01 7.932475495347275640e-02
-7.201549650920453516e-01 -5.171628957995618725e-01 7.576664075215254479e-02
6.381190644646463905e-01 -7.321548049408016512e-01 1.407705426263376747e-01
-2.289888128853699578e-01 1.152560229164317496e-01 1.658252710010334474e-01
-1.769591217612275780e-01 1.183293760267439682e-01 -2.571244094060665120e-01
-1.552075130370627609e-01 -9.732955483296527877e-02 4.561084513271924656e-01
1.597327103517200975e-01 -8.167158342145760530e-01 5.392551557963692899e-01
-2.190813777320487488e-01 -1.311839185791918994e-01 -3.993069214563828642e-03
1.685065591365179083e-01 -2.158822230376678253e-01 -4.413889976529490611e-02
2.764442064142070832e-01 -1.533847672146708974e-01 -2.373034463099370495e-01
-9.393050343974878036e-01 -7.144812300310504627e-02 -5.958417680488936607e-02
-8.403507045712653722e-01 5.149306808441836969e-01 -1.601725410030737165e-02
-9.871301931389654671e-02 2.459972929295679012e-01 -9.018622159196194865e-03
-1.088720684181978954e-01 -8.759277617240596170e-01 4.417592655656565892e-01
-8.076308975184733896e-01 4.701560415637017765e-01 -3.007130929181610068e-01
-5.325937495183157011e-02 -1.185397023081131707e-01 2.836879294559187525e-01
-7.684271471275787302e-02 1.538726941868642506e-01 -2.241840183497211814e-01
-1.099536232226144272e-01 -7.712901272050446400e-01 6.022053087716932041e-01
-4.663878402461104633e-01 4.228034818618243706e-01 2.855209682754531464e-01
-6.643990049945967813e-02 5.381474893411919425e-01 8.856635180627407677e-02
4.447235263659672366e-01 2.123048475847386374e-01 -6.488692590961122608e-01
3.013360583516557778e-01 -3.702783999266179293e-01 -2.177514675626568696e-01
-3.147903406119449410e-01 2.656641077471504908e-01 2.639558820987171206e-01
1.343470732973967574e-01 -5.060777420435040863e-01 -1.156757922479145911e-01
1.834597284271043405e-01 -8.808624889713089212e-01 4.183397167994923893e-01
7.828172713092841351e-01 -1.732346516241158318e-01 3.558391443435653945e-01
-2.339669546113946896e-01 1.918076647245210431e-01 1.653986914505262140e-01
2.748225233481635388e-01 -1.103905882208869593e-01 3.630849026409456726e-01
-6.276531805311680312e-01 4.476819034598222280e-01 2.780402766652553259e-01
2.974620160441528993e-01 -1.004970865619273929e-01 -3.185103872956650539e-01
4.191943983436456356e-01 -8.435503664362147269e-01 2.986863759404254082e-01
-2.034751210280882905e-01 8.875800374999066877e-02 -1.105234538148122808e-01
1.167198517781382157e-03 -1.819623516289640697e-01 1.289477818577430268e-01
-5.640855409416164479e-01 4.882474034365179467e-03 5.452659178051645350e-01
3.985830542225977102e-01 -6.111566639946975910e-01 -1.611094610433594920e-01
1.109116894445249524e-01 -6.454662359572885810e-01 6.664781398942317692e-01
2.321072374871552546e-01 3.673553237316252995e-02 -4.385161502452353949e-02
2.235901374870876146e-01 -5.498465679705315523e-01 6.619900896504348209e-01
-4.377703668012792315e-01 6.827237908754488771e-01 1.053758377349938435e-01
-4.534317830440256353e-02 8.839682071985508482e-01 -4.782301466237622867e-01
-1.930273533048691981e-01 -4.425560900045547030e-02 1.037480332021382262e-01
-3.842243367236288232e-01 3.101541470662132483e-01 3.037347612200145819e-01
9.987032860046131388e-02 -8.253032876812774754e-01 5.304181395396225657e-02
2.692694089560879744e-01 -9.812047537672918818e-02 -2.598520613672576918e-01
2.773349291584297285e-02 2.313807114976695889e-01 -7.954082136986956320e-02
7.840531298010872119e-01 3.510199719011430353e-01 -5.063747749732027126e-01
-2.750978926012197512e-01 -4.362341667161117043e-01 7.014045806248563331e-01
1.089622210558144622e-01 2.641163188001568463e-01 -3.086268175053735741e-02
1.735042639740358439e-01 1.245343866939649380e-01 -1.079213384945540560e-01
-2.384287972611323081e-01 7.723107750619498946e-01 -5.740455922459868354e-01
2.275643342066588637e-01 -7.281029457996214538e-02 -7.916879627457766577e-02
4.264436908481261113e-01 -8.395574051704469687e-01 1.685691968205580427e-01
1.114152708273904169e-01 -1.715404344044782758e-01 4.535587764428848367e-01
-3.415028010856341889e-01 3.167484351646484564e-01 -5.821010638026032913e-01
-3.024454124993283810e-01 7.344933269296741729e-01 5.925031390764812222e-02
5.836338947274253286e-01 -2.064379592957385490e-01 -4.372278279172198134e-01
2.295304750655960402e-01 -8.362683567768631754e-01 6.367533372939812586e-02
-1.789907544007261764e-01 1.200066138707361757e-01 -2.765427738207216213e-01
2.017048039403101511e-01 5.329471573509916849e-02 -3.824512016916434831e-01
7.481676576662937839e-01 2.640689614885552983e-01 1.473508948490891979e-01
-5.409473755133139550e-01 -7.170305193388932796e-01 3.914141298614535747e-01
-2.290223370905861977e-01 1.238408198455309833e-01 -3.572208001472584327e-01
-3.997100408867602095e-01 -6.713867016730259429e-01 5.962589673319849126e-01
-2.154005196597444105e-01 1.222582576583469693e-01 1.087254048004922119e-01
3.078081582613014233e-01 7.889243924367113081e-01 -5.493308514166054257e-01
2.518566497406167226e-01 -6.631097049468602511e-02 -2.437737566052980143e-01
8.147846151386304303e-01 -1.253725601480245588e-01 3.163007168756833964e-01
-6.153766839138387068e-01 5.065362075708869198e-03 5.395334248340478700e-01
-4.163495001464488365e-01 -1.545964799121974653e-01 6.197774757743303997e-01
-5.885138215750408408e-01 -3.566290225353253573e-01 -1.331824640677446991e-01
2.665712806270314483e-01 3.780613259440574608e-02 5.797896297268157612e-02
8.855240214913895347e-01 -4.667706289622734483e-01 5.306774642296960970e-02
1.660189773337354333e-02 1.518355379579498232e-01 -4.140330940120283132e-01
-1.883048127989012110e-01 -5.864039212876148016e-02 1.006285326765515298e-01
-2.120109424990288816e-01 -5.964853543292752969e-01 -4.537223738856185906e-02
8.261538883678176681e-01 4.764662238984427312e-01 -1.924289155717206490e-01
1.301212845133163931e-01 9.055042704732690906e-01 -3.082322875637290016e-01
3.353435496816981748e-02 1.490997559519515181e-01 -4.200847042170965939e-01
8.052004014368545348e-02 -1.437154676560457034e-01 3.641336620130453672e-01
-4.370049259384112261e-01 -7.883386989634900699e-01 3.430240946000002733e-01
-4.646845470062452299e-01 3.995245098833491992e-01 -5.763459838824765979e-01
3.257979802838315009e-02 -3.970304296903819363e-01 -6.343624944117122466e-02
3.729692729943327456e-01 2.618212169014820234e-01 1.171552464672309113e-01
-1.225644176218841225e-01 5.218414439965090024e-01 -6.902868299518559736e-01
3.217747056120470739e-01 -2.570627293448883577e-02 2.507869499249789080e-01
1.461416066505612926e-02 -2.527661452871499126e-01 3.311243878652114087e-02
2.538721180528055732e-01 8.214749388146289077e-02 1.612109661616741019e-02
3.829251623195653598e-01 5.940443458151800638e-02 2.181335783344848234e-01
-1.212039044614734301e-01 -8.254077060762468609e-02 3.318983314071053958e-01
-1.739275044693900374e-01 9.066802154158766225e-01 -3.669851432847040518e-01
1.516442515653624867e-01 6.977381000106041009e-01 8.666465877103774959e-03
-8.222512094824473428e-01 5.867014952098052565e-04 4.439195031947095194e-01
7.087919886884809229e-01 -3.409822160232158783e-01 -3.398114312334953868e-01
2.672074312369370208e-01 -8.881519931428466519e-01 3.161906972870309751e-01
-2.604551345703181031e-01 8.519542099313032191e-01 -8.763015806000531982e-02
2.869404149462651543e-01 -3.322283354959379986e-01 6.011018334277449249e-01
-1.945083349353305957e-01 1.257319427633004638e-01 1.381874967499179506e-02
4.343567875088379382e-01 -8.027192284049021742e-01 4.037730175650012798e-01
-4.705421420294667034e-02 1.713972150086533197e-01 -1.770142149058237524e-01
2.759304870764898165e-01 6.998046516231083425e-01 -6.453124204562412647e-01
-1.482718210108592560e-01 1.575072287433598728e-01 -7.528610584114807380e-02
-3.302765718383896543e-01 3.895360759963454322e-01 2.369408932198883433e-01
1.505840527079635727e-01 2.298565055125390000e-01 -6.134090662179331188e-01
-6.700787932104673716e-02 3.440638516077704767e-01 4.468471924959736136e-02
5.000162240357658439e-01 5.105147147310978850e-01 -6.538457301588073145e-01
1.158195151069381923e-01 -1.449622527796567140e-01 1.731663047572013503e-01
4.598135882939682895e-01 3.143156728255486199e-01 1.372163064111290576e-01
4.108462517878661013e-01 5.428972394864428619e-01 -6.771869146391170657e-01
4.535311619319710164e-01 6.939144301915972646e-01 -6.699711013092725376e-02
8.281954680739882502e-01 -3.785134613445216289e-01 3.210190173470836017e-01
2.561624959762937026e-01 4.083091094321726622e-02 2.927273935541194194e-02
2.060117203303278577e-01 -9.351219719278364151e-02 1.720346706117054925e-01
5.641925902495178446e-01 3.074907358505455934e-01 -6.488042966102198772e-01
7.510889827096460802e-01 -2.205040111817385406e-01 3.912496107595358485e-01
-1.261925363629250452e-01 4.039644830896140792e-01 9.939486570349431727e-02
-6.362383581856398962e-01 1.281052777445731428e-01 4.766809353226135748e-01
6.551651191042336952e-01 4.227871947847786083e-01 7.651401341778002463e-02
5.129912461666243928e-01 7.453814448759764621e-01 -1.995586785442104438e-01
-3.033558394363164434e-01 5.709111469076306733e-01 1.618378570536743444e-01
-2.093621891563871851e-01 1.754597009780238248e-01 1.077721285457454853e-01
-8.270456667364400535e-03 -6.205449974706872540e-01 -6.399380228598926246e-02
6.423674675994520689e-01 3.005080893049452695e-01 1.575074844054279166e-01
2.758207871284857338e-01 9.828006114964912832e-02 5.386151121591997715e-02
-5.325918865631942278e-01 -3.708806390717070967e-01 -1.292594215554339065e-01
4.030465091069632133e-01 5.310521997198064392e-01 5.486426225190182970e-02
-3.985420358762772203e-02 -2.808990350247891343e-01 1.146400285141377720e-02
5.618772255203400290e-01 -6.386967374244375550e-01 -1.283525373720002805e-01
1.358856698112368144e-01 -8.983695919722963774e-01 3.796623109512965999e-01
1.437704817696917603e-01 8.954006404977632450e-01 -4.066878010261626430e-01
-1.749898843346776867e-02 5.612006598418134429e-01 -7.052543978545555703e-01
-1.176184488617575546e-01 -4.087364005292582481e-01 6.977323003840363302e-01
5.592134100637710103e-01 7.246007811012211697e-01 -4.031761401757600338e-01
-9.943571731382189194e-02 -1.984532305150392972e-01 6.714412207767815610e-02
-5.251244991475779722e-01 -3.152823610898408679e-01 -1.560004163582034142e-01
1.261104888215890951e-01 1.065598404095111779e-01 -2.427034108446499971e-01
-1.790528244811950553e-01 -4.603869195717768537e-01 -6.453006946090204810e-02
-1.600387770867532089e-01 8.841201649576898580e-01 -1.420423580165129096e-01
-3.069739810551516679e-01 9.995362778361914502e-02 -3.646823649598209816e-01
-1.397009801469931700e-01 5.465194866109182037e-01 1.115235982446713126e-01
3.552026665886705292e-02 -3.867530394872326638e-01 -6.047598835996369215e-02
-2.457515010464320915e-01 -1.459399845785732362e-02 4.200271575460471918e-01
2.389841851047467269e-01 -1.250241087423618613e-01 3.721948339579073117e-01
4.534862043240251439e-01 -8.250752010396268377e-01 3.161883717098232793e-01
3.941004922185922243e-01 7.836689446852770358e-01 -1.555689243624037432e-01
-2.066753665173146348e-01 1.495195932084711354e-01 -4.043851106163166564e-01
-4.857687794328940378e-01 -1.437210566746680018e-01 -2.338069426445331667e-01
-3.909799467368579862e-01 -1.414573914534831833e-01 6.109106810574045365e-01
-2.829765623064789404e-01 7.369752999145708083e-02 3.518434535096656157e-01
-2.157497847276770020e-01 7.151025196849908339e-01 -6.218657108923262289e-01
-3.004105342936988499e-01 -6.576935434735874386e-01 -5.999334855914919933e-03
-8.013075818303994069e-02 9.132166721084146177e-01 -3.823833880165514176e-01
2.185933772193437707e-01 -7.801315445600185416e-01 -9.122021389704595973e-03
2.965770610472303059e-01 8.105506741719529229e-01 -5.233647397597003259e-01
-7.157817612568657673e-01 1.726796232733903702e-01 -3.949874361752427343e-01
-2.448440339299742807e-01 1.544178478725705961e-01 -4.272895931409902981e-01
7.576246255072265345e-01 2.669902625476660019e-01 -5.468111804204022208e-01
-2.293182446072998260e-01 2.312959170916188689e-01 -5.310792639379765534e-01
2.353949198332099257e-01 3.794343635193835884e-01 5.530473778403920820e-02
-5.037079787779940032e-01 3.357979922348970914e-01 -5.452958108650582947e-01
-6.344443624581636368e-03 4.234037530392337767e-01 5.683391147700254942e-02
-2.206012039609049069e-01 2.116600259190666578e-02 1.338084278482838500e-02
3.386853570320844664e-01 -5.189703009533498668e-02 3.090319712522227591e-01
7.307042858451158474e-02 1.256294002342403793e-01 -3.144359702062928252e-01
9.561651049166757232e-01 -1.952141498516736517e-01 1.316535754693988480e-01
4.169104591966952822e-01 -1.378306126702463774e-01 -4.203839210613445343e-01
8.654779605166432743e-01 -4.985800377957377849e-01 5.619360259867567375e-02
3.669679259321157461e-01 -6.288487742787786383e-02 3.437478661136788571e-01
6.243302077672359118e-01 3.179206752937248359e-02 3.203829790872202432e-01
1.983409874730582001e-01 2.740128462833542056e-01 1.503852466946835158e-02
6.212151255207566392e-01 -4.224344166257134048e-01 5.013210357591730837e-01
2.426208369607300852e-01 6.954897972361528957e-01 -6.559749919431835385e-01
-1.605876270118639926e-01 1.358706565936101673e-01 -1.074095853253140831e-01
-2.803132797513779861e-01 2.199196368952337499e-01 2.381987740489141803e-01
8.722002371151809097e-01 -4.800003888557326515e-01 1.674256769361201535e-03
3.205795039233733101e-01 8.297031637565008277e-02 -5.467755316552024292e-01
-9.126373709467927586e-02 -7.080966704659599209e-01 -1.408890124259044863e-02
-6.345090373143857931e-01 -6.589234578052394209e-01 2.646801319169991840e-01
9.956296012114000948e-01 5.217566222998439029e-03 -4.248965550083751846e-02
-3.660874806509914481e-01 -3.371269693607727158e-02 5.332571173224227579e-01
-1.188590241840400963e-01 -8.621967951285328668e-01 4.731776778291575392e-01
9.976954650961868953e-01 -1.157598293781896548e-01 -7.625882062509638237e-02
2.355823588443020089e-01 1.679059124615920467e-02 -3.686875489024664665e-01
-2.300696956179323210e-02 1.487579730466865868e-01 -3.467266118374137118e-01
-7.037212336825786618e-01 5.531641430815780192e-01 -3.937446913979683605e-01
-1.990225263167570424e-01 2.396825834113034126e-01 1.127209254948395578e-01
2.639785644739984782e-01 -8.038201939810158958e-01 1.783906065844927807e-02
6.644777152767266104e-01 -6.962400384243441209e-01 2.739358160699774114e-01
-7.503823322339098212e-02 1.937174946609565296e-01 -4.903201249064050860e-01
1.688408131832281819e-02 -6.000398752452356099e-01 6.906625627114386656e-01
-7.204243745483243644e-02 2.520124616168141207e-01 -5.745735786298233894e-01
3.122998667691353480e-01 -1.937970088640518229e-01 -2.771114107958781991e-01
-8.295679017491225382e-02 -1.614443310718523261e-01 1.244120294927176656e-01
-2.454591734449507456e-01 3.993248574209358470e-02 -1.442222921816089243e-01
8.108399075549187207e-02 1.613793439126526008e-01 -4.942348098381912913e-01
1.303764143494978711e-01 1.885079953879733039e-01 -5.636916487932083220e-01
4.390420895670528734e-01 -7.897527288955965563e-01 3.452556566487770262e-02
-2.362870924540617368e-01 3.251011702634893363e-01 -6.070456601005433939e-01
7.469044944612983628e-01 -6.370206014500324754e-01 1.946065051641963084e-01
-5.042693061403491495e-01 5.332445024685366491e-02 5.158654961193666066e-01
-2.289441490922967393e-01 6.618981578785483599e-02 -1.632319387876560446e-01
9.985819966648872281e-01 -1.030257601159074998e-01 -5.012594477858977465e-02
3.482817067867374217e-01 -8.676346827791094063e-02 -4.022325384122422132e-01
1.726375689705405836e-01 -3.579887283284541311e-01 -1.196774724078568247e-01
-3.667351275871088556e-01 5.732132204400262054e-01 1.780589608845242200e-01
1.690149940786128124e-01 3.868878858492882378e-01 4.130322820126321876e-02
-2.468357165928457553e-01 2.637564236060971901e-01 1.840704486787861083e-01
-2.113734563790438739e-03 -1.431963775172732378e-01 4.133339728566939875e-01
2.063310178387605942e-01 -7.388059751974036526e-01 5.985097650665698321e-01
-9.047624691937835792e-03 -5.324813362194921185e-01 7.014660392585181370e-01
1.366844456233639871e-01 -2.085929230162461290e-01 6.749378172416063519e-03
1.808192100423206827e-01 -1.672074952605645815e-01 4.446441270693614611e-01
-4.550618402484916669e-01 4.697030451079520774e-01 -5.887455510684019844e-01
-2.134438599088078758e-01 4.190992004867052922e-01 1.545253605567425970e-01
5.083900704295148953e-01 -7.826738408701122696e-01 3.553982458552856216e-01
-6.677079092605654465e-01 -4.398936343864895404e-01 5.552949792823497210e-01
-6.584814581791911259e-01 -5.432512345139057786e-01 4.992748894730411058e-01
2.779555419096086388e-01 -2.559259790766172382e-01 -2.129395760225185896e-01
6.157352202349682807e-02 1.811504581014179160e-01 -1.430480351942506057e-01
4.306810878905880102e-01 5.222630013102598223e-01 -6.763817120141371042e-01
1.423410274961061650e-01 -1.504600375842699012e-01 3.987146169748228552e-01
1.060001052584882836e-01 1.127367762297291770e-01 -2.804293313898630347e-01
8.196952305347494916e-02 -1.471562711401782075e-01 3.820853360411977095e-01
7.943587682521796589e-01 -5.512274268546595302e-01 2.550215798820212876e-01
-2.128324533778847838e-01 -1.909583683113199593e-01 -1.777744918446555120e-02
-4.344608860241005455e-01 -2.589810893363369559e-01 6.576376148311074976e-01
-1.156937591570364049e-01 1.454673112265441326e-01 -3.354783246955962417e-01
-3.655084766116636127e-04 -8.847008728791894150e-01 4.435913511985385416e-01
-8.515996979211353998e-03 5.959850515615159328e-01 6.861446446709817959e-02
-5.948915722989362997e-01 2.193580167944217119e-01 4.281391539648455868e-01
8.964281449603364038e-01 3.379226308466120460e-02 -3.984461029441236368e-01
-1.575546038202521315e-01 7.729081660212316907e-01 1.271670542576173665e-02
5.720693014663225107e-01 -2.776240761587518424e-01 -3.932784424342082308e-01
-6.845668330520667810e-01 -2.401905034007692230e-01 -1.839649042017836300e-01
-3.614359861500478499e-01 2.094677840206694008e-01 -5.048196434818221778e-01
1.688093353617080017e-01 -1.173016033502542882e-01 2.309135067837691235e-01
-6.902626689536964788e-01 -2.901270772530163411e-01 -1.502202135849724229e-01
-3.127737001110844628e-01 -8.430014764493816148e-01 3.023480448245367547e-01
4.390877217528544318e-01 -8.271646965921295447e-01 1.306598615783373107e-01
-4.563786640514048282e-02 -1.194318365490235900e-01 3.271421434608624557e-01
-2.061445790226165697e-01 1.038182486181207370e-01 4.329401258191728497e-02
-3.395103885151348200e-01 2.678600722701374170e-01 2.874213802194042211e-01
-6.393085906719654654e-02 8.918946922765214058e-01 -1.617377035993087520e-01
-6.206430869685524154e-01 1.232770569378214554e-01 -4.132083253459045702e-01
-2.768714619626448936e-01 4.704143115163205713e-01 -6.499221710014029263e-01
-1.352653048819466852e-01 -8.256254632079905731e-01 1.049113210940585406e-01
-6.258329939800221231e-01 2.262611651821669623e-01 -4.590509543481679500e-01
-1.328719228025030119e-01 -2.992366437986606065e-01 -1.822865088834727323e-02
-9.093234588964107523e-01 -1.831976800247002435e-02 -1.456240219568162297e-01
1.302281595332943354e-01 -1.315855857781791094e-01 2.327744097711591242e-01
-1.516595616060039398e-01 1.805841944482561856e-01 -2.155654450601206251e-02
6.550800336299589244e-02 -2.191197909581457381e-01 5.492723609999379530e-02
-3.794767513936151415e-01 -3.731835305400934555e-01 -1.086890266418323037e-01
-4.112680348719986445e-01 1.956885327429095656e-01 -4.911338008059251137e-01
-7.109014440819496627e-01 -3.872776973845508119e-01 5.381518087185768184e-01
-6.747609093509239209e-01 -5.994749069376842376e-01 1.558431159018973389e-01
3.178046778072785017e-01 -1.924215419875092981e-01 -2.852609654722586541e-01
1.128443649868995646e-01 7.608868376452202487e-01 -2.449657330676986017e-02
5.275137058130489054e-01 9.841708186521976043e-02 2.682420051796735039e-01
2.422861235574610694e-01 2.755764506629191368e-01 -6.637552992306016142e-01
-2.176580920198755709e-01 -8.566854574841675785e-01 4.322532619762093353e-01
7.533639665793652185e-01 3.531233207240099814e-01 -5.362936278275024504e-01
1.393228561622988360e-01 2.541168601419649398e-01 -2.561653810292079461e-02
-3.749838745053610811e-01 1.781725449263306393e-01 -4.767531854531664726e-01
-2.187198826502895488e-01 -5.683053320303002032e-01 -5.300260291497558424e-02
-8.380267597223740872e-02 -1.073677633095197065e-01 3.702854203409534639e-01
-6.320208394550093089e-01 7.288888326381229854e-01 -2.576183029788176593e-01
-1.190401930816411130e-01 2.033210394809415733e-01 -4.013780299589081446e-02
4.986764478508629583e-01 -6.751931188316867560e-02 -5.054328443629083623e-01
2.431587158101023161e-01 -3.564634829902104118e-01 -1.740137012661101823e-01
3.059579568333273270e-01 5.131422116318282711e-01 -7.063809443451615211e-01
-7.484383384469470157e-02 1.674177579724658305e-01 -4.268505535118499172e-01
2.564530833300319654e-02 -1.399401412952300805e-01 3.694367389609806152e-01
5.644135814029353770e-02 -1.936342232387983919e-01 5.082892170933345222e-01
-2.167903666973206300e-01 1.158470602777297020e-01 -3.234904890465389871e-01
1.100440410504970323e-01 -1.684533398563982931e-01 1.078024212591274233e-01
-2.634815217855280278e-01 -7.353905888255886092e-01 4.344629226621880141e-02
9.706240756263149194e-01 1.356309352107443883e-03 5.962756860355324096e-02
1.593126177904333474e-01 -8.727663760845640883e-01 1.299039256185968716e-01
2.542752850568260059e-01 3.090199723233900686e-01 -6.803076614959533419e-01
3.940988781526109236e-02 -9.096207953205873720e-01 3.233206034247765315e-01
-1.788421329920509006e-01 -3.019619623275560799e-02 2.174195235578075813e-01
3.065976605616886619e-02 -8.627416861159569184e-01 1.201460356816075742e-01
2.415466743740748642e-02 2.279783902886457214e-01 -5.712679323706684187e-01
-2.945763694138562871e-01 1.902973611420804845e-01 -4.851910956938981778e-01
-1.202410702066502163e-01 -3.709534449851233373e-01 -4.357867976170981539e-02
2.836676273962057127e-01 1.067272815831223076e-01 6.446735717786954145e-02
9.637393897387950270e-01 1.848162961807784666e-01 -2.317719402149966690e-01
3.700581379005150606e-01 1.782616225428890755e-01 -6.294895773041735421e-01
-7.263294870762715405e-02 -8.763236895507269253e-01 1.782053242104209290e-01
3.759760895301191841e-01 7.156459785184083877e-01 -5.628939507011296306e-02
-6.637205898018527783e-01 -2.578462963617813575e-01 5.889106264649729416e-01
-1.609976218888736488e-01 2.237272083104518139e-01 4.449748319430674864e-02
-7.549253730642346838e-01 -4.309385978774217252e-01 6.603381132134273322e-03
6.048505015369249477e-02 4.438081947384079906e-01 5.134895837696724225e-02
-7.591426271791480440e-01 2.926122726711767874e-01 3.422975138862986433e-01
-2.084693782904349646e-01 -1.947490613212511101e-01 6.057877414134431593e-01
-1.726630945904687464e-01 3.619885827298173209e-01 1.205784026283044513e-01
1.048724292652301882e-01 4.746383098459990291e-01 5.393816759078563089e-02
7.773077957730059051e-01 -4.355359385503047021e-01 3.671380814084656552e-01
9.335260672073820987e-02 7.895225822239675395e-01 -4.459941001893062695e-02
-2.259525851417347186e-01 3.796474654449135677e-01 1.635660156706410795e-01
-9.637821393026303474e-01 -1.358673495127757092e-01 1.184149456870821071e-01
-3.294500434945339395e-01 8.672106019747254368e-01 -3.739062481905773838e-01
4.997422280819219798e-01 1.221429696433815881e-01 2.439371351900049001e-01
-5.649782400023892898e-02 8.478067377818545580e-01 -8.183609160118976433e-02
1.854508744979694590e-01 -2.673370336073219167e-01 -9.962827656763921513e-02
6.971079047057516798e-01 4.675830607114236370e-01 1.981100374496340064e-02
8.419921951762900092e-02 -2.065211163861458699e-01 6.109839161778049532e-02
-4.034908442273908991e-01 -6.972228725624824985e-01 5.715141127243813512e-01
4.781282861577065835e-01 -3.544605515383149608e-01 5.595706627554554169e-01
-8.909938967786683595e-01 -3.091089966685101054e-01 2.995169350772754480e-01
7.388061362909293939e-01 -6.226240869482886353e-01 -4.399011484637733137e-03
-2.933423614824393413e-02 -6.207256247599510779e-01 6.886432341174573146e-01
6.312234519530229848e-01 -2.627006091014152944e-01 4.708230398388847382e-01
2.280136652840219214e-01 -5.741168046322878138e-02 1.323405667666082731e-03
5.019487783086257204e-01 -1.155197738308782890e-01 4.257771166405298069e-01
2.144846707954079779e-01 2.687857732723326065e-01 -6.557944816755751916e-01
2.861336732387162463e-01 -5.393732401367414830e-01 -1.681033129321248820e-01
3.176575525622316598e-01 7.398333503543679246e-01 -5.908210869924183928e-02
2.813639681251912661e-01 6.776133920329014959e-01 -2.325042375347572722e-03
7.046775112099682437e-01 -6.817949662467923666e-01 1.591355955044663761e-01
-2.220486064514047841e-01 -5.709291421417697077e-01 -5.216241306467735150e-02
-7.551375483517313025e-01 -2.173456991357116119e-01 -1.689331848036413897e-01
-9.641826580940435765e-01 3.801677308346514128e-02 -5.595889357890981852e-02
2.400345230076994241e-01 1.697978200792032710e-01 1.071944317673619029e-02
