1.788713191811018011e-01 8.638642444465555181e-01 2.065379023777208223e-01
-3.619382401003143901e-01 6.672961046100139848e-01 -3.435042442221679093e-01
-3.122105237993193505e-01 -5.863370766020430808e-02 2.486004207399051397e-02
-3.805628845245318526e-01 -8.752649150615585683e-01 1.867274349672022882e-01
-8.621378059292184037e-01 7.908362756388173653e-02 2.709690833053162717e-01
6.261255280182634331e-02 -8.418792273727629949e-01 3.151039814195368827e-01
-6.591918504651399502e-01 -3.767334008565026426e-01 -2.784035686024953771e-01
1.776436505284996192e-01 -3.684459054926039201e-01 -1.895213413433378125e-01
1.507794292661350233e-01 -9.710929475037171077e-01 -3.562174769168448274e-02
-3.254256936645718024e-01 -8.569442450901368358e-02 1.400061433797673560e-01
4.795145269227719664e-01 -3.954680710631359730e-01 -3.191543524630356954e-01
3.755969238023139090e-01 -2.076875415822162785e-01 -2.315166749478980435e-01
-9.655447342677282441e-01 1.149481475613005205e-01 -7.583277229200197089e-02
-7.631648218282800489e-01 -5.399808640808335669e-01 2.128443753249605053e-01
-7.272268767749892615e-02 -9.835950544676002050e-01 1.746632407346226110e-03
9.954688412282786114e-02 -3.971146296163394762e-01 2.569339658131151727e-01
-5.591229984240513318e-01 -2.959937988917056284e-01 3.687364318860328338e-01
-2.768950746430109966e-01 -1.827484061547425265e-01 -5.821397072241424331e-02
2.076030344595368449e-01 6.384463010909349201e-01 -3.771120367785358862e-01
2.947878125028549623e-01 -2.801141124333057508e-01 -1.971199129053225474e-01
-6.335770713433934720e-01 -7.194599469675544423e-01 1.715929621735452770e-01
-1.585455533786886972e-01 -7.238979962242162447e-01 3.656358832479039145e-01
-6.099668429036440020e-01 -9.096955372227170933e-02 -3.069385524613678640e-01
-9.366196885536988148e-01 2.647267795527162293e-01 -8.157667561051951122e-02
-4.623848781273413033e-01 -1.104729012048411424e-01 -2.557172142703692530e-01
-1.058016890364028711e-01 3.924300503886141711e-01 -2.515932683460830876e-01
-2.171396154115882993e-01 7.412422521316345270e-01 -3.463277473415426466e-01
2.226182847527111430e-01 9.150339854522480110e-01 1.372963428148430698e-01
-4.667098274645458122e-01 -3.339208418650272958e-01 3.634084685321816166e-01
-4.703213539826885392e-01 3.167273062963565228e-02 -2.643852801856163559e-01
2.189400979318833484e-01 -9.582591979068953991e-01 1.110494649970193703e-01
-3.125642102343058615e-01 -1.465931386546445725e-01 1.679472152868928814e-01
-1.842081624082603786e-01 4.252115389094155984e-01 2.422688185554245088e-01
-1.606672217040416573e-01 3.821534853856790037e-01 1.990293341838516861e-01
-3.168411576850015399e-01 9.323289657473455838e-01 3.371424352468944952e-02
1.054162402608408294e-01 -8.082651715539506121e-01 3.318548235488588682e-01
-2.455605538990600356e-01 3.845483383501850927e-01 -2.900508204219437447e-01
7.457382317839066077e-02 3.203702828755967125e-01 -5.364900881100876512e-02
-1.031156828661666247e-01 -6.803432764041484893e-01 3.747835975180426327e-01
-5.882896662316937642e-01 1.139582037565975425e-01 3.410102490377832085e-01
-1.198587877156534823e-02 7.515014409793745465e-01 2.806478765347978910e-01
-8.347379999645916371e-01 4.913892066116643531e-01 -1.122696694455207339e-01
4.848220142431882707e-01 1.291262906295695401e-01 -3.180738180307602914e-01
-3.091878092604455341e-01 3.744379496628552073e-01 2.687010546452855975e-01
7.377329492066611594e-02 5.176185207165339142e-01 2.606533403969584772e-01
-3.075296733167470764e-01 1.281166042441783115e-01 -9.112787068383366995e-02
1.096855919231009419e-01 -8.024179597389075047e-01 3.344959042625196832e-01
-4.391409909723368310e-01 8.610435683860421241e-01 9.641850846821417576e-02
-3.167346514366230492e-01 6.810134000148619637e-02 6.878629860465179657e-02
1.586852589316694317e-01 -3.088027507139376460e-01 1.411082941083346420e-01
-3.089820055912238517e-01 1.101683156033889666e-01 8.024615996541134555e-02
1.272543963842049375e-01 -3.841347351395973941e-01 -1.816259672763064492e-01
-9.339208741950986159e-01 -6.591652507758823110e-02 -1.503033971415824455e-01
8.129706866681384314e-01 -2.649660730433463507e-01 -2.801285105390804442e-01
-1.691486927935319795e-01 2.776838156762281296e-01 9.552225123808487026e-03
-1.073463484112723437e-01 -4.061291144710917345e-01 2.814928251448016727e-01
3.919945399706020739e-01 -2.361756235334184356e-02 1.731309162197090246e-01
2.129558875145421554e-02 -4.753226359966746251e-01 3.201465330995545422e-01
-7.397983393570090049e-01 -4.329610802083343479e-01 2.983947437556365156e-01
-5.015266012500747134e-02 8.592391195812493221e-01 -3.048692313040594626e-01
-5.021063392341764686e-01 -3.382662674234185873e-01 3.686922596935580110e-01
-8.328642931265338445e-02 3.146363997280035019e-01 -2.723013226479483948e-02
-7.371183269740869126e-02 -3.364166404485026129e-01 -7.789180479215385144e-02
2.467841742640523861e-01 -2.238528301550178901e-01 -2.447868353729626759e-02
4.575284567542831637e-01 -8.579384826478239079e-01 -9.131873245701574437e-02
-7.392917596073200065e-03 -7.352919985969076366e-01 3.648384289888851884e-01
-1.055485676747965895e-01 9.265182933633131501e-01 1.533042157512698733e-01
-7.540896212534188292e-01 5.663698501563957377e-01 -1.749217277368824708e-01
-7.147824065854631037e-01 6.434868523884282876e-01 -1.420855636385540688e-01
3.035141101209258840e-01 1.807698037597431084e-01 7.639693776395151126e-02
-3.537175130811611168e-01 8.088406461147604753e-01 -2.746658838833246352e-01
-3.167006726055043853e-01 1.488756370135308205e-01 1.393586071924665937e-01
-1.838093342911362449e-01 9.733939694294271305e-01 -3.620431202423937764e-03
2.113269080279438494e-01 6.509927605143133178e-01 -3.765043114836539861e-01
-3.171525876421749657e-01 -2.220323784103247211e-01 2.427535613468806419e-01
-3.668336189459598939e-01 -7.280855942936429459e-01 -2.457783338666358064e-01
-6.715726036214798578e-01 -7.194624596115442028e-01 5.266588568627833533e-02
-6.406677917795000621e-01 -5.501040592569387266e-01 3.120877161331091498e-01
3.174448000349507082e-02 -4.505612106463196542e-01 -2.228027188120154656e-01
-2.947319422415758949e-01 1.950109527701097412e-01 1.386828895842021903e-01
-5.689930754053564854e-01 -8.038668232205369302e-01 5.006205953735957948e-02
8.543069367383759882e-01 -4.961586933089319751e-01 -7.948459996619297585e-02
-3.095602069783657817e-01 1.842732427778065174e-01 1.548272051002035909e-01
7.736475260672063259e-01 -1.995292700836771016e-01 -3.140983848761054187e-01
-7.713724961170733696e-01 4.312686671771822078e-01 2.383412404519293371e-01
5.978249751805181367e-01 -5.397964654791815864e-01 -2.883802180507237245e-01
2.696119427455741582e-02 -3.435909726668384123e-01 -7.622842869351009742e-02
3.060621925461774473e-01 -7.272928482336307177e-01 3.380905305699158925e-01
9.132440544512309133e-01 -1.906033554517929385e-01 1.911393910799475682e-01
5.208400675126718671e-01 8.408705154712887708e-01 -1.170381454295073148e-01
1.236397959369093663e-01 9.706312552866991350e-01 -1.438304309360907696e-01
-9.352409289734612274e-01 1.181625575575412229e-01 1.763826972642443258e-01
4.385161163524577965e-01 8.028652453415786594e-01 -2.633092631652244053e-01
-6.274745194639044232e-01 -5.224340153903848094e-01 -2.484945963654160983e-01
6.895226941254759545e-01 -4.435983279468406759e-01 3.021908530778518731e-01
1.701748617712126044e-01 -3.080818378641182465e-01 1.518843127819576033e-01
-3.003822280403273814e-01 -1.044169632990307045e-01 5.050857364083084083e-02
-3.741841019944015523e-01 1.557802708488245647e-01 2.263197169882934234e-01
3.529393633323867074e-02 -5.884994441701684176e-01 3.662884825053662752e-01
-3.281954425492953353e-01 2.372484997752405678e-01 -2.294349110077383569e-01
1.156538601786937653e-01 -3.376333575910022144e-01 1.729692963011437434e-01
3.589292641425192998e-01 -6.805146285216878699e-01 -2.876997446029043171e-01
1.158618742401914814e-01 -4.266903424866606565e-01 -2.183741554515607752e-01
-8.847313194283931148e-01 3.770391347044456665e-01 -1.232019913073551659e-01
-9.004715542441349418e-02 6.747329340630893180e-01 -3.698286003154072077e-01
-3.350904668421338939e-01 -2.516464933742545429e-01 2.790722482508652402e-01
3.337060644707317003e-01 2.424297773337813836e-02 -3.376675579254505288e-02
3.401910333120673480e-01 5.566686930501640873e-01 2.886425678337609102e-01
6.939925442688503754e-01 -3.776129725504018819e-01 -3.062874075993542444e-01
4.912211346066388401e-02 7.731937190726978493e-01 -3.543559998892411023e-01
1.962649913655643008e-01 8.339352264301372886e-01 2.267505117554351746e-01
8.304107673980664073e-01 5.086029950445961623e-01 -1.657651002208690438e-01
-7.522472109229176862e-01 -6.205936113475721827e-01 -3.535207118036960694e-02
-5.018918409514928625e-01 8.369223512963576139e-01 7.079210166388491543e-02
2.533955041517839124e-01 -3.769028490256382535e-01 -2.369212436695889434e-01
4.437773678709465430e-02 3.912991721203196716e-01 1.569503474109056051e-01
-3.295393427720098578e-01 7.980204481295767316e-01 -2.919755817450583324e-01
-9.041681264740758506e-01 3.600016292133850215e-01 -8.831492411937617859e-02
-4.289567053030196586e-01 -6.024825242312915607e-01 3.654976365268284288e-01
8.398265317909531236e-01 2.586678425675808732e-02 2.653675205459275488e-01
8.601284249003669780e-02 3.258368135068931970e-01 -1.162938868814916288e-01
-1.066591242242794502e-01 -3.067158946529749408e-01 9.855806741753564415e-02
4.577740773884252379e-01 -3.533627577711362377e-01 -3.119559426332492724e-01
3.392105201272143655e-01 -1.659928282235888231e-01 -1.658032499988380259e-01
-4.930230758728408880e-01 -3.071908714544919206e-01 3.635917479558904430e-01
-3.178479522116500200e-01 5.205273487806507532e-02 6.028366059924913922e-02
6.348021749601381325e-01 -1.859776114376295308e-01 3.275854724133753781e-01
-3.531283339175117497e-01 3.283173615374333776e-02 1.672614471540524450e-01
-3.135034167019341012e-01 5.814166580086586045e-01 -3.596676476700008673e-01
2.465824550894319192e-02 -8.181794004237904483e-01 3.315597658026739891e-01
-2.654859211082739590e-01 2.561162458559599342e-01 -1.848463480670949899e-01
-4.191679427444935935e-01 2.804344264970350387e-01 2.923838587555757096e-01
-5.657377258977970280e-01 -6.524891750041370564e-01 2.999497303975761087e-01
-4.294841743253793864e-01 4.358612369411491994e-01 -3.459375702771430583e-01
5.976348532984658846e-01 -1.687097902270631999e-01 -3.373945380478584610e-01
-3.649804744538265311e-01 1.657496041257082720e-01 2.196672356087479572e-01
-3.464820791299550451e-01 5.956768485378295397e-01 3.071021881687304722e-01
6.860038472616145633e-01 -2.808840693553077417e-01 -3.268272655357478129e-01
1.083437045162675139e-01 9.767879748073710067e-01 -1.285967483846965909e-01
5.048172143201890005e-01 -7.356557561081870089e-01 2.644584218393570829e-01
3.106169912916886822e-02 3.272912796486294740e-01 -1.698694152462964027e-02
-3.560102443234409719e-01 4.064372206503131246e-01 2.959836146339974716e-01
3.217089787288613945e-01 1.051964492345152519e-01 2.337904685734918872e-02
-8.559349810722720331e-02 3.242121350955140535e-01 -1.142886803620628555e-01
-5.054436934207344745e-01 4.927967161098173454e-01 3.156751569783031175e-01
4.043515032104771367e-01 4.553696411557184853e-01 -3.711520217279119516e-01
-3.624493081622931490e-01 -6.824991666553322789e-01 3.555057115012793534e-01
-2.224480987764315409e-01 3.299563079297920809e-01 1.886944598500145398e-01
-1.997774112021897808e-01 -3.405943297572079920e-01 -1.667819347955139808e-01
8.846812849152313474e-01 -4.186587188235340040e-01 -1.142448241131588660e-01
5.636655019509860809e-01 2.406093604452687884e-01 -3.622043570865856599e-01
1.542009599236205675e-01 6.154914182003102807e-01 2.884011606150584384e-01
6.816548987302525342e-01 6.794610585146351189e-01 1.089056002997005612e-01
4.597270830746137404e-01 4.897267417987398175e-01 -3.754754833929141444e-01
-3.960993156833673146e-01 3.202128532664691996e-01 -3.107092255298514183e-01
3.715805048054900417e-01 9.024235407129352904e-01 6.974924959475353736e-02
-8.192319679635924334e-01 5.381396690886355305e-01 6.126429228316180448e-02
9.452270737364890096e-02 -9.772296157968859420e-01 -3.595117238191641168e-02
8.381009869555268166e-01 -3.970188176643585920e-01 -2.061180882809124371e-01
4.294679074803909452e-02 -7.615316524979494073e-01 3.558204152090063688e-01
3.026896287833261145e-01 -1.387638613723707337e-01 6.626370247658207064e-05
2.307748730627164346e-01 -4.282840939158190086e-01 3.118722035884985422e-01
1.363124162531596968e-02 3.659292791311719584e-01 1.153387641642607542e-01
-1.571689386797509580e-01 -5.254781200847180589e-01 3.605821947602669275e-01
5.223300519285777321e-01 -5.099705714753456354e-01 -3.115989370551336957e-01
4.188738212730621080e-01 -4.323980027033948459e-01 -3.113585889272195151e-01
-2.366824826861899655e-01 2.180076837493652442e-01 -6.035275876475409279e-03
1.703291882313753836e-01 -5.612916236375053991e-01 -2.914835908807557607e-01
3.425532653250448756e-01 -2.855990008859020657e-01 -2.399586109368529174e-01
5.989191278172372179e-01 -5.770833393342272855e-01 -2.730585352474798611e-01
-1.172436701470727927e-01 -9.333113016674541296e-01 -1.287782796287065545e-01
8.226330245686532816e-01 5.646733403042948352e-01 -5.776615106625608217e-03
-8.776447475634663320e-01 -3.734168535725161386e-01 -1.044904773812888182e-01
3.904061207535471922e-01 2.754235723863863172e-01 -3.136505549498416756e-01
-5.908251057191180600e-01 -1.540217782442551975e-01 3.599220289231928605e-01
6.660352779153173586e-01 3.905320020091364031e-01 2.794758578245167824e-01
-7.228234584906240157e-01 5.145970619694623105e-01 -2.458687373802074527e-01
2.330518098694845386e-01 2.509277707870216645e-01 -1.251278860404180515e-01
3.237406486135577244e-01 2.601588326249733019e-01 -2.596907707357634654e-01
-4.126262122353900330e-01 8.836930100521282749e-02 -2.311031804440440429e-01
-2.119715029533755513e-01 -7.144868636535176565e-01 3.648537041189421903e-01
4.411128200917516229e-01 -7.396051660498777214e-02 2.396183994282403140e-01
3.624459836135879853e-01 -2.564341324617960827e-02 1.211682426591825928e-01
-4.426192696405920057e-01 -8.578963437922287882e-01 -6.969028567552935927e-02
-8.711490549325360266e-01 -5.723778416716157613e-02 2.705044072281568845e-01
7.461965882038914533e-01 -2.886481506392426025e-02 -3.410524407498552457e-01
3.281708798468757626e-01 6.750451786157773970e-02 -4.163698822336915108e-03
-5.687647875987050794e-01 4.112134864455887495e-01 -3.381926033153477285e-01
-2.232355151397504289e-01 -6.094709884972706604e-01 3.779070875439587973e-01
8.817759635093369575e-01 -2.535039677930480198e-02 -2.724212647214596106e-01
-6.827802628541950192e-01 -5.775029118050067911e-01 2.682562385617032752e-01
2.760433553418179531e-01 -1.947580430822813125e-01 -5.413245229486432497e-02
-1.526597299145065201e-01 -2.804535686494005753e-01 4.309600738529165836e-02
4.494720842763260671e-01 -3.631905497988436871e-01 3.339772830714634044e-01
-8.387077023418616495e-01 4.223873462908643295e-01 1.705074919907672848e-01
1.529166823503576300e-01 -9.013601153921481091e-01 2.500995112850372681e-01
3.861284683563081521e-01 9.540074012503790835e-02 1.681649889046872570e-01
-4.233570626434378092e-01 7.363394584375978491e-01 -2.973019228716646811e-01
3.484720526104054805e-01 1.426719982846659518e-01 -1.961324582319294296e-01
-8.713393678090642913e-01 -3.065486409029861692e-01 2.223325750427098679e-01
-7.091210265112314337e-01 -3.244069687463371210e-01 3.414769388787948778e-01
-2.687818918580739402e-01 5.276420596188969858e-01 3.003571122204571342e-01
-6.969896759744952375e-01 6.893536065281152814e-01 -8.666437536825317978e-02
2.790888124017641969e-01 -9.212221493140803075e-01 -1.037042658239767517e-01
5.032146202051759332e-01 -8.856999441617244284e-02 2.839637023010515016e-01
4.246045345531725967e-01 7.662618320283648421e-01 -3.011131165090508710e-01
-1.471550877163649018e-01 8.322959166293650846e-01 -3.126251090666991583e-01
-1.211501901137132381e-01 3.058070161046942403e-01 2.379666550013377624e-02
5.753007221742612032e-01 -3.070349314512405559e-01 3.366404242518081236e-01
3.665612785081113351e-02 -8.629146418524779039e-01 3.011999883033678604e-01
2.014594370579713134e-01 4.494539578033920346e-01 2.415822532984107929e-01
-7.489296844188947366e-02 3.584887130511642539e-01 1.242814269266595134e-01
5.232740791109043998e-01 -4.630820721447944099e-01 3.453523502168104331e-01
-1.630791855011629599e-01 5.653466810674809828e-01 2.929305285675985471e-01
-7.290846585660430978e-01 4.801005957610152697e-01 -2.573630827787997677e-01
-3.996853934996160707e-01 -6.705987455069027658e-02 2.513549418276908587e-01
2.539565537448547072e-01 3.149058377002278419e-01 1.646365074526671968e-01
5.881815181465126496e-01 -6.686625121896958568e-01 -2.252218919808178788e-01
9.627541025654385853e-01 -2.106111460253410131e-02 1.361047833012377639e-01
6.128450215023233394e-01 2.183235242721593139e-01 3.018399041130042648e-01
-4.275951625724369043e-01 1.491180358482479817e-01 -2.622737908936491058e-01
-8.507064351601982544e-02 5.589433950419302466e-01 2.831921469859234319e-01
-4.174749324619822510e-01 -4.943836590209981785e-01 -2.898252192894982260e-01
-1.418355195962898649e-02 6.754559692240897917e-01 -3.725832731510431706e-01
-2.558209807010533576e-01 -1.938713417309060050e-01 -7.424804428648473613e-03
-6.141734125756743712e-01 3.702456261488749623e-01 -3.318544015641617384e-01
-2.736429098361747303e-01 -1.655828837654436947e-01 7.678257783371833511e-02
-3.250851235074537215e-01 1.474150348034791169e-01 1.545771311628903744e-01
3.136534369258548449e-01 -5.309832865579017236e-01 3.566640067428800687e-01
-7.850812711799133314e-01 -2.560254420291144251e-01 3.143385389758888149e-01
-2.439199295287286240e-01 -5.079039675680240284e-01 3.658493159574182640e-01
-3.296234760362749538e-01 8.438428428853375074e-01 -2.528000312146856943e-01
-4.198302590287335545e-01 3.636078163349133474e-01 -3.303112815922754630e-01
-5.771026200494443481e-01 -4.708135240234863628e-01 3.601099433451219189e-01
-8.959506480619671143e-01 -3.712476090654622807e-01 -6.186106651917361310e-02
5.117204541540909535e-01 -3.684930547154713354e-01 3.411527877395052477e-01
2.439567987313549513e-01 -3.796044648017809497e-01 -2.339077903181696894e-01
-9.722850830744351747e-01 -1.358283705510746620e-01 6.323126794317078525e-02
-4.423172922568937016e-01 2.694260299493506650e-01 3.008045627483229567e-01
-2.479520268408783035e-01 -3.358126001948721351e-01 2.807935616013954583e-01
7.752874079557376952e-01 -3.320427820199093882e-01 2.816827681111619963e-01
-8.211614157774610456e-01 -2.854316025749068508e-01 2.827705897972417892e-01
1.098753576082122374e-01 -8.289703992667607491e-01 3.194487366664894856e-01
-3.218550843756066149e-01 -1.829395709706138073e-01 2.167109453519924789e-01
9.092836247143745165e-01 1.943600507215169707e-02 -2.486188972858180135e-01
-6.482459928854407138e-01 -2.724830456572050474e-01 -2.959160861597571746e-01
-6.995228114513387663e-01 2.570709409668885392e-01 3.248739388388715565e-01
-5.658093780031061559e-01 1.807666691223205335e-01 3.349588493727548300e-01
-2.990236303239467430e-01 2.408865755218215221e-01 1.853685382942605597e-01
-3.360067280670858136e-01 -5.000796106824905163e-01 -2.850857730882975782e-01
-4.358409246870559861e-01 3.571686805099564821e-01 -3.316131743556283151e-01
-5.801221002516528946e-01 -4.057486085806683573e-01 -2.894610403267235954e-01
-1.881409136093906698e-01 -3.437470378169066310e-01 2.523637704574626661e-01
-8.051157821311966112e-02 -9.447704740583008354e-01 -1.167642564745218908e-01
-7.726743522411347875e-01 4.921758974413321108e-01 2.003294435285802588e-01
-4.102066445357741009e-01 2.102092391248927203e-02 2.483362943454980598e-01
1.423657809463677038e-01 -4.293340187853864065e-01 2.947330468383214663e-01
-4.814756040093512435e-01 -1.959792402922344579e-01 3.397718924498704940e-01
8.657944984591627868e-01 -3.099405270126381895e-01 2.132702394389927869e-01
1.348958380946403690e-01 -3.502892196910374345e-01 -1.416849571864860213e-01
4.387111775847802875e-01 -2.098817904956109398e-02 2.268931453276641086e-01
-7.536521061751302319e-01 2.611794182466404268e-01 -2.953766004691301128e-01
-1.176222704000174368e-01 7.044858035507703953e-01 -3.651283668481263289e-01
2.663073464491917952e-01 -7.284435655372450968e-01 -2.804108097590308768e-01
-8.962467125868271989e-01 -6.480536425367899867e-02 2.452281876955534623e-01
4.712444156676706686e-01 -3.501005270827959315e-01 3.344551208893262184e-01
-4.992840805632098311e-01 7.388789795704032715e-01 2.134721476858635336e-01
-5.606684974180282943e-02 -5.766560891244444376e-01 3.670055560594247535e-01
4.396097623499319873e-01 -3.012834920091035373e-01 -2.985345887462375614e-01
3.047244664355133192e-01 8.061123444870845756e-01 -3.115034800003377846e-01
5.093474340560044666e-01 -2.109816957810379812e-01 3.121924747157337476e-01
-2.336532511634058507e-01 -2.201045720888578083e-01 -3.638556365154814193e-03
-3.187032827849416994e-01 -6.132373667411673557e-01 -2.859745854558423117e-01
-1.246569489778758671e-01 -8.847998137450217015e-01 -1.894742860462353684e-01
7.246932797652827496e-01 -4.019950579962141002e-01 -2.873238818510684411e-01
-9.446152952351327681e-01 9.918911454020060137e-02 -1.337294949817263157e-01
8.482750672555526839e-01 -5.070244752123448384e-01 8.753524158475296801e-02
9.093832352468086966e-02 -3.128775640483637543e-01 3.496280632215010425e-02
3.434290182686458581e-01 2.295643208401991833e-02 -1.018931279167890475e-01
1.930242618711002223e-01 -3.214847269028383581e-01 1.965680851562249809e-01
2.649895598943710628e-01 -9.381572892718051948e-01 1.400614408100337716e-01
3.670539474137006763e-01 -1.625167969365704790e-01 2.028911491367582920e-01
-3.599725323817201117e-01 1.776213339524785884e-01 -2.190698771299814662e-01
2.274603968630233286e-01 -2.893248833029609113e-01 1.773437103588020314e-01
1.279568337930771793e-01 -4.004601845059468923e-01 2.663338625871231602e-01
-4.428422097421593207e-01 4.888558359719024846e-03 2.794924238519167492e-01
6.809635250066866652e-01 -1.770656239090646067e-01 -3.393884956701320732e-01
4.434804035630111607e-01 8.489549453834553949e-01 -2.006721596188953127e-01
-3.197354043131523382e-01 4.700240714833028299e-01 -3.441390835738787901e-01
-9.188728873271089226e-01 3.548541949055196154e-01 -2.048104368831346958e-02
-6.001400709271567102e-01 -3.504434171451503155e-01 3.672798714133862497e-01
-3.462820112217257496e-01 -4.360913730011063416e-01 -2.757766467317923076e-01
-5.611550611351905360e-01 -4.999708441145128690e-02 3.447767188739490618e-01
5.697394313093998575e-01 2.180210381251914686e-01 2.965827525368161521e-01
1.883091518311400259e-01 -2.929976578935569176e-01 -8.801172419661024149e-02
-9.751098130935363928e-01 -1.317209967050907982e-01 2.125953738492794912e-02
4.076059726506522929e-01 -3.351917234290691661e-01 3.165482619823437593e-01
-7.244114808157570140e-01 -2.776416325235618876e-01 -2.765981465842437537e-01
-4.853607800291065977e-01 3.340332405687481132e-01 -3.342999742092903070e-01
3.478512395372870825e-01 1.178820669381889924e-01 -1.761205192558619181e-01
-7.631089094245792348e-02 8.017421722941110440e-01 -3.378311297380527378e-01
3.085005824480045455e-01 -1.392153876922999078e-01 -5.987961199161705161e-02
-3.797109568507161526e-01 5.761227708082299337e-01 -3.547601711197919117e-01
5.850932894418655605e-01 -6.149862169307310777e-01 2.941382925367929113e-01
-2.303791296257332588e-01 -3.559683573855621508e-01 2.873159683054755109e-01
-3.458032908944625450e-01 8.236577465300854994e-01 2.060646973949647187e-01
5.913406853631350546e-02 5.447577056550599872e-01 -3.553249837747379791e-01
1.293574736032121753e-01 6.938542202941100356e-01 2.872298942427644608e-01
1.939297670842955457e-01 -2.772190671726941225e-01 -5.490926902124670245e-02
-7.289347991905467117e-01 -5.783540669569919856e-01 2.211163616967827261e-01
5.170489723052226205e-01 -7.893765978129266836e-01 2.020208885705681301e-01
-8.145843441794303752e-01 3.053851802368032220e-01 2.568847208181075370e-01
9.543785916444467166e-01 1.209244615515739363e-01 1.321403484507316650e-01
-1.373713502059888125e-01 3.118338404482964843e-01 -1.320213980932900821e-01
6.025076060983104442e-01 7.550299277210270610e-01 9.898636740774632847e-02
-7.051295976472538030e-02 -9.850266363479431853e-01 1.370775215772087469e-02
2.918584756888135123e-01 1.642120256359811126e-01 -6.652209327468647238e-02
-8.570323525501827300e-02 3.332607595343448081e-01 -1.437933822909083503e-01
-8.134345806927891775e-01 -2.702027268144812089e-01 -2.306455077197960279e-01
5.167491954922771580e-01 -1.395139945868409947e-01 -3.139961093798904201e-01
-4.562127483407596440e-01 -1.869939930405562223e-01 -2.608759700496524614e-01
-2.222159768116843959e-01 -2.539173346973244705e-01 -6.841898308683551366e-02
-6.533051767346730321e-01 -6.487319415575428794e-01 -1.535791027190736568e-01
2.371576689060897192e-01 -2.710052290819676690e-01 -1.197382307035412957e-01
-9.544018337165297572e-01 2.407720618467621698e-01 3.454205079741786560e-02
7.165336597225450133e-01 -4.058224828114224692e-01 -2.897853044770009046e-01
-4.131199267404833675e-01 -8.732700857876551925e-01 -6.828459910104993369e-02
3.148272701586916633e-01 7.823652903025073435e-01 2.356207119210438350e-01
1.300858870221874852e-01 3.183865856450809328e-01 5.144191507748584885e-02
1.343119032986078154e-01 -8.680691681307263208e-01 2.873224271495777860e-01
3.127951007066324118e-01 -2.552668934574400250e-01 2.200694467237906404e-01
-4.369516232611467821e-01 3.679573392878177085e-02 2.727980020722295396e-01
-2.420872729770455756e-01 -2.590463661756813307e-01 1.941327763714440213e-01
-8.985379052427152832e-03 8.944886164879296553e-01 -2.768494177095127129e-01
-4.243583254034314356e-01 5.257245877469031436e-02 2.615850312539428346e-01
3.307691653716626767e-01 -2.419569269189475458e-01 2.247195106926790920e-01
-7.613863660566967395e-01 -1.615688956086346884e-01 3.352208946891080954e-01
-1.908312277642084387e-01 -3.485251093984076953e-01 2.590666746044228419e-01
-9.579774359958986851e-01 -1.073054816314253368e-01 1.375630952918465155e-01
2.176672738666851903e-01 -4.509632264308284788e-01 -2.636131454691081899e-01
1.558156848071416689e-01 -3.018893909493312600e-01 1.173919352927893928e-01
3.532141304403879634e-01 -4.064072190909376325e-02 -1.315323486469081316e-01
-2.600826848756114251e-01 -3.090309907932947131e-01 -1.797006459475552209e-01
-1.185333274853690444e-01 -4.016464792066691825e-01 -1.914614302297335258e-01
2.028205859264952393e-01 -3.740340036016566172e-01 -2.084296420839990560e-01
9.792380556985200712e-01 -1.947334318966253419e-01 2.391298678158366303e-02
2.053089764734369049e-01 -4.364310312555262916e-01 -2.524329249375328321e-01
5.300152007293255085e-01 5.886629199024530079e-01 -3.506173445296579816e-01
3.922639480638724918e-01 1.694165037016579223e-01 1.983254275696945124e-01
5.459414861190399204e-01 -5.371910312468032300e-01 3.332103826220248477e-01
5.328037692007536741e-01 -7.823821039166213298e-01 1.968659661094371016e-01
-3.855595776088606708e-01 3.331281472243959318e-01 2.892110753234375942e-01
5.415218712965527148e-01 9.319514272314247116e-02 -3.373841607794971775e-01
8.239849057183082914e-01 2.389310131187874220e-01 -3.026671189066613143e-01
3.538345636772486924e-01 4.557176329734839437e-01 2.779031428558821348e-01
8.110141992604608108e-01 5.738688613730007493e-01 2.327491285241085547e-02
3.355493267048542116e-01 -3.181482441714905685e-01 -2.509414323482747067e-01
3.054973651188795936e-01 2.051501616086806312e-01 -1.866526982572186688e-01
-1.064442444268068055e-01 6.371994907619402682e-01 -3.694456480310612800e-01
-3.175157451446860568e-01 4.394057723137562155e-02 -2.206420548364076972e-02
-3.176735133674459255e-01 -9.385606470752698438e-02 1.248063759447600174e-01
5.942321954697346031e-01 -3.529391175548080017e-01 -3.277692378526908534e-01
-3.694184426120465936e-01 3.895135988458802712e-01 -3.277724467971405153e-01
-1.806905182958064848e-01 6.100611426392912318e-01 -3.656469995552711905e-01
5.590313063302905228e-01 5.681925373823738523e-01 2.639943418189401592e-01
8.049054910096342663e-02 -6.442229505767769204e-01 -2.947817575774300258e-01
7.360864316085494741e-01 3.856699012834857720e-01 2.545770710122625680e-01
-2.146319771068996296e-01 2.426635405979929716e-01 1.605672065629119849e-02
5.783445907821486154e-01 -6.119376990060680921e-01 2.987415985030158483e-01
-2.693968778022274857e-01 2.835034826866846824e-01 -2.190633411610831416e-01
-4.046805409058247816e-01 1.181392148164138595e-01 2.484977398988357233e-01
-9.775592048840462400e-01 8.797173784524180140e-02 6.125321145116621041e-02
-1.927746999238519054e-01 5.237990648308512576e-01 2.873952375850039598e-01
5.458783432205188690e-01 -4.095459662572668025e-01 -3.234707542091612154e-01
1.331591413520272493e-01 -3.790959499599821925e-01 -1.785181199413354292e-01
-6.140136702864265050e-01 -7.264412460843332475e-01 1.886367064002911487e-01
6.273832701720797322e-01 7.671483972243543503e-01 2.440034156164257520e-02
5.205629229257700136e-02 3.692256097552384930e-01 -2.090438719104441567e-01
6.046153423393303417e-01 3.520982212685866419e-01 2.950814257477502034e-01
-3.587203089227130604e-01 2.728019239321308187e-01 -2.731585015804043892e-01
-6.867083488849079487e-01 -5.293612909568984337e-01 -2.135617235407989700e-01
-5.382083068802783199e-01 6.152271794655782555e-01 -3.090670441479690389e-01
9.316243114736635911e-02 5.838564826492712578e-01 -3.683256885057891172e-01
2.945875655018566630e-01 8.603447709409064448e-01 1.795311558235502536e-01
-1.465801561736286285e-01 2.901860371727293941e-01 -5.379832316892303040e-02
-5.228980897936289507e-01 2.815324856598368508e-01 -3.305164797864305060e-01
-3.713126949191961623e-01 -7.271936461314494338e-01 3.348957060966724630e-01
-4.667621922542812274e-01 1.541194869334632789e-01 -2.866410184980874298e-01
-3.661858928336488295e-01 -6.332142965498773757e-01 3.683049584634526252e-01
-2.611561369276375055e-01 5.022658089697190631e-01 -3.475553470476457907e-01
2.362404047675980001e-01 -5.973692202894081982e-01 -3.016220384988729242e-01
-4.347256758110644159e-01 -2.347891845110176012e-01 -2.583384378931581349e-01
-2.924578530988290459e-01 -5.426528750770783782e-01 -2.863055370271689326e-01
-3.301494987159389605e-01 3.909113484265228644e-01 -3.191453458364641449e-01
-6.972460825599751111e-01 -1.870971645596055943e-01 3.547799002364594445e-01
-2.389574382881789194e-01 -2.173222193349791387e-01 9.962159757133277893e-02
-4.231322823955644408e-01 4.245225820803442129e-01 3.144599938214857615e-01
1.111661717106023489e-01 7.669839555778902307e-01 2.706830128053819284e-01
-3.843745634204511208e-01 -8.312548210202789223e-01 -1.595041773282836473e-01
2.377785860843315557e-01 -2.300389993104831332e-01 4.821535849993885230e-03
1.693982914829504083e-01 7.834034594634156079e-01 -3.457275518203181131e-01
8.985013084459177526e-03 4.285869353292854900e-01 1.989989093248938079e-01
4.414899481549126592e-01 -3.229990532579510853e-01 3.218647595066457812e-01
-9.383284796661690852e-02 8.981053394103476473e-01 1.896130613442397472e-01
4.285477085872126946e-01 9.080278771929331527e-02 2.154284518826435624e-01
4.432660151963510597e-01 8.709003581366201452e-01 -1.565606927218199662e-01
1.369666706863156003e-01 8.682278452746414743e-01 2.096345838027524056e-01
3.549724593409483986e-01 -1.597508882712069256e-01 1.861896124612780479e-01
8.280562230722900985e-01 -6.034858712813580967e-02 2.754612889347864968e-01
-9.451892223779578828e-01 -1.772379368276612577e-01 1.460179420831099473e-01
3.879874309662070808e-01 -1.045576916742910895e-01 -2.096211626565142316e-01
-4.379657641060730744e-01 6.101648455520332359e-02 -2.460639485370797186e-01
-2.275477522883193882e-01 9.636085549095960712e-01 -6.361458743783475738e-04
-2.169406775463113279e-01 2.384856295470574317e-01 -2.557594487869778443e-02
-3.368181258270589451e-01 4.722942731177702247e-01 3.036208566885858495e-01
-3.302089366298128215e-01 2.017830955884778732e-01 1.961721900937664076e-01
-5.336778151049920149e-02 -7.215200758494157984e-01 3.684227418331127435e-01
3.465063984340585046e-01 1.826687544209195935e-01 -2.238067661005035403e-01
2.274913729629345904e-01 2.425524479114567478e-01 -2.519752929191350355e-02
6.474008218122216940e-01 6.244542185393882061e-01 -2.787246358755383624e-01
-3.569666809024610865e-01 2.222782357942322262e-01 -2.432298088348539555e-01
7.141981531105102976e-02 -3.671857904170246489e-01 -1.372612024623906801e-01
5.090443216991138442e-01 -1.479000567056667492e-01 -3.109069617164205157e-01
9.032973675464683883e-01 -4.079712926911550075e-01 7.300232334763907815e-02
3.592226009210071624e-01 3.363420418563259906e-01 -3.259291309165300854e-01
-3.299809196513510123e-01 1.880897796777424025e-01 -1.933861831196316272e-01
8.155538900761737098e-02 9.904065366454554153e-01 -2.838897594848860742e-02
-3.183464115000719241e-01 2.778347983084293871e-01 2.281233080410182412e-01
-1.621566726152268989e-01 4.483951041759518530e-01 -3.109880889169150953e-01
1.304034128537306103e-01 6.345253221418073464e-01 2.896841703082123076e-01
-5.136516939476793997e-01 -8.253297822813617790e-01 1.371057400390906234e-01
-3.017115827980950196e-02 -3.212739140551778561e-01 5.917474049812351117e-02
-2.467852060424830518e-01 5.936769628620870431e-01 -3.627800009700144490e-01
2.736262007751976144e-01 -1.910913359291841473e-01 4.430927820906657016e-02
9.107013410278516075e-01 -1.107353133589903116e-01 -2.337888801884255019e-01
-4.259049848102485214e-01 -5.056115601535210446e-01 3.763372567933008783e-01
9.492545730811233762e-01 2.505403568275638704e-01 -1.384412762804435038e-01
-1.314264926149131922e-02 -3.304427335374507391e-01 -3.042989018333179183e-02
-1.182712773555261027e-01 5.043972933159979188e-01 2.677734466972289673e-01
1.567594678809689224e-01 9.371904382239027997e-01 -2.089366090988278579e-01
-1.788878173607507394e-01 5.481701079793140918e-01 2.913262840722248836e-01
6.379347430356717419e-02 6.223252789394402296e-01 -3.731573393848907072e-01
-3.731894064602492844e-01 -1.179790119821191863e-01 -1.791571162046906585e-01
8.428805882711306596e-01 5.052583865563984311e-01 6.796444201956206022e-02
7.412591753400186168e-01 -3.408950282528431797e-01 2.983718590495804679e-01
3.659581439998842445e-01 5.523189529087090682e-02 1.260651000728652271e-01
4.920074281435547758e-02 3.946137080249190743e-01 1.617689875237710295e-01
9.584093478104029895e-01 4.348442834224049841e-02 -1.810347355237537370e-01
2.046334566967849544e-01 2.626085624321458645e-01 -1.355879834492588684e-02
1.259534825032184724e-01 5.925951944270155813e-01 -3.716532334803063220e-01
-2.582656455051540179e-01 -2.160500193160446170e-01 -7.029691536653161210e-02
8.084846092802066009e-01 5.833294001875787282e-01 -7.821570339956558648e-02
2.558067934695366641e-01 -2.823368056270675885e-01 1.959715052719546158e-01
-9.156371252212780476e-02 9.004069977790581936e-01 1.873460143095967423e-01
4.578222347089851985e-01 5.351891690098592447e-01 -3.737725679602796891e-01
8.656494901608657866e-01 -3.264509532505036615e-01 2.072513245717514940e-01
4.702441941586329305e-02 -7.325788713843607303e-01 -2.844594763434748486e-01
-2.147479565136397039e-01 -4.297898474538643376e-01 3.300664672004035571e-01
-7.057897397168176878e-01 -6.842974828665918663e-01 1.469044566951067769e-02
-5.443951947395884172e-01 -8.202880503673899426e-01 2.500783842927151862e-02
8.566956946672376061e-01 8.530655115752280859e-02 2.489620653042426135e-01
4.277938290617638306e-01 9.969187300630283355e-02 -2.707047835714335160e-01
7.482465832366849701e-02 -4.824951168490254627e-01 3.248828935344598157e-01
-5.399650484498301761e-01 3.832370099331415814e-01 -3.411729402250525678e-01
3.916449042688665005e-01 3.325646445174443300e-01 -3.371192556340473767e-01
5.466146826948650173e-01 1.134685812250298825e-01 -3.418118117060361394e-01
-5.395985844443511315e-02 5.738070135365669344e-01 -3.608007297411131020e-01
-3.649904595259950146e-01 -6.632629984946715185e-01 3.610681237531002674e-01
7.747686912046369834e-01 -3.502199774519603737e-01 -2.781150932478722027e-01
-2.890816172710770071e-01 7.466295935874383005e-01 2.707809674911354492e-01
4.827437952795477494e-01 7.068312277714509095e-01 -3.164393683693864090e-01
-4.731365748664048687e-01 3.183140490418901458e-01 -3.295191484684176775e-01
-3.155814947682777372e-01 -9.110126805110721482e-02 -5.521839127843290035e-02
3.586240203191671805e-01 1.400538207935719537e-01 1.452260079301707918e-01
9.029260044386236972e-01 3.991547792208149925e-01 -1.251602300083634600e-01
5.473931853512280510e-01 6.355747472271995324e-01 2.412962467381799259e-01
1.217595391012893380e-01 -3.258730205392760260e-01 1.499084223901360480e-01
4.305306461079027591e-01 7.426260931127522946e-01 2.260554525374698642e-01
-1.986934677951978367e-01 -6.291938605212424873e-01 3.776912918108177863e-01
-5.414361827140620753e-02 4.216118709586873514e-01 1.998126265833251314e-01
-7.706652955665898030e-01 5.976445250888654526e-01 -9.891638945817100848e-02
-9.439536692293138964e-01 -5.286473122629645888e-02 -1.346858418725839779e-01
7.001386623842481560e-01 7.064074937811448684e-01 8.818604949117918659e-03
1.259167946272947425e-01 -6.924646520676733807e-01 3.672174903741628471e-01
-7.182567141010879341e-01 -4.911877045414926868e-01 -2.120502041171990204e-01
-5.079420341947545048e-02 8.774366380472595761e-01 2.121591049130923945e-01
1.403974469138092318e-01 5.194689152928501086e-01 -3.529147290497875455e-01
8.304232002300108995e-02 5.129641598190022300e-01 2.588474936411622185e-01
-4.737891365518545617e-01 1.942622894188349505e-02 -2.651365819841456362e-01
-2.376566702562279976e-01 -7.771674213562882461e-01 3.373423384431342709e-01
7.215416184819488377e-02 -8.758095410368119671e-01 -2.094135357440105871e-01
5.094984395383556075e-01 7.419009534495940583e-01 1.914986547304412257e-01
-9.169284104065876795e-01 1.860196935754779013e-01 1.858103544918876804e-01
2.634417370772295097e-01 2.035346533723312867e-01 -4.010288987406600281e-02
-3.443127088457396678e-01 7.365833316549090792e-01 2.666073980956872314e-01
4.659837511932373166e-01 -5.786571451808709687e-01 3.442193958037538248e-01
-3.814450889438832926e-01 -1.945069132077441873e-03 2.156236780895117999e-01
8.318159443918516915e-01 -3.737491502183292180e-01 -2.253523434607147546e-01
-7.996773095301339396e-01 -3.918439026985791052e-01 -1.961832737834152129e-01
8.555842209234645335e-01 -4.144602047497270569e-01 1.743745705067953067e-01
-9.003765065983895810e-02 9.325532959575830727e-01 -2.228991486168942771e-01
9.361016965574093796e-01 -3.235405901750748048e-01 -8.221092093880352780e-02
9.122151123278644524e-01 4.051466534660663199e-01 2.152237318667094869e-03
-3.438503912135830176e-01 7.219395684694283055e-01 -3.294256272751107106e-01
2.400218032089931897e-01 -2.595529738281994181e-01 -1.047702407339980435e-01
7.931097633936238234e-01 1.223065366896371325e-01 -3.295143404338661819e-01
3.757444386958120330e-01 2.893931027683406890e-02 1.416443430485992416e-01
4.257302011642545292e-01 -2.155243842725171333e-02 -2.469842334079558888e-01
-4.503660499036515330e-01 7.645177476113905746e-01 2.158712422249971230e-01
3.738348791551153183e-01 7.927298468554652700e-02 -1.992045122948195579e-01
-3.409063924017417535e-01 1.352000773149613644e-01 1.748038872969553403e-01
-2.931103181543264768e-01 -1.236360347236278717e-01 5.471396326648152869e-02
-4.294236322549278562e-01 1.319300734669968667e-01 2.716374027560972126e-01
2.752904325538445551e-01 7.973453768302668498e-01 -3.239258560208823634e-01
-6.188986836458266749e-01 4.638580019610168137e-02 -3.161371830535377181e-01
3.739305572457838345e-01 2.076396622441866180e-01 1.962146283244078637e-01
-4.917663864871739121e-01 8.493001394100672119e-01 -9.987074719405772405e-02
-2.165569473643599030e-01 6.902920456351890888e-01 -3.594519683430904555e-01
2.454566490368038645e-01 8.691724494672097290e-01 -2.739043108132032112e-01
-6.941109203999266120e-01 4.048089325052097176e-01 2.944432892332217166e-01
4.428183311104851305e-01 8.159285172772527961e-01 -2.467265151180060567e-01
-3.103443024912427850e-01 7.427721176287088722e-02 1.864402608104437494e-03
-6.966948648775774799e-01 -4.814357736938956744e-01 3.080759426584041005e-01
-4.862163061425180399e-01 5.197426182236820624e-01 -3.449716972052935815e-01
-3.039505192979986004e-01 -5.056076880583122435e-01 -2.825876893300004467e-01
4.520287443830633967e-01 8.874901471130330899e-01 -6.548863035776970876e-02
9.812887050890127805e-01 6.372526330017724838e-02 8.460126806230063023e-02
2.559359109873384774e-01 -2.186010764909007698e-01 7.329693146275141624e-02
2.943803735204462146e-01 1.889930216238368266e-01 -1.415937139570237202e-01
3.790866842464754027e-01 2.151727129535157823e-01 -2.769465951793695369e-01
2.931176310338539648e-01 2.533479978716557945e-01 -2.239275422923719949e-01
-7.015484451777734831e-01 3.703518198358377034e-01 3.011711134204564932e-01
8.513923279490195339e-01 4.725477581885258460e-01 -1.651725496021397288e-01
2.130453437703406713e-02 -8.983051849308680836e-01 -1.884401537483799682e-01
3.690164860607992314e-01 -7.344737418352832448e-01 -2.635125719432585001e-01
7.548832043717368379e-01 -1.262611327720360166e-01 -3.304308140723431486e-01
4.135845736807853834e-01 5.234779717424759005e-01 -3.765127118565346764e-01
-4.462604936153172774e-01 -5.248638083081226258e-01 -2.877668444700718919e-01
-8.788871173817283111e-01 -4.309910873480339855e-01 9.119464643133165516e-02
6.730045873561898429e-01 2.952505982719096922e-01 -3.598331630107974854e-01
-4.818734049746336012e-01 -2.094626654170238522e-01 3.427754360612439433e-01
-5.023970744875230210e-01 6.574943376652503391e-01 -3.061336736646214085e-01
-5.239699050795940671e-01 -9.569614657318625817e-02 3.381991953588376898e-01
-9.461214262178507806e-01 2.653784205703438315e-01 -3.536389141966533867e-02
4.104446082668896101e-01 -1.004916103954347217e-01 2.190786382497802720e-01
2.502594838654542131e-01 -2.444605472238873534e-01 1.279227890518702115e-01
-2.935201724540237866e-01 1.317665817334684186e-01 3.660259694012799048e-02
2.163205092406201291e-01 4.477714194444388784e-01 2.442356333963199844e-01
3.215277679310535874e-01 4.901338917740046819e-01 -3.679500184290182552e-01
4.670433981250601829e-01 1.510287763401778893e-01 2.527419349756789280e-01
-3.818685835658737482e-02 3.243086640397833675e-01 -4.770315208835158860e-02
-5.017854558492399475e-01 6.374621397501659681e-01 -3.146613896953394662e-01
9.877340946370735120e-01 -1.412105854716864395e-01 -5.363318282670433146e-02
-3.183113456613287928e-01 -7.964318109416552716e-01 -2.180491715544752018e-01
-5.447930949655018784e-01 2.684591769970644526e-01 3.303868460475710145e-01
4.373468695949005447e-01 -2.491653008821588799e-01 -2.873916081534271805e-01
9.965923157752933914e-01 -2.660436078760564441e-03 3.260991799754625609e-02
2.320855864088468556e-01 2.684595525367610147e-01 -1.646539409456611869e-01
4.287104040088279833e-01 -2.971756980948264126e-01 3.098707600062720613e-01
-7.867521108206780855e-01 -4.872422559210946580e-01 -1.507810076619271744e-01
5.490517115796749170e-01 -2.303290655189007274e-01 -3.274560779930384968e-01
5.844582906457237437e-01 7.339438260925700286e-01 1.469089121290950151e-01
7.441566605187489580e-01 4.919120426049440331e-01 2.071299236354046669e-01
-4.223464935741910176e-01 -3.812771795572183486e-01 -2.816827264476545745e-01
-2.947876193336207984e-01 3.326887087633104145e-01 2.415600062841001539e-01
8.496873147909757007e-01 4.838522221960360192e-01 8.259400624260992974e-02
-1.558065677402804272e-01 9.613731433958669914e-01 7.273400115218893458e-02
3.979136007649555218e-01 1.508396676913733025e-01 -2.617173686939536226e-01
-4.966427429773678237e-01 7.059872492738501759e-02 3.116940132106644779e-01
-3.038952054743825903e-01 1.196041383585454004e-01 -6.418875765462912775e-02
-2.668643610224521456e-01 -5.317905486789137326e-01 -2.831622269158163285e-01
9.363504908182170849e-01 -3.490389737183315910e-01 1.056283641904564273e-02
6.509792900594828235e-02 4.187026109394006435e-01 1.909607632534802979e-01
3.473981000414465004e-01 -3.389327792965186603e-01 -2.663972924078920612e-01
6.486997234000487778e-01 -2.147258722225992844e-01 3.287377979928448601e-01
1.764129647788293953e-01 -5.000176052502167678e-01 -2.746950410297263057e-01
5.272080825806096938e-01 -6.667913078809920568e-01 2.965052574554661868e-01
-7.629358288096959040e-01 -2.621979264132390242e-01 -2.632587941181059321e-01
5.278799518202876850e-01 -3.703403400550271396e-01 3.417466678023274862e-01
8.927449989515468323e-03 -4.135693727256909424e-01 -1.874560695931031251e-01
-7.964964678859400848e-01 3.642113882401071256e-01 -2.472920609774390266e-01
-5.149289029854293709e-01 -3.078119265238890914e-02 -2.834441445618864353e-01
-2.999579349891252078e-01 7.865980256251872138e-01 -3.085558148197984907e-01
2.431357993096228132e-01 -2.254036227051229024e-01 3.676707336513085345e-02
4.452596289643290794e-01 2.657635864794742342e-01 -3.356246148263254403e-01
-4.297689708824261046e-01 1.596203126133088623e-01 2.757699879696990930e-01
-5.686861363380173451e-01 4.786810839481186464e-01 -3.327304160842091130e-01
3.775274248295162338e-01 5.185225757990376966e-02 -1.946285637955265935e-01
4.552464178763946934e-01 5.134085932007181885e-01 2.897533803503594130e-01
2.619970850207587257e-02 8.219542839613830365e-01 -3.319830077148321901e-01
3.497862423815135957e-02 -8.055398848697916669e-01 -2.576097303870311661e-01
1.095020438818997549e-01 -7.206959196679405544e-01 3.633566754968719503e-01
-3.143718464255179090e-01 9.252727159544697766e-02 8.241865999328455705e-02
-3.958135582574855982e-01 1.596632500840007574e-01 2.486339857219857508e-01
-5.336842169820447124e-01 3.099896372516092735e-01 -3.353054437825729317e-01
-3.532674106256372126e-01 -4.774199722955723701e-01 3.720605297974857173e-01
-3.450523380142719865e-02 -9.551119859951124891e-01 -1.037272113446100208e-01
2.614837646396324655e-01 -9.129141655381860510e-01 -1.285935881003912873e-01
4.567818224053794007e-01 -5.412414811214680821e-01 3.500690171246911842e-01
-1.498795011459990445e-01 -9.385249376576186853e-01 -1.104007594177418144e-01
8.682465318496832563e-01 -4.795823807408405165e-02 2.488128110722011843e-01
5.635473147797601667e-01 7.459195573551476166e-02 2.948654327365379801e-01
3.467964553583617882e-01 5.760669849526122155e-01 -3.772970702980192881e-01
2.461336776603677834e-01 5.032023444219037023e-01 2.721967508792073609e-01
-8.919028690117060398e-02 -5.623450518043282553e-01 -2.786039078572754568e-01
-6.214928602051887907e-01 -7.428464970139114776e-01 1.454224817709651452e-01
9.887223605082565703e-01 -1.511083854717951147e-01 -1.948989387255502248e-02
-1.942831799216511446e-01 9.650423948527598883e-01 3.555504623474536885e-02
-1.341182396923024447e-02 -9.396530414756821825e-01 -1.336177436515341710e-01
5.221699261408693227e-01 6.023215556384285685e-02 2.788865861424977832e-01
6.291075068463596043e-02 -6.244783136835988513e-01 3.709684986910094517e-01
-7.780863002018580110e-02 8.454347663575021432e-01 -3.124215074740119835e-01
-1.417957155235052280e-01 9.752338328021384894e-01 3.081555988727114476e-02
-5.162315635815392656e-02 -6.808331203991718761e-01 -2.898114168478562735e-01
5.113936137383260361e-01 6.684330516985615978e-01 2.387126146008027860e-01
2.984084897551518845e-01 4.913732633556135432e-01 -3.652551151510980976e-01
1.210194892002388611e-01 6.730133930990034319e-01 -3.753076476356224100e-01
4.535689959448885311e-01 4.638533394507530216e-01 2.906936132373655890e-01
9.589710651738649894e-01 1.897336469082323007e-01 9.544688897949471507e-02
-7.646791839709278227e-01 4.342745809822266545e-01 2.421798127254281563e-01
-9.252178402523997258e-01 3.323258129159762930e-01 -3.758809186912874523e-02
-6.354853221085034198e-02 9.904906013227051664e-01 -5.676671489288856454e-02
1.558169937215848344e-01 8.799593787414713431e-01 1.960724220615028823e-01
8.908928369256703395e-01 -4.511850107470722349e-01 -1.388412149617372290e-02
-2.866674798755965495e-02 8.373745216569424832e-01 2.423600105916590419e-01
-1.639797096170692026e-01 -2.872686665135663064e-01 -4.235406214626089016e-02
7.647423398999044775e-01 -6.255794444777468266e-01 9.092257760114033638e-02
