3.093611889725832453e-01 -6.666647383704789043e-01 5.777604896323443873e-01
2.874364982955656123e-01 1.643118171696133778e-01 8.274300332099527866e-01
6.955896954737392779e-01 -6.812566349673105925e-01 -4.216624547817427598e-02
-6.713911825312764980e-01 4.100693650432819526e-01 6.441603785493285050e-01
-3.480074594445093927e-01 7.764113910552330466e-01 -2.992537764215283946e-01
3.614648188488524538e-01 -5.495325504776013004e-01 -6.550858884865958798e-01
-6.736379242766430409e-01 7.276106207347527999e-01 -1.378562258690888831e-01
-8.242069238716139834e-01 5.864310758250703692e-01 -1.676798881437018829e-01
-5.838587651259762312e-01 6.992484277163931727e-01 3.336150817743744335e-01
1.250491392668950930e-01 1.701117410781466111e-01 -5.879281982344179702e-02
-6.397111981692038540e-02 1.684205305267665320e-01 9.622506826248615752e-01
1.019183573566355763e-02 -2.925392013922270898e-02 -4.266739639119138117e-03
-3.527971136826015680e-02 1.285993990073991747e-02 -4.105166306774176571e-02
-4.480958811942025721e-01 6.765820606355726907e-01 -5.710998942504081910e-01
-7.064842810007634366e-01 3.103672370234265010e-01 6.598929396680995874e-01
-2.824694898744226634e-01 4.358898808597991836e-01 8.046018607635920805e-01
-1.994961400914580241e-01 5.279701875897200303e-01 6.898248198293961408e-01
-1.257568142500016702e-02 -5.656198122033488929e-01 6.869750061301783672e-01
-1.586138157440759588e-01 -3.936954886419133381e-01 -5.634718358811519057e-01
7.063713308594552487e-01 3.953437345202740621e-02 -5.961991897789524764e-01
7.421256567278752270e-01 -1.058784181614378095e-01 4.877371080910478107e-01
4.323420779184403151e-02 4.862407208111919066e-01 5.008713709873460207e-01
-6.242372200089100209e-01 -5.156248141467887486e-02 -5.481966908163241614e-01
5.967710135631262153e-02 3.917246449982805245e-01 2.000585757917301699e-01
-7.178659361858917842e-01 -1.079239027356513336e-01 4.764190063748751092e-01
5.986798812727694985e-01 -9.371615725316874423e-02 -7.855166094302368229e-01
-3.223573427106084938e-02 4.886059439572141422e-02 -1.433525420254194889e-02
-8.716346523429195636e-02 -6.860200586711115434e-02 2.943891965477693495e-02
5.266777165174196113e-02 4.397161541954541786e-01 -7.910446181225101736e-02
2.536137056171073878e-01 -6.283541032306915186e-01 6.515401407058097893e-01
-7.115025426280682797e-02 5.857633701012697758e-01 3.095612929811670244e-01
2.882386035493922916e-01 2.453593458719254550e-01 -1.039079594337432438e-01
3.684262621376414026e-01 -7.558658168938808819e-01 2.872321726725036717e-01
-6.349014239297710027e-01 -1.494991937769676593e-01 6.118248517727112867e-01
3.322294549367510452e-02 1.663104101686411762e-01 5.980016462438617758e-02
-7.874790857786421183e-01 -4.655967346239239801e-02 5.887959229884266038e-03
2.779268727133344941e-01 -7.229189792661711023e-01 -1.729270977610157523e-01
1.736785252939032909e-01 -6.565235920156841098e-01 5.892733731011194909e-01
-6.315260977753158443e-03 4.966318370674455140e-01 1.468641071837130663e-01
8.115402542429563937e-01 -2.239202025330118140e-01 -4.957615786384761414e-01
9.338722426418098743e-02 1.068658574193474681e-01 6.509885719553031025e-02
-4.693932740296693495e-01 4.035732709705013299e-01 7.844714812478403854e-01
-5.940682953149625245e-01 -1.454262255653890057e-01 -1.543092810039835006e-01
-2.908875758755907759e-01 -3.024400197257594569e-01 1.757305884780205052e-01
1.823338984613808167e-01 4.688586938897844059e-01 -2.780729797096956335e-01
2.871362143317213698e-03 -5.537780766650698405e-01 7.169674271864120429e-01
-6.285168849779783073e-01 -1.271393355959818221e-02 7.372851910428067645e-01
3.284631237012895499e-01 -4.450038113506509796e-01 8.239412899672534651e-01
5.459396923016082877e-03 -2.921412011780377682e-02 9.933822136413236747e-03
-6.537409080841281861e-02 -9.464276422140917300e-02 -7.498829867938451577e-02
-7.460683748175654315e-03 -6.133675029417055002e-01 2.448537045513468069e-01
2.786133649037493276e-01 -6.229959849113210213e-01 -5.206620151143978026e-01
5.788660645300859331e-01 -7.299750255457569947e-01 2.013482472296428127e-01
5.555728412407434647e-01 2.082803533823764791e-02 -8.054338940847221018e-01
1.906615399342214967e-01 1.895796294483827749e-01 -5.998455337516536701e-02
-5.786057777027896476e-01 4.244186833812579884e-01 -7.270024378580800528e-01
2.586973373963792899e-01 3.282547369528423520e-01 5.912309310472698698e-01
4.184174314264804684e-01 2.270148806654447848e-01 -6.758513806800008072e-02
-3.994696689024129777e-02 6.334726016668675852e-01 -1.695703228560930531e-01
3.931759393569599914e-01 1.983474869528309703e-01 9.565152553925630741e-02
-1.127203025062306907e-01 5.682328563833102253e-01 5.498224162225644474e-01
1.324787737271165278e-01 2.868173923462004615e-01 -1.025792349065413334e-01
-4.521815635777601816e-01 2.713249391690754631e-01 8.609064217051641821e-01
4.883609197924703715e-01 -7.529010200220820348e-01 2.287089640665426749e-01
1.205357142424705319e-01 5.740985814428823941e-01 -4.223661150408379306e-01
1.187627512577087152e-01 -6.149805757764074121e-01 6.578027984948217055e-01
-3.520706260984362342e-03 -3.171966296763840121e-01 -8.580112985023622407e-01
-6.187903352573643767e-01 -1.458453556652421212e-01 -6.018964906283314625e-02
-3.967450918750623501e-01 -1.789769672059881855e-01 -2.897039063025778904e-02
5.272697332074447601e-02 2.227744838766883839e-01 -3.501495429538904747e-02
-2.648502365053630458e-01 7.351886702577095090e-01 1.478718201637952423e-01
5.133239041788022483e-01 3.009299792308320343e-01 -3.641188214021219283e-01
3.658540870260829081e-01 1.976522437821032485e-01 1.043687388174219383e-01
2.979687142872265992e-01 3.726780491595459988e-01 -7.860283143469454226e-01
1.072383507972706068e-01 4.925209615168752997e-01 -2.119435455924986722e-01
-8.553945565636120185e-02 -2.656418654477089858e-02 9.992992656198508294e-01
-2.401534891833555924e-02 -9.680578453579820331e-02 -2.439510970875943124e-02
5.531608983527786655e-02 1.177048759642819187e-01 6.973346179895802133e-02
9.310467258041502450e-03 5.349874081489469635e-02 -4.066186521952170480e-02
-6.043792488348529446e-01 -1.340211941578110244e-01 -2.632218859719105963e-01
-1.082456270238417728e-01 7.053205549939157715e-01 -3.526314596565464088e-01
1.797542510493513046e-01 3.647760338419958615e-01 3.754932444963436922e-01
-7.375754646534098402e-01 -4.719523269580714470e-02 -2.391580878098383822e-01
1.073961753778677856e-02 -3.460599046000022438e-01 9.218879651311385759e-01
1.207895873939448736e-02 -1.560793442641799332e-02 -2.715724311028835242e-02
-8.499296335807007274e-01 8.854633518050428198e-02 -2.114108886050451441e-01
-5.092157890820633304e-01 -1.949055672920095572e-01 5.038587893716518773e-02
9.964247681729694606e-02 3.614920393657255482e-01 2.391196808380318117e-01
-6.086054456000836721e-01 -9.678327838501940561e-02 -4.777037866004217870e-01
9.020912482632592599e-01 -3.622353441905324933e-01 -7.458422696093031101e-02
9.019854269897898957e-01 -3.125974573746429508e-01 8.186114566110508362e-02
-1.424981747864405013e-01 -1.546050946650421865e-01 5.182391114838542229e-02
-1.065182839244462228e-02 7.713028979970348864e-02 2.585189252998319059e-02
-2.312257737012090100e-02 -5.765490290358245007e-01 1.773491240236085842e-01
-1.553632764350330320e-01 -2.927836580927039578e-01 -2.414651883903770613e-01
-1.491899179340565838e-02 -4.085822566528670707e-01 -7.448455210554807415e-01
6.582584465977666666e-01 1.782703333456717165e-01 -4.799141571005063889e-01
1.970643210269073242e-01 -3.758578031450683365e-01 -8.471112805703386872e-01
-8.085079242426065904e-02 6.759166745567832812e-01 -2.044138971029504370e-01
-3.786643985573757143e-01 -3.787901331327559462e-01 3.696134065738984620e-01
6.846143555513617418e-01 -6.534349391065620294e-01 2.677245797293993923e-01
2.677690261100614810e-01 2.152953483319691441e-01 -6.736379522263929998e-02
-4.973523278006440895e-01 -1.730002959185838185e-01 -8.237644210055532212e-02
-3.700549511548161807e-01 -2.891411412680690018e-01 1.943290238908854384e-01
-1.714808312271665081e-01 -4.454293903355570627e-01 2.273867696205164046e-01
7.103169668482185450e-01 1.442180790746170060e-01 -2.861765013350264231e-01
-3.458936156472848522e-02 2.229167081894214628e-02 -3.636178697114456765e-02
-7.388911389566527044e-02 5.928559367134735858e-01 1.936076694668985854e-01
1.149379916829690734e-01 4.039528823737155716e-01 6.576045721914252074e-01
-6.661647561410372065e-01 4.600867309967600002e-03 -5.549174598180453000e-01
2.585946667550220734e-01 -7.496557639561722830e-01 1.868628467972709428e-01
6.687761178604068046e-01 -6.729696566827020332e-01 -1.977338278400403715e-01
-4.004737620552960287e-02 -4.086541510808269217e-01 -6.233453466053111985e-02
-5.827156458210593776e-02 -2.158499139592919280e-01 -6.357878500857351567e-02
2.570524218920169357e-01 2.889774469372095589e-01 7.048243355508146957e-01
8.392520695052464730e-02 6.735774839860347862e-02 -7.996707205126664386e-03
-6.039557043970215922e-02 5.828896496037948571e-01 1.044325622173356699e-01
4.074197338344319186e-01 2.015324169243868369e-01 1.446014452116233528e-01
1.753193363346812472e-01 1.336930499709048092e-01 2.167024064600395553e-02
-4.685964345044895119e-01 -1.745821466593610594e-01 -1.324894777006311031e-01
1.637880576298017254e-01 5.488466687363159346e-01 -5.659045822343653498e-01
2.553688247444556580e-01 2.500092731106997035e-01 7.668176299917505157e-01
1.991525925821301668e-01 -6.832501151618486368e-01 5.299446179557636416e-01
-6.590125746617023217e-02 -3.607794468777298369e-01 -1.576407106254873736e-01
-3.052473822588496755e-01 -1.712565647069929087e-01 -1.362645064796863537e-01
-8.038663375657919552e-01 -4.216179845652468644e-02 1.280845377012915787e-01
4.651879358780869889e-01 1.968099053939674492e-01 6.969732106257750526e-02
-6.674378018000645674e-02 -3.230593580609267823e-01 -1.242197957657156515e-01
-5.000643835720852692e-01 -9.976469572058888069e-02 8.246543248982516339e-01
7.650073709572443592e-01 3.367134575914192823e-02 1.728934196931596889e-01
-2.392297314521747154e-01 -2.531811370201711431e-01 1.163952336574271690e-01
-4.499434207896841342e-01 7.927034399941027543e-01 -6.251446751605450880e-02
7.069400854921501498e-01 -1.403368795061346597e-02 4.631118521960350676e-01
-9.584277049569804585e-02 -6.722638959719758056e-02 2.607233516402228043e-02
1.525190530197370886e-01 1.887761477626922757e-01 -6.612278769762376662e-02
-1.565984051682259570e-01 -3.357027151459806569e-01 -2.971544827575171577e-01
-1.667700487867590509e-02 -7.997969944539427833e-02 -2.072590056006366407e-02
4.310000088958721928e-03 3.159949316431123062e-02 3.941251354643669769e-02
3.266191831886900571e-02 5.733993179254449624e-01 -2.048638411090170641e-01
-3.368575698719554201e-01 -2.283625686152301049e-01 1.014610254309415982e-01
7.222120385770247619e-01 -5.806423597878224152e-01 3.540319668202458470e-01
-5.384097774152831750e-01 -1.771759764576627261e-01 -4.982570435334743482e-03
4.750640376195115477e-01 3.185324095596419464e-02 7.615275442382237747e-01
1.017817973172037427e-01 -5.797124921968513922e-01 -4.624226219769178026e-01
4.348142056541351441e-01 1.977363701928283590e-01 6.051100678035117308e-01
2.761438643014044736e-01 2.748669189024280368e-01 -1.365789032560069394e-01
-5.492552980975796972e-02 5.258314056263038161e-01 5.890651455882773835e-01
-5.202776826016619616e-01 -4.883722629676752469e-02 -7.137010177475466843e-01
-5.338130933392357808e-02 -1.974155146188709964e-01 -1.975439889983976113e-02
-7.431686388212862537e-01 2.081367378960928549e-01 6.385520657865937366e-01
1.912899994002307813e-01 3.111073181855269487e-01 -1.422317694917726860e-01
7.684414141357127637e-01 -4.391917190104329127e-01 4.348418311568176264e-01
2.128253358809119311e-01 -4.441994630954480550e-01 8.539147898624493971e-01
-4.046683736379741991e-01 -2.159068622418127692e-01 -3.212650250210711822e-01
6.133328610568348216e-01 -6.919566721844199186e-01 -2.353764783669820004e-01
-1.679069102727128449e-01 -4.897200216460653177e-01 7.043172281332134022e-01
8.729056309141499659e-01 -4.157204623777610575e-01 -2.071407822650286334e-01
6.959340304127993315e-01 1.551650907728483464e-01 -3.750927252665166578e-01
-1.779921174430368069e-01 -1.020604011335237288e-01 -1.127324860228141358e-02
4.976063299787941013e-02 -5.913349623224194440e-01 -2.440289327421928806e-02
2.024098826497131021e-01 2.925441286961886211e-01 2.684991380755180623e-01
-9.033017261655831298e-01 4.664164184738482377e-01 1.546600796793425742e-02
-8.465310560997682532e-02 -1.956335372093031821e-01 3.556829756214623106e-02
1.569432203485057464e-01 -7.086097933512800484e-01 1.454381992314347782e-01
1.962608842937318965e-01 3.138687619371423043e-01 2.955914979111332608e-01
2.529938984109927347e-01 -7.272253329711325653e-01 3.978335420091423935e-01
9.042069226879919652e-01 -2.871467788856665870e-01 6.959272342528551036e-02
-1.074435245377586834e-01 -2.679630122236858480e-01 6.040963172672660086e-02
-7.485668276904483553e-01 5.999442684301137252e-01 3.306464042723861740e-01
2.289935694405937083e-01 4.772007848231272220e-01 -6.875240363719213876e-01
-4.561301812459604421e-01 2.433002190304521528e-01 8.688173608623293021e-01
4.161305523324164701e-01 3.357384005321293885e-01 -2.994235664381711404e-01
-1.030545344398092200e-01 -2.031726150146426491e-01 4.950857114342058912e-02
6.952161567201581294e-01 1.561597195525641080e-01 -2.448261671503113024e-01
3.553721572766020409e-01 -6.080580218550936111e-01 6.602891341415331183e-01
4.432263023365838883e-01 2.417810762880153730e-01 -7.847895674797619181e-01
-4.188512808299048491e-03 3.028330170737461146e-03 3.353247603390245579e-02
-5.742310109761987746e-01 1.354222916631357132e-01 -7.626025169293516592e-01
6.617612335481213269e-03 1.298426794770307369e-01 2.022363661092049791e-02
-9.109019904869971596e-01 2.310606421396214083e-01 -1.465686714187026674e-01
2.521352687228898062e-02 -6.341889357825838264e-03 -3.728564654406810609e-03
3.325529611783448192e-01 -7.594884902864476039e-01 -4.417116584854961781e-03
-9.871914820438046356e-03 -6.590956000971499862e-02 -1.038684146517974798e-02
-9.127135340946571085e-02 -4.143952237273591521e-01 -3.118449091845857946e-01
5.981117605644854507e-01 -4.948932728039466822e-01 6.204534379180026704e-01
-3.785769711804503057e-01 -1.929703683604537812e-01 3.119455385082665899e-02
3.241547943912706509e-01 1.160845984256803493e-01 -9.366036354221155547e-01
5.311046749315361318e-03 5.080942555915040071e-01 -3.018396782206255596e-02
-5.313151956422024202e-02 -1.873322943899875803e-01 -1.132677524960608653e-02
2.960293279978081782e-01 2.638489624236662889e-01 -1.268801527648637517e-01
-3.523986839700556373e-01 4.841342497641590858e-01 7.524468083377536809e-01
5.014366517466989359e-01 1.909294564598123800e-01 2.550195209972271337e-01
1.666553402719607446e-01 -5.537525346864318188e-01 -6.108770315037620469e-01
4.423844814339302212e-01 2.452021995336139126e-01 -1.211105722686073999e-01
9.024903316585909385e-01 -3.520851194992748456e-01 -1.008441768666822752e-01
3.248202215100903789e-01 2.252628983857563882e-01 2.162758337710084522e-01
1.314642066730734027e-01 -6.990194645176225352e-01 1.901366165927554919e-01
1.593376097515140366e-01 2.872102295660296511e-01 2.262174902806403654e-01
4.959766989925126768e-02 4.027217498996333300e-01 1.891148007230829819e-01
1.829281848992739962e-02 -5.300543988149847285e-01 -1.932487663477850670e-01
1.492872551583200591e-01 3.085463449600329700e-01 -1.206976022209186317e-01
5.040701881406445262e-01 -2.223107213047651465e-01 -8.406605238460858054e-01
5.556655665116074783e-01 -4.495390470782895664e-01 6.910795657800793412e-01
4.172506816338233393e-01 -8.188901235111330223e-02 8.565110114466834013e-01
1.200468528987472944e-01 5.369578573033148006e-01 -3.010486731388525294e-01
1.572251948857975867e-01 1.552737373211294236e-01 9.634760983688921143e-02
7.792439024970053696e-01 4.132937172921107016e-02 -3.902339473626778021e-01
3.044646857816588614e-01 2.990731199020323361e-01 4.236237313580301644e-01
-6.447259036036242508e-01 -1.221105204258331051e-01 -1.688307378536522407e-01
-4.708728428486347317e-01 7.914528652217545091e-01 -5.058799509741909034e-02
2.970295005321352266e-01 2.917713482364981958e-01 6.305813123269410347e-01
-3.739623503698231988e-02 -5.347282227479774885e-01 1.265291851975552662e-01
-6.129985241756041175e-02 9.237566173345162016e-03 -4.033937452670863927e-03
9.046757884843634745e-01 -3.479387631748498966e-01 -1.656492268830787352e-03
-7.366264394928430104e-01 6.905090965182079932e-02 -4.977827689682504664e-01
7.440985088496607225e-02 1.910390551044892360e-01 1.023814116677537051e-01
-9.105348699463214901e-01 4.447646037715981548e-01 2.149096294179053332e-02
7.633803588033760690e-01 7.604249045500603710e-02 -3.554952383450417641e-01
5.422158806537266118e-01 1.746177419580897672e-01 2.744538356897011644e-01
1.635106395831366077e-01 2.254170994255131344e-01 -8.608914349372509545e-02
-1.119894139879391570e-01 -5.286037267809559070e-01 2.647761131601882312e-01
9.335515769165796118e-02 2.953846166387926742e-01 -7.854250409828335278e-02
-9.128140039427331542e-01 4.281829006618673716e-01 -5.418956962168020031e-02
2.254208942637631052e-02 5.281129166001918666e-03 -2.846307431308907343e-02
9.700302090969574464e-02 1.629090042174888564e-01 -5.601940821236055246e-02
-7.577173870511713094e-01 -9.348352928853140287e-02 1.789237804356972883e-01
-6.505005976362501774e-02 -2.744959686671438054e-02 -5.117708180103506393e-02
2.472029476178358443e-01 1.821358478104099232e-01 1.090058964134592301e-01
-8.134230317809608701e-01 -9.242493512310290607e-03 -5.338752352952896157e-02
-3.451282190613872980e-01 -2.430663077939063943e-01 -3.381916070886928916e-01
7.937861727103652232e-01 3.082721014186857664e-02 -3.477946109778246031e-01
-6.202587304627797671e-02 5.768881906117810932e-01 3.312912178511951966e-01
-2.467342259832843998e-01 6.333261703723014335e-01 5.112204397280000201e-01
-3.861931201913607059e-02 -1.200657061851002627e-01 3.286510093610599172e-03
-1.169968086471004504e-01 -2.418879730453184496e-01 6.376126448972506411e-02
9.732023695543590147e-02 2.599778672482809250e-01 1.521386248660057949e-01
8.831941584347845486e-01 -3.908760591046893662e-01 -1.927552585989551204e-01
2.279442318738630624e-01 -7.228671473342247467e-01 -4.454759866659229600e-02
8.908636494678384699e-01 -4.139203222362105028e-01 -3.275427543606583558e-02
4.452332807293659100e-01 3.554155153909002163e-01 -5.762963939464590402e-01
-1.379002390393313515e-01 -8.343212996681834137e-02 1.063074658078820567e-02
4.010477955918049786e-01 2.569755929208177303e-01 -1.330102061903233324e-01
2.202317729360520060e-01 4.924498397881384437e-01 -3.794909451357773578e-01
-4.265652017951825359e-01 -1.763810916391980177e-01 -7.542582211874243603e-02
-7.676419315293150358e-01 -3.233924388017028057e-02 -1.793214680436859831e-01
1.006753805423140774e-01 2.405980842085771731e-01 1.439103641858204274e-01
-6.001544446189305271e-01 7.452124002143278858e-01 1.535007827944004366e-01
-7.364068961372788324e-01 2.269566261018429731e-01 -5.880531394418384572e-01
-5.116632973162292819e-01 -1.755381977934458160e-01 -4.128913579612770723e-01
-5.096405704836451944e-01 -2.337291920865689487e-01 1.679400164760503911e-01
-8.063292148250189584e-01 3.752551505591233960e-01 -4.628503410312324595e-01
-4.844969025951632174e-02 6.316563985882032162e-01 -1.371465733621575755e-01
-6.087769495713367673e-01 -2.294637115147747375e-01 3.671250989041645596e-01
-2.843644510493133493e-01 -3.575371215818443638e-01 2.319879274321395013e-01
2.048435144355350845e-01 1.774886249792773096e-01 -4.182632822731251893e-02
-2.746884459725405098e-02 6.481067156577123844e-01 -5.518000218956405911e-01
5.366052499764231015e-02 1.623795929506511582e-01 -4.323940927911665982e-02
3.388635509928449308e-01 -7.069483612908679104e-01 -3.111805445400141479e-01
3.468264636803816137e-01 -7.489877322840386986e-01 -1.163172021128592304e-01
4.171517843152770522e-01 -1.759775491147279325e-01 8.662365341833508925e-01
7.071941237391606017e-02 -6.251668596286669155e-01 2.206900895928800427e-02
2.955458013317544541e-01 -6.160138227762175234e-01 -5.412121572544363879e-01
6.480869261804550474e-01 -5.222321859564900137e-01 -5.318615326530304888e-01
3.588865630865218925e-01 2.201443043674215228e-01 2.164541318904150691e-01
-4.108181466675302207e-02 2.549999977155977676e-02 -2.856907260779411803e-02
3.650960946612983316e-01 -2.237369845405633162e-01 -9.057374540531554219e-01
4.933249389543920005e-02 4.290979040403434391e-02 3.269013218503647594e-02
5.009366625247732019e-01 3.199293986455066796e-01 -4.429778543814154590e-01
-1.080780345840139794e-01 -3.182024031617559090e-01 -8.037258470349848416e-01
-1.909339508071146441e-01 7.394478141004237060e-01 -1.868355423499210854e-01
-5.381712083395260304e-01 9.749629963909413333e-02 -7.853251144993744770e-01
-6.915500505478801019e-01 -6.988291951663729018e-02 -3.144721646844680918e-01
-2.424307108816741163e-01 -3.277619851525071515e-01 -6.190308053235039631e-01
-7.550215968591916793e-01 3.964926378555341281e-03 -3.463841249866421723e-01
-1.499873241958681602e-01 7.106767490953218580e-01 -4.619446236785105242e-01
1.097113077373054052e-02 -2.085902647971099588e-02 -2.434591902657347318e-02
-3.015090909017880891e-02 2.657554003243541713e-02 -3.657907232785728019e-02
6.558360607604078740e-02 3.503130585261705621e-01 1.691141678888476718e-01
-6.123156628116246253e-02 -5.699476993617187404e-01 2.527870395292141081e-01
7.618512839317803653e-01 -8.392658930374931325e-02 4.266823738532522503e-01
-5.844142018689104656e-01 -1.545440384630694386e-01 6.917513740421432633e-01
4.636029786060464342e-01 1.292305286707969847e-01 6.821534381000765590e-01
-1.468860663619358520e-01 -2.360658578092962312e-01 -1.837758125099188400e-01
3.056631216576211618e-01 1.879963533093179651e-01 2.558849412397135384e-02
2.054280065692253299e-01 2.859116799005811949e-01 -1.306024202795406652e-01
3.910728346625885199e-01 -5.056443724919633675e-01 7.543049425623573612e-01
-9.213523043114589528e-02 -5.275176021310036267e-01 2.257634094036068406e-01
-4.797533670250470061e-01 -1.735232319212713648e-01 -1.417110318611470021e-01
-6.455015784461447526e-01 7.625265287305287021e-02 -6.541567752349646270e-01
5.204335282517129520e-03 5.127613578685914497e-01 4.992371236665253953e-01
-8.255800975247705731e-01 3.578544747941979354e-02 -1.774980911926618554e-01
-6.943332385009325369e-01 6.529977959529420506e-01 3.101503088476026959e-01
6.154010420379755000e-03 6.148054312815404154e-02 4.281061368453785432e-02
2.345306201991256001e-01 4.914460870954374672e-01 -4.070270680367972238e-01
5.852729946309390696e-01 1.920680482962157931e-01 -6.449426671910656328e-01
-4.176240665478806596e-02 -1.495196932023888647e-01 -2.184970557442215272e-02
-1.364619422161574280e-01 6.732705115003476681e-01 4.355161445341910326e-02
-5.042041016393492697e-02 -1.375607625396735312e-01 1.206084773340298198e-02
4.407296459846488657e-01 -7.400940188728373226e-01 3.372299391870393070e-01
-5.850270051822606954e-01 -6.756187468217898784e-02 -5.945482653347017310e-01
3.923829784641019724e-01 1.981911355450340639e-01 7.357890504342176619e-02
2.690666965246721887e-01 2.672131045025789575e-01 2.788575222869002501e-01
-4.693186372758055280e-01 -2.527305847642896675e-01 1.834517651943059491e-01
-5.957443764058846236e-01 1.156975791544686549e-01 7.979848805479082818e-01
1.100854027566530585e-01 -6.940438495194432011e-01 3.202680924564259013e-01
-5.168925752483964631e-02 5.693144538827197287e-01 1.222247826535529519e-01
-2.106364982916450745e-01 7.431789412015443741e-01 -3.634475423080535395e-01
5.400973083223840066e-01 2.472551434404082760e-01 -6.399535316835843757e-01
6.529652389680383751e-01 1.963554797209756952e-01 -3.209225111080520887e-01
-1.376941246335860181e-01 -4.325769632091800432e-01 1.735131490120790099e-01
3.731925984752972880e-01 5.385983792398700912e-03 -9.330758823898462895e-01
-7.492556165370131138e-01 1.398765048505805908e-01 -5.334901360512765978e-01
-1.010688908707777084e-01 5.503488715196516168e-01 5.835491395717913310e-01
-4.981790517435742971e-01 7.889560418689275378e-01 -1.038286861277250422e-01
2.631396661988420482e-01 -6.660101165145928537e-01 -3.952988904804300430e-01
6.805540559873145268e-02 -6.698261603470967440e-01 4.297844133834837210e-01
-7.531173087085837325e-01 -7.381988253256689669e-02 -1.949733064232167176e-02
7.440901273748915523e-01 -5.271954069462851944e-01 3.920749650623318594e-01
5.785753329986907945e-01 2.054475666963290481e-01 -1.145141101307137060e-01
7.826881114668283734e-01 -5.605496094090924863e-01 2.428624794802332898e-01
1.588347541070082025e-01 1.489560627111629898e-01 -3.460892471587737051e-02
-2.409538268163229427e-02 5.598792140641405818e-02 1.906818479785018020e-02
-5.565072420960129884e-01 -2.345080209989693076e-01 6.225577191449758185e-01
4.376190459752121731e-02 1.691751502499967419e-01 -3.552054733825671384e-02
-5.893174958618783987e-02 4.351372075850419852e-01 -8.909143284330426349e-01
3.993595174454563357e-01 2.933671979484883674e-01 -7.784460127311572109e-01
-8.955416000771261598e-02 -2.480181763514162363e-02 -2.270678975730274982e-02
9.900606553883214977e-02 7.770160260308381361e-02 9.127968712103518706e-03
-3.711906110165243966e-01 7.885344697735733321e-01 -1.847154817723785925e-01
-8.471704663747662289e-01 4.703198184451138492e-02 -1.043873885723813622e-01
3.607849680359620503e-01 -4.989832816066719356e-01 7.725289022290831031e-01
5.785544394247242872e-01 -6.125536344411980361e-01 5.095986813481682143e-01
-1.299596427567929757e-01 -7.465745737803769488e-02 8.292121489786306518e-03
-6.102784806688726915e-02 -6.956669024867642194e-03 1.723667771443178690e-02
8.984006582060148904e-01 -1.752929804521516921e-01 -2.940647060004003294e-03
-6.956844771347590883e-02 -1.267865317221298638e-01 -8.298464183732379151e-02
-2.225445674327352352e-01 -2.907702522519949873e-01 -7.416720292823183458e-01
2.090748605755929634e-01 2.026162334496729167e-01 1.523905162423044857e-01
-3.111153004428032776e-01 -1.352409778480055669e-01 9.301306925110471857e-01
-4.711614040208451232e-02 2.388612928080317138e-02 9.245916165101744633e-03
-7.715342447720041630e-01 -6.439400056358123015e-02 2.520087871290262183e-02
-1.895298575025587406e-01 -3.507895029261361430e-01 -3.831455342003801112e-01
6.268474237817385220e-01 1.783632223937071104e-01 -8.823730920797917543e-02
-7.503919342237404255e-02 6.571923750349274451e-01 -5.819875634962344835e-01
-1.989981402146043521e-01 6.797863911755858135e-01 -5.985913913152307586e-01
-3.451562248615843154e-01 -1.427363851717451115e-01 9.108578341354734986e-01
1.750200485075476542e-01 2.175498103890438073e-01 1.638827466254954845e-01
-5.899959203942464203e-01 -1.656307358251628836e-01 3.937037076851343867e-03
1.336878214619725003e-01 2.566417248208401891e-01 1.787173163314101088e-01
-9.986414235401276651e-02 -5.202836460581169303e-02 1.471787647668965603e-02
-8.693593702755496588e-01 4.810179330938670894e-01 2.348050227019945202e-01
5.516186506538270709e-03 -5.909450960442160783e-01 1.368597200903525213e-01
8.409079380521325975e-01 -4.031916080490288712e-02 -2.820762112550327383e-01
5.999434946844470207e-02 1.690495770920543150e-01 -4.626232108542790988e-02
-8.351316554069287967e-02 -3.418341760911188798e-01 4.586305175299943554e-02
-5.034765920533689210e-01 -1.754501317940733440e-01 -4.744777105883399848e-01
5.345226680323544866e-01 -1.552293820377318723e-01 7.776622234460459637e-01
1.705303029855713137e-01 3.930330754544246741e-01 5.544091628866596455e-01
-6.179485426279806015e-01 5.907398238003253033e-01 5.111893002554435128e-01
-8.992474923909896667e-01 1.504293207136549460e-01 -9.044252688924667161e-02
9.376962169260799618e-02 1.179098563656999082e-01 7.335941397152304089e-02
-4.595157857841624671e-01 -1.849990544178725660e-01 -5.803618152970013711e-01
5.110503313647167811e-01 -6.687084400676183149e-01 -4.006709869180788974e-01
-1.163255319234573620e-01 -1.739026167802399936e-01 -1.266965118669627077e-01
-8.737433149312816560e-01 7.968747688617836000e-02 2.467661946440969922e-01
-4.192979625957262042e-03 5.942224473589723388e-01 -1.626031220409331346e-01
6.856261239104628480e-01 1.122045088566035187e-01 1.242025560911483723e-01
5.069313821317695812e-01 3.109414133055756202e-01 -3.984410560380355348e-01
3.304939952713241702e-01 -7.299530387925859953e-01 -2.076761692124923786e-01
-1.956690820835827946e-02 5.714181333392884810e-01 -7.322232270575742552e-01
2.995483915107119074e-02 3.317636289171913000e-01 8.353704899238596493e-01
2.875561237254928293e-01 2.954988596629437025e-01 -1.612991516194356434e-01
4.125653237122887673e-01 2.742234570663085735e-01 -1.711840775895042688e-01
-6.198673517321170445e-01 -1.629259656251054109e-02 -6.083384652213229549e-01
1.460478963259520535e-01 -6.686826505078025118e-01 -9.590081932756640282e-02
5.741805910343775188e-02 4.297716244518900303e-02 -1.699822057467046538e-02
-2.551613358018583466e-01 -2.934162173501466686e-01 8.753476693918340601e-01
-1.393190548965521913e-01 -4.306184524941496505e-01 1.736864509938860768e-01
-1.708042548374149455e-02 -4.704689135815462442e-01 -7.543051650967434740e-02
-5.967918389833741788e-01 7.234826831492610077e-01 -3.399674047035603497e-01
-3.517189015896737131e-02 4.709641603377223706e-02 -7.062479740362330449e-03
-1.437899721234666695e-01 -2.428875028280823578e-01 -1.864957325889079476e-01
-3.466569683511188105e-01 6.051824016637689096e-01 -7.120269938783682084e-01
-2.166907570059125460e-02 -4.932751988409206922e-01 1.279986508223087197e-02
-7.904628146397453259e-01 4.226275649671947243e-01 -4.705772947170216991e-01
1.511969908460887579e-01 3.262637799033996644e-01 7.615410077297836144e-01
-8.494681098532790298e-01 5.501393967022412124e-01 -1.584151001822350913e-01
-6.021147939174334440e-02 -4.370352327368715040e-01 5.440411621778513257e-02
-1.207830254303337153e-01 6.305830887913607130e-01 2.662957408295553718e-01
-2.940192461016029671e-02 -2.691247787226819232e-02 3.101433067244101921e-02
-1.914929698464657160e-01 -4.303794341789883293e-01 2.326454145088903969e-01
-8.033363193111338063e-01 6.194898101233722310e-01 1.147803672222141025e-01
-7.992413439412355824e-01 1.817315558123220320e-01 -4.619477705619943197e-01
2.206069455535965840e-01 1.083949128521318334e-01 9.048771804240667294e-01
3.065163911088556251e-02 1.542248455365463899e-01 -2.714776271022631068e-02
-2.815984627599769641e-01 6.809836894139202901e-01 -6.078223104707075608e-01
-6.721242386950582182e-01 -8.680426386963040197e-02 -3.063383201718281601e-01
4.603256527933459984e-03 -5.186212227753413950e-01 -5.349856711546508575e-02
1.678958088923817801e-02 1.937488273281930129e-02 -3.814452430110694403e-02
-1.706448221659971620e-01 -4.932467034584602228e-01 6.942214233965826597e-01
-7.987918983219990943e-02 -3.002279012831299276e-01 -1.427065529205898686e-01
2.209592001393587482e-02 6.366926393037883880e-01 -4.615567520372305665e-01
3.074362525586929462e-01 2.143988680301671668e-01 1.819113996531949162e-01
-1.337321180859818992e-01 2.404973835730842835e-01 -9.800932037844927169e-01
-1.956423230456209028e-01 -5.138627451308613869e-01 5.943364965868761507e-01
-1.364763941297961680e-04 5.498688000598682679e-01 -8.442738190374911300e-02
1.742814719036802074e-01 1.377309030752650876e-01 5.469423308183227889e-02
-6.741009490842035934e-01 -1.367017035774097944e-01 4.422913544583852857e-02
-9.087520641303686864e-02 -4.273476559323296509e-01 1.048463806513550284e-01
1.727204641870756507e-01 -7.191704971857058037e-01 3.126682353830714245e-01
6.048906837859492347e-01 -6.099292621233396439e-01 4.847850113884946688e-01
4.882806846636768006e-01 3.290657535975991532e-01 -4.436613021794921785e-01
-5.290568443042761304e-01 -1.654616309315582456e-01 -4.134175122536725144e-01
-6.976135242060860220e-01 -8.467819876712502636e-02 5.742409219997566261e-01
8.590534900418927977e-01 -8.633956299118479560e-02 -2.797631618851929569e-01
-5.425172563246704466e-02 -4.672275688494835211e-01 -3.594371336528916494e-01
-3.557712509174607574e-01 -1.695287021151219709e-01 -6.022858547110090249e-02
1.621749538013584901e-01 4.982721092337675239e-01 -2.969649488904509971e-01
-2.628860251429799774e-02 -4.522252959434916453e-01 -5.536171006211069306e-02
-7.912640541502501124e-02 -3.363064705508755359e-01 3.616579792712999036e-02
-1.297693499065803169e-01 -8.206430707050868523e-02 -6.696813562194378622e-02
2.186458031714964279e-01 5.174811072250858901e-01 -4.964099773392869341e-01
-2.682385393633454629e-01 -1.456057453152901082e-01 -3.882116559053844229e-02
5.176354611013530560e-01 2.938736741336184233e-01 -3.428495654237560530e-01
-7.949425680593216748e-02 -4.693966355812689284e-01 1.240060727002683244e-01
-5.163158180397989794e-01 -1.986463506453998717e-01 6.838727097681783496e-02
4.738506986267517762e-01 3.249757563332060228e-01 -3.621303777257735002e-01
8.955924034415535528e-01 -3.563752969760636269e-01 -1.638873877829343517e-01
-3.981144048976750227e-01 -1.830389732628298349e-01 -1.711772646571978196e-01
-2.362964807471000794e-01 -1.671492462001063495e-01 -1.432408376259718397e-01
-2.295793019531290613e-01 5.982285213625325726e-01 5.796257059873863859e-01
3.132861895343429237e-02 2.365120075915169359e-02 2.974274370853228003e-02
6.625213515570793632e-02 4.521059525038539917e-02 3.827255568341566844e-03
3.436042903198172765e-02 -5.687985562281631102e-01 -3.645870250159746750e-02
-5.704868750252510556e-02 -2.198245819243224430e-01 -5.645322836632674784e-02
-1.083579762984747960e-03 -4.143836643281001431e-02 7.252866069562330896e-03
1.898668818505547806e-01 -6.714683639410738980e-01 5.583323796560835106e-01
-4.002205125241700134e-01 -3.553069461613526658e-01 3.412661862610249508e-01
8.837973239117413726e-02 2.790804597793477004e-01 -7.116997868180631459e-02
-2.464934850987668957e-01 9.912243025381187178e-02 -9.642568123362802446e-01
-6.483475164907035460e-01 5.756560882759497177e-01 -5.449709660688994983e-01
6.577543273673148727e-01 1.666452114386642036e-01 -1.179686500321482090e-01
1.522942515603722680e-01 3.912857295965702642e-01 3.913159390777017910e-01
-4.326352579323849978e-01 -1.777780418774471682e-01 -5.808372812615530956e-02
-1.036015616043900328e-01 5.425134297019773566e-01 6.053899866252971940e-01
-2.875049878212703955e-02 5.815454835849821758e-02 -1.195884479820610033e-03
3.655599204375280242e-02 3.057554757434266524e-01 3.843241790959977394e-02
-1.792402925689092624e-02 7.760755709220679144e-02 3.231360585540461999e-03
-4.671961462033761836e-01 -2.215391845156136075e-01 1.095908886872128951e-01
1.473618307919512260e-01 -9.321119409788583554e-02 -9.880761571159192291e-01
3.202401814978497185e-01 3.084144337179403617e-02 -9.541930638802097464e-01
-2.908027752354471959e-02 3.466954235705476534e-02 2.515100836742792390e-02
-2.973522107119072611e-01 6.302558832590468008e-01 5.425585560045826927e-01
-7.720497576460428890e-01 -7.441823372580354257e-02 1.138316317933488753e-01
4.509396677634767286e-02 -6.615803365812943371e-01 4.051315389121954991e-01
-4.959861885242417695e-02 -1.800617586956761162e-02 -5.064033117537036777e-02
-1.913485785547487938e-01 -1.128362640505791853e-01 -5.792418805650754142e-03
1.765274258718662337e-01 -5.210355061533095133e-01 -6.751252760003149112e-01
-1.255031413953494879e-01 3.901988398027442795e-01 8.329076619985755769e-01
-8.642593618511872355e-01 1.984161068059074606e-01 -3.090782089994724702e-01
3.162285078430016050e-01 1.885108939728011024e-01 5.431998267885807669e-02
5.491025144682110115e-01 1.232237802214899980e-01 5.472729062783832088e-01
1.856074438135389693e-01 2.358022223798624528e-01 -9.507308861556780233e-01
-5.365941078547911136e-01 4.882449434192892013e-01 6.843608198512108887e-01
8.169595221817723893e-03 5.970056126335991920e-01 -6.649709125064705573e-01
-5.229295065107995022e-01 -2.607066836637241813e-01 2.598097478610972288e-01
4.895040085150152986e-01 1.767322877674055714e-01 5.393089148074040606e-01
-4.303855827434557302e-01 4.186786263809703090e-01 7.890043583563173257e-01
-6.685070339583952526e-02 4.340134276931288948e-01 -8.925553229079240536e-01
-2.423882216789488009e-01 2.901853649377369448e-01 -9.467299475202375358e-01
8.063060075876236910e-02 -6.423941160047547116e-01 5.736304492510000547e-02
-1.092672603657411090e-01 5.689480541680779213e-01 -7.663501450982492802e-01
-4.268498597033743014e-01 -2.219533416464471165e-01 -4.330335285287397751e-01
-8.912566306834539542e-01 1.849694608790968531e-01 -1.959004222814120233e-01
2.053237965647757846e-01 2.050894575335878711e-01 -7.049528013913414215e-02
4.769474092918708497e-01 5.872564169125019801e-02 7.396365802006998891e-01
3.162704552464572494e-01 4.228850773531330764e-01 -6.789522952025897062e-01
-7.305748503380535275e-02 -3.427430630841981074e-01 -1.593503050625791062e-01
7.599396337473457441e-01 -3.841443466698759024e-01 4.834981115933371099e-01
1.262255717321562713e-02 8.365395800428487849e-02 4.607671687964973867e-02
6.249921832201283528e-02 3.995886338342420907e-01 2.171556692066630712e-01
-1.987916000738396832e-02 -6.193094328401702597e-01 5.190578700201219364e-01
-4.378859332085666134e-02 -1.303921723932219556e-01 -5.405347738648588751e-02
-2.956059945394457489e-01 7.603668849006353092e-01 -3.670224877373020611e-01
-1.482129690117771070e-01 -3.852894803219779618e-01 8.532250854439954457e-01
7.503080703093104598e-01 -6.385520728500501120e-01 5.962929540236157344e-02
-1.479692920930822664e-01 -7.759387991604445312e-02 -2.256995736542131634e-02
-5.156075087126822387e-01 7.781947800268096405e-01 -2.114672801222235443e-01
-3.575889796153843871e-03 -4.997939800702036472e-01 -1.993412237522585173e-01
-5.013182685031889463e-01 -1.703726748108040367e-01 -1.370373320740966849e-01
4.305610005186906453e-02 1.291566541417464575e-01 -4.100597943842462095e-02
-8.834205533519577935e-01 8.284777428013609391e-02 1.497276315691003779e-01
-6.376649117654764609e-01 -6.072180176143095881e-02 6.987983031310642801e-01
2.513920318819690136e-01 -4.043620923636427611e-02 -9.778685591304547842e-01
1.708693561392264117e-03 5.649118565163195882e-01 -1.169359925337839085e-01
6.538810897963245328e-01 -6.607065688233542122e-01 -2.698151931244153756e-01
8.770867764437181302e-01 -3.045494957837169836e-01 -3.000374005557951418e-01
7.968929090415943772e-02 1.982847865744550575e-01 1.086781140087478004e-01
3.499226976847029102e-01 2.059434927575404806e-01 -1.484349063066734038e-02
-9.303155760124528495e-01 2.517788522906540538e-01 6.731883563695605088e-02
1.012708098696911974e-01 1.503125744510484529e-01 -5.248382890460952938e-02
3.360370576949214816e-01 -6.782959799160425129e-01 -4.023345260398452083e-01
-3.461991144636902829e-02 -1.144670597726101802e-01 -4.226860225418069966e-02
2.180779762979050962e-01 2.897978472501837599e-01 2.777771716898300158e-01
6.908110244543722023e-02 4.520757384996329509e-01 3.458257683737541166e-01
1.051679347218770627e-01 5.879296501735080671e-01 -5.126877604275381639e-01
-1.407060813856256809e-01 -2.800365676905112733e-01 -2.136421756313947595e-01
-3.668359614119856907e-03 -3.290516921690945229e-01 -8.468714525547027527e-01
-3.563795511845619934e-01 3.180325981510305766e-01 8.740044681567645801e-01
3.419311440615181996e-01 2.615683632619961174e-01 6.244789567300256250e-01
8.428666022529569535e-01 -3.075774096108981753e-02 -2.283666938830690440e-01
8.956656402779465953e-01 -3.051364946505171205e-01 1.301457099258708228e-01
-1.825334773152178236e-01 -1.171255993943528112e-01 9.778078025229662851e-01
-6.530002434804157430e-01 -1.939078743468057031e-01 3.557817140331463457e-01
3.345106146078483111e-02 2.401081686254159520e-01 1.809231720432649682e-02
3.435199356395688408e-01 2.379196601501431252e-01 -8.717526683500770313e-01
-1.285095463733051391e-01 -3.311092258920018683e-01 -7.713586559955184496e-01
-7.764285816277751717e-01 -3.883878243053579676e-02 -1.057719831313153336e-01
2.364764745566096671e-01 -5.828260012937636070e-01 7.182684475881182529e-01
-1.697736803617382606e-01 -3.221163868853574863e-01 1.278238124234117590e-01
-4.176082481838302302e-02 1.336697805564930272e-04 -4.464186278283197723e-02
-2.126186539599832503e-01 7.447961916004233185e-01 -3.537411043031863378e-01
3.371978471016905954e-01 -3.782320749894827472e-01 -8.320775445045418550e-01
5.943916958372150727e-01 1.270160785897581635e-01 4.159878250109562137e-01
-6.784097923607752545e-01 6.904967076717427599e-01 -2.972948784618081319e-01
-3.544945151503706843e-02 3.321238183783322556e-02 1.913903388993562493e-02
4.269371864599025845e-01 2.182357630511514990e-01 2.825085081438772905e-01
-1.386442338203522917e-01 6.492911999682580149e-01 2.259593307174420085e-01
-2.690901023864309544e-02 6.610849707026777988e-01 -3.497207347596059113e-01
-1.385298511274796196e-02 -2.765963802564727972e-02 -4.612773428775976403e-02
-3.094136813076636128e-01 -1.660641925458200829e-01 -1.160469320255801129e-01
4.423025716341730251e-02 4.389068061040564683e-01 -6.111190684381409555e-02
4.752095038016289352e-02 1.557672656258182187e-01 -4.034484531470669544e-02
4.337133129760381012e-01 -5.779906078013662407e-01 -5.992047547775650740e-01
-9.735613971568146674e-02 -2.217765392162095173e-01 4.643667100172906015e-02
-5.814421155255131146e-02 -1.301548336611406051e-02 -4.515592675859814165e-02
4.356746682514114899e-01 1.984624205160091526e-01 1.317633651006717699e-01
-1.352670682927573642e-01 -4.136838329260535962e-01 -5.024352477109903514e-01
7.613303962653041046e-02 -6.361096263848400323e-01 4.737887745842929432e-02
-2.111536064510437793e-01 -3.593513452580547329e-01 -5.001568871912610570e-01
8.474192646625722247e-01 -4.561674109559725743e-01 -2.479807507326683702e-01
-1.190755404748111979e-01 -6.754447581058301009e-02 1.142447405753651245e-02
-1.843055202859788244e-01 5.040496653705698327e-01 7.192326521697566255e-01
4.432191902988403820e-01 2.758864578451423188e-01 -7.486303113698328238e-01
-7.742909150395355100e-01 -7.840826367993398993e-02 2.388578593330474009e-01
-6.055073685955547624e-02 8.082298137148847747e-03 2.345807298326150776e-03
3.566243282136673937e-02 4.861713483205534758e-01 -8.515121112340913456e-02
7.821291546095476832e-01 -8.908808244655454581e-03 2.425836786308679938e-01
4.278285450271652191e-01 -5.539633503753154109e-01 -6.346362868345214459e-01
3.820863363336222673e-01 -4.065685025168754851e-01 -7.993591044245033084e-01
3.740315350893063107e-01 -6.690151120671903318e-01 -4.350788315335775147e-01
1.758182275438049946e-01 2.206284056091331602e-01 8.570823713199232641e-01
1.393327207808800206e-01 5.448746363625177613e-01 -6.433720662848660954e-01
8.624205922387282452e-01 -2.402340569911344259e-01 2.681514402174898226e-01
-7.634348507062412859e-01 6.707445203474255990e-01 -1.260469341044949398e-02
6.715160904238814954e-01 1.270021507912642844e-01 8.505237428596516824e-02
-9.198305940849674234e-02 -5.842923913889074283e-01 4.071357232688957994e-01
3.483257922348518415e-02 4.814306182799029110e-01 3.216902604180199021e-01
4.177357458280487879e-01 -6.952224820944863382e-01 4.838707024448816729e-01
-7.412940606085663964e-01 -5.439116558090790338e-02 -1.898636220986538725e-01
8.914618107085198195e-01 -2.446117921859513045e-01 1.468127754476947211e-01
-6.145150624427107855e-02 9.420026126135324154e-03 -6.658377818655579136e-03
-6.181901839583248126e-01 -1.553938672344033489e-01 6.354024428957290027e-01
-1.419252009795655134e-01 -2.679357773956863031e-01 8.663980919025834893e-02
-2.194345301343003096e-01 5.265504491032498846e-01 6.977238841701228766e-01
-1.591734015071892550e-01 -3.472044857015330610e-01 1.336970444512713962e-01
1.368863500182287973e-01 1.147977604477641855e-01 -8.400823205770999169e-03
8.066150937255760489e-01 -4.288068932858289384e-01 3.636225506753295034e-01
2.474102670719631747e-01 3.219488701806848541e-01 6.439893452630671700e-01
3.980776973056656121e-01 -4.800354699669987513e-01 -7.293443104224998086e-01
3.143273048246211232e-01 2.477552886476036276e-01 2.693090147803457457e-01
-1.444845099797565646e-01 -4.848718447976350099e-01 2.435367633200213044e-01
-9.240244602757782255e-01 3.678804945345749422e-01 1.137153759610577547e-01
-2.722179114134701261e-01 7.571221636201266314e-01 1.330691174888855646e-02
-7.106030285345225073e-01 6.577521869037437074e-01 -3.192660362966413534e-01
-1.268302709736958411e-01 -2.742502750349187224e-01 -8.402671796599833209e-01
-3.636299536820051387e-02 -8.788782998406537150e-02 -5.469455235366094126e-02
-5.864938396196611725e-01 5.880541841406625864e-02 8.006664130734284512e-01
-7.783967967677495048e-02 5.728563844852212483e-01 4.640317349892729704e-01
-7.177073390813087927e-01 -7.008660252288970161e-02 -2.090335514842609488e-01
1.545118866039970340e-01 1.340412284501054374e-01 6.740444457990578397e-02
2.361625430856576502e-01 2.927434141622831665e-01 -1.444683234128228688e-01
3.408222402755773511e-02 3.496458818420514203e-01 6.021899406965271900e-02
1.147056714122491883e-01 5.641192225237229296e-01 -6.227490667624453469e-01
1.264981527246903659e-01 1.007748109676141618e-01 1.165871693112039212e-02
1.567180998329883723e-01 3.025655272609640289e-01 2.410013494880250129e-01
-1.319018968303790895e-01 -6.449462079227274991e-02 -2.130514545453926489e-02
1.500497041420537914e-01 2.384428478814007712e-01 -9.011678276982566793e-02
-8.261544707080623606e-01 1.252767038459752236e-01 4.792382670710067516e-01
4.424706456624167283e-01 2.209459128295009622e-01 -5.363112022313111515e-02
6.474120554884424950e-01 5.044737435999659646e-04 5.603232250045736551e-01
-4.681771041754689278e-01 -2.116689750664292879e-01 8.428461295964247146e-02
8.838096843423416671e-02 3.872472313402456345e-01 -1.039236105709687302e-01
6.625351316053511297e-02 4.786231492969054285e-02 1.800844540427886525e-02
3.904214064824249042e-02 3.477495451976161944e-02 -3.000520861878237799e-02
7.765196614317536328e-02 2.275112159295930858e-01 1.182736309258295704e-01
-5.408775418764701776e-02 -1.588689824121958249e-01 -6.565601282522290361e-02
-5.927758928652227151e-03 -1.551066523987248806e-03 3.262608988250444847e-02
8.498513635556298462e-02 4.288021696604807920e-01 -8.612202648152289530e-01
1.126281657585171819e-01 -6.940832610299522143e-01 3.551207980543925058e-01
4.076923813131625995e-01 -6.789178166529441505e-01 5.238626765952174580e-01
-2.913098605311651434e-01 -1.931611930314384162e-01 -1.895115175954993902e-01
2.428301279739688012e-01 -5.461876809744632411e-01 7.604107438700595800e-01
9.685523589662578536e-02 3.601706281868047865e-01 -1.016610584838555376e-01
-6.288994942084932260e-01 -1.848805990373457719e-01 1.723103172841284336e-01
-7.900722193278990613e-01 5.989566767632041877e-01 -2.614466662786762985e-01
-6.596015614924187753e-01 1.307740556568250459e-02 -5.770899998103008466e-01
-7.720044686618249274e-02 -1.582205976649431189e-01 3.257778943985928377e-02
4.374701163197907694e-01 3.667932697322691671e-01 -5.374741549190429346e-01
-4.284031106906013853e-01 -9.749107613990529164e-02 8.792653683234802342e-01
-7.108552368963182433e-01 -1.422916339812966557e-01 3.223315422327149293e-01
-8.870777671745330162e-01 9.764486896899372825e-02 1.896279749385252067e-01
1.038875873249185122e-01 9.665256279218756297e-02 4.973968461986306294e-02
-4.546171864732898027e-02 -5.884996391779870883e-01 2.670830528194766407e-01
4.730964559675166631e-02 4.375374121690846912e-02 3.480276588906803387e-02
-5.899326161849951372e-02 -4.058511831361720223e-01 -2.003610345785752922e-01
-7.820742576531276580e-01 -4.563379505771064659e-02 -3.525853064783750906e-02
2.374034214488972838e-01 2.337706707570801901e-01 -9.323564709727635846e-02
-5.538214534223823149e-01 -1.369398008679031109e-01 -4.921852985416795834e-01
7.819576107447824553e-02 -5.163802716348193655e-01 -6.202800672534303228e-01
1.581361830494352749e-01 -3.925546065390216333e-01 8.944049801342068839e-01
3.391789164986757643e-01 2.305877694533873534e-01 -7.764122329105772879e-02
3.536179068624613619e-01 -3.081123920477135125e-01 8.787389352914097840e-01
-8.922674007587715339e-01 4.800571766566109622e-01 -9.595583580332264773e-02
-3.213868369183591756e-01 -4.266714880435009127e-01 4.034255010074159209e-01
5.073129725158308512e-01 -2.960999191010407761e-01 -8.114715303445309003e-01
-3.070583781114907262e-01 -4.459327497141708507e-01 5.857360032277614259e-01
