-6.959018161707328787e-01 8.537907694752693011e-02 -5.133622606426433421e-01
-9.400469585722938115e-01 -1.126431592373537266e-01 -3.148029626228399103e-01
5.477416193889957929e-01 1.445782965943232523e-01 5.160613482529076146e-01
-1.190548670830316597e-01 -3.242179305809878009e-01 -1.259610883644358970e-01
-2.979960790258150416e-01 8.217045393194780667e-01 -2.924190550504492947e-01
-1.243028006039009897e-01 -3.645285061944755212e-01 -2.685249098731979922e-01
1.055458332810427502e-01 6.386920949848389206e-01 -2.723958428004543131e-01
3.265388273565417859e-02 9.853065500691028378e-01 1.628690725975155337e-02
-3.316136439009906983e-02 -3.679049142033296582e-01 5.875011038594971091e-02
-5.328504832177113348e-01 8.280772397041670230e-01 -6.333476905431292825e-02
3.364965551203701333e-01 6.933783006073652722e-01 -1.937815154021595987e-01
1.957020473279403316e-01 3.906555740916264896e-01 3.765631112289129501e-01
4.337287581915824086e-01 7.297522889753279562e-01 -1.327530222193661902e-01
3.409899618992141002e-01 2.546820493848509642e-02 6.571501361154531706e-02
1.890732681012441407e-02 4.753524844482239775e-01 3.268015442903020040e-01
-3.182589135084950560e-01 -2.692385558153532199e-01 4.883760834178450805e-02
6.814130863969859453e-01 -3.930930488880409260e-04 -1.248731014826304914e-01
6.457969524007410866e-01 7.232658253141197591e-01 1.738540266901384135e-01
2.410940172772761680e-01 -2.541519308000995125e-01 3.551982968818370723e-02
-1.772891113056165868e-01 9.266220578066753921e-01 -1.752150379370341626e-01
-6.007640396134623639e-01 -4.975820562261411562e-01 1.265106783115583777e-01
-2.777637898662525529e-01 -7.881282978336229261e-01 -3.871290463418463612e-01
5.967065732831832170e-01 2.571063216954303510e-01 5.193199621504611674e-01
-5.083791418949744623e-01 -3.439261214760214735e-01 1.406067909411765071e-01
-1.526812097071000573e-01 -7.374519566882995480e-01 -4.011490227023471467e-01
3.211892939728817203e-02 3.884889212012883619e-01 -1.391793699769280357e-01
2.489873512947748946e-01 5.279974214468516891e-01 4.445768904394717946e-01
5.276100781457984112e-01 -2.001946861412392253e-01 4.933524895438407554e-01
2.952139217128348370e-01 2.576912525035459645e-01 3.840074294129348087e-01
-8.863074846332664736e-01 -3.947881498372155518e-01 -2.207850158234543336e-01
-1.646075477300602830e-01 -5.007662031401248770e-01 -4.024968202035332787e-01
1.271443623146130686e-01 -3.278402938660398558e-01 2.324540900858658096e-02
3.010186141470279630e-01 3.340817395447696625e-01 -1.066238582264194962e-01
-4.832210146197302714e-01 -5.466578498798439767e-02 8.436998996548031315e-02
8.570620143744281383e-02 -3.586047656314420573e-01 1.274453729035906757e-01
1.059846699450390922e-01 -3.366434390124826703e-01 5.741650348883534094e-03
1.877721278447105346e-01 2.757616180406403661e-01 2.310125268492843609e-01
-5.103231640204884956e-01 1.112862862234722527e-01 1.164237353295904942e-01
7.391963688166048874e-01 -4.012558439566386859e-02 -1.138995974137859968e-01
-8.242978105952953882e-01 -3.301306168808565977e-01 -4.134326025136864091e-01
-4.484783112810523109e-01 3.990283388251880115e-01 -4.578777000442103562e-01
-1.008155606439113672e-02 -3.861349661771242836e-01 -1.989184807922269593e-01
-3.858406107697086584e-01 -1.285070992083588333e-02 7.784135690722683012e-04
-8.798140852787518229e-01 1.941021736421945365e-01 -3.862945919285314944e-01
-9.108451367180837588e-01 8.478703453228551845e-02 -1.589872244776236940e-02
-5.501151261346869381e-01 6.209761777653864945e-01 1.751298833261303867e-01
4.357844413665289962e-01 5.149604321690330888e-01 -1.759436671146827058e-01
-3.607526585550380194e-01 -4.490839918351435117e-02 -3.670310523773805400e-01
-8.444556481859121222e-01 -3.282759555446566058e-01 -3.913969140223681475e-01
8.275490897961128578e-01 1.511443777847331082e-01 4.525551405941475314e-01
-9.572903528121198269e-01 1.381566340101906820e-01 -1.656081777370208841e-01
-4.579558361092208041e-01 6.760376935938973153e-01 -3.780450354569998006e-01
-8.877719634493385081e-01 -3.233715336829117160e-01 -7.247582846951144964e-02
4.056369871410803740e-01 6.794401267830972868e-01 4.292371431434917617e-01
-7.939862455980224443e-01 2.131173258615402522e-01 9.102412155915982905e-02
2.071102278923618589e-01 2.838575224721505696e-01 9.830501566013130632e-03
-1.836096228751685558e-02 6.959710831319071422e-01 -3.090705121570520575e-01
-5.261737092574008123e-01 3.150451319140263329e-01 1.749142138391334700e-01
3.436871623632029027e-01 9.923641421449463929e-02 3.645637663716212451e-01
4.503670576962670036e-01 2.127207105681253596e-01 4.868557731252168841e-01
5.351835735236835090e-01 7.381180060187156888e-01 3.353537865173194521e-01
4.086048038091151802e-01 -5.129627869835194920e-01 -2.348732484262354148e-01
1.920868073961015943e-01 2.762181756046883652e-01 5.010681555653844627e-02
-3.800646679164341180e-01 9.446917743338451023e-02 2.063964980365028470e-02
-6.923694997233796888e-01 5.917525126718405915e-01 -3.327591749516211062e-01
-2.825521284753131912e-01 2.008896992037002005e-01 -2.651059626169687267e-01
7.593736333498607438e-01 4.030998790563569134e-01 -4.918351621494115172e-02
4.051324382913780719e-01 -3.026355106648822568e-01 4.393960012876930166e-01
-3.104741182927586718e-01 4.246062471750894352e-01 2.174402274329911289e-01
-2.561188016548376911e-01 -2.817623334498789434e-01 -3.398837465736109786e-01
4.105715044597242902e-01 -7.778408361742220056e-02 4.260842737144856507e-01
2.520489016390715653e-01 -2.541062935894764507e-01 1.101149661935785749e-02
-4.159590404738126024e-01 -6.103278121201324291e-01 -4.641124787446264111e-01
5.507001659681419747e-01 -1.548529338847903780e-01 5.023120235519267229e-01
-3.697258802795254096e-01 -3.956812136040289696e-01 1.458577647598869043e-01
-1.438270738938871030e-01 9.770556976989223097e-01 -1.706566165031293478e-02
8.386589718710200092e-01 4.741973690977975275e-01 1.917611443990891174e-01
8.449476506584275848e-01 1.353183782668432589e-01 -4.078994834131129121e-02
-4.730462763428093242e-01 -8.523138073355317479e-01 -2.386392686553606007e-02
2.705606648241534185e-01 -2.449405662570044717e-01 -3.717523717700337450e-03
-6.176035970026576560e-01 1.203376666380837900e-01 1.380528271951712849e-01
-7.175586756819000156e-01 2.820448018434359994e-02 1.199345899056530329e-01
4.195718209487731554e-01 9.196524009578731229e-02 4.494187773057429780e-01
-3.484212821737650567e-02 -7.222969536380217104e-01 2.914193673595714129e-01
2.410517780207006300e-01 -4.113425390006510418e-01 -1.968161251268397693e-01
8.397517311100708426e-01 -2.995530748407375654e-01 3.927344977728627895e-01
2.531404934332600054e-01 -6.006303368954928334e-01 -2.899807600607507974e-01
-3.627587768412877112e-01 9.094953136949519568e-01 -1.190291052048201292e-01
-3.024298714771226915e-01 -1.191680210388870453e-01 -2.534293392491150376e-01
-3.248374832154352632e-01 2.528880411301327458e-01 8.564929768464887849e-02
6.746393243643435955e-01 6.096355112863155457e-01 -1.894430801406720571e-02
6.075164048392656113e-01 -6.405577597110974075e-01 -1.324220530470502089e-01
4.850753246661439200e-02 8.385454666646515731e-01 -2.362501475957658470e-01
2.147075471945603942e-01 -2.665668909707640810e-01 1.267452560297151198e-01
-9.478894285777434980e-01 5.202047399296071822e-02 -3.034493493111753981e-01
-3.423690251126045858e-01 7.077157926912864827e-01 -3.684142537085352553e-01
2.022376772824367175e-01 6.707950922187413401e-01 -2.433262304122272845e-01
1.058594334982529417e-01 -5.439302876206733028e-01 -3.116584293746200718e-01
3.349082262849320535e-01 -2.270094094255253325e-01 -5.864343614480117123e-02
-5.595638823043607157e-01 1.892747862670154380e-01 -5.013722299559205675e-01
-4.159966048855111564e-01 -2.745977637236704516e-01 1.035388809065792282e-01
5.532955807377066826e-01 -4.553651418021972264e-01 4.622593381712635785e-01
4.985907348456045107e-01 -8.215584630777342801e-01 -7.645328251442896905e-02
-3.364049745584659079e-01 6.256622480530663610e-01 -3.994931763013030990e-01
3.371813218197335371e-01 1.258660757435826061e-01 3.660227953817137836e-01
-3.143174580898550619e-01 -2.488341080048520892e-01 -3.892347426509315533e-01
-9.238135811831740263e-01 -2.821781793036582942e-01 -2.448383649528856898e-01
2.482826402142924160e-01 -9.691192088460999221e-01 5.499492166049813752e-02
-3.723106887190548164e-01 2.232714242799034021e-01 -4.054314349101130199e-01
-7.913698060909234167e-02 3.780523844851361170e-01 -1.921000755847131480e-01
6.791647621925855915e-01 3.859907124715786231e-02 5.211942434666509971e-01
4.694074846519952771e-01 -9.029483225724266315e-02 -9.174242265385511297e-02
5.154620563120240750e-02 5.117428997548510994e-01 3.615527970774681799e-01
4.207400647421616902e-01 -1.073033078604111734e-01 -6.337645121492833933e-02
-6.546443414721614396e-01 -6.596729480158213255e-01 -3.431161753313491936e-01
-3.188062169139792568e-01 3.497611138475575226e-02 -2.355424224680097989e-01
-9.134119467458641228e-01 4.811721401238007456e-02 -1.811675138266459484e-02
2.573749021079047017e-01 3.391061146221621136e-01 3.945567360201087115e-01
2.959751633814926564e-01 -3.750417973026094476e-01 3.798856988517050892e-01
9.323366290252002586e-02 -9.949428372187488767e-01 3.583582338240479809e-02
7.370696813908312883e-01 -6.529564470713032920e-01 1.664878056332781409e-01
9.078630642382436999e-01 -1.926300227529854081e-01 2.882307233630351101e-02
-8.642292974080026391e-02 -4.036063429841586503e-01 1.256794505506848569e-01
-2.459801025283893643e-03 -9.991146112283886271e-01 -8.195883704758097354e-02
-5.958875057292261079e-01 7.080691524269385750e-01 8.566056638718681782e-02
3.478403624009056561e-01 1.721932327106207861e-01 4.006516552141166643e-01
-5.258851638332808776e-01 -3.516057453285465484e-01 -5.116367195681451596e-01
-2.032419224403667624e-01 7.958874872493557628e-01 -3.118900748046868898e-01
-3.117718601616037977e-01 1.032446412594526519e-01 -1.084895019499647340e-01
-1.379511919245638429e-01 -3.143789735134120411e-01 -1.103957814888210515e-01
3.078647418642064260e-01 1.918853835251811413e-01 3.587763618384108288e-01
6.226918437074919765e-01 -3.492807258416574245e-01 4.830085293924537559e-01
7.842856442738952438e-01 4.106216407574862504e-01 -2.195117303024253161e-02
-1.059643253032098963e-02 -8.189105366005861031e-01 2.670843180224405367e-01
-4.259561563973180420e-01 2.941317933292640907e-01 -4.505797824287985920e-01
8.141931448776488223e-01 -5.359876865055107631e-01 2.153594019786683744e-01
3.460920809908210605e-01 -2.182493418704014587e-01 -6.119181967781910092e-02
-7.019422154647655399e-01 -6.853807925516308686e-01 -1.615046837855759476e-01
-1.584905514003690646e-02 -5.446103899029013373e-01 2.730968702321874830e-01
-3.101927291735714354e-01 1.553212843726673453e-01 -2.915033156443266327e-01
2.891116181173624122e-01 8.954740493622622699e-01 2.529341353191502106e-01
5.842658769360187243e-01 -7.911918298811358996e-01 8.039229429323384302e-03
-3.376138947142749425e-01 1.298758552554901136e-01 -1.630687905279119138e-02
7.591904029296757672e-01 2.380505968995824395e-01 -8.603464131578336671e-02
9.637896014262516964e-01 -5.050030530970080200e-02 1.948083922128721612e-01
3.509707190474757876e-01 8.888639502231125977e-01 -2.178912116037102706e-02
8.367978626045718960e-01 4.497993346184878116e-01 9.712021738441388441e-02
-7.152626257077626670e-02 -5.866403468301273350e-01 -3.884682233177955690e-01
1.818864293883745431e-01 -3.671024645467643177e-01 2.686413936628357924e-01
-7.510615405373073650e-02 -4.028409746640527200e-01 -2.765519018628301295e-01
-5.780964472046136449e-02 -4.208025732182462675e-01 1.560753741310108578e-01
-4.656450454823262558e-02 -7.697644391751993220e-01 2.770125922529678708e-01
-8.528032038057012376e-02 -7.156308181303865368e-01 2.769445919031340853e-01
4.952790905184596970e-01 -8.839993415747118832e-02 4.851763111720727162e-01
-3.650992316566165630e-01 1.879925121110360142e-01 -3.906025867821071307e-01
-5.458737014960756140e-01 4.932057332709128272e-01 1.965622629804609778e-01
-3.450873156882126591e-01 2.533113984248699380e-01 -3.873055552910768529e-01
-8.143564114892032357e-02 -8.821671665408861163e-01 2.045097239629701247e-01
-3.282942113140849827e-01 -5.780669058848517672e-01 2.037235625716902476e-01
4.450590277839759912e-01 2.553232341130898253e-01 -1.139754522001667492e-01
-3.806523041443033439e-01 2.613736986960858988e-01 -4.192850291381576278e-01
3.776445033193212009e-01 -9.249231296772748578e-01 7.737941353020896806e-02
-5.262613379457550117e-02 8.299791086643782956e-01 -2.673270932337665773e-01
-3.148822608080616980e-01 -3.164338274825205799e-01 -4.214621114985140915e-01
7.182026704580114773e-02 3.597473189702627416e-01 -7.594025298871874552e-02
4.806430435818119240e-01 -2.628517946102425507e-01 -1.514061352759172030e-01
3.276929612662248803e-01 -9.256795300039208918e-01 1.497883417807314987e-01
3.048247769417756214e-01 4.149165263977566132e-01 4.503472015344876511e-01
6.560643952416838065e-01 -5.364472481950068872e-01 -1.363762564451177217e-01
6.284779577911063786e-01 -2.402335187471021094e-01 5.021649428021441874e-01
4.611339440985877114e-01 2.601370638482150555e-01 -1.198402689209702721e-01
-5.881637548163036744e-01 -1.142335620294735038e-01 1.209969054024193358e-01
5.039977300608983191e-01 4.180766481052332617e-01 5.014062010147881665e-01
-3.673206712971129884e-01 -4.770599788197364410e-01 -4.773843167607588756e-01
-4.874772884759701053e-01 4.326307739622216597e-01 -4.616384741950155246e-01
-1.762646674541761826e-01 -4.687612297082217050e-01 1.838287462221244173e-01
-8.608724909588489904e-01 2.871501094242880914e-01 1.622742852367555638e-02
-2.305188862931319416e-01 -3.060274762051727326e-01 -3.287229019264729657e-01
-6.381753152132382256e-01 -6.205518598180579382e-01 6.097119785849976908e-02
-9.964492685252707149e-02 4.990633414814250601e-01 -3.100810975560571170e-01
2.130590735417932091e-01 -2.832088795444884233e-01 1.951065652893541613e-01
-2.518293255076875514e-01 -9.630155910459327062e-01 -3.990050998583755809e-02
2.120995876131242242e-01 -7.776066505698450149e-01 -2.887942090928852235e-01
6.244872480302776641e-01 -5.237745591588930383e-01 4.247378033470946557e-01
-4.023274707796370420e-01 8.249747834448680761e-01 1.486905699886824916e-01
-8.280165656288098752e-01 5.156941130980509103e-01 -1.526760777731425156e-01
-1.917603759168291788e-01 2.926667561783335425e-01 1.733686763574899398e-02
3.056378208649860317e-01 4.167489231100280911e-01 4.510788107268660085e-01
-2.505954556808223099e-01 2.345055421422279907e-01 -3.193540554335982246e-02
-5.878420058617425670e-02 -3.818304095163301271e-01 9.049582514475465467e-02
6.911002904574843342e-01 -6.552400744310638014e-01 2.739312166803639648e-01
3.025961031637056098e-01 3.133718194635314869e-01 4.181851276960704689e-01
-3.122519679065413611e-01 6.544211065497913815e-02 -1.843107848111109892e-01
-8.388807620592432235e-01 3.198153643353597864e-01 3.414502882918831611e-02
5.460250511339963531e-01 -3.723710583532785501e-01 4.796394999488491351e-01
4.635016651884205086e-01 7.389149706141828755e-01 -1.080256645247810038e-01
1.744794304651903910e-02 5.200592084171635765e-01 3.510967844274928140e-01
9.150622838926969482e-01 1.400165852994186833e-01 4.999446366895961280e-02
-4.147783167651317715e-01 3.984547039381193256e-01 2.033031892535469842e-01
-6.843997674365583928e-01 6.062914243803475545e-01 -3.259548046046656378e-01
-7.902032740001095901e-01 -2.740933084929169511e-02 -4.883669615707379452e-01
-9.578279529939831907e-03 -3.528553780841631737e-01 -2.095857979742841645e-02
2.677912442251487724e-01 -8.648183085830601913e-01 2.669662026403398225e-01
-2.925590255212250912e-01 -4.220660886057870931e-01 1.519480199281527111e-01
1.429082926492092898e-01 -7.319620279204784863e-01 3.374791624734994611e-01
7.278108287482425443e-01 5.402269368056246135e-01 -1.026462728506260559e-02
2.494902305762483619e-01 -3.598759716924697094e-01 3.342380401752435559e-01
6.598313491275609177e-01 4.019041375938024463e-01 -1.123337422558119691e-01
4.246481237703655931e-01 -4.225327558265879468e-01 4.502019130461529794e-01
-3.526976686180036125e-01 -7.641988659150819041e-01 -3.967795841518623190e-01
5.239323517679681519e-01 -8.307341323654026111e-01 1.769687116840974461e-01
-1.822181252798701634e-01 -6.098961721211475506e-01 2.440851320292501681e-01
7.965434243772234746e-01 -3.636205526794391574e-01 4.045876583654357539e-01
-6.277219657552981502e-01 -3.867982032443444407e-01 1.270674783282689790e-01
3.513924015152006253e-01 4.489754000394867717e-01 -1.736967630912417959e-01
5.440979039148650109e-01 -6.733903870937970604e-01 3.654469349609563711e-01
-6.548524940746989209e-01 -1.856383377077132010e-02 -5.238244153037383555e-01
-7.027963476321987812e-01 1.692088003492889514e-01 1.321674025884332360e-01
-8.807632191740227823e-02 4.980196351927723697e-01 3.004014180631116582e-01
2.798082472708594559e-01 -9.256918456356151292e-01 -1.248018726862891170e-01
5.947250590492020317e-01 7.469450820881873288e-01 4.426529886157368199e-02
-6.116930299063967347e-01 1.292824100302666368e-01 1.390955894369603207e-01
-6.073913224436665592e-01 -7.281661886451824550e-01 -2.834548919285325916e-03
-2.795155630821384296e-01 1.679292486601634826e-01 -1.881564213505551031e-01
5.818469051937471548e-01 -2.916834061777434650e-01 -1.648994165630256747e-01
-4.591575481815778903e-01 -8.584894612114206680e-01 -2.325279878338981920e-01
-2.066048705510898642e-01 -3.477473772019601950e-01 6.514839777002714993e-02
-2.722702133613585374e-01 1.909577368323337188e-01 -8.455766826239663470e-02
-5.205977211906073210e-01 -7.182123499176459869e-02 1.022759792406884027e-01
-1.503991697892095303e-01 3.024961798976783522e-01 -3.649744365921313988e-02
2.177358124245206139e-01 7.178616774462706074e-01 -2.314303730730796760e-01
2.611956889049872332e-01 4.458517013949550023e-01 -1.749144697981495911e-01
-5.067487627163730357e-01 -1.180510671461386905e-02 9.685748771810427649e-02
-8.034465209916628048e-01 5.109805865674785785e-01 -2.729297786083902944e-01
6.483159637002231523e-01 1.419968051242971874e-01 -1.244276540067420084e-01
9.621445113695706319e-02 9.806713789399484904e-01 3.827281196003239072e-02
1.248092799515117257e-01 -3.687999310362907179e-01 -1.270898987305356664e-01
-9.217044743415695462e-01 1.369240394415112694e-01 -4.111911249018797287e-02
-8.366663778107804594e-01 3.770288308136583999e-01 1.515563025406515066e-02
9.219548678291271671e-01 -2.761153059812007649e-01 2.563355731019145711e-01
-4.349530437544971151e-01 1.821770838650015600e-01 1.063418899038344884e-01
9.501440182509698906e-02 -5.049217689003694387e-01 3.036257204659818520e-01
3.790383077829376224e-01 -8.913014648999716405e-01 1.925410231505157166e-01
8.725547026321496258e-01 1.557349379181059701e-01 4.083002764887217473e-01
-1.951706773294817898e-01 3.417637853107771684e-01 1.237015953154757542e-01
-4.931800911595187187e-01 1.814858707983584840e-01 1.299982503402405121e-01
2.167217847370329215e-02 -4.538615406740675318e-01 -2.777965163847583852e-01
-5.901829589358544847e-01 -3.548549132495046332e-01 -5.123939742300471778e-01
5.006745187269019404e-01 -6.341787056471269723e-01 4.009912912134925289e-01
-9.830002588123909826e-03 4.467843858481035380e-01 -2.294235242296597810e-01
5.968797739475947273e-01 7.162352861498301193e-01 3.074592665776875178e-01
4.013545471450859492e-01 -4.735582106526333157e-01 -2.260968497596645699e-01
1.045680296867312620e-01 8.993517498415976030e-01 -1.642782270872011896e-01
-7.024419176512273211e-01 3.242151121543064562e-02 1.234700668643560761e-01
3.398093785299566294e-01 5.068336531149963964e-01 4.696120873769987214e-01
6.293973730068260775e-01 7.369444679288342792e-01 1.212896138930244783e-01
-3.291862422631867680e-01 -7.289804112047523765e-02 -9.184139448492008306e-02
-5.238572877844558384e-01 2.657315048669066093e-01 -4.875286251093799428e-01
1.350823746841994244e-01 -4.530492684353690791e-01 -2.419614116747705601e-01
8.324521331988414818e-01 3.370960140025408003e-01 7.790974431192990374e-04
-1.152587199531640710e-01 -3.256315647732307417e-01 -1.073769525937660757e-01
4.843509372313505867e-01 -2.173477457739891039e-01 -1.362157063780574662e-01
-6.850324069263955540e-01 -5.413065149029471224e-01 6.328029215803636365e-02
4.429879653970497100e-01 -6.898182551211364810e-01 3.795417484893629512e-01
7.421412324202527611e-01 5.664548735995893480e-01 3.184098249709916284e-01
8.084590975105350463e-02 3.568298069175677156e-01 2.351841222506914630e-01
-1.731199103863334809e-01 3.168417306285475910e-01 -2.054568265705089825e-01
-5.917592883989303276e-01 2.166796963176110535e-01 1.527931155408526476e-01
8.535066859098568992e-01 -2.016372580894144340e-01 -4.260195459381401623e-02
2.532294066462570381e-01 3.920618240274700850e-01 4.160872047796576045e-01
3.389608686456554998e-01 8.930425800499192102e-02 4.528141388979513293e-02
-9.180518623502350595e-01 1.219490359092106624e-01 -3.178666067440320819e-02
9.296160421387650308e-01 1.768857170584125227e-01 9.969448563122373930e-02
2.101856023606392676e-01 7.866031683292933341e-01 3.769943736574055126e-01
-1.297227419981421270e-01 -5.688848625069251597e-01 2.468744370717730341e-01
3.247013148575633168e-01 1.756714963098397753e-01 6.400853814669907674e-03
-1.345385458241613874e-01 -8.107895805670114475e-01 2.332942384493311982e-01
-7.329915586813616768e-01 -5.644210645211475974e-01 -5.137367490593942529e-04
1.049644373250394891e-01 -6.299045792271028565e-01 3.393325646851104160e-01
-8.282869238276127088e-01 5.057510685964113906e-01 -2.085614362659386767e-01
4.957495617742066485e-01 -8.034462317927240083e-01 2.597056074961386907e-01
9.100628109718250647e-01 -1.947276660680485327e-01 3.403562540334638120e-01
-5.418389709966578982e-01 -3.320007324809173266e-01 1.386391391110586568e-01
1.058290431226181910e-01 -5.823633919732080777e-01 3.341948138880500574e-01
7.092589104540042433e-02 -3.458014523336604973e-01 1.230972882267968894e-02
9.450911776781466545e-01 6.129629309090558337e-02 9.787966669567138567e-02
2.606211739543380923e-01 -7.723574560483291718e-01 -2.717412979335327994e-01
4.795487164831563898e-01 4.807275453836069024e-01 -1.643601635625347168e-01
-5.696923798150466123e-01 -5.144291891457030141e-01 -4.790898804219135831e-01
-2.081056831059141243e-01 4.054284327186984949e-01 2.033518424299402827e-01
-2.521010448945107396e-02 8.612514092412885125e-01 -2.384646054335809451e-01
-6.380862205825553746e-01 7.374349603097959394e-01 -3.570125298076500669e-02
-7.770157820869211251e-01 -5.067736858771599850e-01 -3.548893322394657268e-01
4.861619945544222721e-01 -5.364166593635845137e-01 -2.174155624828283118e-01
4.648715353032079056e-01 -4.722663670800812397e-01 4.536578025449709561e-01
3.016510152246432153e-01 2.274836442165992512e-01 -1.458195246346098706e-02
3.657122749772702686e-01 3.833781113578958455e-01 4.714626224379072084e-01
-3.623357127918200304e-01 2.236186591672519389e-03 -3.628519983018236306e-01
1.964496356202064531e-01 9.533519832339061306e-01 1.557686415994501972e-01
3.533535413310974760e-01 -9.356676668703588495e-01 1.589444522301686549e-02
9.007084925167222478e-01 -1.333720300955084370e-01 3.748152622271867518e-01
3.762405324136660068e-01 -4.789593419884063952e-01 -2.310997885663225726e-01
-1.224161721588995083e-01 3.589553008308971060e-01 -2.062599556373508891e-01
-5.351589578490740795e-01 3.681871235237387241e-01 -4.777647080477842589e-01
8.390265412099000564e-01 2.115815001855549382e-01 4.301613919612608528e-01
7.090867151904610699e-01 1.261755976811081981e-01 5.138433003484076389e-01
4.080488357688404760e-02 3.556718661259931635e-01 -6.757373795009989637e-02
9.242893409871824617e-02 4.299141357067993163e-01 -1.768118506490074793e-01
7.652757991600667165e-01 5.892285398900024562e-01 1.766804216748995016e-01
-3.123098126945792474e-01 -1.586561568068398376e-01 -6.142572758872537342e-02
-3.679116242506369483e-02 3.629185753376147905e-01 -1.253474108342172433e-01
1.435400227631042358e-01 -3.495224086907706140e-01 1.936507455394163857e-01
-5.740269170207007443e-01 3.636880910021718094e-01 -4.805625511504441061e-01
-1.570299846487541173e-01 -4.159043172837250113e-01 -3.536915712736011241e-01
2.545836903939319718e-01 3.061020917944203834e-01 -6.087514307163530841e-02
4.197784000134590077e-01 -4.548313115359782222e-01 4.466137977488517929e-01
-3.143291592772707310e-01 1.567344698603556630e-01 -3.141780598495802490e-02
4.081678488424029805e-01 5.473235506139881856e-01 4.749381189821089699e-01
6.316284313582733179e-02 3.900875826431010607e-01 2.719110564688649867e-01
3.552416379742044938e-01 -1.031364009340986071e-01 3.589893151970317553e-01
-7.471992762468004923e-01 6.318138391955623046e-02 1.129156345757328234e-01
9.568022569101494734e-02 3.172012471419146107e-01 1.016920903061654252e-01
9.134729626631608035e-01 -1.281509980167178930e-01 2.667277060654656140e-02
-1.785449808204254377e-04 -3.927736606136141839e-01 1.332531370837682083e-01
-1.239526449915791528e-01 3.157076116496851936e-01 -1.339400967825866810e-02
9.463063038434160745e-01 -8.866289855400431852e-02 9.438725235239425748e-02
-2.626539157918279521e-01 -3.474272283825439178e-01 8.879459292024946548e-02
3.506102343167887825e-01 4.908946519414649212e-01 4.725942361500328204e-01
-4.483518258603814144e-01 7.467849257145096065e-01 -3.295837794217281735e-01
-8.637663157207642328e-01 -3.088577489710862545e-01 -2.080502050030684849e-02
-3.741946254606486333e-01 5.757781013835043815e-01 2.545360366931224139e-01
6.378744773429766424e-01 -4.235489715471415506e-01 -1.623829846964281176e-01
-1.688344361908444280e-01 5.101786399400467520e-01 -3.486088393055002954e-01
2.867863925356740618e-01 -3.899096857889409184e-01 -1.832310593967061141e-01
2.505346016516271090e-01 -3.568009889431380532e-01 3.335058164962162452e-01
-6.541453820170000100e-01 -7.005278479278469472e-01 -3.661707315089819670e-02
-3.251519952176913364e-01 3.273123982013282918e-01 -3.913000474338242940e-01
-2.408491746809368894e-01 -2.268077390912513203e-01 -1.472136484177189175e-01
-1.982178662264485192e-01 -3.119997803140903692e-01 1.384400419469569580e-03
-9.370460678358749629e-01 1.552962848511097171e-01 -2.987454113639099185e-01
-1.514277037742289000e-01 3.189747484071093764e-01 -1.691626426451071086e-01
4.553017893811953098e-01 -3.806749985706094352e-01 4.617785279920714192e-01
-1.613435317186227014e-01 -5.748822030276006245e-01 -4.183812877056382606e-01
6.393165245215178816e-01 -1.437708280141742345e-01 -1.396948922236758428e-01
4.179559994512078158e-01 -4.162262608083058257e-01 -2.051918771718775625e-01
-2.700016087789006702e-01 1.869385219647436702e-01 -1.123416261620711065e-01
2.647509884468667307e-01 1.773834032846999531e-01 2.365840430562476115e-01
4.185603762503045111e-01 -4.038232223946170429e-01 -2.004281336676028702e-01
3.477376747261626821e-01 -2.450134103421647280e-01 3.850327389432677827e-01
7.274729097096436226e-01 -1.444519128060902657e-01 -1.228230563987958990e-01
8.775087327626578393e-01 -4.418676630438183282e-03 -2.384398645307604647e-02
7.222767846565356642e-01 1.091489766444174031e-01 5.110457332108196971e-01
-1.957256875558236464e-01 -8.713457883576349872e-01 1.700224878286886454e-01
1.003556178734153204e-01 3.775429308439642861e-01 -1.091491821092770292e-01
4.288085158254477114e-01 2.185045783476300407e-01 4.767681208699882101e-01
-5.380647836179582866e-01 7.216593351435622861e-01 -3.161451889838804985e-01
-2.887871472972486711e-02 6.043831688543993552e-01 -3.118653322189935961e-01
3.111748953478302160e-01 4.851814724722202654e-01 -1.891160822714433309e-01
-6.340214059750729492e-01 3.164947812455347342e-02 -5.216534364978476779e-01
-2.430551545919792111e-01 -3.441401201730306392e-01 -3.743570861217366819e-01
-2.794049961904615520e-01 1.776777500446849456e-01 -9.280097945050040653e-02
1.936874197249127960e-01 -2.946716494836265077e-01 1.931075252981323889e-02
6.536309681780829717e-01 -7.168350313684416220e-01 2.272554760823630726e-01
-4.967324526730667600e-01 2.887317384298896394e-01 1.663416840069632807e-01
1.071884332593462247e-01 -3.368908882993947307e-01 -1.317421775709311065e-03
-5.529509148020253506e-02 9.060276999723991809e-01 -1.997829802326283877e-01
-3.435054661276067400e-01 -9.067927308094879679e-01 2.688271965810664493e-02
2.079374751363787521e-01 -2.969229102309067780e-01 2.123609644535604801e-01
6.283133034485717250e-01 3.216100918210423876e-01 5.092319132602163290e-01
-1.036097260940533754e-01 6.302241843933242826e-01 -3.393843503087755065e-01
7.766325562505814462e-02 -3.763049966921369616e-01 -1.413973423550690944e-01
4.574024266950690309e-01 -1.107815682879051133e-01 4.633507477204371061e-01
1.082525668096415150e-01 9.543094859668277419e-01 -7.341251056802379493e-02
-9.053331879222132131e-03 -1.000000000000000000e+00 4.924853297916562817e-03
-7.323569212890039815e-01 -6.388566801144150986e-01 -2.419583159766349745e-01
3.063995565587300240e-01 1.228562255231701456e-01 3.017005641062432408e-01
-8.251740953554194125e-01 8.260613020192089651e-02 -4.605836553861032967e-01
9.631580518065176177e-02 -5.162981220986428976e-01 -2.998152283963594900e-01
7.449121422876525678e-01 -6.074589949369009201e-01 9.091123889402630970e-03
-8.230212983128709636e-01 5.235349124307204782e-01 -1.633166853224042037e-01
-5.668352511589128673e-01 -6.667469176368523431e-02 1.162938478296120931e-01
-6.632905032697060665e-01 6.641200125408960320e-01 4.625222152939215819e-02
1.146858199898857095e-01 -3.335133817883569884e-01 9.653711092788215195e-03
8.797593343138571109e-01 -3.897286566473034952e-01 2.611397323865936593e-01
7.637015466333938463e-01 5.432009624141070914e-01 3.121514208047617700e-01
-3.508630818327176382e-01 2.316660980697008987e-01 8.528826961137089824e-02
2.781235638209300642e-02 9.163380007970445273e-01 -1.687703251906449153e-01
-1.157494005196746042e-02 -6.470920144586875811e-01 -3.768256408407729685e-01
3.555539865661758864e-02 -3.594216544334361552e-01 -9.247549321502321340e-02
-2.019922346856599660e-01 -2.959085785905268273e-01 -2.689002853349229949e-01
-7.964982805361289775e-02 3.339005202939439032e-01 4.595178220807610153e-02
6.098938087543684938e-01 2.871220670205499315e-01 5.160357149170164970e-01
4.948127581467184344e-01 7.682570262136260153e-01 -5.728519646746077498e-02
-3.486041651354970239e-01 -1.461287343218141410e-01 -1.250555994630672685e-02
6.774913036001183331e-01 -7.157752647496806730e-01 1.691332437252220100e-01
-2.142714660170106644e-01 -6.046692431590595662e-01 -4.361094307192674435e-01
7.175649473537883960e-01 6.011901637323888714e-01 3.353874468519533331e-02
-2.137383622504459568e-01 -7.650082890355929255e-01 -3.981967036863084952e-01
-6.680741290037471858e-01 3.484558978129477791e-01 1.509191829595235568e-01
6.415261739413506996e-04 3.952569127027023566e-01 2.369157798073897314e-01
-2.120074540096029969e-01 3.701845495069970293e-01 1.662621788289550540e-01
-3.387063377634690342e-01 8.905385297556531743e-01 -1.912394515563680120e-01
8.553980244686245626e-01 -1.985638879373272936e-01 4.124541130402061273e-01
-2.187831010214816574e-01 -2.698669938407785573e-01 -2.545585566386514564e-01
-5.415913121410673714e-01 2.124934584169625440e-01 1.492187777392549319e-01
-3.282510717543139500e-01 1.730649468544081804e-01 -3.370727878088277674e-01
-5.090483749569872651e-02 7.397751174194174828e-01 -3.087740345131113062e-01
-1.749604769119502690e-01 3.652886740908826702e-01 -2.724922227910675510e-01
6.046419939690086953e-02 -4.125490658152372037e-01 -2.123383281022349633e-01
-9.681505676913097769e-02 -9.964655353456247644e-01 -6.367380673134465097e-02
2.220553017188139217e-02 5.593672511850011908e-01 3.675238926935219808e-01
7.287014472126740472e-01 -4.790580313210181518e-01 -9.778169828679826592e-02
8.673974635945082279e-02 -6.227053511150638654e-01 -3.427795872546829381e-01
2.128877223305594701e-01 -2.792648708831547144e-01 2.892974995677492431e-02
2.572704931797374917e-01 2.374121557442447905e-01 3.157783601270556240e-01
-1.191797231538137131e-01 8.246887922184307218e-01 2.915814002091913215e-01
-2.920728292116558378e-01 -7.411490049135609492e-01 2.019690285862360268e-01
9.581683481312018857e-01 -2.512468451258125998e-02 1.337420460005383782e-01
4.039942045854518216e-01 -9.123521325235959267e-01 8.981518984549717588e-02
2.162297741812405916e-01 9.588885398718081099e-01 9.067222259744503465e-02
2.248436554493184747e-01 3.468909136110371327e-01 -9.238616924098358441e-02
-2.570965697827145603e-03 9.869924056602683571e-01 4.019903250262590877e-02
-6.179613312684392179e-01 -1.265560991449015682e-01 1.237877984146779353e-01
-3.952800499478688612e-01 -7.455704117332165315e-02 1.725007366457353974e-02
-3.790345361288125492e-01 -8.475732594408474929e-01 8.672275179237658171e-02
-6.614514224739941328e-01 -4.519804717680157569e-01 1.061751369338192474e-01
8.306398003058693691e-01 -6.595288332656130958e-02 -6.765084031392128161e-02
2.572381754422138345e-01 -8.076776983569967650e-01 3.162031702026783520e-01
-7.633900945700365648e-02 4.250995191448307398e-01 -2.471909271152128162e-01
3.934201694149421780e-01 -1.521928461021501144e-01 -5.932383691491512762e-02
-4.407109943571901334e-01 4.284859225017285944e-02 -4.511970439045107639e-01
3.409800874331115339e-01 1.400110388810540604e-02 3.302984589992359332e-01
-1.196223860431737673e-01 4.080010768247186448e-01 2.125755857076066513e-01
3.347774387983487587e-01 7.975568641223034216e-01 3.607087837792691265e-01
-8.172410448889597667e-01 -1.346183422107963545e-01 6.585239367988685033e-02
2.047859699294297120e-01 8.826476316456405291e-01 2.932847367052260346e-01
7.416485719839707169e-01 -3.312359648571085863e-02 5.048222994996428570e-01
-2.782790959780384599e-01 9.043727212227337109e-01 -1.918729441061438890e-01
-4.770439006240737023e-02 9.696705416491971929e-01 1.293362375787365792e-01
-4.904545827105631917e-01 6.890298856449833531e-02 -4.825306145867430119e-01
-5.786712901084909433e-01 2.351667695821164084e-01 -5.000725390619674693e-01
-6.351169946549135581e-01 -5.977376209658233908e-01 -4.131843086771667117e-01
-7.203275462590791323e-01 4.805820267493787247e-03 -5.136278048376777816e-01
-4.886484230101184045e-01 3.369856879049877851e-01 1.813387266455201985e-01
2.178971906073684239e-01 9.344664190965563666e-01 2.020851575635248809e-01
-6.414049459351417459e-01 -7.462495631742573909e-01 -1.564527285949413871e-01
-8.436498684824144112e-01 4.621206977002066951e-01 -6.862901311195609977e-02
6.848783783350624876e-01 3.769051113870448000e-01 -1.043687077220840365e-01
-4.822845647172585015e-01 -1.706227009620728541e-01 9.812040772306095116e-02
3.666582492300213825e-01 1.817283699738844738e-01 -4.050258715397397208e-02
5.221299608569986983e-01 3.742720951359624904e-01 5.073385882513185008e-01
-3.430153409209650284e-01 4.378099654018071663e-01 2.230267114154173280e-01
-2.267624403092352581e-01 -6.771631823524495442e-01 2.360211283507822888e-01
-4.962109144865702315e-01 -3.915917553778727189e-01 -5.057660807481568765e-01
5.480908060143122653e-05 9.801417767046236573e-01 1.017066884791056752e-01
3.196785939766287887e-01 7.413431455426780503e-02 3.000890193660274985e-01
8.739489162086059304e-01 1.849668665359323061e-01 -2.474680201459100964e-04
-2.552953063009708590e-01 -5.116998420136698034e-01 -4.436870607525022492e-01
-4.339748803283729507e-03 8.547417833310357871e-01 -2.387774806448922926e-01
5.385497597817314741e-01 2.106479822504553345e-01 5.155197850921523495e-01
7.180255737076034483e-01 -6.078234152825212622e-01 -3.699010483199963173e-02
5.530922637833063371e-01 7.368446188211197345e-01 -3.242936828176307129e-02
-1.504893619261882531e-01 -3.415497253469506611e-01 2.378741185641837508e-02
3.119112394050416737e-01 -2.377046993157397314e-01 3.394899769488339270e-01
6.079272174620401481e-01 4.244845836720172461e-01 -1.303467738153999689e-01
1.465483159343523856e-02 9.457720848729804786e-01 1.990796327868643856e-01
-2.764412032523493878e-01 6.694591204276951757e-01 2.862775328366787830e-01
2.683087399069540857e-01 5.917248917407341713e-01 -2.220174159715204987e-01
-4.225862875273104224e-01 -3.519522638043065532e-01 -4.882236116726417774e-01
-7.099005132034934551e-01 5.978523833572314539e-01 4.671194483127360381e-02
1.514917818720534467e-03 -3.617442020242607748e-01 4.730992789198742304e-02
4.250420355010116613e-01 -2.180573551248890241e-01 -1.137293891619997749e-01
2.808667801692356081e-01 4.099614545722032322e-01 -1.544518948732903352e-01
8.362708050059578513e-01 2.545124302507728586e-01 4.200633940826697943e-01
7.847871756797041298e-01 -4.656963348111385903e-01 -4.556262604636812652e-02
5.463640521024001329e-01 -1.007836290081033370e-01 -1.247585496031238250e-01
4.518265906720198566e-01 6.494359716845532482e-01 4.377519350688389710e-01
-8.734356745370705499e-02 3.737485901451545467e-01 -1.928614829750464887e-01
8.993852896074874259e-01 2.656669439454396528e-02 4.650477011640447370e-03
2.505200300962396875e-01 2.603926822853426248e-01 1.744055888587785327e-04
-8.332497624276261061e-02 -3.739593715151346975e-01 7.242200176090561603e-02
-2.934296960254222930e-01 1.881111060709519944e-01 -2.786546716477159569e-01
-3.211978680676524367e-01 3.818704770846517715e-01 1.910714671521347441e-01
-5.384557096333013604e-01 -6.417692548345190762e-01 1.208864126058173533e-01
5.136315134445014197e-01 -6.808388466128533212e-01 -1.802831821467482942e-01
-6.334844248756651419e-01 -7.343605859136520531e-01 -2.519160838160588445e-01
-9.312274476044197710e-03 -4.083529103292540263e-01 1.559635947902809627e-01
-7.876776703507785138e-01 -4.948990217115107892e-01 -2.164296024288027420e-02
-3.094017539892952584e-01 8.003908966621180177e-02 -1.863709415774535139e-01
7.031201220372835792e-01 6.044141257746555862e-01 1.387889700020853226e-02
7.363535967586487541e-01 -6.495363650706776903e-01 7.078238594975716502e-02
4.490549802031300053e-01 4.527961207651136355e-02 -6.647973274407088795e-02
-6.737415759301752516e-01 -1.046953435421264650e-01 1.216402201471680905e-01
4.788574483987064201e-01 -4.895492095863092641e-01 4.520071796287015164e-01
-5.275258590279860993e-01 -1.713051103470458192e-01 1.132825895279585826e-01
5.460577810743604266e-01 -6.098175969145961384e-01 -1.845006293374482909e-01
4.955000605780773837e-02 -4.183409069432151295e-01 2.054059638826795653e-01
1.553484319545395398e-01 -3.143003215312307752e-01 1.057794309003325800e-01
-3.433005397109516466e-01 -6.018530416036055319e-02 -3.384731018728857066e-01
-9.022431994387318799e-01 -3.571595540553275661e-01 -1.890973988191573807e-01
1.062126889343798647e-01 5.023974644648384613e-01 3.818826501353786984e-01
4.243740590042212046e-01 1.578406929152625648e-01 4.641785652934389828e-01
-7.924985259623569533e-02 -3.393932717134525157e-01 -9.169607398924710384e-02
-3.520302518281491766e-01 -3.605739874180181048e-01 1.257767463935399177e-01
-8.696979401369046847e-02 4.013807473112180890e-01 -2.300817943066563454e-01
-8.635480950913257958e-01 -3.301267644245219901e-01 -3.637173178030079779e-01
-6.592339971810061705e-01 -1.032778624933735311e-02 -5.233179598361278329e-01
-2.660753564822467832e-01 -9.037496400388406181e-01 9.693758954371671510e-02
5.053398188921260914e-01 -3.638808887172071405e-01 -1.853390268506355798e-01
5.501262599942429166e-01 6.270982214134992461e-01 -1.129898619790668107e-01
4.720937698765682589e-01 8.311092739875716173e-01 2.406950578334056678e-01
-8.954457097560406531e-01 -3.541703158158214237e-01 -1.273368359046766207e-01
9.588460491906168892e-01 -1.155600616064040853e-01 1.697934850615451519e-01
2.616935740281738434e-02 -4.097102647810933473e-01 1.778718083910117986e-01
1.265227407088572419e-02 -3.600773662638747097e-01 -1.042320720209021778e-01
4.341959828722035675e-01 -5.343576057854217964e-01 -2.323604453508734402e-01
-7.853465888544084450e-01 1.431126355016401064e-01 -4.759830792608711891e-01
3.102466540195114031e-01 4.563021370633795759e-01 4.589684975954146373e-01
1.226429381048655710e-02 8.764415422023463798e-01 2.882970893894321596e-01
2.173142526451943279e-01 -8.266507502714226518e-01 -2.630969206312384623e-01
-3.496037414763659701e-01 -8.882530048253466093e-02 -4.066188446918002353e-02
-2.286319273875216385e-01 -5.564329907360090477e-01 -4.391326579251209616e-01
1.980485611024930814e-01 4.665089674331135416e-01 -1.910603114265579106e-01
-8.603835847232886858e-01 -2.565391208661841893e-01 3.474568859955357285e-03
-6.275219493146237948e-01 7.563859017832313958e-01 -1.029789309459000490e-01
-6.330108623289808500e-01 4.992837329142862934e-01 1.564962877975666355e-01
3.089129622372044914e-01 6.205448618389160925e-02 1.564652474377354607e-01
2.210256606588654194e-01 -2.677020412090436174e-01 4.973899867095793459e-02
-1.789495332434658803e-01 -3.046078464512672612e-01 -4.095367614490206393e-02
-6.724625398691099765e-01 -5.195514336430733238e-01 8.161062995457860070e-02
-8.409024366838985243e-02 4.653542586686837956e-01 -2.835147183528258230e-01
-7.066313562155249750e-01 -1.600156668761823775e-01 1.138898608069950497e-01
3.949272568664242700e-01 8.946424043040062113e-01 8.955327863108995812e-02
5.693508149910462279e-01 -1.009480483183241850e-01 -1.298538213074853787e-01
2.586617843046500886e-01 -2.432779796992112220e-01 2.133462233353158530e-02
-4.490502453463814103e-02 3.386280473044718242e-01 -4.171586361632545481e-02
-8.686576600898937572e-02 7.805630532575609237e-01 3.239746649268613332e-01
6.311220683781135765e-01 -1.102763007889432795e-01 5.162390496793258787e-01
-2.350490260484029703e-01 7.817185822922660954e-01 2.716355392233913979e-01
4.797455126480290599e-01 -4.643096269507532986e-02 4.786986312170598556e-01
7.141203518841717779e-01 9.405813174964779144e-02 -1.144607374181086518e-01
3.543676238339506512e-01 1.759462594975807204e-01 -2.614301124997276543e-02
3.600873127636173426e-02 3.335521363351922619e-01 6.848733251921176879e-02
-7.649279688219348117e-01 -5.729992002694247327e-02 -5.001364763321326512e-01
4.913967806612057343e-01 -7.143927327653818438e-01 -1.789835795324231649e-01
1.569865388468592027e-01 -5.348664915801857322e-01 -2.931259013615628573e-01
-4.879566093414096084e-01 -7.281162757746735270e-01 1.096270293553504999e-01
3.703924587735915597e-02 -7.415364101578371114e-01 -3.555355631359182755e-01
4.046686139327028697e-01 -9.135267094184068570e-01 2.717569914961059929e-02
1.871941742659261054e-01 -4.157057333284891465e-01 -1.994286921489920317e-01
-6.296166865591670270e-01 -3.892926785241249688e-01 1.263639048198696713e-01
3.280635179232638809e-01 2.082939598238870427e-01 -2.358669827719166862e-02
-1.491328408842107212e-01 -3.099955189820379209e-01 -8.945225981354640310e-02
-8.987870226727788792e-01 3.658184695473660208e-01 -2.022214717815264129e-01
-7.251912652961871597e-01 5.392186446717288362e-02 1.193796359716824823e-01
-3.830276112032980906e-01 3.536264488521566052e-01 1.809192429431084048e-01
-1.375836409412519723e-01 9.697911530556205806e-01 -7.226697792151356992e-02
2.870891883117508425e-01 5.238339442300186111e-01 4.558653899675484400e-01
5.426554399845576748e-01 1.457632940482365448e-02 5.090212648439116361e-01
-4.102828615952595556e-03 -9.987061485632781066e-01 1.624277279335037752e-02
3.123270448937271945e-02 6.186222210318105263e-01 3.818026684764260770e-01
-2.337829600650448425e-01 2.443137573343093782e-01 -4.911152085184103400e-02
-2.896004554539571285e-01 1.676462236722325305e-01 -7.736710404870979219e-02
7.592898970122061719e-01 -4.566907348753216356e-01 3.857839731487867074e-01
-5.862493495395809662e-01 2.198830548858754230e-01 1.534226184977881824e-01
7.616895831989207721e-01 -1.368200083359039608e-02 -1.043584577637260286e-01
3.992096709460979942e-01 -8.923314196067299031e-01 1.738405399415727248e-01
7.166107994424354699e-02 -4.291425334775182954e-01 -2.313267858563551604e-01
2.422425678198272120e-02 -3.789854339354946644e-01 1.184349788523184899e-01
-8.212497023792337814e-01 3.959436420399578549e-01 -3.565217295589556690e-01
-4.116813277869588172e-01 1.736894127673100641e-01 -4.320053908533387221e-01
3.572355768103332441e-01 -1.820664850213149499e-01 3.788038589167047054e-01
-6.708114654627023166e-01 -3.451915464962303226e-02 -5.232520729884797550e-01
1.407072805744993479e-02 6.808983780615979198e-01 3.765444029827019756e-01
2.977877801241378686e-01 -1.612843443179559910e-01 7.985113369421840968e-02
-4.503880147345815654e-01 7.306504520714579565e-01 1.891302852719411454e-01
7.590933915322498615e-01 -3.450879839017330086e-01 4.391290309325239227e-01
3.316704024183149691e-01 6.629027488933348922e-01 -2.019024631525659919e-01
6.676570353275936842e-01 -5.000160355718689109e-01 -1.377503812764024616e-01
-1.837429567700309407e-01 3.408755604853214161e-01 -2.565779466809716691e-01
-1.884043014156463747e-01 7.484577018943430193e-01 -3.352169076117862967e-01
6.991381188801234492e-01 1.673436665949901495e-02 5.176053322956893910e-01
-7.164199395765299405e-01 4.669029529852052884e-01 -4.053322310720199328e-01
-1.964025947802995886e-01 2.700882515683922236e-01 -1.013315413037187279e-01
-1.162502995203828077e-01 6.521550802719296991e-01 -3.425595180371504567e-01
-7.364014971455056235e-01 -6.122895540673202186e-01 -2.900647768581546271e-01
-4.000201579922804673e-01 4.806114231751572145e-03 -4.144537803124498931e-01
1.460340820704695008e-01 -6.372158600687688468e-01 -3.268155475564830104e-01
2.208262235584651789e-01 -2.682694117777939535e-01 4.801647474136604837e-02
-2.834455261209902210e-01 2.312261598229879977e-01 -2.966837701397643801e-01
3.330295526262145867e-01 1.243423780256521366e-01 3.373577623070757314e-02
4.823268770889038021e-02 -3.607713879178286454e-01 8.461207410159170272e-02
4.573693994094475967e-01 4.027255221516582440e-01 4.978747640987266077e-01
9.543109411830983380e-01 -9.120416068576100987e-02 1.248332352291517677e-01
6.084478167612449306e-01 2.357464985956481129e-01 5.205730455557103786e-01
8.601804105700950887e-01 -7.943064081047847280e-02 -4.299625215918732174e-02
-6.092640383820598915e-01 -6.958359652931983552e-01 -3.458789051621617427e-01
-1.390414480478177062e-01 -5.402350778654286811e-01 -4.032710209360471088e-01
-4.381340410346090120e-01 8.009440918669944454e-01 -2.784465488094055585e-01
-3.834596115322411181e-02 -9.787914617816475538e-01 8.114612565069023731e-02
5.729667641525114652e-01 -4.432409084858725534e-01 4.643786574572437709e-01
-3.183155058338810739e-01 3.107034067113713036e-02 -1.600824110822534896e-01
-5.334277680693298995e-01 -1.450529748264943464e-01 -5.122251931892114474e-01
-5.160567344031427028e-01 6.605065297707473082e-01 1.815134114470137727e-01
3.033867867057489787e-01 2.770825334090964431e-01 -6.181823300382436465e-02
4.283901470626700902e-01 -8.300000194356650374e-01 -1.373737615709586801e-01
-4.440743066614097345e-01 5.131910168168972719e-01 -4.408516546750331777e-01
7.045902503056507005e-01 -3.692388034508432559e-01 4.574172996157414017e-01
1.810546584904520750e-01 5.910430670878676906e-01 4.265608085089338530e-01
-6.796324691461437251e-01 -6.889087257138157838e-01 -6.891470126673437946e-02
-4.168346696374586879e-01 -1.749683483630521674e-01 6.471705695280691173e-02
-3.236673836478664440e-02 8.183549304058628238e-01 -2.700719693587242953e-01
-2.713853306516733621e-01 1.868099587660694005e-01 -1.985407584442611395e-01
7.947915277716498528e-01 4.180494243140115418e-01 -6.120980663900730222e-03
-2.372083260672903926e-01 5.869639831925166362e-01 -3.833383321459967741e-01
-3.381434072485682285e-01 -1.025789159801783201e-01 -3.451336220497735474e-01
1.454553678202821429e-02 -9.996286548680196615e-01 -7.500079488833921726e-02
3.462434494024408949e-01 -1.263185612948530476e-02 5.690968082439058079e-02
2.651299618869440433e-02 -5.040976419457323665e-01 2.691059604875970512e-01
6.441253988375602590e-01 2.648830098056701443e-01 5.147033055979385319e-01
4.748679635266483956e-01 -6.281013674016819315e-02 -8.946442177335514612e-02
-1.097413808995894996e-01 3.242137941838644788e-01 2.107541812342151460e-02
9.311029706259960070e-01 2.327462975832939873e-01 2.359248812127461570e-01
-7.498211017635031395e-01 8.006124794399022138e-02 1.127143207572126743e-01
9.258258362876284897e-01 -2.889353736028919539e-01 1.456623287465780292e-01
4.606993679254689500e-02 5.451489305815371278e-01 3.721026186288975413e-01
5.229875321920228748e-01 -7.463295223015450341e-01 -1.350991086202122382e-01
