4.063325530943556751e-02 4.534398466352725920e-01 -7.139029817871711536e-01
-3.359414590827839997e-01 -2.797895296317113312e-01 -6.795696200787372243e-01
-5.870988015165984342e-01 -8.053981917956386516e-01 -1.060069657762066908e-01
4.397904088713677773e-01 -5.918049171638585237e-01 -1.172620082786387796e-01
-5.594601603743266649e-01 -8.491619900072712168e-01 1.204925338173860189e-01
-2.934719635122150505e-01 1.698512805299567108e-01 -5.485153374700373063e-02
4.301497837060471174e-01 1.359167301552546003e-01 3.624087642885954197e-01
1.265187721713661451e-01 -1.039221470850384826e-01 6.913784284206421493e-02
-1.918282445183229767e-01 7.169295339917807208e-01 -1.953171206373538749e-01
3.630262847936654991e-01 -6.516165491015679656e-01 -3.860506208300372444e-02
-7.317613437800369880e-01 -2.090355651284923344e-01 -1.169392015240553959e-02
-7.737748677640212680e-01 -3.461154460647278830e-01 2.022587654356824277e-02
3.393083284175787973e-01 8.998454190352470627e-01 3.622475854496682857e-01
-2.396657214816957648e-01 -4.944494407491258348e-01 -7.657185700626741864e-01
2.808746700298663801e-01 -2.982858869156727599e-01 9.340265718695658914e-02
7.357336371292665100e-02 -5.740464904595481838e-02 3.777009718074164635e-02
-5.215004018079616444e-01 8.244551881280538785e-02 -1.682574619447342601e-02
5.692898323047967946e-01 5.057101533679556060e-02 7.009652493514118010e-02
-1.824351380534539602e-01 2.245863871221294092e-02 -1.347840251461653593e-01
-1.576155334730797719e-01 2.265433289193163613e-01 -5.886649358610986926e-01
2.986008836293349011e-01 -1.553430406598714508e-01 -9.668879795712098657e-01
-8.910603920574755588e-02 1.682133596281221860e-02 -5.628438134793863762e-02
5.448253352390293180e-01 -1.705581695282859245e-01 -5.566695845536275694e-02
-7.046686547546631152e-01 -2.952293666867403243e-01 -1.149653195189131588e-01
-5.954169173739537468e-01 4.985983648171413707e-01 3.737838999567562048e-01
-1.821607635407504200e-01 2.112495055595713378e-01 -3.268718586714333685e-01
3.599879032815616609e-01 -2.235106252921072179e-01 2.379166854957176849e-02
-2.033555056194606692e-01 3.099847117251091633e-01 -2.346322021254926837e-01
5.468846649462237863e-01 6.527868753464930451e-01 3.913303781319039665e-01
3.192533783020148341e-01 -9.911629877236044495e-02 -9.671261243982609557e-01
-6.123737111750141571e-01 -1.405452005217544542e-01 -1.320418545125913445e-01
-8.181306515717479133e-01 -3.635210402941070895e-01 3.064376507805807170e-01
-7.456464349020989080e-04 5.907569603793479951e-01 8.191688978812801114e-01
1.658958684001046180e-01 -5.594069682260049275e-02 7.167085008001632396e-01
1.646725495728997846e-01 -1.199102832083902559e-01 6.704646944324049729e-01
3.654786331560707646e-01 -3.084783121549363738e-01 2.843162701925519217e-02
-1.112617153253629976e-01 9.174321737480971295e-02 -6.048621124135678678e-02
-9.129892723395136023e-02 -8.785146876703293639e-01 2.857742543570234717e-01
1.665478267501230292e-02 -8.779080215259758013e-01 1.920214807180314898e-01
4.846632418565958722e-01 4.712798943058975620e-01 5.225573205424656198e-01
-6.907659203766617351e-01 -2.653329981552677297e-01 -1.217773644144225231e-01
8.627591510113395701e-02 -9.370835303067719391e-01 -8.269155411291242985e-02
-5.157543653080479684e-01 -5.679090697534758952e-02 8.815160273000474112e-01
-4.877325128232379847e-01 -7.633213250610090261e-01 -3.805733033906335550e-01
2.102959253332971068e-01 -9.086365727254121227e-02 4.216155101381954123e-02
-8.023880498315320020e-01 -1.400539920499971613e-01 5.123483631050215203e-01
1.232963686757851951e-01 -3.127396462261348986e-02 1.095741609867827288e-01
1.395833018886619703e-01 -2.370274904575747285e-02 1.119253103876686889e-01
-1.543961340874815125e-01 1.046705170676869578e-01 -2.128638028988990294e-01
2.999976198917225223e-01 1.795281785010860096e-02 4.559585995026275707e-01
3.741679675141897365e-01 -5.683397398380259924e-01 -2.355585581898805934e-03
1.979417379476778871e-01 -7.067021031821510424e-02 4.186154225521262345e-02
-4.641750753734223967e-01 -8.195394426754895045e-01 -3.394521323478773556e-01
2.683402638465497425e-01 -6.595288612031009468e-01 -7.489781547127818406e-01
-5.333851789099082197e-01 -1.306533277606994614e-01 8.624846653543433161e-01
-6.295764113275227336e-01 4.475787859435504945e-01 4.609409839806151155e-01
1.651557387371926366e-01 -3.418716510411370924e-02 1.526733673082470433e-01
3.074451622436355502e-01 -1.806961774148934871e-02 1.001071577556768288e-01
2.647547836432255774e-01 -2.067101338067427359e-03 2.267143004965917752e-01
-3.485442104406592523e-01 7.743662754294662331e-01 1.865983097328719476e-01
-4.767012482272621199e-01 -8.221082465033648923e-01 -3.163263686699470667e-01
6.650780538262578423e-01 6.551917987388231612e-01 1.724263915628312382e-01
-9.204597841346359721e-02 -7.916811424367506955e-01 -6.509319772957553596e-01
2.641543235123327560e-01 1.275056278537015919e-01 6.924313814948471757e-01
1.013809163859291478e-02 1.944308687084769088e-02 -1.417041090112069850e-02
1.183838401733624812e-01 -5.559794946223024781e-02 2.690912619720609369e-02
1.595300305353571924e-01 1.000000000000000000e+00 1.448219217682853166e-01
-3.216729393303466300e-01 -2.755350579491726640e-02 -3.199817323320984785e-01
3.772144931645973198e-01 -7.493632980798147214e-01 -4.865217191503808936e-01
1.678082690667019872e-01 9.941552344529169805e-01 -1.800597635387155004e-02
-1.149180243409759078e-01 4.161503125260625213e-02 -1.263841145255246434e-01
-7.864407024973149585e-02 -6.312099353016621395e-01 -7.859036135205289542e-01
4.108907645355754368e-01 -3.102242906223945385e-01 -9.038298983462667024e-01
-1.629519978786384549e-01 9.606795670564353962e-02 -5.600295101082240073e-02
-5.427680524975476706e-01 5.826708819712949072e-01 4.163472970053878619e-01
3.557347926940439553e-01 5.420084866949292923e-02 2.952302682185666827e-01
4.244575015872287249e-01 8.469041027482340778e-02 2.477595893528704019e-01
1.416794211334475861e-01 -3.178226421792598039e-02 1.259971245140290852e-01
4.592401436293869210e-01 2.034389764395522909e-02 1.087206027699175875e-01
3.825545476886742513e-01 9.580736838427760249e-01 1.105697719998300355e-01
4.607504746428475739e-01 1.226049190305773251e-01 2.756275532548024265e-01
-1.050539372717823883e-01 -5.196277352667418858e-01 -8.307804799886723268e-01
-1.134933690894394942e-01 9.574514831086960998e-02 -6.392127124149020456e-02
3.230831659864273342e-01 -8.095394779828462006e-01 -3.901956222340660640e-01
2.586460042768046197e-01 -9.309218730740769290e-03 2.473908576125194991e-01
1.774005471471114814e-01 -1.852558563737563557e-01 2.259428395183570859e-01
8.000897975051154409e-01 5.996691237614176773e-02 -2.674037124145678956e-01
5.005074345226774302e-01 8.380941844363865023e-01 2.600417313336845226e-01
-2.300299869479780490e-01 3.223148622648073225e-01 -1.775350849344952409e-01
-6.570063038912281606e-01 -1.990790081695538449e-01 -1.259408371337902843e-01
-7.206188048382780043e-01 2.537668935261671033e-01 3.923837585011278328e-01
1.679798275622203241e-01 4.080863252845821632e-01 -8.150810684101035264e-01
-2.204509698556163522e-01 5.014399688603032174e-02 -2.806566132840671024e-01
1.431018302110647344e-01 -1.103804365810247545e-01 1.580120610698666495e-01
-1.129536233647328858e-01 4.063840725165388662e-02 -1.237711516583126226e-01
3.251347804683682452e-01 -7.225751992086822950e-01 -4.695330605788302497e-02
4.388148406135368162e-01 5.656451449291369782e-01 5.636285983858998483e-01
2.786027204866070028e-01 -9.977982145523810187e-02 -9.714290340295118620e-01
-6.459375580666152361e-01 -1.137129329213508594e-01 -6.773977683758737600e-02
1.998964151963147640e-01 -4.068802106051802592e-02 2.090077885509613043e-01
1.192343240251191872e-01 8.021421833470716205e-04 -9.484813618214075204e-01
4.179170137205294178e-01 7.484814209418535480e-01 4.820471717050815452e-01
8.023242001753758679e-01 5.762920462353771783e-02 -2.791135784766506367e-01
7.789626872562860349e-01 9.671299556326318214e-02 -1.714249536726156209e-01
-4.295441516169408724e-01 8.867885915858629564e-02 -4.959555617285989204e-02
-1.791049341359593761e-01 1.221519603655631531e-01 -2.752308355893532954e-01
-4.918087241313370828e-02 -6.068776712466293910e-01 5.852583236373573028e-01
1.277334176738680049e-01 -2.364666195833458467e-02 1.031248572441581246e-01
4.550470377435744673e-01 -6.098844582987059670e-01 -1.632459821513042308e-01
8.906885889264701262e-02 -9.411683854050281184e-01 -3.040215447568194174e-01
-3.264694805115285203e-01 7.987049065089784072e-01 1.933654526962431119e-01
-6.446849297786355626e-01 -6.251933939050239308e-01 4.912896471166732226e-01
-4.485144574741797840e-01 -5.861691478078011608e-01 -5.509795869424131132e-01
1.740134079728151706e-01 -3.528312427115094518e-01 4.058486818590548717e-01
-4.595575188004696887e-01 -8.952882871280415378e-01 -1.752210430013885212e-01
-1.474332497577030276e-01 -7.440701338219106453e-02 9.252488562986563858e-01
3.415134192386531931e-01 -7.497785178398440609e-01 -1.241189467764279852e-01
-4.248738975067207768e-01 -2.157288708405622202e-01 8.862902724916317254e-01
-6.660854501335883304e-02 -9.830200573943737030e-01 -2.202992942613400118e-01
4.951576448178666712e-01 2.800436625153794323e-01 4.369888496199461070e-01
2.854036298254272741e-01 -7.129173155633166115e-01 3.492145899283664867e-02
-1.070542781902827090e-01 2.289722045320922300e-02 -9.290241066082097210e-02
-7.536090135470373541e-01 3.543636620751668825e-02 6.148775169621549797e-01
6.508129190092089011e-01 4.788755309112318059e-01 2.693603814853627321e-01
-4.783790441926469988e-02 6.407772568282106285e-01 -4.717709045278935531e-01
-1.984499988320610198e-01 6.100571916945805168e-02 -2.539862730167600224e-01
-5.644107719982732752e-02 1.509597558374752187e-02 -2.537996693163379822e-02
3.894751696710783695e-01 -1.518512022004233075e-01 1.908863506943999852e-02
-6.630078231440688086e-01 3.827461646849089072e-01 4.903585882733124124e-01
-1.768286279233945713e-01 7.766661063476733295e-02 -2.356425616289437586e-01
8.454389169144575777e-02 -3.777139822471779068e-02 1.497387231413206676e-02
-6.397184046106579869e-01 1.829264524777607370e-01 7.531633241835519188e-01
-4.186795226608749920e-01 -1.764604678095371970e-01 -4.739425622653601344e-01
-4.087421393796364377e-01 -1.084243614168415581e-01 -3.659374472015020641e-01
3.567045946903223130e-02 -9.633142649595405338e-01 -1.389896167590563836e-01
-6.509549900518459831e-01 -4.541349579777320122e-01 -2.705967335514024574e-01
8.306654824745013377e-02 -3.008323732448731427e-02 -9.425730064984071399e-01
1.642198242316625922e-01 6.721148312504039435e-01 7.203383927472537529e-01
-5.766041345309493860e-01 -1.171569625024464906e-01 -1.486204134773203012e-01
-5.672029743916554012e-02 2.014471008841914670e-02 -2.238190666910199952e-02
-2.510749732615089602e-01 4.268701849991419217e-01 -1.909749321835693958e-01
3.028208455633425444e-01 9.868590239574184242e-01 2.482133816694443579e-02
-4.345102905923757253e-01 7.066874604402305637e-01 4.434942374824429878e-01
4.669274490592371651e-01 -1.318393611931476528e-01 2.315275551626841692e-04
-3.447030633311570225e-01 -9.182320779111420306e-01 2.368579795823446410e-01
-5.926781880587574936e-01 -7.406462096695217712e-01 3.879043736639251616e-01
-1.837588996257808471e-01 2.759465510051221648e-01 -3.259087830010202747e-01
2.004104905464023090e-01 -8.381246796040155989e-01 -1.254979384505112679e-03
4.512386185173120068e-01 6.697621129389794703e-01 -6.275575973941706076e-01
5.074965996864425621e-01 -5.256181624643083694e-01 -1.775346218900279716e-01
-3.723664217694236389e-01 5.333192748613611034e-01 7.898502249832782818e-01
1.890567535110698749e-01 -2.340812651135702749e-01 2.378791310288992378e-01
4.084387201229575659e-01 -2.238182731177223161e-01 2.512312560609101294e-03
2.360225080784062628e-04 8.462848477069461195e-01 5.905858348926220636e-01
-3.131770150787515083e-01 -8.702206437421138030e-02 -5.799604640530003907e-01
1.365204251149341411e-03 2.293934381109662829e-02 -2.172287765636959564e-02
-6.508552032369870899e-01 -6.187005325490437802e-01 -2.267310523372154663e-01
-4.888849835721865711e-01 -1.387818794227507202e-01 8.827498040896967213e-01
5.240468161515940970e-01 1.529198636727178706e-01 2.363567059875480159e-01
3.703830801765244929e-01 7.067754411969313921e-02 3.254429738817736784e-01
-3.216684225735174651e-01 -1.600390234754652807e-01 9.190593775069663129e-01
6.857925835104581314e-01 1.437882061362554809e-01 -7.618984251281281095e-01
7.179404091209112826e-01 2.057417129548068102e-01 -7.112624951809940477e-01
6.408544135318787471e-02 3.299892013864444418e-01 8.817777444562928668e-01
6.968877813198872881e-03 9.073382754683687601e-01 4.870141957323653181e-01
3.410254728969002724e-01 -4.180429447190412429e-01 6.331044713363177812e-02
3.001239852785920759e-01 -6.944762952685958057e-02 5.462305404422376776e-02
2.178965799625723621e-01 -1.267315988761430201e-01 4.643065931874150176e-01
1.988226217008954300e-01 -2.698077485705663303e-01 2.322102325037772586e-01
-7.507214118613368681e-02 1.404248733737960969e-02 -4.665164225088137828e-02
1.254047367819697834e-01 -5.809177928979537137e-02 1.299147247774066760e-01
7.507373310788298393e-02 -3.213577902804392455e-03 3.788366032342229545e-02
-2.953700058095123371e-01 3.288674929190507079e-01 -9.714172211424197678e-02
-2.270670394615951215e-01 6.974875031504981782e-02 -6.726863327228595202e-02
2.646971233869086504e-01 -2.987979036717949843e-01 1.111287163578808523e-01
3.591935156389264860e-01 -8.897283894508044300e-02 -9.602703923920687945e-01
3.675504084704148688e-01 4.302506096016106008e-01 -8.271533996362316898e-01
-7.482110946841752375e-02 -4.425334747384967460e-01 -8.677293887525998617e-01
8.114112832580230167e-03 -9.710049314984532387e-01 -1.313886004019768905e-01
7.412675508873129981e-01 2.383655297311295940e-01 4.843029984371826670e-03
1.900978553100912682e-01 5.909072259481279454e-01 7.524964695316540553e-01
8.975674156018006999e-02 -6.302089502061142268e-02 8.185926532987039539e-02
3.924883524022989567e-01 -9.539829277611144853e-02 3.609109722681136390e-02
-4.305780078756363816e-01 3.832184984766062175e-01 1.328566610997839598e-02
-3.124565740501174527e-01 1.327258007208559007e-02 -1.366753853549602660e-01
2.414055131713415125e-01 4.995166918145547696e-01 -7.791987496192297469e-01
-6.804367418055899952e-01 2.239984381426324278e-01 2.224938520609880122e-01
-2.738429242903201444e-01 -3.681111259519680434e-01 -7.560625010485549913e-01
5.880869854166782540e-01 -4.237762242324324413e-01 -2.331650399887093272e-01
2.341144713113400277e-01 -2.940213999320422378e-01 -9.526591212403966447e-01
-4.332603190313932817e-01 1.237322652712040394e-01 -3.200520861995659327e-02
4.224527101915027116e-01 -2.967410011869038300e-01 -1.014239862545335963e-02
1.697536021101221648e-01 -1.859478721858029773e-02 1.240700884374659335e-01
-7.752285278431555460e-01 1.007822411069698582e-01 3.994299651484941593e-01
-6.936808377547794280e-02 6.625578216604708359e-01 -4.245087151804977088e-01
-5.686831275940846808e-01 -8.452378599244561030e-01 2.624438923056699249e-02
-4.559035061193095761e-01 -1.960233789280606265e-01 -4.288255429296697896e-01
-2.870328644367872162e-01 -1.382738463144019556e-03 -3.125198734149012281e-01
-1.816770314514533358e-01 8.457677131658820624e-01 -3.800856041582068717e-02
1.577332944614291133e-01 -4.592953953192987354e-02 3.763160489259469166e-02
1.317896224854417930e-01 -1.320089302159137105e-02 7.671052212166479256e-02
-4.553735809561924586e-01 6.756502829382993180e-01 4.891193426981006454e-01
5.886484750055394066e-01 1.277844244996109435e-01 1.297286164481630533e-01
1.897666167908804158e-02 -2.608752339927807862e-01 7.671110480420781919e-01
-4.950384339248096177e-01 3.966664811674666669e-01 7.847669511060456626e-02
2.952598568848177063e-01 4.845756831158539585e-02 5.576005026108872276e-01
6.558901409197545052e-01 7.697620222887144870e-01 -3.133270552875400128e-02
3.145483319639171826e-01 7.999815075283476240e-01 -5.020740923638252751e-01
-5.752223859026844854e-02 -9.645306372271401640e-01 -3.280201621964988212e-01
8.617630709681209020e-03 -8.981607772095294429e-02 -9.222076385250231878e-01
-1.458085876510441525e-01 4.853747822134923950e-01 -4.222669430564638393e-01
7.001065275007585242e-01 -1.855646636015286510e-01 -2.367764121347618322e-01
1.021468481487985275e-02 -1.545773271369893162e-02 1.036411019574170686e-02
-3.702165645072338918e-01 -4.243264890988645011e-01 -6.635134368445760877e-01
-5.490484235850852102e-01 -2.500019493907228996e-01 -3.336298132677536499e-01
-4.725268661351385013e-01 -5.444768170317169087e-01 -5.352425870940692443e-01
-5.147735223008282901e-01 5.496675760451941867e-02 8.841431458637553087e-01
4.733599292894704047e-01 7.649583533208056951e-02 -9.190960293628953615e-01
-7.880312385832569100e-02 9.184975804417556677e-01 4.267692897478425618e-01
-2.774173278007251442e-01 -1.243649728737200449e-01 9.293165271790065907e-01
8.179081576452034152e-01 9.763667490938304772e-02 -3.186453504251247626e-01
6.479917023999539616e-01 -2.357772798180185828e-02 -5.553489541124499718e-02
1.894792818535593892e-01 -2.644950430917572537e-01 3.379697626468137761e-01
-3.531688194677248260e-01 -1.014420015570364625e-01 -5.014517515116327928e-01
5.560244767512036862e-02 -4.512181854584104701e-02 3.028010006214809993e-02
-1.277396114727512993e-02 -6.651472173754570914e-03 -9.270972046475825512e-03
-3.605993905427158364e-01 4.097307720786615426e-01 -5.007949236674332644e-02
-1.678075747657254424e-01 -3.191917257549111708e-01 8.438433462401555563e-01
-6.996092605345587412e-01 -1.096453481982251899e-01 7.233070253340893041e-01
-4.350501445347136342e-01 -6.118985916512137413e-01 -5.555843192112080997e-01
2.044415261074968571e-01 -8.822864512504473566e-01 -1.478668211790448161e-01
3.016020277048774845e-01 -4.299170929135986974e-01 1.124412245187950965e-01
2.166932980649678431e-01 -1.299800017238434413e-01 4.294416011121003351e-01
-4.864539011938843194e-01 -1.848290021184653409e-01 -3.583713539426921502e-01
1.871934978502830527e-01 -2.258501829361607705e-01 2.293749293158031111e-01
1.574826511301598841e-01 -5.857242293090226815e-01 3.372311865841550738e-01
3.196206603543341740e-01 1.205793981028606236e-02 1.610720938938490221e-01
3.222738440086736489e-01 -7.056070866473165282e-01 -6.588311782021970542e-01
5.729977422422926070e-01 7.715769219590898897e-01 2.342897089113215037e-01
1.047628119329087892e-01 9.934624535348411944e-01 2.086392162944426254e-01
6.050637435187414814e-01 6.308796092914635834e-01 3.110754999090009632e-01
3.921876707518091032e-01 1.770573132397689486e-01 5.152316586619191119e-01
-9.759346589167303826e-03 -7.578855249463015697e-01 -7.010149039754529632e-01
6.548002079651081830e-01 3.014270751158447670e-01 1.968184958517529559e-01
-2.655392644497972868e-02 3.001628249968140913e-02 -1.235302332347476204e-02
-1.067522049288573971e-01 4.762324255115860661e-01 -5.088978065648064320e-01
3.814810536961770193e-01 8.291820709875813433e-01 4.321379981716255703e-01
4.708919765596135121e-01 -9.560882747126733805e-02 1.470162877634983295e-02
4.324629917054001460e-01 1.462916081865270335e-01 3.790900202872319880e-01
3.637720229758702184e-02 8.581261069317077661e-01 -3.034834176833870467e-01
-6.021190391804193132e-01 3.237911233776928910e-01 1.702441539103350110e-01
4.476614488908725042e-01 -1.153567632164891887e-01 -9.310448152195676119e-01
1.201652511300943249e-01 -1.028523729139208392e-01 8.758959690137380072e-02
1.983084160825776196e-02 1.519372787239258414e-02 -7.712297298435758647e-03
-4.928507170059320819e-02 2.537689351329506030e-02 -6.683145788973471335e-02
2.500408788596959475e-01 -2.896831766922486340e-01 1.238227226739415099e-01
1.711757382978867092e-01 -4.166568176971161552e-01 3.888313265519331430e-01
2.172480943525842978e-01 -7.898717997100153099e-01 -6.111735384968804974e-01
6.065219633603569083e-01 7.288761266963760255e-01 2.234426705376460209e-01
-3.514224285798476788e-01 -1.647998849506913596e-02 -1.851812665393752222e-01
-7.301158963511397149e-01 1.620791465464876957e-01 2.764584812067386044e-01
-3.605735237618170469e-02 -9.618381062615019017e-01 -3.323380245480004325e-01
3.665668129027116473e-02 -3.235705200101150064e-02 2.358703093703539908e-02
-2.523470168902147148e-01 3.791318088945276610e-02 9.540668253514401620e-01
-2.233034234785738759e-01 1.957352356309866037e-02 -1.330231246502915909e-01
3.666965395870185884e-01 2.953731861589127261e-01 6.369721494876635637e-01
-7.985301622325208237e-01 -3.231693593285548394e-01 4.705218939942964473e-01
5.994421747911676812e-01 4.569441565173853470e-01 3.548989619372071025e-01
1.106750543835880590e-01 -4.815348685307896393e-02 1.096148343614680304e-01
-3.911984496221426744e-01 4.901228540140272760e-01 -9.996288915331795477e-03
-6.866369907328121469e-01 -4.104653222570596172e-01 6.342582488851917777e-01
2.178740612821582559e-02 -5.693069304198028480e-01 -8.442699462755012263e-01
-3.868653112191570709e-01 -2.251883813152247837e-01 -5.812149130305734879e-01
-2.849352721624833218e-01 -2.282303205426793324e-01 -7.227787608327554958e-01
3.718059190048636498e-01 6.554103269616703420e-01 5.925449263926609866e-01
2.177250299888670027e-01 7.565611527881231924e-01 -5.451354979182857496e-01
2.147599303526359638e-01 -4.070329844258990803e-02 5.921222816107678949e-02
-8.270345116188498186e-03 -9.467837007951394046e-01 4.514085533704532277e-02
4.358888337093524967e-01 1.115598721624423417e-01 2.941105544580825959e-01
-3.661432517679492626e-01 -7.152918407707636872e-02 9.313708860730478545e-01
-2.266877585078631574e-01 3.929174882077273723e-01 -2.269258819973677954e-01
5.511548135036351548e-01 -4.168934297892271101e-01 -1.675330108518155448e-01
-4.641682415921609128e-01 4.158260300499467266e-01 8.073640196232882982e-01
1.868609060735609562e-01 -1.418879028337017845e-01 2.757546962133632928e-01
5.397925011059681033e-01 -5.783119227294073461e-01 -5.084984455577764573e-01
6.280599340548373988e-01 6.433418078263718476e-01 2.612251382877858186e-01
-2.584643551314582677e-01 -2.145706526490105404e-01 -7.479206998086380676e-01
6.388401230067948522e-02 -8.662974730130455379e-04 1.839226670758312143e-02
6.773801859578433282e-01 -2.787717250558190418e-01 -6.535492861624734307e-01
6.611144321109515554e-01 -1.802974981596921211e-01 -1.706338746772702863e-01
-2.647241049030731874e-01 2.255854107199800063e-01 -7.890333542152100366e-02
-2.488701895932705077e-01 1.731380853499624173e-01 -6.666226713614883947e-02
-7.002911284605731757e-01 -6.654219309934319426e-01 3.020017217706793544e-01
-1.791585883465326712e-01 2.240354620752629811e-01 -2.864358823263393194e-01
-7.836268592461470561e-01 -5.179422891092049230e-01 2.588862246418718871e-01
1.830640884740938890e-01 -1.107267498147096463e-01 2.490171112242046403e-01
2.017754592463318064e-01 -1.593563184665836574e-01 3.635007692954654868e-01
-7.208931356974255245e-01 -3.425124221520235435e-01 6.271518921836147786e-01
3.455458363723030168e-01 4.954724904017289155e-01 -7.895724541100909155e-01
3.252735281693934777e-01 -4.073984341099243234e-01 7.980420117317940654e-02
-1.351336443958404965e-01 1.388943011811165917e-01 -1.428221896399425317e-01
3.299669315774777512e-01 9.969999661180345071e-03 1.488582465271702793e-01
-5.138299447916248180e-02 -2.097444056363218234e-01 8.430116367467149763e-01
2.736441070030550815e-01 -7.272241916550967744e-01 3.952111265937115897e-02
7.733890944414326674e-01 5.645895551703653537e-01 -1.120842883985350008e-01
-3.591770133230329787e-01 3.945229573073012752e-02 -9.731260882563882997e-02
3.857471834559328405e-01 -7.519675430254658677e-01 -2.713772173831120460e-01
9.364202622473824511e-02 -7.652090501474924089e-01 -6.912632939770435581e-01
-2.827740730129640334e-01 8.609997721993995282e-03 -1.555751916598179796e-01
-1.818948441392862769e-01 2.386923777544802672e-01 -3.196238526540230440e-01
4.535861662629529778e-02 2.609897389737076290e-03 2.752026341872058218e-02
1.754598974723228233e-01 -4.537732219062832750e-01 3.638859265290472766e-01
5.452164588857670857e-01 -2.500835660032493801e-01 -8.675364943568671106e-02
2.525044294675944379e-01 -3.528595373333319185e-01 1.594309848029286936e-01
7.304202778730092271e-01 -1.315901781432146089e-01 -2.522756262416376849e-01
-4.238289323233307426e-01 -5.066653872480112591e-02 -2.001678006012576616e-01
2.102771416828570217e-01 1.912056451657008493e-01 7.791345923962522679e-01
-7.551244623515221965e-01 -3.188643698401821269e-01 -2.060112505354070450e-02
2.655213211153470421e-01 -2.549478378974017606e-02 5.011484998834815352e-01
2.646774038045893174e-01 -2.179945084215001438e-01 6.768014227640051228e-02
-1.884249624758217168e-01 2.685570227111241937e-01 -2.511208924014602939e-01
5.364718264849465124e-01 2.642956602491550178e-01 3.551667679668035205e-01
-3.425307748269770802e-01 5.662904521255568424e-01 -5.204290988146333119e-02
1.917848838452861082e-01 -2.642566127469150872e-01 2.942973413130195448e-01
4.154003622084416758e-01 -6.245248704375859772e-01 -6.771107520162246152e-01
-4.394868645602159063e-01 8.495907927337159604e-02 -4.881494479168851930e-02
-8.151254795857059143e-01 -1.740097970411219885e-01 2.459682696237300847e-01
-1.709518084714908848e-01 2.044463488265353124e-01 -1.885086035358682077e-01
5.558816916212141468e-01 1.575368280831939138e-01 2.017274570781273091e-01
-5.975780748458758840e-02 5.442977056019827620e-01 8.512103687971149801e-01
2.558733732732271782e-01 8.510442945830114236e-02 -9.547964529173498249e-01
6.708701098283072206e-02 -4.549686681750583772e-02 1.957824655162703972e-02
-1.312003480112489961e-01 -3.419811063437833143e-01 8.191973636242662060e-01
2.982252112309818903e-01 4.369570962210293508e-01 -8.251028092567895822e-01
6.377240348369339618e-01 7.839542173917455337e-01 -2.172840610806520967e-01
5.207472291226009631e-01 -1.356041446633893255e-01 -2.629246205093037705e-02
7.150899903523449952e-01 1.252651736665812698e-01 -2.915153016682638445e-02
3.218321813003351961e-01 7.071235802477485732e-01 -6.137854840152925373e-01
3.422003199312662058e-01 -1.576337018967470249e-01 2.975423411760736575e-02
-1.865251697315969404e-01 4.829616556164663121e-01 8.800391143219595813e-01
2.192815423201161240e-01 -1.190294238345561278e-01 4.030114790975113381e-01
2.441364941601690819e-01 -3.307673615210281887e-02 2.876218799707651042e-01
4.173351710105270840e-01 -1.094252818361150653e-01 -9.430125021027824239e-01
-3.562322276626964657e-01 -2.161841520864522526e-01 8.997402861671005558e-01
4.488779420382465468e-01 -7.854976199532361092e-02 3.101131307946393759e-02
-2.367817614231863543e-01 2.265427960680350128e-01 -9.734852906571732356e-02
6.961633244605634763e-02 -1.027463238819535662e-02 5.274058169057517509e-02
6.515138151476558281e-01 -3.812262118564417879e-01 -5.863322281242893119e-01
1.289455785423547496e-01 -8.840114352139842868e-01 -4.818496556695984756e-01
-6.256645126696711579e-01 -5.215859565874900738e-01 -3.140925109363556511e-01
1.702259981069012829e-01 -7.691910535777761737e-01 -6.661479911250819397e-01
-6.604413703770198318e-02 2.530070368056921634e-02 -7.706260040755290308e-02
-2.779154014628522074e-01 9.264324734756419766e-03 -3.411254378225475614e-01
1.156025996303269576e-01 -8.989363276339969178e-02 5.608927073910355277e-02
3.127670768529531853e-01 8.307239388779961153e-01 4.919965693969403087e-01
-4.288350497291037455e-01 -2.855680378941053976e-01 -5.559194520125991801e-01
3.025684448596805964e-01 2.890756142211412666e-02 4.863354871562822201e-01
-2.731682697355964917e-01 1.717258207847648654e-01 -5.982875486377361302e-02
-1.652118315101601398e-01 1.780192143364151269e-01 -1.314044007630044142e-01
1.843815112280817736e-01 -1.760747734878194692e-01 1.036062662428849646e-01
1.862657042078152969e-01 -2.187945301670954912e-01 2.584210746785337021e-01
3.986447154260609471e-01 5.487996311773426505e-01 6.105371675690215438e-01
1.680766049993978606e-01 -9.123164946169848299e-01 -2.697219403285329165e-01
-5.322727597524540277e-01 -2.788832689558990927e-02 -9.464943083830365533e-02
-8.248169599833028443e-01 -2.088116017855674578e-01 3.694302893226425466e-01
7.951523166381474494e-01 4.659829827770153865e-01 -3.916703310544340511e-01
1.186356837571351658e-01 -3.057384268763047031e-02 1.050444051172171600e-01
-6.608064960018392719e-01 -5.384627426206058942e-01 -2.444852381056590862e-01
-1.843443653862961162e-01 1.032865428674207414e-01 -2.740671382310235216e-01
-3.732669218658525301e-01 -1.499005752658381097e-01 -5.314203809163108305e-01
-2.139666397299690506e-02 1.561029062082322331e-02 -3.239875019984907092e-03
2.138923224496158682e-01 -1.621680744232545657e-01 6.548413108774277236e-02
5.015929575327543466e-01 1.213351608345962090e-01 2.174618797574214002e-01
4.046192175237751099e-01 -5.418066254691046302e-01 -3.304928977884383223e-02
8.211977643575937291e-01 1.645398883453606242e-01 -4.767531569478958842e-01
-2.751776846792912123e-01 1.201982096933426093e-02 -3.421126591168016096e-01
3.184840975733963520e-01 -2.137560300936765523e-01 4.016803371906450121e-02
5.673958079405069244e-01 -5.496941451659952405e-01 -4.336550891703753741e-01
1.930586028307167967e-01 -2.473232444547824593e-01 2.286414510073971618e-01
-2.950967651851635898e-01 -6.310378360242995324e-03 -2.162777804475799759e-01
-2.290519103413946878e-01 -4.831242193913992122e-01 -7.757931877974530988e-01
2.214878997251197579e-01 -9.992667191643989089e-02 3.619633351930750531e-01
3.161384573603454040e-01 2.968287772303964678e-01 6.971671863275822334e-01
3.771451395818425922e-01 -1.435435855175908881e-01 2.387884409716028999e-02
-1.692830373635688945e-01 1.422232461410364857e-01 -7.994330919670068758e-02
-6.531891276796236712e-02 9.295046873877889082e-01 -2.882793105635073419e-02
-5.882464780845123586e-01 -4.659169037852393946e-02 -6.846636832579838794e-02
-6.501566937342435626e-01 3.552556027193029542e-01 2.884404707770467091e-01
-1.559840965811428726e-01 4.190478693034097729e-02 -6.276068027035218433e-02
-4.261472781996857306e-01 9.962977252994555111e-02 -4.485562130882225079e-02
-3.110832067145424262e-01 -4.707653022145319444e-01 -7.157753334505072562e-01
-6.910810392484391107e-01 -6.370010992025844088e-01 3.899874814626632658e-01
-4.564002803247264595e-01 -1.975621195278190814e-02 9.112557481773405632e-01
1.258811538731302859e-01 8.668954920431258815e-01 -3.539238189666658041e-01
-2.892520581840908878e-01 -9.963987617820843634e-02 -6.429975362702859965e-01
1.533801248326421562e-01 -9.602012035921228539e-02 4.503417995403791868e-02
3.024661577261348322e-01 2.708631721356096964e-02 4.804967440323917871e-01
2.080960836488640053e-01 9.249756372325880216e-01 4.124668361544946982e-01
-2.810906571243771968e-01 -2.459981746140706138e-01 -7.325478518101690151e-01
8.815363015706878524e-02 -7.051332064562456647e-01 3.449447680594505128e-01
3.924752551144783941e-01 -2.049987365070087553e-01 1.084013018736673661e-02
-2.733022245083941981e-01 1.347849290653464760e-01 -5.692191028043799145e-02
-2.040991666391996362e-01 2.226001712915405273e-01 -1.266325888700311764e-01
-6.406692960857034436e-01 -5.652799657887385143e-01 -2.752553565282352954e-01
-1.828617146115200653e-01 6.714956118093613480e-01 -2.472022924266729926e-01
1.155414446972084369e-01 -1.118181717418580308e-02 6.454959961620253261e-02
2.120864407757527548e-01 -1.361558238193839310e-01 5.262601004557450335e-02
1.645164781609032290e-01 5.325966839513118778e-01 7.894748593831525385e-01
1.801731824147676242e-01 9.993751126692707043e-01 1.445314991272182714e-01
7.151199067147459010e-01 4.674801702215974353e-01 1.409814780495372011e-01
1.871293532144754357e-01 -2.629495141999202423e-01 3.780686176911325358e-01
1.916647557300551752e-01 -2.092178204852413459e-01 4.511401355813517422e-01
4.706252832299105404e-01 1.017204094950823201e-01 -9.168499519330925995e-01
-6.079699027902841363e-02 5.193042785781342152e-01 -5.530361341911819162e-01
1.023805418371403486e-01 -3.807476486022674106e-02 2.011029348025062530e-02
-3.251966384196144366e-01 1.428967185313900490e-01 -4.997703500568951435e-02
-6.743976011802952364e-01 3.206595207224686161e-01 5.856880967893014489e-01
-1.402973170523155177e-01 7.071829994355743887e-02 -1.756000999510168581e-01
8.832763053408809739e-02 -1.222593899190638732e-02 6.303111313514045411e-02
-7.349267431753283564e-01 -1.617782625188212212e-02 1.323335404179676877e-01
4.065568878517138995e-01 -4.792015519744551866e-01 -1.488496577319002763e-02
1.587481178713616436e-01 -6.678299502080180527e-01 2.770410736760933745e-01
-2.552012096937872343e-01 3.269102004206951850e-01 -1.408416161544033263e-01
-1.895086395771316545e-01 -7.070608928253029335e-01 5.682866846546456019e-01
-1.865785509998036107e-01 7.857182389440617309e-02 -2.544415426990569440e-01
6.028709265511648097e-01 -1.671583482787239450e-01 -9.914496830069269295e-02
-4.098345299026606159e-01 5.429877327837135531e-02 -7.619135928704676153e-02
2.545536373647432904e-01 -6.203436750545519504e-03 1.316363993430396673e-01
-4.442959561139566693e-01 1.136618813375160492e-01 -3.283276829635118493e-02
6.610133110251384947e-01 -2.058154894625137399e-01 -1.873909592468969709e-01
3.973735240723523798e-01 8.009382814719739896e-02 2.846162799840537549e-01
-1.068476313645717705e-02 5.299104647380520339e-01 8.509028728385741314e-01
-2.849565722682739222e-01 -1.456264581008054337e-01 -6.842970060359264695e-01
4.687746669453433102e-01 9.134933781175936796e-01 -1.595919746891282243e-01
7.151561333424705236e-01 -2.017136637942024482e-02 -1.363557973500609533e-01
2.454580100064580536e-02 -1.569551325771538150e-02 2.626034904161438435e-02
-6.733243906748619390e-01 3.315201529238942513e-01 3.256574281692332096e-01
1.279013747175492335e-02 -4.458242139923609404e-01 6.543520532460185279e-01
-1.798508119805949657e-01 2.498164726022078508e-01 -4.340282046253545190e-01
-7.016184744714192290e-01 -1.643113285538334162e-02 7.841768939403680194e-02
-2.664750148734575386e-01 4.603672723801701117e-01 -1.718965811172772085e-01
-4.195878312242927177e-01 3.119424311667540750e-01 -2.343348730826663815e-03
-1.285683245203855796e-01 4.693975853673316989e-02 -1.439837316207820683e-01
2.871666506970224075e-01 -1.837029047898816863e-03 3.572723708961936806e-01
-5.603762944416641467e-01 -2.619993606585239165e-01 -3.269933624903835212e-01
-3.170831728026738544e-02 -3.895218442793179636e-01 -8.963668054281783704e-01
5.329846471632044835e-01 7.979043246191199756e-01 -3.994724365133525135e-01
5.671554623849578425e-01 5.837701638653293168e-01 3.928030870096789196e-01
-3.896468013914577977e-01 -7.650811062788421824e-01 -4.957362932193016825e-01
1.685854411189044999e-01 -1.807158857166551169e-01 -9.674172901331646868e-01
-6.809177384481071571e-02 6.425900986245484947e-02 -4.683705437770666752e-02
-6.996916098968962439e-02 3.845566648956600525e-02 -2.692224011844205830e-02
9.302377646640215547e-02 -3.899803379880126958e-02 8.875601633265797763e-02
8.417036513439331291e-02 7.958122653318498996e-01 -4.317706129038411667e-01
-1.764234153759702828e-01 2.217739667236368895e-01 -2.256784174007841481e-01
-3.687793616560933740e-01 -4.036332435915863937e-02 9.349897711104342424e-01
5.675543999323148237e-01 -1.202037865581726678e-01 -4.754334241308470765e-02
-3.361532362226191673e-01 -8.738129786329957849e-01 -4.059126564464592968e-01
3.331081886158409611e-01 3.138832634708255687e-01 6.823100114266031913e-01
-1.878362172681418973e-01 -4.393573462001081932e-03 -7.355010754200583811e-01
-4.976043249744764307e-01 -8.235854957269811427e-01 -2.789488616567675772e-01
-8.867969647457915605e-02 7.212949136030870623e-01 7.294934380900202076e-01
-3.252344439173183166e-01 4.321181784981807383e-01 -8.926980684386566500e-02
-2.230113538387594740e-01 1.931042606680785645e-02 -1.925448184211085156e-01
-6.112726204641020233e-01 1.257409869638152766e-01 7.037923117331414125e-02
1.723816202954448484e-01 -1.075444450175751104e-01 4.793418691188111591e-02
2.469761379236892762e-01 -4.303538857987558586e-02 6.515810564432106267e-02
-2.394852964617567304e-01 1.311790332603527710e-02 -1.719619240300362673e-01
-5.929787608301025914e-01 4.170173911198855055e-01 6.577769258436225730e-01
5.919504758263666178e-01 3.119162921063197702e-01 -7.987122363975122097e-01
-1.146521157440323208e-01 2.199387261442644834e-02 -6.674745135072897295e-02
2.504216386719907983e-01 -5.583401846061483709e-02 4.844721121193401592e-01
-1.790797626442565404e-01 2.244426724847813082e-02 -1.271409127355229984e-01
-5.158843903291799871e-01 -6.069693278687189331e-01 -4.593197424271866502e-01
-7.140462856438685169e-01 -1.193933945810624342e-01 7.030869782028310588e-01
4.755248608048985859e-01 -6.643131137911402195e-01 -4.513673162414484907e-01
-3.063080374543158402e-01 -1.967888807393268491e-02 -4.219050922754699617e-01
-6.566231466650627180e-01 -2.972162873304330377e-01 -2.004397850437028006e-01
-6.280100422578560951e-03 -2.468270232919924090e-01 -9.235270794417645979e-01
5.772649186222732487e-01 -3.415948037788855696e-01 -1.591555630760025097e-01
-3.416264034522352167e-01 -9.641955046695724896e-01 -1.029165114442205237e-01
-2.365659546722927442e-01 3.983063528231819972e-01 -2.084767977580753717e-01
5.509642630580245948e-01 8.034607649453816558e-01 -3.657342339466543302e-01
-2.520748409338026685e-01 3.948858112112704072e-02 -5.350978069474605636e-01
7.523018669339353037e-01 -1.017073830659111777e-01 -2.782602893789522525e-01
8.151987974739063336e-01 2.726150760344795976e-01 -4.842293419071930782e-01
1.688516814886726891e-01 -1.752405019406156061e-01 1.582960059152272447e-01
-3.082032729487727551e-01 1.235278662595770162e-02 -1.392533548516732000e-01
-1.679332144702040952e-01 1.754308650235174571e-01 -6.168376897325109631e-01
2.938890728851715761e-01 1.197310475675331977e-02 2.611292265610023478e-01
-2.082998101202950259e-01 -9.522206024169380667e-01 1.632437640277693836e-01
-1.792569939489608299e-01 1.614233871726807601e-01 -9.048385991158965080e-02
-1.588732820007930924e-01 3.219320217018038083e-02 -7.515951033402155923e-02
-2.543888796691854415e-01 1.463630140716951425e-02 -2.566113908624914619e-01
-7.834330787935377127e-02 -7.441998352261803840e-01 4.696454394687777367e-01
-2.995438543970258549e-01 -2.251803928619510147e-04 -1.758296612020683602e-01
-5.341302430291035019e-01 -8.079451779145243595e-01 -2.384067688746592528e-01
7.790789632934655429e-02 1.892333275604935194e-01 -8.810188922186426019e-01
5.965295374593794220e-01 6.339207367291296302e-01 -5.718553550465977908e-01
7.615701844643552043e-01 5.377262772281122816e-01 -4.110750428498833875e-01
6.612481993770166211e-01 -3.532721550263833721e-01 -3.247951005462763607e-01
-9.562112466193677107e-02 3.419845315892598020e-02 -3.848483565195807976e-02
-6.431902789841504875e-01 4.220366078814379307e-01 4.757050896302356668e-01
1.184219971732277943e-01 -1.162668239459862737e-02 5.474994930159848144e-02
4.110447982941680123e-01 6.971717907111556478e-01 5.294097990378640040e-01
6.736605416410309521e-01 6.627283133399961002e-02 -7.813427619521433609e-01
-6.941499146132544817e-01 -6.973181058770420160e-01 2.196277613717342592e-01
2.462161011511184161e-01 -6.337530686690227844e-02 4.015601897105440798e-01
-6.144459158073669602e-01 -5.588634597477967203e-01 -3.252651824134797365e-01
2.491707199599682010e-01 9.843831785061525341e-01 -7.803181185308567802e-02
-4.631732951195734471e-01 -8.585215038380060726e-01 -2.697273091363739939e-01
-2.189185136558550737e-01 3.108514115100327602e-01 -1.911050050639192255e-01
-1.271845605412844360e-01 1.012747068443046738e-01 -6.346952980690206969e-02
-1.973099258356131591e-01 -6.901212135524030789e-01 -6.988366699339498833e-01
-2.015139443762578586e-01 3.890455012602050400e-01 -2.910473522031042926e-01
-1.494907097651662631e-01 1.467358742570581687e-01 -1.029131621394145657e-01
-4.906815244780591834e-01 -8.210008146062851564e-01 3.573518579572386167e-01
-3.187808372598836537e-01 5.221806014475555147e-01 -9.566652231415928576e-02
3.439946011663753689e-01 -4.153318424912949558e-01 5.982909668584052848e-02
1.456791238411368483e-01 -1.268651881175025808e-01 6.976446515610155164e-01
-4.989483388828664934e-01 -3.167219739680693369e-01 8.249775478904755044e-01
1.996743715340937864e-01 -1.612522283242838195e-01 5.146272788047717706e-01
-1.832732317488797724e-01 2.379708878544236905e-01 -3.778182646770127384e-01
6.451918866692733789e-02 -3.973948998051280435e-01 -9.190280747459412813e-01
1.329115289623971352e-01 1.514088216186887659e-01 8.353233054543907077e-01
-1.768452283529706459e-01 2.263575097334336039e-01 -5.095555140161323049e-01
-5.070665208282981729e-01 -4.698796095727824640e-01 -4.991239951568318123e-01
-1.569555245889762800e-04 9.547083878764207610e-01 3.582996841439310964e-01
-8.264794983942162776e-02 -2.975180259520772072e-02 9.161853350520556827e-01
6.109857254552995137e-02 -3.709761620003182436e-02 1.147896113911139188e-02
2.618303056141753626e-01 -1.339022616821488043e-01 4.335926983341168578e-02
-1.246439150449538402e-01 1.164602166651381027e-01 -8.473798981353251880e-02
2.117164810612357784e-01 -1.682644577200711478e-01 -9.705685495440286026e-01
6.709385543834632537e-02 -4.392776237927463467e-02 1.770871884114306322e-02
2.008330180742551319e-01 -3.552167759355457366e-01 2.947467535108876380e-01
1.566280519254267256e-01 -1.490824130606789033e-01 1.134472419404252558e-01
7.343009137673037756e-01 6.350420429085574803e-01 -2.835733176892368812e-02
2.588763155655396941e-01 -5.793851828002902771e-01 1.652606396522217358e-01
-4.376558147714198488e-01 6.535352865842767311e-01 1.718874712352283507e-01
-7.170531367705356152e-01 -1.013823060324310112e-02 1.063175800776527680e-01
-5.415562406678048335e-01 -5.254838767280263223e-01 -4.473278831480636542e-01
-4.959080920437783924e-01 -2.734628131283666774e-01 8.429005499737216578e-01
-6.813045302985956120e-01 -6.300695302590403335e-01 -1.443444380725831255e-01
3.456856604643453457e-01 -2.255151053279637607e-01 3.013896913049207010e-02
5.178688662487522798e-01 -6.161844629819566155e-01 -4.009770360540101386e-01
5.982791670067804102e-01 -4.979276317604054425e-01 -5.041237424702795789e-01
-2.912567647758040890e-01 -2.832684388003214870e-01 8.794224598227114997e-01
3.012007836270006508e-03 3.708523698904176991e-01 -7.355955743468951535e-01
-2.300864529795690616e-01 4.757151032453936501e-02 -2.996026453327458872e-01
-1.249117377117135441e-01 -2.392933568603012040e-01 8.648927471592106064e-01
-3.476688497959465884e-01 6.705051089191286229e-01 6.731679340430043457e-01
7.562292837344321283e-02 3.137113273639539068e-01 -8.230870696708921797e-01
-3.449721816705891286e-01 -4.009224564832700177e-02 -2.910240600475599293e-01
-2.568431893757441298e-01 -4.690207571179472179e-01 7.813293993567536067e-01
-1.156569267914732690e-01 -2.330177680838620702e-01 8.639168957908770485e-01
2.637892775800587675e-01 -5.867029505590016635e-04 2.087397042868584518e-01
4.993140297708351105e-01 4.434867929454856528e-01 5.014244022508375087e-01
-6.116180954373965500e-02 -2.306717179047497179e-01 8.392174617761632982e-01
-4.993805280299201677e-02 -2.359085050902358371e-01 8.304213107943976269e-01
-2.641747517536234269e-01 7.428181856803037775e-01 6.426999829053747781e-01
-2.581565078230350085e-01 4.151071525013227959e-01 -1.757656986451426040e-01
-2.451622761839789277e-01 2.125028714698736498e-01 -8.399396672463702029e-02
-1.594081354190781952e-01 -6.839948873035460730e-01 5.804032678986613680e-01
-9.565650653046049723e-02 3.941295036560212295e-01 -5.892551203298462825e-01
2.031771022000341820e-01 -6.131244725236082577e-02 2.459407215605579067e-01
5.399560166416549345e-01 8.733783759599605956e-01 5.572175504432139159e-02
-3.381435068113403108e-01 -3.313709455887681177e-02 -2.722135907918200592e-01
-4.300843366533251277e-01 -1.546485419919483850e-01 -4.163669464277269250e-01
4.484370096584218146e-01 3.738030606262612854e-01 5.558683845367655696e-01
-1.412693309572140010e-01 1.312645009692146036e-01 -8.895604667209833227e-02
-2.711130772913769027e-01 -6.177608809487781238e-01 6.726402305270123838e-01
6.592671970497233913e-02 -5.246773662175303887e-02 3.667486376738096632e-02
6.524188461500840530e-02 8.396955991070320646e-01 -3.563783501485738858e-01
-5.288951758436372108e-01 -7.655972485545158301e-01 -3.143774556528413089e-01
-8.636486725035076584e-02 7.674213474856488026e-02 -5.471524841207699857e-02
1.571074790413335420e-01 -8.818787393728623469e-02 4.059715302255532954e-02
5.680244315366290292e-02 -1.111584894932865757e-03 9.227341213627986843e-03
-3.715417897012356363e-01 -8.151570507232854812e-01 4.404608152909035845e-01
-6.117000509505092776e-01 -7.896627459060331367e-01 -6.332740650251797443e-02
-4.180834905925476797e-01 3.289075106689221539e-01 -2.196768444515022865e-03
-5.989039830588220870e-01 -4.876733790069357477e-01 6.708149683832789201e-01
-6.539176903931436247e-01 2.807891324703405411e-01 2.209318748431186863e-01
-4.742989633437565827e-02 9.631032497255014313e-01 9.693571946610105017e-02
2.899192176645582486e-01 4.965408655963517992e-01 7.199148633183655166e-01
-2.022199146641210643e-01 3.789987904078475633e-01 -2.856553688639740241e-01
1.866509636847569487e-01 -2.106026278027622878e-02 7.375833667361639256e-02
2.536440741769925289e-01 9.885830686158634251e-01 -4.763004193502868439e-02
5.443353823764635752e-02 -9.585086533871448600e-01 -1.647190689155514920e-01
2.460873929531686571e-02 1.259953724543350084e-02 -6.321501539102107776e-03
4.165664228612681597e-01 -3.384664046519388347e-01 -8.170450071299047504e-03
-3.925868692551989780e-01 -4.054305236397205414e-01 -6.384234541014989217e-01
1.133296191151565574e-01 7.340492532634950162e-01 -5.249244092630198644e-01
-4.179048350081981944e-01 -6.554336148116875205e-02 -2.375453593462849844e-01
-2.068668600601698826e-01 -3.311124569176231158e-02 -7.266015209193816826e-01
-3.558977314436099215e-01 7.249535087253242693e-01 5.803158794004630305e-01
-1.521382032002219498e-01 -1.457617702802380677e-01 -8.309969073558001185e-01
-6.237825855079560666e-01 2.626342166771392095e-01 1.615237147329864065e-01
3.904014105488277098e-01 2.664373015776242415e-01 5.918641423001629320e-01
7.890384429626764451e-01 4.554582256385409922e-01 -4.313149883445470678e-01
-7.032521936705822541e-02 1.382755275931021183e-02 -4.072142227832022815e-02
3.113056817871355242e-01 9.820303329301434125e-01 1.092790931979814029e-01
4.369064355716698045e-01 -6.818114220918798374e-01 -2.360570224477410439e-01
2.151667339789014866e-01 -2.083008665176321883e-01 1.004664191944677210e-01
3.609702466099967144e-01 -7.239825885437403165e-03 1.087935055184928584e-01
4.895925300518904622e-01 4.785208848680938543e-01 5.162013027176983737e-01
2.072474089632547201e-01 -8.031620708323448099e-01 -5.953977234669168839e-01
-1.959077865492699355e-01 7.411579333308595530e-01 -1.651266986536140402e-01
2.883457942798207663e-01 1.655991741901462200e-01 6.805562759718111199e-01
-1.744101155160525940e-01 3.205619174846867092e-01 -4.046247764103890199e-01
-1.507359993706455792e-01 1.528510363573660491e-01 -1.929015524637836820e-01
3.270958021913517588e-01 -3.967449494825944223e-01 7.611187178618761262e-02
3.605868406648214397e-01 6.831276377551108725e-01 -6.361232284152549266e-01
-1.256363503595376296e-01 2.162884659535338830e-02 -8.303126742758090706e-02
1.605025795089040641e-01 2.355956273924687469e-02 -9.543712267361585955e-01
-1.420522506227106241e-01 8.358622259096037954e-01 -1.224961011648001974e-01
-6.769455838666574854e-01 -6.088024489238541559e-01 4.621382248662680436e-01
-2.503428091517147930e-02 -2.024764238368762306e-03 -2.476462060991732606e-02
-1.606177229123813971e-02 3.719683124291236261e-03 8.957973852501693868e-01
-9.551588549212526591e-02 3.103331774613154320e-02 -1.006568383556755014e-01
2.465905066651415730e-03 1.492574249609491047e-02 -2.818076482582471121e-02
-6.364286067427628035e-01 3.746177609697359800e-01 2.768600050016263303e-01
5.541741600266991696e-01 -2.542707139192165733e-01 -9.586710648887393493e-02
7.318375641243239915e-01 6.414524927474388738e-01 -2.975900755314314292e-02
-7.281807968514184548e-01 9.398609861533711862e-02 2.065386728319910936e-01
6.529124053772530356e-01 -3.825388878730519582e-01 -3.459048153028153605e-01
-5.184305700749086698e-01 -2.427879713592192013e-01 -3.757349877598904486e-01
-7.945438988671005287e-02 7.203474422829730939e-01 -3.560171944057402560e-01
