-7.431337223135311976e-02 3.531978789282486098e-02 1.094681701875014207e-01
2.777861555740435487e-02 1.613981147026021315e-02 -1.022585737221020780e-01
2.429890810263222456e-01 -3.228690556598990402e-01 -6.560025613040546544e-01
5.421130964624222282e-01 2.515038451998019564e-01 2.569236201858180468e-01
-8.269380887497870813e-02 -7.574913652214743109e-01 -6.310910000806908560e-01
-8.344963968710648883e-02 9.080550584570502570e-01 -3.363319058851654830e-01
-2.072131126005915813e-01 -6.166098357030813659e-01 -7.533253968245924304e-01
5.056023784707569524e-01 4.376843586728722535e-01 1.542335968745943142e-01
-1.102593902143805954e-01 -7.053901669940725039e-02 1.354842343975254104e-01
-5.379950668284734228e-01 -7.727966368791917839e-02 -7.761326889660227213e-01
-4.149485413920693255e-01 2.821095703632456320e-01 5.092379246528803971e-02
-9.752297754905404903e-02 7.135776821995211405e-02 -3.427776208809787169e-03
-4.336752283057583868e-01 -9.650937077966860456e-02 -1.293459218854238202e-01
-1.182975606877092745e-01 -9.711510841554017448e-01 -2.024232731333217850e-01
2.297767594454293572e-01 -2.272685984738529175e-01 -6.924092727785041701e-01
2.253115381117127419e-02 4.649212948515203669e-02 5.670548010273988165e-02
5.467857080888810506e-01 4.441505039008820654e-01 4.578168810692160307e-01
3.064093233077755385e-01 -3.261101205297716743e-01 -4.900690043836553045e-01
-1.004551015456567054e-01 -2.752821470578033919e-02 8.768506455170862468e-01
5.984979100041301070e-01 1.709992314507904065e-01 5.384207811927650411e-01
-1.717139613777544926e-02 6.978768345648214688e-02 2.536709159117554388e-02
2.629686192663832633e-01 -2.180342069325678575e-02 7.115934044625213395e-02
-1.727489844745045550e-02 9.223342715457314434e-01 3.014978564260239469e-01
-2.454938622680764848e-01 9.060451283254167265e-02 7.062507507305576526e-01
-1.627854471941322587e-02 2.405652861022521682e-01 -8.933326357943199847e-01
-6.301007108785048327e-01 3.845880663008215475e-03 -4.876031445497688299e-01
2.787056185244597417e-01 -1.281549388520529520e-01 -5.165094740965978648e-01
9.122717520327700003e-02 -7.965205730656915728e-01 -5.231423059874483750e-01
-3.545974905194692606e-01 -4.277526071589686785e-01 3.312574039736026488e-01
-4.264760812953261593e-01 3.516559446765674113e-01 1.105441205760039486e-01
-3.524162521015552496e-01 -1.654484451175938786e-01 -4.848751441918854044e-02
5.314579183944563301e-01 2.263561932782803474e-02 7.660283985892750724e-01
-1.685149792222135623e-01 -1.719250453951634838e-01 8.029648696613466141e-01
-3.171589637956343521e-01 -8.349328916879646956e-01 -4.027033132048444264e-01
-1.716061866940305214e-01 7.906644899440216923e-02 1.506006098277338223e-01
1.781239304962786152e-01 -1.161535608393254732e-01 1.303189663074409569e-03
4.293727577597485356e-01 1.235323443588944026e-01 8.603353469479942950e-01
4.789600711754814499e-01 -6.811414779376423478e-01 1.271575981239017883e-01
3.068186480574423489e-02 -1.007897082852793613e-01 -2.075329853632859253e-02
2.927146023948276610e-01 2.314262579708458167e-01 -1.524958393837035908e-01
-7.181039612138939709e-02 -3.539176271805376944e-02 -6.723491095090466940e-02
3.166645058657406864e-01 3.694150463382996352e-01 8.493998684643006003e-01
3.591053338418619401e-01 2.782254922170008804e-01 8.651651228868163512e-01
-6.300793225641945217e-01 -2.192060306729240113e-02 -5.054616550240564887e-01
4.604402339583513193e-01 2.034644915293831735e-01 1.356300966181664958e-01
5.751352257274248286e-03 -3.452793034808761263e-02 -9.353586694744807362e-02
-5.045625907509392327e-01 -3.345981310432786238e-01 -1.311978777386434980e-01
2.209600011577377010e-01 2.008944046861717986e-02 -7.110589005237025750e-01
-1.978668124626548619e-01 8.513652357557485173e-01 -4.333146139952470666e-01
1.336707825507421343e-01 -6.832560082788386932e-03 -8.304177515671603560e-01
2.552315987343198658e-02 6.067934308943433441e-01 -6.987099775901737253e-01
2.858143291535959474e-01 -2.189046500388356908e-01 -1.232545749638490062e-01
-3.027547364355516746e-01 -7.519688596285258875e-01 -5.706027400672449845e-01
3.215656918409769832e-02 -3.082593866988080425e-02 -9.045816859826724121e-01
-3.156056928327977684e-01 -9.510366443861197061e-02 -9.329235600848316823e-01
4.191304637768836772e-01 -3.880743544674828405e-01 -8.737674291988052622e-02
-2.071770600608740243e-01 -1.332153185184386801e-01 1.914087575273782649e-01
-4.422681636267713490e-01 2.329736927194671625e-01 -4.144968118480179403e-02
-3.153796740333871806e-01 1.183628970987918444e-01 -2.160983777677180986e-02
2.280292519669068763e-01 -4.304852321367025336e-01 -6.526292386175994720e-01
-1.387506072593699680e-01 -7.228496274790845444e-01 -6.680261750574633117e-01
-7.329730888530944233e-02 7.112087195672911477e-02 -2.312009837691683667e-03
-2.656162230350904707e-01 -2.216878835750244608e-02 -6.486039091044243365e-02
-1.353825025466226517e-01 -5.013271335211147428e-02 -5.312457316986429062e-02
3.659304936349467297e-01 -4.051037204550671511e-01 -2.869179204408117134e-01
-6.692787525311960639e-02 -1.630741335916229828e-01 8.866471651396180542e-01
-4.812273671493543237e-01 -1.916842357245168160e-01 -1.486227487771640265e-01
6.054135971403373090e-02 -4.099752676034290610e-02 6.696864836975331692e-02
2.741692825132404643e-01 1.583706115109572432e-01 -3.864104404817041427e-01
4.140286191028276774e-01 -5.108389864004544423e-01 7.206703365832838326e-01
-2.625656531399944149e-01 3.911850333812519898e-01 6.349340609694610338e-01
-4.298188337279619797e-01 7.580096402630618346e-01 -3.058382629044702483e-01
-1.859696872078792362e-01 6.602711996211755308e-01 5.759937929852929628e-01
-9.838746703477517508e-02 1.138752940887573922e-01 8.732296302782340813e-01
-3.290133063305148986e-01 -6.724756251868293511e-01 -6.486198155076154936e-01
5.658046097936052510e-01 -1.806981941620450782e-01 2.933391319326792424e-01
-3.851387582211695387e-02 3.770976278447153718e-02 8.770072758916896971e-02
2.652991668343672171e-01 7.868444303372215121e-01 -2.519589145749038805e-01
3.862441954066181404e-01 9.197312705696172874e-02 1.071096911943359431e-01
-5.663747110717407551e-01 4.487637479509686000e-02 -7.362676933453862205e-01
-3.318779914571499678e-01 2.104064250657238996e-02 -7.837705475273420985e-02
5.947654308571831416e-01 2.182594471230073496e-01 4.960986510448654463e-01
2.532248118400209358e-01 8.676306039686676463e-01 -8.505539748692143853e-02
-1.985687245092270237e-01 7.643833893423999937e-02 7.809338426486088780e-01
-3.279682448081654988e-01 2.318468480837225232e-01 3.361867571145372158e-01
9.975511884476756519e-02 -5.709627874160899154e-03 6.432245466327646266e-02
-1.726423433108696115e-01 -1.187951245364455982e-01 1.542950166074415486e-01
4.872518426890353749e-01 -3.835721160353803283e-01 6.943285145770078381e-02
3.544700310096900453e-01 -6.660383066481073699e-01 6.318533879677271647e-01
5.486018641441581245e-01 3.475482006308796001e-01 2.777859954371649231e-01
8.867350896369979515e-03 7.032683230748466852e-02 1.733247124626022956e-02
3.909995251290257490e-01 -2.081115715032373914e-01 8.766907113923892991e-01
-4.346878687878582004e-01 -3.041013199863424332e-01 -3.413718775624081242e-02
2.970235559546660631e-01 7.557390811330557678e-01 5.136114819891288708e-01
-2.822790621775669861e-01 1.628446138596238713e-01 8.242875304784916257e-02
-9.898450948899992219e-02 4.917172022534891940e-01 7.594694477837158342e-01
2.666557647382977181e-01 -3.734770094856084688e-01 -6.016243413347108770e-01
-2.878927833212187593e-01 -5.666759210632690141e-02 -6.650146605497812835e-02
2.153931370687364177e-01 -6.952669304088642255e-01 -5.143949543726844542e-01
-1.581891864737393627e-01 7.929262461759136738e-01 4.571898523185118357e-01
-1.460577537892541466e-01 7.688371068958929633e-02 1.212306291064003810e-01
2.686003444936542195e-01 2.979529002182972341e-01 -5.632533753685109446e-01
-1.451393381172489949e-01 -5.055503126837804229e-02 1.760615270927582410e-01
4.270816667326478022e-01 -7.201256815124584820e-01 4.508365368857667477e-01
3.274838772128672582e-01 3.536699341055872248e-01 -3.284909412305261900e-01
-2.958113452627147422e-01 -2.459585467940694214e-01 5.273899637378308691e-01
-3.282453792294919709e-02 -4.268065469464633888e-02 -7.597604191854935574e-02
-2.999273326912572646e-01 -2.326381439612167368e-01 9.728050318460253199e-02
3.024441579170659145e-01 7.842732066724716899e-01 4.531585072409277104e-01
-2.969994031666650658e-01 1.884099400889530096e-01 1.669213959275614723e-01
1.508037627577688000e-01 -1.235296061005049378e-01 -3.010165717975394131e-02
-6.054783824581790874e-01 2.115458188110743987e-01 -6.002044680797831155e-01
-6.200730255637731947e-01 -1.863416474315816862e-01 -4.961948295454682301e-01
2.585330808260961066e-01 -1.970885465109615542e-01 -6.305710407745085400e-01
3.282918407751591605e-01 -3.503222622568017419e-01 -4.053744200205185999e-01
-1.155835398518048618e-01 8.315126518116464083e-02 5.395724025689771497e-02
2.566746656496324275e-01 7.731497839362720947e-01 -2.904318127517870329e-01
4.521273252128544806e-01 -3.208729133763056351e-01 4.145935064852831337e-02
-6.074943313429969072e-01 -1.273019445642092039e-02 -6.482458210175215951e-01
3.916034186171171161e-01 7.446537434142108669e-02 1.152488442265692525e-01
2.552118603307223510e-01 9.279139051914350733e-02 -3.604946733228706623e-01
-5.508412652345956451e-01 5.458006716407046710e-01 -3.812023491674056963e-01
1.551148168314406550e-01 1.024942338124361918e-01 -1.778378157286542374e-02
5.086110731803896723e-01 4.088930259319866201e-01 1.620185762591042633e-01
-5.458326536207585011e-01 3.163746418874637811e-01 -1.689802400212219169e-01
-3.165785203355863664e-01 -2.805761972739707621e-01 3.306299769051698756e-01
-1.619189424656487242e-01 -3.696797924342887232e-01 7.598418819880359276e-01
-1.983370666656302794e-01 -3.100743365650506303e-02 2.395852582972739508e-01
-2.393091266277582452e-01 1.106755695755672203e-01 2.196553741986743413e-01
5.748377524651526738e-01 -1.299226274329881303e-01 6.795498677366043072e-01
3.035110342221197452e-02 4.209393468952178918e-01 -8.078310414838585363e-01
-3.021299842309255884e-02 -6.962072955843576216e-02 8.276180449015164975e-02
-5.692302106158851904e-01 -3.762025022399372864e-01 -5.871427615367071917e-01
4.742516133693558955e-01 -5.174343597879831336e-01 -1.231670239521214134e-02
5.193107921483371969e-01 5.945582221409295015e-02 2.370230134426759283e-01
-2.979389043057058609e-02 6.973630704372223155e-02 3.110252860461363428e-02
3.790558554894893906e-01 -5.380126295864191555e-01 -2.962028404058408282e-01
4.195059103471518447e-01 7.307060790883125323e-01 2.609782808729651515e-01
4.051692819393280520e-01 1.877599134973966799e-01 8.154931576826167372e-02
-1.510399343915830861e-01 8.258506602994915013e-01 -4.946749625000640416e-01
-3.723030939659784933e-01 8.281174551905979841e-01 -4.737890993376514537e-02
3.806049860271795704e-01 7.812334614211177142e-01 2.186411958151674162e-01
3.464409179394228877e-01 -3.784588945104485069e-01 -3.445989412324733103e-01
4.454652536902064530e-01 -3.043962382883063644e-01 4.274111224450473367e-02
-5.328846503998375672e-01 -3.392455010007832672e-01 -1.853666893540358851e-01
-3.113108335413997119e-01 1.914672095314543521e-01 3.303046622498723717e-01
3.072792931218259471e-01 2.237929662166398825e-01 -7.785739609971058239e-02
4.663859129227015399e-01 -2.143547416264597882e-01 1.267338060157124635e-01
5.476448673904501518e-01 3.048329513029014448e-01 6.377229397317163428e-01
-3.859595654831158434e-02 -1.289120856272962523e-01 -9.295613933931271555e-01
1.135842014354809804e-01 9.356737682854411597e-02 -2.855846093235392055e-02
-3.426398714673212220e-01 -4.494953428010940444e-01 3.854901118091974555e-01
-1.832738851473426633e-01 -9.596045466250543443e-01 3.164407094329903247e-02
2.791239710425912346e-01 -2.098855280999307737e-01 -1.079312722185615386e-01
7.032633937324377776e-03 -9.527722861364452955e-02 2.652882901691535830e-02
-4.535946478191488218e-01 -5.930017211057893034e-01 4.339366185775729579e-02
-1.837005578148096230e-01 8.317827692008027407e-01 3.728480562698622269e-01
2.520952489246249262e-01 4.307937793303106555e-01 -5.701757046712667698e-01
5.594639652912373196e-01 -4.419017295122263933e-01 5.218132071693130092e-01
7.275566297690222450e-02 -9.680598032106202400e-01 2.403550837339529234e-01
1.412497482687048167e-01 -7.486160870486311403e-01 -5.390095338937768155e-01
1.332939934648207925e-01 5.725554477526530878e-02 -8.272232400847526756e-01
-4.952770216650843049e-01 -2.981445102362457189e-01 -1.290489664302734985e-01
-1.794069966030246155e-01 1.334763961155087941e-01 7.998670177754511057e-01
-2.771182121938713799e-02 -2.636278130763613503e-01 8.872227539043132660e-01
3.057671613972299807e-01 2.905441102571460488e-01 -3.799530621342215864e-01
2.349941229012577071e-01 2.260924068288497346e-01 -6.575944899557270018e-01
3.238430601188411195e-01 -2.094846897298658639e-01 -2.436155747800848245e-02
-3.124297507182566269e-01 2.063992808543208823e-01 1.818834702692130878e-01
-1.044397296092713784e-01 -4.041526110969878571e-02 -9.509184467529622209e-01
-2.603679397870875545e-01 1.249626272394815767e-02 3.468232975167614418e-01
3.913208612522289243e-01 7.067719493492855172e-03 1.233953135978316518e-01
4.328678797388525457e-01 6.473241296241009080e-01 4.881203475113643497e-01
2.305659332738290157e-01 1.467697556914188128e-01 -2.146847957820937902e-01
1.209781005031246026e-01 -1.020331146827522656e-01 -1.145666055558196145e-01
2.812510300328875945e-01 -3.431516142544639436e-01 -5.717381500671683270e-01
3.694269832053774794e-01 3.958477049768274192e-01 -1.928477219908914797e-01
-3.061002969077888936e-01 1.960550837667433821e-01 1.468326006764940073e-01
-1.476562715542925897e-01 -7.284967717628890727e-01 5.484667240530343157e-01
2.569507090001068583e-01 -2.900726840931687825e-02 -3.927314462429349340e-01
2.947648711766814311e-01 -2.360430513972198996e-01 -2.024063475846068771e-01
6.367381825454494770e-02 3.793862972263622318e-02 5.513261072329817686e-02
-5.442532691925129340e-01 4.542668314607040680e-01 -5.757614432194926302e-01
3.484338836854434795e-01 6.467896023734293065e-01 -2.432368025420786339e-01
5.161614925657310726e-01 -5.747797811166457382e-01 1.547806805569240662e-01
3.585670494869785951e-01 -5.174223462759390824e-01 -3.554129934899817322e-01
2.206746181817139107e-01 6.111014089883839429e-01 -5.197642517856903011e-01
-3.432700829989221991e-01 3.377604447859937631e-01 4.356133208479965324e-01
2.294777241623991715e-01 2.540613405594368546e-01 9.191241388642030774e-01
-1.591351381476572013e-01 -6.264935153113918576e-01 -7.521504947517714257e-01
-5.636998708630750476e-01 2.820173501759227347e-02 -2.679684811782663822e-01
5.409041767428219849e-01 3.296949073451382328e-01 2.514370548039049358e-01
-6.214752291029572717e-01 -2.201758045984341869e-02 -4.193433477945097687e-01
1.545534897044190947e-01 -4.504341285197394074e-01 -7.312110414849071205e-01
4.978943093386711816e-01 -6.457177634658678445e-01 1.644684814426771724e-01
-6.196643811104838306e-01 -1.059415421184602690e-01 -5.826674748147890881e-01
5.981490945329741987e-02 -1.975253146262049009e-01 -8.755828073866479544e-01
5.957315846844538632e-01 1.532374581635274347e-01 5.759657405890956650e-01
-2.782698324808154378e-01 1.623374324492276588e-01 9.106394316513849452e-02
2.410346424878210825e-01 -1.039973066436084281e-01 -6.725991346625618261e-01
-3.593928906408635493e-01 4.907167270778986512e-01 4.055761654117873150e-01
4.141900360780665924e-01 -3.099811284138869749e-01 8.305645091616563613e-01
1.197577050296956408e-01 -7.591810725737448140e-02 -1.451601054336174590e-01
4.327222605692473412e-01 -5.788443557480262847e-01 6.412454178537757565e-01
-6.523536583768223263e-02 9.619111412377936432e-01 1.179329921839151890e-01
6.267219159487408611e-03 9.701579492614644806e-01 7.403287399579214223e-02
-2.872337516801396484e-01 -9.000510976560276433e-01 1.112660307125890383e-02
-3.796216899507844356e-01 -2.447568676643686325e-01 -8.794913722892769847e-01
-5.745461137717209482e-03 -4.282592739318160507e-02 -9.223965165249629061e-01
-3.035003786779141288e-01 5.318026406157096153e-02 -5.835362562723396540e-02
4.495721163546318594e-02 2.754597723973165602e-01 9.074583569871607081e-01
2.489166048811141396e-01 -6.344848620078116230e-01 -5.192078628995947520e-01
-4.556040491366667583e-02 -3.698302560628846658e-01 8.457851591259349933e-01
1.547049957834321643e-01 -1.446473841154610196e-01 -8.048260628193903976e-01
3.108995708750996734e-01 4.489299356362275173e-01 -4.253648740965992880e-01
-4.402845682336715694e-01 3.959956484099129148e-01 1.175431904103441810e-01
-1.489425078116947410e-01 -3.655611234330315151e-02 -9.562237678976370781e-01
-2.991569040761130061e-01 1.096862949325905917e-01 4.981883829506244532e-01
3.597902672268860624e-01 4.190197021049640314e-01 -2.484784539797470770e-01
2.147717473454019421e-02 3.933317357763249991e-03 8.060358117503969855e-02
-3.903870982953999702e-01 3.304672841634430647e-01 1.947807820185373795e-01
-2.420306238356281225e-01 1.401739072599086922e-01 1.280682633103547852e-01
-6.196797908432845059e-01 1.139072133543490807e-03 -6.044883661078804815e-01
2.755578967365656107e-01 -1.321200914038504759e-01 -5.497340876268457244e-01
2.935092983184282578e-01 7.780502842187316803e-01 -2.071675189141816420e-01
-5.055148737050210173e-01 -6.421114268143732762e-01 -3.193795282628686949e-01
5.174831486680628867e-01 -4.597286727601891387e-01 6.211263643269505641e-01
-5.343436693741425714e-01 -3.507843287532485532e-01 -1.864383840373249057e-01
-4.624762974049057562e-01 -4.037980538144596010e-01 -7.508903449897751381e-01
3.717250591857571007e-01 2.270700066349494450e-01 8.745083879483142031e-01
-2.879331342752159892e-02 -8.056241603222592529e-01 -5.659984772719897084e-01
-3.393151841216570652e-01 -5.850319047027285196e-02 -8.334900531273556346e-02
3.075858808640034581e-01 6.542983625899393418e-01 6.437939079408296905e-01
2.514092104925440552e-01 5.189262506443155509e-02 -3.688330781779992074e-01
-5.215772231841605544e-01 -2.900876662167507433e-02 -2.140132984658532078e-01
-3.981707660016976513e-01 -4.161995737366195325e-01 1.533739048009167549e-01
-2.688521434345820804e-01 -3.442825462366341793e-02 6.423902885028015541e-01
-6.049971602242140145e-01 1.525826571328075740e-02 -6.556824957168817525e-01
-2.307930270032359787e-01 9.265827482950187433e-01 -2.431809044577915024e-02
-1.135411342928763917e-01 -9.419143091713105820e-01 2.351324731184263050e-01
-2.388212008725146274e-01 -8.764562178492480982e-01 -4.019156614246000570e-01
-4.744214619440468850e-01 2.106365540276101123e-01 -9.780965709840405697e-02
1.273991670335071213e-01 -1.164485480683493251e-01 -8.340830166409429758e-01
-3.015827733684868228e-01 -2.344126006048077027e-01 3.475274522839148506e-01
-2.461128549625679063e-01 -7.913575977430806763e-01 3.569276248268212770e-01
3.531975436038978233e-01 1.619833577708263417e-01 5.013612165697209355e-02
-5.541567566107217235e-01 3.695092738314386116e-01 -1.777143183290391670e-01
3.631375690978957405e-01 -3.910697857209107786e-01 8.299886177068330761e-01
3.787530006996119858e-01 -7.740928879882953417e-01 -1.121365124637926369e-01
-4.362649396845462157e-01 5.575224268465958088e-01 1.811795785880367937e-01
2.729647197241214518e-01 1.477441488599049446e-01 -1.145053724712984979e-03
1.931205434586270517e-02 -5.860409713981821200e-01 7.629369125177989375e-01
-1.948585719779864223e-01 2.810646081915361139e-01 -9.118472862065789553e-01
-2.628628548636032791e-01 2.307430679648389826e-01 6.648126662587673374e-01
5.021996171292641975e-01 -5.857188624333500293e-01 1.010785962595431020e-01
2.762744426412357401e-01 -1.295179135034680851e-01 -5.427596975946873403e-01
-1.130090032797261834e-01 -1.105696180176968246e-01 7.451957565598420902e-03
-5.256834218902715072e-01 -2.276675116167209134e-01 -1.974231548453168894e-01
-4.325683850793105717e-02 -4.389220986273033830e-03 1.086617811124581390e-01
-1.877472261817814958e-01 -1.027089057380603868e-02 -9.573079718312517139e-01
3.979674021535057338e-01 -2.282884107533105777e-01 3.966707262915647458e-02
-1.508945099562488401e-01 4.123636224874867029e-01 7.587412173730313514e-01
4.034087342097246042e-04 -2.192933434018451769e-02 8.970442990881911938e-02
5.418033964519928247e-01 -2.960864592805240725e-01 6.882210438723608270e-01
3.123870888219864583e-01 -2.636735622692838454e-01 -2.488319983256380707e-01
-3.629287183482048929e-01 5.769519740952260278e-01 -6.967915593102999017e-01
-3.496086517811028971e-01 -6.898868747660964473e-01 -6.114476257540812920e-01
5.970302478780810107e-01 -2.144530518673459230e-01 5.772032413633504389e-01
3.716772618110467108e-01 -6.326079576953008710e-01 -2.839023669102638259e-01
4.177407072629265583e-01 7.135057092217826913e-01 7.841883755441186876e-02
4.671330348971377000e-01 4.882018929181393685e-01 4.367599276130269131e-02
1.976510836897652224e-01 -9.612451856612116430e-01 2.554672154336788681e-02
-3.121982616294096680e-01 1.816855253115050306e-01 4.545418417336537509e-01
2.457760008574202681e-01 1.219192113501703506e-01 9.312554262807260994e-03
4.333283203819393026e-01 -4.618546186146636479e-01 -1.095293682085501652e-01
-5.742471297810413100e-01 -2.021551804822220300e-01 -2.888388538747982959e-01
8.323918981696394603e-02 8.567625216236327557e-01 4.557655290417085281e-01
-3.336174876665367606e-01 8.010946550152673318e-01 1.813677997170349276e-01
1.883012196151857276e-01 1.894573911349233808e-01 -7.444591012789718576e-01
-9.109967379198094517e-02 7.751024107609838509e-01 -5.695587711794345420e-01
3.967939434523852227e-01 1.436663822335393637e-01 8.794382417764380344e-01
-3.474884855247394322e-01 -3.461692057974263270e-01 2.546839730983057049e-01
-5.187729809555391425e-01 4.026898046551137256e-01 -7.700612114975292910e-02
-1.730400286852233072e-01 1.599272292126945882e-01 -9.416046877058216191e-01
3.092847917160962412e-01 1.275236615124301642e-01 4.252535373433549704e-02
1.856731299099450005e-01 -9.122177641241875357e-01 -2.357172401544982698e-01
-1.907739464364059390e-01 2.288316143612700512e-02 2.211291897596916189e-01
-2.424413734059460701e-01 -2.357897769139498667e-01 6.861783118181036256e-01
2.372081586640250872e-01 6.783522035654823701e-02 4.800866967997646784e-02
-5.831128536804132123e-01 2.314576504198231910e-01 -2.757588287086611967e-01
-3.329420321471807109e-01 4.664050514621911336e-01 4.755024606317054814e-01
6.131555474606910361e-02 -2.774847846427196119e-02 7.021625645981169339e-02
5.227215322470633030e-01 -5.864115566028075266e-01 2.096845764830437830e-01
5.406070872209000067e-01 1.666595354491227365e-01 7.231412056090787965e-01
-5.181763093928241082e-01 5.608926842145982583e-01 -5.015833794893821418e-01
1.256076401147862842e-01 -7.716350044493436311e-02 -1.497508878710706315e-01
-3.376073935727255115e-01 5.107986174503897220e-02 -9.265549671125480335e-01
-2.289960723898630882e-03 6.993335956251933716e-02 -2.422063939795191315e-02
1.039873408750451450e-01 -7.861065346066400394e-01 5.961857235424963264e-01
2.818171748673651278e-01 -1.651294582279450029e-01 -3.948817303112450161e-01
5.436393005686021018e-01 3.059576527133412993e-01 2.584746815232316641e-01
4.555621370298663930e-02 -7.610296547129282753e-03 7.523984933274022180e-02
5.880055246403294023e-01 -2.309706014815409436e-01 3.527142271340278912e-01
-4.108646876265763526e-01 -4.820504120740594645e-01 1.633712599077140337e-01
4.762668584220304258e-01 -1.586842311129778582e-01 8.199989192437261432e-01
3.546711569401027608e-01 -3.254849596137073253e-01 -1.946076113294408494e-01
-2.633563625296532207e-01 8.823299525922069231e-01 -2.933791708561977463e-01
2.351853694284020968e-01 -1.290496774475611286e-01 9.158670649972259006e-03
1.475748281656980576e-01 8.778750555366821029e-02 -1.449680818472227073e-01
3.334713636310325247e-01 8.220377204977759034e-01 2.613591266095399157e-01
2.635535019261693868e-01 6.137759306430669998e-02 -4.168845606339044996e-01
4.520777987402744835e-01 -7.101100944532122705e-01 4.494722341993725306e-02
5.272037415678575423e-01 4.971498676707226672e-01 2.798592782155109870e-01
-1.630906527780732751e-01 -9.122879310698243094e-01 -3.735510947237724588e-01
-1.556537478071619851e-01 1.971273059127083560e-01 -9.337127385736389007e-01
2.031666244218990613e-01 2.061384233277321065e-01 -7.191795870658896916e-01
1.332376074879272898e-01 -2.259083537632974314e-01 -8.156743248881516140e-01
3.238516145411618474e-01 -1.427211081942866833e-01 4.446005857512484033e-02
2.481278019425250669e-01 1.101237481839853760e-01 -3.211836280956474332e-01
4.643937571688840360e-01 2.058472688662709160e-01 1.396764677801451970e-01
5.652263961546022397e-01 3.709976165065228537e-01 3.782271223578176911e-01
-2.739630906930223819e-01 -6.425344752776961377e-01 4.666467131530700474e-01
-3.663022240410954145e-01 1.360962912191859830e-01 -4.124896911393577392e-02
-2.316596220365024772e-01 -9.884520792292286751e-02 2.698090443344641209e-01
-5.735709133620819911e-02 7.366697440525597773e-02 1.839662284989408009e-02
4.409500162833915327e-01 2.837760914101652432e-01 7.003813512113268858e-02
7.977747152538852693e-02 -7.368645225564142420e-02 -1.133834181002203456e-01
1.335772212337510700e-01 9.415647767190971074e-01 -5.075523663176600975e-02
-3.047221675681274777e-01 8.739357119276338626e-01 -2.366731660533638038e-01
4.733992384384894114e-01 1.232181010172046787e-01 1.741661141814197233e-01
-2.833632333472592690e-01 -2.261623126671237771e-01 2.044081707150067762e-01
2.493131674932475284e-01 8.740729891261082019e-01 -7.165482539937745310e-02
-5.039691801592977027e-01 -3.059106689092852549e-01 -1.403324424945769644e-01
-7.664394676903002468e-02 1.158066799401139685e-01 -9.364246284814417010e-01
2.549027771253238317e-01 -1.610771859214171764e-01 -2.711344486701168788e-01
-7.948079091906015692e-02 -1.084753166526092327e-01 2.328013758774842221e-02
-2.540736920196899340e-01 1.221270338653328569e-01 2.365858047528204278e-01
2.024611195683710119e-01 3.408274129586227191e-02 -2.632988016152070787e-01
3.038715749411134981e-01 -1.596073548664513619e-01 1.718794255644633812e-02
3.464001496155723614e-01 -6.850004934211565422e-01 -3.048377144484891721e-01
3.747197846174942781e-01 -7.828257031213092798e-03 1.139469821912898473e-01
1.814573366043698011e-02 -9.622805427420312585e-02 -3.677884763779427219e-02
-6.061273125100971049e-01 2.748450288301332867e-01 -5.501949018499378008e-01
-5.266468050037824700e-01 6.033258013743719728e-01 -3.629368410445444892e-01
2.921099384219298933e-01 6.824899327537840843e-02 6.602927030633122529e-02
-5.590391794956580673e-01 4.909275309147032029e-01 -2.252763852720207904e-01
-4.878953210432849207e-03 -4.148164900258236587e-01 8.466777270437553238e-01
2.993801337208737978e-01 1.302236985671057223e-01 3.435069163578073625e-02
-3.203022687734553564e-01 2.101766942527783788e-01 3.991160692034648183e-01
5.693136386452191111e-01 3.572150543936806200e-01 3.961626407059561927e-01
3.100683363695369565e-01 -6.213273100945271299e-01 7.081292444797756547e-01
2.567619068030682072e-01 -7.560907279790637925e-02 -6.256062962294705043e-01
3.322141890521718155e-01 3.071563378414181034e-01 -2.040075973763300354e-01
-3.669263045657620848e-01 3.084229843244895575e-01 2.592947376144311700e-01
1.390551457403562952e-01 2.691802833721604893e-01 -7.837194101697179116e-01
2.622410770916964728e-01 -6.678037059670303144e-01 -4.743115139208258224e-01
-5.648695082632575470e-01 -3.466148415198787580e-01 -6.259940456130211883e-01
-2.540001209216166678e-01 1.451308221818329858e-01 8.620545315412496412e-02
-4.458983693041650986e-01 -1.060501343600702834e-01 -1.369380929528517810e-01
7.256022102572832165e-03 5.188236992198402148e-02 5.501630554848564031e-02
-2.843227249400269163e-01 1.668244725990500055e-01 2.317431908977379829e-01
-2.447269082944091567e-01 -2.364612460143532269e-01 6.816403470972121070e-01
4.379622263495167589e-01 -7.371947729465047061e-01 3.858503817356799537e-02
3.547075258832428357e-01 -5.627416968177945122e-01 -3.568646612778567095e-01
-5.068770937163851187e-01 -3.233019705378989972e-01 -7.429976074173876288e-01
-2.676577377975009053e-01 -2.044734532192068466e-01 2.070639342734627575e-01
-3.908416748599867763e-01 2.546314459240242578e-01 6.042676509078959146e-02
2.395198505081407025e-01 6.083218123643158171e-01 -4.939006373575945963e-01
-3.739436608110779936e-01 -5.265026072354166420e-01 2.914234868021728930e-01
2.713422870137744414e-01 2.016158113944204466e-01 -2.431905698661449289e-01
-3.653764906301785187e-01 4.596759065771323649e-01 3.923194525904351027e-01
3.027145672757752259e-01 -5.275355757858025685e-01 -4.877202119212479814e-01
-6.769926823481284273e-02 -1.064389582991243921e-01 3.080209577544406815e-02
-1.573712731940372575e-02 -7.064848248000456243e-02 7.479093610049521168e-02
3.312695030746098945e-01 -3.331666456311630498e-01 -3.655313537394105361e-01
-3.010356025669095881e-01 -3.486983778685740498e-01 5.210983418179928606e-01
-3.448264627793643511e-01 3.210946125196113554e-01 4.164806476979535099e-01
-6.561854420229509821e-02 4.364857415890654319e-02 9.718427562647809215e-02
5.640501084248330521e-01 -4.015167245090958126e-01 5.543417738638443115e-01
-2.491284869251100126e-02 -2.919588296351092738e-01 8.809901525270894540e-01
3.297946511363471500e-01 -2.402307671936433631e-01 -6.663366431358606901e-02
1.940170176337425445e-01 9.188129379140470565e-01 -1.798936059321573633e-02
-2.264850522572588176e-01 -9.372635766962715553e-02 7.344231718704341549e-01
1.820289384882490813e-01 -1.389049436411488869e-01 -1.230491997815789940e-01
-5.923960296526794567e-01 -3.424776992255293417e-01 -5.264344810279059095e-01
-6.088172418991937285e-01 2.637676869675387170e-01 -5.465710203296805236e-01
3.695864952841124706e-01 -6.007831777220882241e-01 -3.054150627006507746e-01
9.202666868884275264e-02 -7.054934803965269285e-01 6.822786564479732530e-01
1.170941687542797760e-01 5.782639128047164373e-02 -1.429884843081623835e-01
2.300409826145463632e-01 -6.411719752865259470e-02 -3.052302205629450760e-01
1.467967421143485385e-01 5.464186590694306567e-01 -6.530518398392729518e-01
5.270226073043398074e-01 -5.059892406962153144e-01 5.486509093645672852e-01
2.425608538800195502e-01 -1.825171718671431409e-01 -1.342902866709195508e-01
-2.023108422325171352e-01 -2.022000195166875208e-02 2.451813981998968162e-01
1.920997118259075709e-01 6.781803649020281544e-01 -4.997462583111113021e-01
-3.814390719042719535e-01 2.950398883416313536e-03 -1.027359220937634210e-01
-1.854350800917511366e-01 -6.232386127853919433e-01 -7.518917058411546117e-01
2.955537273798394815e-01 -2.799847378684384713e-01 -5.167463279038264634e-01
2.707000158163009318e-01 1.184496933101926441e-01 -5.374186063704338157e-01
-3.973603577815474353e-01 5.342733255847611495e-01 2.963703683702816893e-01
2.037933204296198120e-01 3.281893937697163421e-01 8.991438235906281662e-01
-2.867665895453208047e-01 -8.804590728892698615e-02 5.486197707001164714e-01
-2.199066130969730137e-01 -1.994194373909426998e-01 7.315641606592649948e-01
4.384348796761624034e-01 6.729153221259228657e-01 4.133170273846104026e-01
-9.415403131553733151e-02 2.637948044997447394e-01 -9.096372953639150216e-01
2.299236511018003248e-01 2.603442784384443764e-01 9.172380673759967795e-01
-1.543974399442381122e-02 1.808934959423539419e-03 9.468338959977715130e-02
4.396202533474758423e-01 5.809838684310357493e-02 1.533699607213162008e-01
3.830844594181900820e-01 -4.087758377546152899e-01 -2.232793183331254205e-01
7.352317247724513005e-02 -1.693872162612247365e-02 -1.342571780713418261e-01
1.489129916714280188e-01 -1.085267174218668834e-02 -8.150341386750510342e-01
3.046090742958978415e-01 4.632894133509301016e-01 -4.403424545476284924e-01
-3.009774750817456601e-01 8.828955008378359670e-01 -1.936702176317314228e-01
3.756921918166382102e-01 -6.864561071661618996e-01 -2.340943623748173719e-01
-2.672165377504667760e-01 -9.135821183723963346e-01 1.942092973618170931e-02
-8.466016642867529862e-02 -9.294140247187672177e-01 2.964540639395091826e-01
-5.148758741431207486e-01 4.339848470913971745e-01 -5.787908995318187533e-02
-2.751880262806045141e-01 5.942447403917658910e-01 5.197125054249835951e-01
4.016567945977337906e-01 -1.225670462272338002e-01 1.060878531210276560e-01
-2.329076695529014029e-01 -8.968355610525244326e-02 -4.196804138163062747e-02
4.768753530760567738e-01 3.204397495441455024e-01 1.123085314774473764e-01
-5.135938193721167888e-01 -2.457218246389573368e-01 -1.746237186728687996e-01
-2.435487662621949045e-01 3.934997015708198605e-03 3.103732286865498735e-01
1.492405623095513501e-01 9.358181953492756833e-01 -4.781647614641196947e-02
-2.209449388011440474e-02 -9.251713844964491729e-02 4.759036579429579139e-02
2.709237391974381737e-01 -4.201123098904109565e-02 -4.728287075923371940e-01
-1.370549101680522408e-01 2.122559611751113351e-01 -9.289869333599795054e-01
3.167323166620862329e-01 -1.012061963589795804e-01 6.552777829917551256e-02
-2.874189170182592790e-01 -1.337910266944911108e-01 -3.241686024312249309e-02
-3.464150601557289821e-01 6.867477822559807654e-01 3.192868542388212494e-01
1.845322603818011498e-01 9.158000677103966813e-01 2.255212870890139221e-01
5.425249876099160762e-01 3.849641626671703593e-02 2.716718014304513318e-01
-4.150125223138486641e-01 -5.684878344812988038e-02 -1.219383122071177605e-01
-5.228966428309936854e-01 5.995811455642080512e-01 -4.014222659576840435e-01
-1.372893472000608905e-01 -6.810566449552946100e-01 6.020927341627141383e-01
1.910768862863623518e-01 -6.408311438940942351e-01 -5.866053680816643023e-01
-4.444811650514191026e-02 -8.553208968476389007e-01 -4.999836172701480064e-01
-3.934114291316999079e-01 3.600250953985810187e-01 2.308143936327571033e-01
3.696152837590538920e-01 -2.876763921172342808e-01 -7.043285307573628196e-02
1.819675629487985391e-01 -4.292904075311744228e-01 -7.114820743742973352e-01
-3.327882352659326526e-01 -8.503403000265800094e-01 4.678301726662818794e-02
-4.735698863118876362e-02 -9.648129619772440047e-02 -9.350464573031556093e-01
-2.975122642392287187e-01 3.704043072304082362e-01 5.743615920860116741e-01
5.185888071292616974e-01 3.560501207027387260e-01 1.914541000075456745e-01
3.374115055963166632e-01 -1.118786613764966575e-01 7.056874188858711094e-02
4.361312638395648672e-02 -1.019952833823334348e-01 -2.471138441344413947e-02
2.344657708379276409e-02 -1.004236596388571462e-01 -4.440607545846724652e-03
8.485548985537931521e-02 1.098038563961303317e-02 -1.400297752250606875e-01
2.755386517508338073e-01 2.073878294580161763e-01 -1.286010114470278187e-01
5.386787494857013803e-01 -3.887339833505127906e-01 1.903056242781606677e-01
1.906612574015539019e-01 7.257687380094585139e-01 6.239669387525671462e-01
-3.041198405281304029e-01 1.540860036327901250e-01 3.932017751464982336e-01
-2.787724920262240058e-01 -1.393708246660411154e-01 5.988082103449027249e-01
-2.119897660560672858e-01 1.174500571994457759e-01 1.342181613743299029e-01
5.972523181790913016e-01 -6.980762019401041962e-02 3.918298750233190075e-01
3.772494987833945879e-01 -7.394362758325319085e-01 -1.713340400918973161e-01
3.647199943220953422e-01 -3.581652314206246190e-01 -2.217003885909246963e-01
3.606024738390866680e-01 7.599011499020954519e-01 -5.324694649179605166e-02
-4.112218321550619171e-01 7.065658103682945779e-01 1.367669022211417673e-01
1.660860255514045036e-01 1.182864074019908673e-01 -5.998673903148975944e-02
1.069062242450580791e-01 3.819489967053336238e-02 5.014539561617843005e-02
2.085141912147359944e-01 6.667817031735840949e-01 -4.894134759932536882e-01
3.534422073639912898e-01 2.242390956613448949e-01 -3.845183902652963941e-03
-4.780360927233542334e-01 3.201601779859909458e-01 -3.185225815531408239e-02
-3.974105033090848393e-01 -7.825855845146242329e-01 -3.684829732491339827e-01
4.822014561925133114e-01 -4.811152081902624889e-01 1.706426025075408540e-02
3.348276167436540218e-01 -5.396494323471733301e-01 -4.125204447571637068e-01
1.774173500051718921e-01 1.007455035964251872e-01 -1.731596261357297162e-01
1.868250965043036227e-01 5.839067104008772713e-01 -5.840619304578170690e-01
-4.416667221555384271e-01 -7.464073916397796493e-01 -3.125819298298762039e-01
1.547620963074273007e-02 1.734986730341810390e-01 -8.943104620026322005e-01
-5.279137491699885665e-01 -2.190066569023224885e-01 -7.585316313375236597e-01
-1.252670344960546966e-01 -2.035831140939490247e-01 -9.377141077574575601e-01
-3.350248439898070307e-01 -3.915031898193301330e-01 3.945617117308363730e-01
1.085456947860796370e-02 -5.663956313872166026e-01 7.730355910463645452e-01
-3.910006923030932002e-01 3.768231207057836651e-01 2.622965586834765661e-01
-3.948787421588990654e-01 8.092212922170790579e-01 -9.023449695303258078e-02
-6.071140316084989719e-01 1.297273158640943891e-01 -6.304163869043907242e-01
-2.559644558856301044e-01 -3.367232899849752908e-02 -6.258358180764191092e-02
5.149358364945056943e-01 3.911790601831249825e-01 1.797699765308934938e-01
-1.200571588338785606e-01 3.300628110432458212e-02 -4.671713901253078671e-02
5.839516561113279325e-01 -1.562206610816345154e-01 3.424701591606723050e-01
3.680499335609813127e-01 -3.469287167470571642e-01 -1.853821658261880501e-01
1.922051130355960646e-01 1.144584764802858423e-01 -1.486884504251450440e-02
4.335304549838316368e-01 -3.352790458342762014e-01 -3.664724395382459258e-03
-3.243650093415916258e-01 3.974783806591771773e-01 -8.378250054187312834e-01
1.335561755381152460e-01 -1.175845627816501787e-01 -2.467582162057610148e-02
3.624990499566525526e-01 -4.521841137035946812e-01 -3.335516842244908853e-01
1.900990995495368263e-01 3.766082877757657710e-01 8.816874304053514688e-01
-3.374667804296623275e-01 2.348120208136894871e-01 1.667941130621782564e-01
3.330020107910617866e-01 -1.429306958888151013e-01 4.995544245996356991e-02
1.982001816549453788e-01 8.871695434808898328e-01 -1.541551469630669524e-01
-2.906449760829847850e-01 2.867771881174368057e-02 5.285019659616219112e-01
-6.450604439030220572e-02 -9.509189462114430169e-01 2.543199310222353238e-01
-3.418564023530250018e-01 8.530159687456043693e-01 -1.905323823557458426e-02
1.241050114280443789e-01 -1.085858002179169585e-01 -1.052453959973669306e-01
-2.691519002418486517e-01 -3.199221981405518389e-01 6.139808691506031257e-01
1.616636065060482741e-01 1.170044720234157121e-01 -6.893121459289509867e-02
-2.427594250565707212e-01 6.899049439993963639e-02 -3.130174524698747796e-02
2.285661297682265586e-02 7.381138438646018818e-01 6.190439717380459284e-01
2.962715860415682800e-01 -9.055870440833577728e-01 4.451248957701082337e-02
-2.703464782514312659e-01 -2.130839831380904326e-01 1.617014443971708793e-01
-3.828829344175356808e-01 8.238572410440021532e-01 -1.433455016981382557e-01
-7.998626453681983994e-02 -6.840427697153554920e-01 6.418700227684772663e-01
1.732808170125263725e-01 -7.460787020209298792e-02 4.135576776939010185e-02
-2.106634536070210173e-01 -6.618636851680906319e-02 2.497773229022722530e-01
3.075450504383292483e-01 2.320005213226225271e-01 -9.588593935849136496e-02
1.919639679061399817e-01 -3.163697090114471477e-02 9.598468043714746267e-01
2.241388963997175687e-01 1.590389612649291684e-01 -1.222637133080408528e-01
8.033391264331640746e-02 -9.332112649980925378e-02 -8.902985110912119138e-02
1.925899382950306271e-01 9.183197370770783685e-01 -2.757767040098613176e-02
-1.627709880352735117e-01 -6.461380668517323345e-02 1.888001528829398035e-01
-5.843796265259808553e-01 -2.150941394636562143e-01 -6.587260034389915697e-01
-3.014316321547393929e-01 -1.597821526445938611e-01 -1.911987007079892983e-02
5.263977851508928607e-01 3.690406391122658114e-01 2.115397213713919311e-01
-2.885861677112513402e-01 -1.996879448146448022e-01 5.558413642910281505e-01
2.414270165162410164e-01 -9.089776334340637920e-01 -1.422959667267276740e-01
4.898809284860002333e-01 5.097210062807059350e-01 1.193445285077094908e-01
7.926196598424407880e-02 7.836443414879715186e-02 -7.415947659561394900e-02
-3.343254326272647736e-01 2.274711305878049927e-01 1.512611976501318234e-01
2.900684716848256350e-01 -4.097013286561906886e-01 -5.446029188609208260e-01
-4.848015351236625858e-01 3.352483064156936421e-01 -3.472905311350169694e-02
4.835853774786245118e-01 5.053011311034556474e-01 9.656915442286662099e-02
3.046139330261088962e-01 -8.435963339598613331e-01 4.019783677409236033e-01
-2.681510703009387653e-01 -1.641553114517925460e-01 3.009550164955465679e-01
-3.885995145211751933e-01 -8.456227616781013257e-02 -1.024215052228635431e-01
-5.872067618801339872e-01 3.146334822009521637e-01 -2.830458424785654015e-01
6.069575805727746021e-01 9.286515132023946684e-02 5.259203902321698543e-01
-2.624185309147964995e-01 -1.937804520951953435e-01 2.199797268774904280e-01
1.991359081630486860e-01 -1.746258598983271935e-03 6.168262734104214273e-02
-2.124577187230373421e-01 -1.556920642893477036e-01 4.656328931287794654e-02
-3.833767183101717269e-01 -8.258589982373885086e-01 -1.267795354427620758e-01
-5.349029049962976679e-01 3.468687627833627052e-01 -6.835201925484915009e-01
-3.811101089787160001e-01 7.616245636370966299e-01 1.340511022885503556e-01
3.381574570980510619e-01 8.167491901871468674e-01 4.281180508349276270e-02
-2.928496221256529641e-01 -2.799478486334400218e-01 5.470642016212902137e-01
-5.302535755210118218e-01 3.174970235685709019e-01 -1.349302680334253102e-01
-4.885025984323768666e-01 2.274974159417459119e-01 -1.072395819492585334e-01
3.077414113224126169e-01 -8.640046470580450277e-01 3.407326918819209016e-01
-2.588262085332599383e-01 6.940260448396985693e-02 3.124529781249652527e-01
-3.223572512623033848e-02 7.125046755991425174e-02 2.414765100938643522e-02
4.439941416785312400e-01 -7.400706058673930388e-01 8.067933424992271285e-02
2.300730268613457030e-01 1.488388265125148435e-01 -2.080062780014497459e-01
2.129866497114447643e-01 -1.978701739386689862e-01 -7.237114713405002897e-01
-1.685637183547089302e-01 9.864411693466151876e-02 4.842785284631291598e-02
-1.957947781268394027e-01 6.139396155821040812e-01 6.035924505278770225e-01
5.491128693274580641e-01 4.392393130511102473e-01 3.546968505608202871e-01
3.377103116581113840e-01 4.280578837757074706e-01 -3.358356226432692160e-01
5.498024502129600366e-02 -5.357095855048428501e-02 6.279852120589489439e-02
5.264175920662442915e-02 7.533344954164017393e-02 -5.223070313993764119e-02
5.119621235161897488e-01 3.308771743113237546e-02 2.282722195547610133e-01
-5.548327141266110596e-01 -5.149059887083491382e-01 -3.537595318961023749e-01
2.621903159662896110e-01 1.482214257652646472e-01 -1.094915538070350726e-02
2.369263565281435890e-01 5.576434577224863576e-01 -5.330022056863686908e-01
1.553308377276327867e-01 -5.854758452801244184e-01 7.810952865828054703e-01
-6.086838185305252225e-01 1.535522368471225474e-01 -3.583375321982011363e-01
2.286689324786761179e-01 -1.739433921270741035e-01 -6.982563597307639425e-01
-6.085290522411944680e-01 3.111944716082288842e-01 -4.020844085041105909e-01
-5.408619560984960772e-01 4.559166017742912747e-01 -1.337520527165814155e-01
-6.145723082393219489e-02 6.950804745582489508e-02 5.272168868935667163e-02
-5.379509757509914891e-01 2.092022233909438533e-01 -7.446351860078169738e-01
7.435028169054747060e-02 -7.656553477906513638e-01 -5.694867005706718555e-01
6.111096122978851852e-01 -7.792500576715645499e-02 4.753771425063547107e-01
3.250561955707010897e-01 5.455250355338409074e-01 7.354624869481322103e-01
5.414683618849274183e-01 -1.185740922255461571e-01 2.569864920139421915e-01
-5.556203874644205509e-01 4.349816465026489221e-01 -1.821095532441960874e-01
2.759231372759204381e-01 -9.472509694125495761e-02 -5.066221158199467611e-01
2.663222448987306312e-01 -2.557385674320006297e-01 -6.113049458957345861e-01
-4.457687295286675844e-01 -3.591343325867374925e-01 -1.254779302800518304e-02
1.196109099286108701e-01 -3.850333279092060801e-02 -1.658272559543457203e-01
5.401018034151110481e-01 -5.475558425905365789e-01 4.137370931310809796e-01
5.823397497247194687e-01 -1.931148888916614792e-01 3.348246960787564230e-01
3.355234914639870225e-01 -8.657566152383364688e-01 -2.695644418161777852e-03
1.516395432802501442e-01 -3.720839333220358203e-01 8.942308435095494001e-01
5.362929717442074251e-01 4.822867886616935551e-01 3.288787490167718874e-01
3.264570339191747439e-01 2.945314201961926059e-01 -2.002699380880196278e-01
2.600112812962422915e-01 -1.565252273700693253e-01 -6.235200432635149559e-01
4.434627809610913185e-01 -7.429886415110502629e-01 3.323108478789961739e-01
2.550409758564596285e-01 1.143759909597435592e-01 -6.162113699339862860e-01
-4.801637792874035027e-01 2.589231299553240162e-01 -7.946879343442402321e-01
-2.125889718373815129e-01 4.612658819908855290e-01 6.761672605437013539e-01
9.689677161636561786e-02 -1.105038303911331787e-01 -2.796389089071952064e-02
3.097806224656662888e-01 -2.970034059621455280e-01 -4.552154105814091301e-01
3.544258088061951750e-01 2.410601677348708435e-02 9.168013383334012723e-01
-2.943931676083436089e-01 7.763717794224490598e-01 -5.066631375502274048e-01
9.403829234999717956e-02 8.798505892076509405e-02 -2.552626059892641741e-02
5.263193396531939960e-01 -5.033552733983449601e-01 1.544299901177663414e-01
-1.298301543174343667e-02 -7.279681583091294206e-01 -6.475789155158417909e-01
2.261823748121383759e-01 3.312957072290769189e-01 -6.505286515399834046e-01
3.089070834482076089e-01 -1.030676901609407226e-01 6.107797747846080427e-02
-2.742714083770511624e-01 -1.717395841696372216e-01 1.380074026266987428e-02
4.317527767584092291e-01 -1.693730813784937450e-01 1.108754996512391761e-01
5.903152112703446974e-01 2.508858225659699737e-01 4.761926629210408990e-01
-4.565085544842737986e-01 -2.506574340446564020e-01 -9.629904850919887571e-02
5.428281214663648324e-01 -3.405847809187870778e-01 6.611549444197581948e-01
-3.959076290678326115e-01 -8.050749096688469830e-01 -2.807411910080666595e-01
6.065359182131895288e-01 2.397558985581197885e-02 4.472369822285791607e-01
8.253346093985225451e-02 8.944708287583033046e-01 -2.955501780136389756e-01
2.695897817025505461e-01 -9.579525439696595646e-02 -5.725702765326186050e-01
1.890304786625333355e-01 4.796634856881334397e-01 -6.450969437205376078e-01
3.464532085164431230e-01 6.835315860636748120e-01 -2.129816048824749175e-01
-4.138143592680484928e-02 9.109200397024126428e-01 -3.248620945101175495e-01
3.050095929895461633e-01 -5.750441381766067117e-01 -4.624424380559532533e-01
4.431884965363875328e-01 -6.471210803766773711e-01 -7.073298927771050348e-02
6.069053258666303741e-01 4.583606050747855015e-02 4.561011139627832445e-01
5.614464056933738956e-01 -3.422142152880364163e-02 3.018046847020345869e-01
2.947978636702895394e-01 1.678501622926550918e-01 -5.885290896622500691e-03
-2.690927801317098966e-01 1.165547159426618268e-01 2.891883952574940686e-01
1.409875060706057559e-01 -3.777973396564839742e-02 9.602379098350143360e-01
3.529509386995730580e-01 -7.382844297809263434e-01 5.397165868828818214e-01
-2.498364423303022289e-02 -9.906970088780581163e-02 2.912259115471131990e-02
-4.216538078381844579e-01 -9.268242603197274221e-02 -1.215103082264343548e-01
-3.706808947902429097e-01 7.575222521083577742e-01 -4.548990855847822035e-01
-1.862260181967115014e-01 1.977329235741094315e-01 7.839838718871293688e-01
5.882149192588338460e-01 1.535492847817715723e-01 3.836684724782657430e-01
3.007925635551835994e-02 6.351197885748073590e-02 3.219437474842862940e-02
-3.712600263739466167e-01 8.146012912783052728e-01 2.761434496966629765e-02
8.735592774011392836e-02 -6.004425123976657452e-02 -1.295444631719338824e-01
1.873776984735988638e-01 1.307090417871466237e-01 -7.103891877187333559e-02
5.209133599558727346e-01 7.960632636799815087e-02 7.742409392297877613e-01
2.138112492385242924e-01 -8.013970134235111342e-02 -2.642105611029757495e-01
3.289920415982927615e-01 -2.761000578460176547e-01 -1.653546671630200249e-01
-6.236123985718496909e-01 1.810565813164759230e-01 -4.499134845175751241e-01
2.639266867840281972e-01 -3.259614572166776303e-01 8.969191041292227107e-01
-2.388067059925473579e-01 -3.413413849221478280e-01 6.689776679351050470e-01
-2.878491682764047210e-01 -7.904580582858095061e-02 5.340512762452450657e-01
-2.904657370280502304e-01 -8.863311649927098704e-03 -6.992924176953799198e-02
