5.392784587469964808e-02 5.928108989141700480e-01 -2.364717961965742965e-01
-5.417533147356498602e-02 6.968955653866931721e-01 5.885988800752145478e-01
7.143580690810950040e-01 6.578827545031339374e-01 -2.693263680339377242e-01
3.401065487333728710e-01 -2.709862675374079544e-01 -9.023488599711299019e-01
-4.931545647325788484e-01 4.394509784327909063e-01 3.642512267174640161e-01
-1.576952433441031476e-01 4.497908521114473146e-01 5.910724020566203440e-02
-1.863057665994633794e-01 1.976504591493564167e-01 9.775392751075558939e-01
-6.914462276300947785e-01 -4.638570886719238784e-01 5.457094963808976074e-01
-2.788335483840665430e-01 -5.323000031322777659e-01 -8.129502861630364396e-01
-3.342620536832844880e-01 1.829345204316120133e-01 -6.893954396464463397e-01
-5.663649017055932822e-01 3.809738216077255823e-01 5.435093895527122188e-01
-1.007635309277553626e-01 1.969340619939791148e-01 -2.074418654259252079e-02
-5.856291037978474945e-01 1.664452581814427345e-01 -2.192877277308301343e-01
3.997425364738512177e-01 -2.567036429095060912e-01 -3.823667040599028344e-02
-5.597857757848281324e-01 2.942327926459815113e-01 7.144501519537874712e-01
1.144128633415676666e-01 -2.311490722304067602e-01 1.703028098950285507e-01
5.546928516147283661e-01 -3.142601973507203605e-01 -6.633732652047589218e-01
2.377071236104275898e-01 3.203822214870908347e-01 -8.683038744200083370e-01
-3.440176789887226527e-01 4.874913323293171286e-01 7.265023571980812056e-01
-8.543246184142205824e-01 5.632550374782563374e-02 2.247435689514818979e-01
3.392631270916647845e-01 -1.839655371541351891e-01 2.045284980890870186e-01
1.029740998351772185e-01 -2.708848891122307423e-01 1.830693139069555428e-02
2.667952419288824317e-01 -7.277527196371458285e-02 8.274127716531011201e-01
8.466478234998264796e-01 1.087105106684959216e-01 1.991756306159125356e-01
4.897836411716082611e-02 -8.869857356743764132e-02 2.655627658844664923e-02
4.634864217409770393e-01 7.543582484639170804e-01 -2.630499612202197857e-01
-1.108059834736013216e-01 5.134928969343487415e-01 4.707762999915070939e-02
-3.233941089909315725e-01 2.142495221513732728e-01 -2.080705786266573432e-01
-1.547530981852398291e-01 3.343526513074732143e-01 9.443278670105271777e-01
2.246776225048522854e-02 -1.487867680756297696e-02 9.777448488263279849e-03
8.504008605530662124e-02 -5.480184430805373763e-01 -8.519981653358067730e-02
4.312547497516681233e-02 -6.124522769424146224e-02 3.001015619108944946e-02
6.795080110171645149e-01 -2.288193127162760354e-01 -5.354019219807910623e-01
-2.096141876757955935e-01 4.938791102918292375e-01 1.338069448972800946e-01
2.309933312104607284e-01 3.469182396964015647e-02 9.057641052521957503e-01
-1.259923670633106563e-01 -6.881859035124823221e-01 5.317311697064095594e-02
-1.142393466074373976e-01 1.630431573727326444e-01 -1.048851229214326636e-01
-2.224963706258236557e-02 -6.348511735620424590e-01 -7.116330114933177020e-01
-6.507226046594765112e-01 -4.992589821428252139e-01 -5.855683440728653988e-01
2.403746300798479119e-01 -2.442441851540362585e-01 3.384880620469821744e-01
-8.885784345569268383e-02 2.689636440812379625e-01 -1.361635604852768910e-01
5.017812650002569930e-01 5.802546577793801091e-02 7.204500702025494752e-01
-2.013310959304526540e-02 5.087530023644131622e-02 -1.843302829831500872e-02
-6.650239270404043057e-02 1.658839040162163048e-01 -4.763118369312013128e-02
-5.318449121557968784e-01 -7.781280176827818362e-01 -8.149543777916150311e-02
-4.014609295295297198e-01 2.088980065498094105e-02 9.289346779869536164e-01
-8.768814120098052944e-01 -3.571109610391002831e-01 -2.547907622781170334e-01
7.264506152888676738e-01 3.717404388128406345e-01 5.453809509171987369e-01
2.858809870383039464e-01 -1.297223887792466890e-01 7.601718499276224339e-01
9.220667501640936736e-01 2.072232541930100480e-01 -2.351721753535613857e-01
-2.077190901913631982e-01 2.077061766086874817e-01 -2.646013649682489241e-02
2.183764767118328079e-02 -1.265903113870303805e-02 8.293394130359581576e-03
-2.803072818072565447e-02 4.766596194151506705e-01 -2.416896165275357611e-01
1.488631218137025092e-01 -1.477471266401933214e-01 1.389157952849549502e-02
-6.434325986337952052e-01 1.039663408293254182e-01 -3.270274056669913443e-01
7.676660944379841700e-01 -1.514526346625596764e-01 -3.553751738602487498e-01
5.803866320552441421e-02 -9.232820296429777862e-02 4.655574332814809563e-02
-2.967656017263007318e-01 -4.922439056783781686e-01 6.691310589226612260e-01
-4.529419552543589855e-01 2.026857681693657320e-01 -2.273008857442145592e-01
1.284084533728622746e-01 -3.275221381780320518e-01 -9.494042068493220299e-01
-5.593130075425046394e-02 3.994259387142121143e-01 9.308228637907645098e-01
6.907691060939970262e-02 -3.450864830144478868e-01 9.805493916775688545e-02
-5.148053668057055443e-01 3.987445715992522510e-01 6.324512981969486747e-01
-1.964731589820028351e-02 4.965642142364398715e-02 -1.390789857965531173e-02
-9.590808140327394815e-02 3.425592890411718883e-01 -4.273218724664997609e-02
-2.386647834811611579e-01 5.304234631276667500e-01 1.978564263262755640e-01
-5.752526242127007361e-01 -1.533434953759249542e-01 -7.199682578054645843e-01
2.331780134695882190e-01 8.158842955846685729e-01 1.567370618625920364e-01
7.595519931181390905e-02 -3.069000383130721654e-01 1.430045780775707487e-01
-1.236051491692705534e-01 -3.380338124462965027e-02 -9.671784907582758883e-01
-5.919782432593254651e-01 -6.978104310760544493e-01 2.501522121891298633e-01
2.852147131528812163e-01 -2.464304300742268805e-01 -2.673102515563746326e-02
1.131368334768134143e-01 -9.875369952847262711e-02 8.966567938879452804e-01
-4.422008697770944963e-01 3.443075418744693805e-01 1.192688471558539937e-01
2.975206734348451176e-01 -3.651488396658327251e-01 -8.666983088544788494e-01
-2.920189454988092459e-02 5.637310948595677385e-01 -4.358761526904304101e-02
9.058210572522195081e-01 1.076010464635736019e-01 -9.417714991785425260e-02
8.614682841056664486e-01 3.789051377783389518e-01 2.856930712272098272e-01
-5.271001933287681185e-01 -7.795134383060999816e-01 -8.554789702680752617e-02
-3.793633354436337091e-01 4.057487872288443875e-01 1.645187729957944267e-01
-1.772626174851249792e-01 4.088548350391307817e-01 5.529203889768628116e-02
2.784935938610894751e-02 -4.373006099703666272e-01 4.259643816973572861e-01
2.511534266492979062e-01 5.866711341983471550e-01 -5.717483258897421150e-01
8.603650123707903830e-02 -2.670077400547770652e-01 1.442823868249354657e-01
-1.002968125185899929e-02 -5.900010206850554439e-01 2.832636465821551652e-02
1.166711392530857955e-01 -1.562315563480503045e-01 5.543983254088676906e-03
2.341072053492309624e-01 2.185002479682968957e-01 9.358569750745409088e-01
-5.069965102457473644e-02 -5.693995757394997304e-01 1.843562442412968738e-01
1.233350793144662866e-01 -2.755987533763226138e-01 -1.952971383141838529e-03
5.482162930797755962e-01 -1.578839327702889206e-01 1.696836753375520757e-01
6.473428283565428876e-01 -1.361341200488337955e-01 -7.142467455481237293e-01
4.158497336174329928e-01 1.959647445396745236e-01 8.419620204044396816e-01
1.314128231613378439e-01 -3.573949986318196159e-01 -2.273910234626115578e-02
-2.014239607633338536e-01 -6.233282132441695378e-01 3.759738870255258658e-01
-9.212354786348794788e-02 -7.265675785868735970e-01 -1.409485981753071104e-01
-4.696763906275083778e-02 1.010527354373964987e-01 -4.110995512819159980e-02
-2.181252458355947832e-01 -6.289838813667077144e-03 9.739312831611309784e-01
-5.104134249954540570e-01 3.740847341671057480e-01 2.215435195814640101e-01
2.712839633205628084e-02 -6.906997718971275013e-01 -5.428196650106120735e-01
-7.742711238562266507e-01 -1.579344920602360480e-01 6.216281237112628588e-01
6.214631222906500385e-01 7.034263121233031990e-01 -2.922943183093517083e-01
-7.928959596065759952e-01 -5.978787598280291826e-01 1.422580984000334503e-01
3.464434336774321332e-01 -3.161575928317383322e-01 -9.783102713649079185e-02
-5.512592920197516566e-01 -1.376300882284545724e-01 -7.386478363686429516e-01
1.515375477829716266e-01 -1.365943917624514413e-02 -9.964804959295205933e-01
-2.444596675250372553e-01 4.914873128972731542e-01 1.610398645370108572e-01
4.954319434493352770e-01 4.618385034821755331e-01 7.517253962758497776e-01
3.039725292184570216e-01 -1.804220776833213025e-01 1.730901026973760970e-01
7.204998529853038347e-01 -2.088070010114069230e-01 -3.602091222604866250e-01
-1.356941102696331281e-01 1.735503699714699699e-01 -1.193344500623844812e-01
7.213650059053808850e-01 4.435168968255411293e-01 5.307573583896635361e-01
1.113509794295441946e-01 1.002643646159420698e-01 9.660085084136733613e-01
5.144963941685063921e-03 -4.691742100859864206e-01 3.272979661240382199e-01
1.219207268392549226e-01 -1.983051458146842527e-01 1.439251467116633250e-03
3.692858257263893496e-01 4.938434637546688100e-01 8.106202876782200306e-01
-7.477060270066616665e-01 -5.471591338457778564e-01 3.685753436631028501e-01
-4.849480026845490871e-02 4.415314619635920534e-01 -2.543284613258986471e-01
-1.313585307525856616e-01 2.622374223898723544e-01 -7.220027625675660976e-03
-4.983932997995642045e-01 3.181242981597491581e-02 -6.889434492142434419e-01
-8.669388501940850089e-02 4.155054504789316705e-01 -4.520783246772358543e-01
-1.846188921228530400e-01 -5.897410298078640256e-01 -7.821589054730335722e-01
4.842437543740189532e-01 -1.462718454756073982e-01 3.758040416745405121e-01
1.057204057628557958e-01 -1.547128469086623548e-01 7.183707131851387560e-03
5.327914516573709625e-01 -1.523082526487819222e-01 2.178821356150014987e-01
2.770150767193061414e-01 5.854014966316546387e-01 7.841726894134526393e-01
-6.640137312089577915e-02 5.050629444783379940e-01 -2.802120891283439372e-02
-3.698915581054439405e-01 1.944465275714159502e-01 -6.112925081152282836e-01
2.399972643191684574e-01 -2.533231854737737487e-01 -3.260641897923598903e-02
9.250164522607873252e-02 6.827604171146340883e-01 -9.623135578781585875e-02
-6.419818217730688392e-01 1.914441202576084300e-01 6.963576174220812431e-01
-7.144227724196563489e-01 -2.130252767789969290e-02 -4.365554062332104857e-01
2.085568412018341533e-01 -2.978864748056512801e-01 -4.956999624990691966e-02
5.469708965072328510e-01 -1.526651686436796274e-01 -8.157902789875364213e-01
4.902569722923622586e-01 -8.614376791619371421e-02 5.690335879031366284e-01
4.618013011816831520e-02 -6.955752566207690224e-02 3.309437847696972135e-02
-5.635671850335678412e-01 -2.499299097501068156e-01 -7.470600511916168918e-01
-1.649772519754518219e-01 3.837383107647123759e-01 9.183632908315091381e-01
6.293853619852878278e-01 1.327204194893043254e-01 6.237413651289170913e-01
1.223146798967928578e-01 -1.586409927815024545e-01 4.922244617808982023e-03
-5.425970759434187718e-01 -5.286949750320102392e-01 5.839797817263518986e-01
1.456306566706180861e-02 -5.694624984505132215e-01 8.987415642347874878e-03
-8.545198561318816388e-01 -1.330749492599579697e-02 4.233216793080168405e-01
3.070670583646733509e-01 -5.177229465708647060e-01 -3.230304740280797171e-01
-2.014631636756292477e-01 2.887376777605880074e-01 -3.229037980498232763e-01
6.119470464443680507e-02 -7.927720474107335935e-02 9.999547124963075601e-03
-1.025283557270042362e-01 -6.698877347764603529e-01 5.582210774875535214e-02
1.911055879366684584e-01 -2.537837333574937126e-01 -9.647530519175243624e-01
6.222551295481384970e-02 -8.248867835018902639e-02 4.712950013395025145e-02
-7.780102791598983991e-01 -6.342237063975948441e-01 -1.077934320892712065e-02
2.114902633856900471e-01 -2.119487382707090917e-01 2.328637142829849960e-01
3.132035713447038350e-01 -5.031284640618942650e-01 -6.899471616223775694e-01
-8.957558547121055037e-01 -3.677243361183605841e-01 -1.806175707735452052e-01
-2.072833407244023540e-01 2.690951883756948493e-01 -2.882514837760806747e-01
5.002245630659363229e-01 4.845268918664452085e-01 -6.923500351428283350e-01
1.982913727151411343e-01 -5.834967364460337258e-01 -2.966035549160561668e-01
3.227856362201846907e-01 -1.943691060048764185e-01 2.599896591395998713e-01
6.702655049153671829e-01 1.065778699420648762e-01 -7.576668902367665881e-01
-1.583279062447529306e-01 -6.225905357073773239e-01 3.109924347221849072e-01
6.042111195495064591e-01 -3.232131334028762182e-01 -4.900502408676811195e-01
8.736493324854632814e-01 4.521731352285884853e-01 -2.775613972334491919e-01
-8.728019729717768904e-02 3.168178422374925418e-01 -1.686002365130626901e-01
2.441496850754076575e-01 -1.224105943087103882e-02 8.787368210711271610e-01
2.696364494395835920e-01 -2.159427495880908432e-01 2.901572345320905799e-01
5.546335072228423257e-01 3.042129760562484186e-01 7.423576438371324304e-01
-3.230879238550758425e-01 3.499654573295101767e-01 8.337075019769216166e-02
7.857882514668180773e-01 5.005987375271092610e-02 -5.976431442882864653e-01
3.391592065501271569e-01 -1.951167660783487690e-01 2.846837355181180418e-01
6.579365290247022324e-01 -1.724532182263445179e-01 -6.688230376440876812e-01
4.659896405875350173e-02 -4.129535864990747096e-01 4.894159532955742464e-01
-7.572951993073752108e-01 -6.397268927249696313e-01 1.092189432460772963e-01
-6.846112208201651228e-01 -1.651020303533756728e-01 7.250036350801178919e-01
-1.194386999368113739e-01 3.830630760036504157e-01 -4.101753401909429830e-01
-3.605229324979978278e-01 4.286489594719203322e-01 1.798705143961236153e-01
3.569635053223446652e-01 5.190284439880479272e-01 -6.874121638087691277e-01
2.543895196245876122e-01 5.892091101540740672e-01 -5.688718539384776118e-01
-5.490684397995512223e-01 3.955355252137565114e-01 5.507097967311663789e-01
6.849877469267244556e-02 -6.445459096209657512e-02 3.402699591957727282e-02
6.737359669267266316e-02 2.697937286754303332e-01 9.716874677825931839e-01
-7.763216141236073398e-02 -3.613114524105889291e-01 -9.465181495141801182e-01
-3.046633637916094650e-01 4.601517266134816930e-01 7.956170285461469094e-01
-3.037124767963323979e-01 2.094507386778243219e-01 -1.071167541181328037e-01
6.215584463112674429e-01 -2.967905800468229049e-01 -3.169869044476830711e-01
-7.898763338106905285e-02 2.223153401891651837e-01 -9.118851770710094395e-02
-6.030570552768955706e-01 3.230889369213757467e-01 5.987185782060099326e-01
8.525960062358121927e-02 -1.386410144523285981e-01 8.405559001631379701e-02
1.159618285040368568e-01 6.946764172573645715e-03 9.428402134011371061e-01
1.016750425185025952e-01 -1.740311117430577703e-01 1.163042910633581284e-01
-2.002688315541058250e-01 1.906108203382467225e-01 -1.429841146921292383e-01
1.515889767776246455e-01 -4.953281119433634583e-01 -1.176893077079114308e-01
-2.654309884594532876e-01 1.222681162193390292e-01 -8.256569748585186330e-01
-4.044782037164666721e-02 8.145429585201935385e-02 -1.876062254820541272e-02
8.385437147584533235e-02 -3.965663907941241462e-01 2.862070946608585506e-02
-8.628622869499937842e-01 -5.188520434639428691e-01 6.907107939317233547e-02
-3.736909427531790590e-02 3.598805659441133842e-01 -7.328680549682302647e-01
-2.103720133224778466e-01 1.890783394565352382e-01 -5.368906322396345410e-02
-4.648498375089684664e-01 2.148240463744176820e-01 8.585108976616948606e-01
-1.229162850618444741e-01 1.558494486890419084e-01 -2.463524727231829192e-02
2.732181606940515262e-01 -3.392996357723840894e-01 -9.419646284280606963e-02
6.271143851138909486e-01 6.686339434920086922e-02 5.781519608099150442e-01
2.138410307595815241e-01 -1.077221796515274582e-01 8.367143849314083726e-01
-1.565979528627998441e-01 3.757870656594749503e-01 2.797933417388297553e-02
-9.179294403451483397e-01 -1.087902413906160215e-01 1.832942364320539197e-01
-1.521168277536557867e-01 -4.858394496264837326e-01 6.215506283883488470e-01
-8.557507623951161602e-01 -1.011810722277284441e-01 -2.198681361638110954e-01
-1.316648978056005892e-01 3.775645983370189973e-01 -4.718268398016326470e-01
-1.775695640190073088e-01 3.420807092226343937e-01 -5.151837543137397502e-01
-7.313496291960094875e-02 1.212908677028958354e-01 -2.079478512125254586e-02
-1.347353175532831904e-01 2.466842633755708669e-01 -6.848928446935867442e-03
2.424148118259204232e-01 -1.630015845406211639e-01 9.112063281111558444e-02
-5.577495311547000512e-01 3.747079739221091943e-01 2.984228777242169950e-01
1.938785640231884544e-01 -2.443091240284746002e-01 2.764916418580136148e-01
-8.822980995076513677e-01 -5.686399520999629040e-04 1.948750033910254253e-01
1.621703832447093652e-01 8.042433610051381576e-01 3.064098717686609685e-01
4.137139014996639164e-01 4.760820964228332786e-01 -7.263778636013015211e-01
1.969137059748587715e-01 -4.772868366094801806e-01 -8.216034584979557964e-01
3.084133798956157357e-01 -3.637308592119217060e-02 8.236115006436576236e-01
3.516927512293369779e-02 -5.521572364253770487e-02 1.564675683816382779e-02
1.119835323919908115e-01 -4.458346765825293989e-01 -3.761642892986299253e-02
1.916825294087448062e-01 -2.910626425188341804e-01 5.731244784619614618e-01
-8.945555067339000521e-01 -3.625327656116408837e-02 1.047084377409047418e-01
1.293548473766880369e-01 -1.646144255791911204e-01 3.699717452870105068e-03
-5.465949300610771777e-01 2.602639687507225519e-01 2.825191958157850097e-02
2.802488469428352294e-02 -6.210715759903668864e-01 -9.725540185725377318e-02
3.671733949707972622e-01 -5.059348925721229850e-02 -9.505089960546226902e-01
-2.112431467881766556e-01 -7.691437800959798343e-01 -9.470900205342860922e-02
3.569371775027623817e-01 -4.463553422523536263e-02 -9.547330235291516809e-01
1.972566260480034250e-01 -4.475572849799211439e-01 -1.232038870206869086e-01
-7.209293686261337986e-02 3.629668184014527288e-01 -1.504137801125080276e-01
-3.439901895286587852e-01 2.177785022997805464e-01 -1.047612199431812163e-01
2.930646870465284867e-02 7.472866886517234297e-01 2.315787622709959415e-01
1.656216868982287801e-02 6.347949592038033551e-01 -3.247625459375614448e-02
-3.032960262063377765e-01 -7.932762492058891279e-01 -3.165065149601680172e-01
5.019284916346022224e-02 6.464044155814434589e-01 -8.585212426778544847e-02
8.913731117469597676e-01 3.734385811887480644e-01 -3.122937515698763211e-01
9.046292876125364701e-01 3.804135615020680095e-01 1.305747654164291505e-01
-6.640410197687190985e-01 -6.823713356064331492e-01 1.982560824688160694e-01
-5.287582095215386246e-01 -7.792431090706447572e-01 -1.365717576621373053e-01
7.125691587612531519e-02 3.795474010169572199e-01 -7.788638329732807675e-01
-1.984028476413694508e-01 1.761329622096875491e-01 -9.467300229768968456e-02
1.564540534836783570e-01 -1.257096220050517577e-01 6.380883604389636643e-02
5.143899794187862806e-01 4.372059101207174669e-01 -7.281018870373613394e-01
-5.619096082735907105e-01 -5.274477784744039388e-01 5.753407342902491228e-01
-5.324524049342015813e-02 4.443718459463737447e-01 -4.643291749821651937e-01
-7.464685626384963690e-01 -3.690341228652366939e-02 6.580259424477172825e-01
-6.983184091070444577e-01 -6.501228312296286616e-01 -3.230843844775045381e-01
3.728307644775320090e-02 -4.283465405461640008e-01 2.851397645802633551e-01
3.950395609164368271e-01 -4.930586906262207081e-01 -5.213801665054842438e-01
7.791120081996293079e-02 -2.305706213467770549e-01 6.613594544645530482e-02
6.365919907083872342e-02 -3.691499256428257270e-01 2.050703149790094049e-01
3.790961323480211420e-01 3.191031743532021792e-01 -8.544650544598250130e-01
-2.291817361115404128e-01 2.060045386568155334e-01 -1.756266355569400806e-01
-7.795194807491624689e-02 1.024153527338272501e-01 -4.986148720192948303e-02
4.771122833049217804e-01 5.039853180880117245e-01 -6.816084639140423951e-01
4.846351873474814553e-01 -4.153339512742776907e-01 -3.826371570015662527e-01
-7.946760019745587877e-01 1.317494817373180138e-01 4.139943797005113391e-01
9.171194613991127120e-01 2.359747536042987315e-01 6.520079920780369465e-02
-1.738327646728588527e-01 3.577078972937850487e-01 3.360824726446512423e-02
-6.975200473124497647e-01 -7.014242402736037274e-01 -7.238752773202752899e-02
5.347468443628184964e-01 4.545063111901424119e-03 6.379303487228259462e-01
2.740642313674530040e-01 -2.149735796133518118e-01 6.380911644441410457e-01
6.260577025874111134e-01 2.347036074095638358e-01 6.662933170119058612e-01
-1.329322326573682822e-01 1.858282661822140691e-01 -1.309695072858814979e-01
2.632390848017713836e-01 -2.206432716610431111e-01 -5.914105324513478819e-03
8.643704294732115767e-02 -1.123962598333611007e-01 1.018346031626831544e-02
-5.918061749694333296e-01 -5.194790555078800942e-01 -6.334310168836523314e-01
-9.262102282127801511e-03 -7.044449884455465938e-01 -5.355999590776605590e-01
2.491365213309039706e-01 -2.536928874971927650e-01 3.951440114626556532e-01
2.760425918261177544e-02 -1.816461842894874154e-02 5.403891081840101612e-03
1.605527216202301544e-01 6.993351922084145578e-01 -1.944126000721076997e-01
-4.308472857448875787e-02 8.692286024446779780e-02 -3.797792871787918079e-02
2.334480233301345631e-01 7.348797363896251156e-01 -2.046714086461847160e-01
-6.424942119681079644e-01 1.332838239944346970e-01 -2.377128162461266958e-01
2.780972581691499856e-01 -1.920831056438682960e-01 2.215018426755617775e-01
-1.315829687536559933e-01 1.978572282921766123e-01 -1.353628001826438082e-02
4.779306110494651039e-01 -3.879468578213248198e-01 -6.676820793128599441e-01
2.276862467187044381e-01 -6.010373277992888674e-01 -4.471542823536063804e-01
8.149778239656600975e-01 3.529348968763562633e-02 -5.312058935113005420e-01
5.920772443574177923e-02 -5.235780712389642710e-02 2.275342412214468799e-02
-2.941810907950436205e-01 3.188740027168561753e-01 5.148055698268048930e-02
-8.437678949567122277e-01 -5.531790590816503261e-01 2.330249981108381205e-02
2.425173009679660041e-01 -2.192312040638511594e-01 -8.709152870638649235e-03
-2.064472598492919642e-02 5.394193757522014465e-01 -9.916769729462233951e-02
-2.840947666180934084e-01 -7.800851602197120815e-01 -3.999599948445000663e-01
-1.162782311617258091e-01 1.840907516752057493e-01 -1.222013792779438751e-01
2.574462022805701009e-02 4.187364918956374971e-01 -6.955609130062454515e-01
-4.857568003467810369e-02 7.002273903081476791e-02 -2.216318226087570648e-02
-7.110730142681309651e-02 1.481682389463456762e-01 -7.188060435558954464e-02
5.483334052579766915e-01 7.942746628229051531e-01 -3.787050641354727104e-02
-2.727056564482877588e-01 -2.437544210393272071e-01 8.858162990214650812e-01
-4.893930316023350491e-01 4.544799589561154263e-01 4.399984951730632199e-01
-3.672193564151007145e-02 -7.223457272134374829e-01 -2.576425839695857256e-01
-7.724323098087655382e-01 -5.321871784045288933e-01 3.507797804703626232e-01
-2.774074373505512336e-01 -5.828148319332118188e-01 -7.703562368018099793e-01
-1.432996168714617546e-02 3.746880940123992199e-02 -1.609511860394783472e-02
2.199234252190667427e-01 -1.578663150915732005e-01 1.121142336571193943e-01
1.162575490621004654e-01 -1.983411296258998369e-01 1.463963443354215355e-01
-7.160666616894560688e-02 -7.228287625013480877e-01 -5.303972931384937084e-01
-3.969128546954617809e-01 -5.740424657759742866e-01 5.625866267348204053e-01
2.550135482111725790e-02 5.715759963458395543e-01 -1.925876210056188531e-01
-6.718892206359458052e-01 2.683326819331587898e-01 5.347991643502201242e-01
1.623018533295316271e-02 -1.346994964135967213e-02 8.479552236764406267e-03
5.164940263374219465e-02 5.987259249129684990e-01 -2.097161113455842940e-01
5.167233422789632019e-02 -6.184600885747808252e-02 8.560730902250037605e-03
6.673263986130663072e-01 5.480511907532011895e-01 -5.168811733836191635e-01
3.346419273593961158e-02 -5.403956611021132339e-01 1.006440484254920824e-02
7.822970387964527095e-02 -4.569698479361635757e-01 -8.827159263931871891e-01
1.613187150660944646e-01 6.552787444227372582e-01 -3.247742073255974748e-01
3.778860522567651509e-02 -6.042792528316543593e-02 1.609596100722957002e-02
7.739618281022403457e-01 1.295687379943302742e-01 -6.317313651990028589e-01
-6.013738782958534257e-01 2.759072043822097947e-02 8.067892727138056275e-01
3.985918018121776818e-01 6.570169364562794545e-01 -4.859067716280738858e-01
5.729395344493053432e-01 1.706160078343121334e-01 7.050483668371829715e-01
-1.511744481988238631e-01 3.274982081441460413e-01 -3.223005607752456592e-01
-4.242599983264560004e-01 -6.394387089233520838e-01 -6.472917465860551500e-01
6.898556516563421059e-01 -2.399321676004811110e-01 -3.407495429504709405e-01
1.519071105228645135e-01 4.643448170745757553e-01 -7.117632497799840641e-01
7.326232610855328009e-02 -3.187738500706070455e-01 1.441863440511094441e-01
7.343692113925104348e-01 -5.292723906866536121e-04 2.961656109082728694e-01
2.024481353723646959e-01 -5.761020784091939184e-01 -2.868026064233136774e-01
2.967039440270930473e-01 -2.282174780913980294e-01 3.924269885866791263e-01
-2.436211530363030509e-01 6.135361120402803570e-01 5.741150046221609182e-01
-6.777305221902975019e-01 1.391641021947028489e-01 -1.525571206544722447e-01
8.013065646598184488e-02 -1.979571938849141455e-01 3.858944574909077552e-02
6.761975210598862862e-01 7.442210021163521150e-01 6.031952378293094913e-02
-4.598067942335065661e-02 1.028849418411965227e-01 -3.821817583853222289e-02
2.891815259218017964e-01 8.247197478054386632e-01 2.892216627429236020e-01
-7.497396134806390278e-02 1.960191033804324356e-01 -7.967325606634544088e-02
7.694624712545118372e-01 6.604187559785760220e-01 -9.975007938238646121e-02
-9.427904291490550592e-02 -6.924680492509047713e-01 -2.357361063239125226e-02
-3.584963971696403795e-01 4.022005434669065349e-01 1.484226908276684576e-01
9.217354525522175601e-01 1.680836923210894673e-01 -1.810055029024985607e-01
-3.775772469605474801e-02 4.635451124419439073e-01 -3.539175763887106307e-01
-7.022325122221892979e-01 2.530244091833240283e-01 4.598072781399523690e-01
3.036675256336882622e-01 4.315872300367001313e-01 -7.794771681591941004e-01
-2.953863172662884451e-01 2.433118575468523892e-01 -2.101728213327762676e-02
2.070420999824168495e-01 -2.321685361492078770e-01 2.672646252576393322e-01
-1.891425882853887130e-01 -7.612570714072162126e-01 -4.587492717860552904e-01
-9.246759441546162916e-01 -3.513045420994937995e-01 -2.198817371504758859e-03
-6.564806882689813161e-01 3.704069951139086353e-02 -4.525486586881125040e-01
-4.484314812628680258e-01 -7.115633678776271676e-02 -8.046447829858337508e-01
-8.555763321635478924e-01 -3.345665607031457212e-01 4.143024896350078756e-01
-1.504732005850287387e-02 4.925809512551522218e-01 -3.079064628498860423e-01
-3.776469040551067580e-01 -5.027688681885558175e-01 6.594667255112753868e-01
-6.299586599238943263e-01 1.594658753196941392e-01 -1.720490373862434141e-01
4.933593793565558411e-02 -4.032179718327805751e-01 1.455898118694907983e-01
-2.235904560665033236e-01 -6.859531468669725074e-01 2.334162942793820417e-01
-8.185406736214447809e-01 -3.051452558404469939e-01 5.050240536874165409e-01
5.715267687481336706e-02 -3.979289251563330465e-01 2.762418776484836247e-01
-9.911131530300497372e-02 -2.431921108658879338e-01 8.733316151515784220e-01
-6.423617202619524846e-01 -6.223201079530871205e-01 -4.690663912815045133e-01
8.399682972022716188e-01 5.861623471374751704e-01 -4.428606594877595830e-03
-5.407048071489898300e-01 2.000764541417362208e-01 -1.434521418162132689e-01
-5.470717844725039303e-01 -7.718170044680771058e-01 -4.035473061316101340e-02
-2.716053741001346333e-01 -7.219083948714630772e-01 1.825805714922178469e-01
-2.350566740723616932e-01 2.931711131946712623e-01 -4.023156940525123848e-01
-2.821017622682959192e-01 -4.280751598415467596e-01 -8.752988272322858032e-01
-6.295664859172180883e-01 -6.313716441077741326e-01 3.685371830806085103e-01
1.790614320180091701e-01 3.148634004535089681e-01 -8.681618106571878934e-01
3.018182409116362264e-01 -1.904804772695888881e-01 6.492630829446518481e-01
2.650130432503676192e-01 -1.644545111634271584e-01 7.382594669355445616e-01
9.081905489986328295e-01 1.946946710540202741e-01 -3.145730810614402739e-01
7.545985651518393178e-01 2.183441343272036483e-01 -6.495943138505946290e-01
-4.200894163667573955e-01 -5.693572909610027377e-01 -7.226182930676847693e-01
4.631331576664699523e-01 5.876075330728177670e-01 6.949345846860934817e-01
-7.211397555217377020e-01 -6.844988955985159551e-01 -5.302671751651612947e-02
-9.222299027353333400e-01 -1.244198483118459236e-01 9.999792591595001168e-02
4.728733446832507070e-01 -1.717420093500709455e-01 1.888474261631822304e-01
-2.218978223453700882e-01 -1.269166250428252207e-01 9.426573944806492245e-01
-6.211869277322549232e-01 3.209053179621801921e-01 2.722214599061973384e-01
-4.127578161306844629e-01 3.220868815422543996e-01 7.756567258184035585e-02
-6.616554478389082006e-02 6.004315869731968736e-01 6.887740165748755528e-02
3.818316158964242257e-01 -1.822287011750290675e-01 1.636799407606420176e-01
-6.070172532500687362e-02 1.465518268267784752e-01 -4.906936493700766316e-02
1.497195391804667930e-01 -2.090709184718451963e-01 -7.212599527103231815e-03
-3.686465905426478812e-02 5.647078241249989250e-02 -2.255465775774859183e-02
-7.612777899434585160e-01 -3.990078421969763256e-01 5.249240838518707264e-01
4.912248918363998351e-01 5.247779215627675908e-01 7.214093246199805298e-01
-2.471903691741674236e-01 2.478755440746356620e-01 -2.807094466616802397e-01
8.958621828985525726e-01 3.023403880982448166e-01 1.871696582949411436e-01
4.226096499457502320e-01 7.790944769597800690e-01 4.417500407964544684e-01
-5.611259216237309833e-01 1.606305148282921036e-01 -2.899587031820180516e-01
7.120391113437175845e-02 -6.646294235046465437e-02 3.464596315821950878e-02
7.745554745935422369e-01 3.042324724752775156e-01 -5.943698373285872805e-01
-2.843941766399419868e-01 -6.183208954960435211e-01 4.598165660143753719e-01
-1.005100016659347673e-01 1.454460150390543272e-01 -2.132294902728321465e-02
-2.233924840634038400e-01 1.930700523055654261e-01 -5.932337732517840162e-02
-6.760671885301476891e-01 -4.149797249936889587e-01 6.058065386478425074e-01
7.085087050207933279e-02 -3.458631878112719549e-01 8.734141295497677149e-02
-5.244547394190082756e-02 1.342608593130345251e-01 -9.281019874125246982e-01
-2.809315000522656924e-01 2.090599360267147155e-01 -1.801029017906587704e-01
9.453981115146462000e-02 -1.416259873286603577e-01 9.579317999822666019e-03
-9.508877572483443244e-03 2.653522296779202774e-02 -1.268593841678497883e-02
-6.164758638373952770e-01 1.854105318511089229e-01 -1.067625364830645934e-01
1.682820654330496601e-01 -1.392088804775195032e-01 3.620068547440198625e-02
3.368503334245913639e-01 -1.082737134701942383e-01 7.350430354114687592e-01
7.782135076006344021e-02 6.938717129745552992e-01 -3.571764203402727489e-02
2.872222175760845431e-02 -4.161184100055899393e-02 1.110979034925927041e-02
2.143075389481016446e-01 -2.843785893271811305e-01 5.033611244320728151e-01
2.374014646798606187e-01 -4.241006538478157561e-01 -1.359582614463624439e-01
-8.793002214731190577e-03 3.052945472272436400e-02 -7.342747999298582413e-03
-4.087861252740253998e-02 6.298596925520079381e-02 -2.754097553932530543e-02
1.873481921545872009e-01 -2.665844969583631707e-01 6.581741268171158454e-01
9.292447057972152979e-02 -2.065402256698621319e-01 2.159121536343461267e-02
6.710746090138132447e-02 -3.552738181877316825e-01 9.957598085311390734e-02
-5.690368094532406440e-01 -6.780012612966186403e-01 -4.710424660677250408e-01
1.540706633718608165e-01 -2.067441855116630145e-01 1.857955563513601915e-01
9.559048490116699159e-02 -1.117217509434034611e-01 7.408701024738642560e-02
-7.028346933420021037e-01 1.285959954273777420e-02 7.050418867681031987e-01
-7.636805742564424515e-02 9.635306964831542864e-02 -3.791750454394844649e-02
-3.971430345779866644e-02 -2.398418057336143897e-02 -9.854921351705883126e-01
-5.683461882372533580e-01 1.831634187934096936e-01 7.875740697824615832e-01
-2.672425729126025051e-01 -7.427449285861635886e-01 1.063501014448318405e-01
-1.045851657288580927e-02 5.122739368745619082e-01 -2.060952809273749464e-01
7.953919792470270922e-02 -3.025564500805552060e-01 7.228609450812472081e-01
-5.066913518409529305e-01 3.634124871209599705e-01 1.965087321190114034e-01
3.905336545938808968e-01 -1.861320221001909192e-01 3.919748115725793514e-01
3.102429342080417207e-01 7.972256173653096134e-01 -6.854564422956833936e-02
1.834243689248479803e-01 -5.738163361413246566e-01 -2.535269515467054591e-01
-2.294100781366686381e-01 3.061653233780506911e-01 -4.738441908364531274e-01
-7.000449324004804491e-03 5.327429497120597102e-01 -1.609784318465949660e-01
-1.601633069335649806e-01 -6.296065090417382049e-01 2.941032704506475470e-01
-7.775221907803270271e-01 1.679441042339273327e-01 2.287892563508070465e-01
1.977329304493883055e-01 -5.339704970265349848e-01 -2.096766227417369843e-01
-1.898630376155405475e-01 3.287168644584763655e-01 -5.602683845654086170e-01
-3.554250113849341530e-01 2.295107455105094563e-01 -3.585341506762583230e-01
-8.234772182932550422e-01 -4.800220978021637608e-01 -3.107537597090410109e-01
7.846465686900044867e-01 -2.404566945878832893e-02 -5.593162282650032679e-01
7.802115340635515928e-01 4.340764255011717032e-02 -6.052359985310316048e-01
-7.181007899498144109e-01 8.655828231552474550e-02 -2.196765007458114372e-01
3.900677036967725025e-02 -4.239366620069769942e-01 4.564800723358508061e-01
2.659743834500307713e-01 -3.137705550175022284e-01 -7.462736860981934728e-02
-7.705340167106573823e-02 2.168579751537041689e-01 -5.925449229538811563e-02
-4.407948695766673863e-02 8.327890092872079764e-02 -3.824093396420136237e-02
-1.328657415076790194e-01 -5.970684835372886967e-01 3.353007146039389541e-01
-6.711541761626070857e-01 2.768420646177583433e-01 2.543592379497959244e-01
-3.951105809516884948e-01 4.950641273579300394e-01 3.258792862228679366e-01
-7.537981131512284938e-02 3.498001516954351575e-01 -1.524372013603237097e-01
-1.853316977156446166e-01 3.847112942293665072e-01 5.033702819057635919e-02
-1.106745829207839704e-01 4.490848901310161012e-01 8.205769071299299708e-03
9.976880107380682594e-02 -2.861594201996731091e-01 2.294467502262495170e-02
3.119030296398469515e-01 -2.947889325023846929e-01 -7.026519581436335704e-02
-8.081199494708016795e-01 -1.623766337064903864e-01 5.693676989353385620e-01
-2.049428427844471601e-01 -7.799217553019685001e-01 -3.540019787188447564e-01
8.616633385913150533e-01 1.858398161716859343e-01 -4.676339412737918755e-01
2.266719847426466872e-02 -2.863631978769439618e-02 5.771121316386615407e-03
4.266015583143366041e-01 2.484038347653853007e-01 -8.767143704382908131e-01
5.659236797566111893e-02 6.211590993418173445e-01 7.700184162364499540e-01
6.195027189700916259e-02 2.504901719371077640e-01 9.754041349859433607e-01
3.672460410064354308e-02 -4.359146089822908965e-01 1.494250347533094270e-01
-7.945856940874521102e-02 4.151928836456099114e-01 9.194657812144001463e-01
2.381786776115291937e-01 -2.322982925121695741e-01 -1.896992691971308501e-02
3.009641520508578028e-01 -1.870046044813132857e-01 6.328458975112462304e-02
8.407432394397758024e-01 1.696827855652880690e-01 -5.149237921747557012e-01
-1.244991112579378334e-01 3.114506381441343175e-01 -2.455646199437496735e-01
4.883149039281315384e-01 -3.329939820716403820e-01 -1.919252949509485662e-01
-9.790246768076664441e-02 -5.828540095302520152e-01 2.940802754323645352e-01
-7.828259031814868707e-02 1.784967955001990070e-01 -3.270640075820326065e-02
4.285605980070393284e-01 3.501775709633682121e-01 8.301518848737445833e-01
-1.969790753201942080e-01 -2.757115286751185002e-01 8.655684259855710438e-01
7.608284835048988448e-01 -5.568385927356498538e-02 1.044626260130577106e-01
-7.827251200901430561e-02 2.271498704273920977e-01 -8.709753432714485710e-02
7.884038032124508766e-02 -2.195695170605621305e-01 9.266884025895916199e-02
-5.395039638135664672e-01 1.896218222169036571e-01 -1.884278428430203323e-01
5.329498308430522524e-01 4.282013798169506114e-01 -7.265593496618515390e-01
5.739277325205278668e-01 -2.163181905146767947e-01 -7.477988193825735319e-01
-5.747337237293300566e-02 -5.035608933890102223e-01 4.552506266924002398e-01
4.614550048294771556e-01 3.416444339356947690e-01 8.105617303027041753e-01
1.894725505148902450e-02 -1.981803744212377524e-02 2.208640612218992078e-03
5.218555309676105036e-01 5.174018215127352827e-01 -6.501701357637452716e-01
1.353188897870790941e-01 -2.001360469674436926e-01 1.645964915508968118e-01
-3.482329841755648081e-01 -7.843878848889168642e-01 -2.290725042657893677e-03
8.351092728908935392e-01 -5.494534308601391193e-02 -2.670082698830132384e-01
-6.162346142080096234e-01 2.591846543520185953e-01 9.240925330082941369e-02
-4.513099811890498858e-02 4.461846457929128928e-01 -1.864430970743232163e-01
-8.684730899197827536e-02 6.767767125772151671e-01 6.124882399685307455e-01
7.213567105888356590e-01 1.898178884952304024e-01 -6.953490867890751437e-01
6.723370225184974736e-01 1.208146415243261662e-01 5.585724620765006865e-01
7.678551036635844484e-02 -1.153314474984841048e-01 1.192685377631385636e-02
-9.958964642714190907e-02 2.801273011901102006e-01 -3.456372700409989646e-02
1.509154261024830621e-02 -6.045026789899496933e-01 -4.613267754748457544e-02
1.539188772261914917e-01 -2.327455328510410204e-01 2.165917680795043654e-01
1.523431431168534855e-01 -4.244611671954983678e-01 -6.956321899297117362e-02
5.914872058207968353e-01 7.564137421921343640e-02 -8.273159491600152737e-01
1.253835816599425945e-01 -6.189569352654817891e-01 -2.546680910373143591e-01
-1.566839525315817661e-01 1.800190450867335257e-01 -2.536922509627602407e-02
1.564173250773256418e-01 -4.060884828256302037e-01 -6.387321788081611051e-02
6.374851306630038295e-01 4.338123155382099805e-01 -6.561895354010370829e-01
2.215092701004134079e-01 -5.020635117283303028e-01 -1.958189451507701406e-01
3.383223342410588974e-01 1.646329130039154987e-01 -9.329373672626606329e-01
2.760537990496633176e-01 -1.828099753671739436e-01 1.877129538444530787e-01
-5.908224173341030533e-02 5.728746255890123651e-01 2.437278135370682039e-02
3.456800667372133540e-01 -1.816671056446285404e-01 1.705502862546476039e-01
7.906215919829099326e-01 -9.842464365780721758e-02 -4.400411319457676607e-01
-3.731771500106386141e-01 3.182524248226886732e-01 6.328984565337829327e-02
-3.578432465490854475e-01 -8.774973775297477407e-02 9.306343217903578768e-01
-9.679850578611637335e-02 2.798109026548369349e-01 -7.921460648501683632e-01
1.406666384511833789e-01 -1.164340704669883375e-01 4.827165691248010843e-02
8.552036714155875075e-01 5.322573669416250652e-01 -1.862072374871705516e-01
7.698181920378731613e-01 3.753002600610527706e-01 -5.612331814664996976e-01
1.174676698233715205e-01 5.973190687550435918e-01 -4.086974179784218508e-01
7.659733790473005621e-02 -3.274563456198522626e-01 1.808730481678786361e-01
-6.760884607231323895e-02 -7.175158561484116237e-01 -5.461598981994622015e-01
-7.936226107227198900e-01 -5.209138144200273768e-01 3.281936880763962616e-01
1.804083498217314563e-01 -2.210168864006797074e-01 2.246458212032847734e-01
-6.718596174501505480e-01 -7.167295378029955311e-01 -1.686789038302154500e-02
3.687595851866981578e-01 -4.187815859065445734e-01 -2.249131337638189398e-01
7.109899420667731285e-02 -1.069536106145449195e-01 6.108776673967220711e-02
1.095326904107707215e-02 -8.481015847173907149e-03 4.534665964364960507e-03
4.567189066116156271e-01 -4.393220941966261006e-01 -3.999952595909549991e-01
-6.889771059661733421e-01 -7.066570689470981215e-01 -9.147556579237633989e-02
-3.366467969626547596e-01 2.663846374413239571e-01 2.184324965311498399e-04
1.292750861329600987e-01 -1.261531768009717114e-01 8.894458137847965906e-02
2.933704478846113073e-01 -1.756880857867364198e-01 1.324770858749373115e-01
-4.470133437406084709e-01 2.794293656528726300e-01 2.305921618298657425e-02
6.397883793455368118e-02 6.618337977432164898e-01 -8.298979256011744521e-02
4.974062611224918662e-01 -4.169044413011639416e-01 -4.704383336330954513e-01
-3.991129247697181026e-01 3.110751617902193233e-01 5.983028356582402452e-02
-4.120943213550480322e-01 -7.222176495353129777e-01 2.609694791156234039e-01
-1.459182958101450100e-01 6.354905141909122923e-01 2.437301496690441327e-01
-4.157505865949256973e-01 4.651537757416008834e-01 2.888229455532018708e-01
-5.953132955773454693e-01 -6.359756551239331701e-01 3.897226415415734890e-01
-8.572116615741819101e-02 1.339338808101717959e-01 -2.093919893829137777e-02
5.059504128730089034e-01 7.936983605462905045e-01 -9.924839368212498569e-02
-4.211833587671066220e-02 4.408716510415929823e-01 -5.393714064008643394e-01
1.295243302525472644e-02 -6.387779942431675781e-03 -1.952970493646768264e-03
5.658540329956891490e-01 -2.426811587025421713e-01 -8.359419344967197740e-02
6.113688194992953351e-01 -2.055159898458706058e-01 -4.195256794191935118e-02
2.780072101734417170e-02 4.442784644357310464e-01 -6.521402346669018524e-01
-2.161827688102183620e-01 -7.061422812175505159e-01 -6.160237328596298578e-01
1.066535113702411081e-01 -4.853917354945244123e-01 -5.703260456974616754e-02
-1.083959576665282504e-01 3.029099027220985008e-01 -2.526860152196488268e-02
-8.340039032689905429e-02 3.534664754876744031e-01 -2.024869782123538131e-01
-8.619583398699603993e-01 -3.389151807374120584e-01 -3.044272367830975767e-01
-6.661411619878650214e-02 1.249844467359139816e-01 -6.264623343908773401e-02
-5.920879202627794546e-01 1.650482896734397908e-01 -2.140919966331289448e-01
1.490600302854523940e-01 -1.389252837815377617e-01 1.036044290833645770e-01
1.286511088552549087e-01 -2.835335292868433887e-01 -6.802819579829809914e-03
-1.318665352843821081e-01 4.244909359572445751e-01 2.255933129874985663e-02
-5.576452804522822326e-01 -1.334642878128331211e-01 8.316518055225394779e-01
2.191834440359905212e-01 -2.484663595626045163e-01 3.179081521511115671e-01
-5.493817393412547823e-01 1.161499042034194601e-01 -4.797886239646447781e-01
2.638037247127488771e-01 7.531991636826993464e-01 5.668397424098203796e-01
-8.477754777571985811e-02 1.037672275234381714e-01 -4.132232683904868420e-02
5.052004344053712126e-01 -5.698732670518859983e-02 -8.783143654445034754e-01
-9.058217104085712901e-01 -4.200945511257656029e-01 -3.852317178432779904e-02
-4.724929722261449472e-01 -6.773267415337115294e-01 -5.627665731987494535e-01
-1.668768317995395975e-02 4.993609451719063785e-01 -2.161605833774483398e-01
-2.720128956491941752e-01 2.034119424326057135e-01 -9.114412837159047154e-02
2.314341956759280727e-01 8.042844090317130545e-01 4.091314038077806803e-01
3.857273026877978267e-02 -5.948845755618003411e-02 2.459589653862162204e-02
2.776602722683939595e-01 -2.204687923277715567e-01 6.169321867696171413e-01
-7.603932333012054512e-01 -6.057256368338002073e-01 2.213518369708886435e-01
7.982959486527295423e-02 -7.450166336511535037e-02 1.990435959413651076e-02
-1.695723541536631185e-01 1.696717316406804732e-01 -1.081936192591908957e-01
-5.077215291710714951e-01 4.309319105992746590e-01 3.734582645258628930e-01
-2.056569720207207796e-01 2.633203970253018555e-01 -7.134249037890355583e-01
9.282451751590000688e-01 3.243226587868374700e-01 -1.586431970200926633e-01
-8.770790049507176667e-01 4.384415014617432278e-03 2.666912898979426627e-01
6.499217036210436227e-02 -9.095106212466330664e-02 1.106398330937499036e-02
5.494996228853424869e-01 -7.828925509890144463e-02 4.833929054783550061e-01
8.981638493518255550e-02 -1.428435231546370809e-01 8.970355682691515120e-02
-4.794520617943544560e-01 1.985621027955150886e-01 -2.192291727090810438e-01
6.054028719368887979e-01 4.486661397972929732e-01 -6.676175211842926283e-01
8.301716651812630632e-01 5.016793090688760337e-01 2.853156585959691904e-01
-5.791232396995127374e-01 1.885222456993690954e-01 7.738626474046436110e-01
8.899296268146075217e-01 8.154262090952907327e-02 -3.429216113212003175e-02
-1.559662963193608753e-01 -4.910601127677432509e-01 6.153530907144905138e-01
-9.110389225641143951e-02 6.063966876441678755e-01 7.451619143540603174e-01
-1.522499423135229013e-02 -7.230676601853048835e-01 -3.539641689726059637e-01
-7.503355743095929675e-01 1.609281639136432018e-01 7.461129071595991313e-02
8.443336617163340607e-01 5.476741042295956152e-01 1.629272190544330812e-01
3.279320690148408018e-02 2.315562284825544229e-02 -9.868898999429280838e-01
4.350721550793807957e-01 -4.640952492047395461e-01 -5.166637090672053789e-01
2.515341535036917375e-01 7.642581384244211407e-01 -1.321476964852735247e-01
-2.667687939773001893e-01 -6.759573823093453226e-01 3.113836626720459799e-01
4.567357018054166162e-02 -6.096743803246368332e-01 -1.078207799899764258e-01
-7.908989335523287645e-01 -8.403152645412410859e-02 -3.617100080905007453e-01
-9.186858551765586522e-01 -3.653154620285581355e-01 1.424038076273506370e-01
-1.995503765725962220e-01 4.722964433136384588e-01 1.085294200694633671e-01
-4.549618316180343847e-01 4.539650156230004563e-01 3.242063492391474289e-01
-5.761789051455942223e-01 1.884863964752628990e-02 -6.048789436843775569e-01
6.450784641574162093e-01 1.859844411225240468e-01 6.299164933583767390e-01
-6.299440098910703556e-01 2.745882342600148296e-01 6.261815996597196454e-01
-9.211367724128753931e-01 -3.007682984290223627e-01 2.193682445288648031e-01
-2.256097990818704130e-02 5.454828220004705880e-02 -1.511144181334170798e-02
1.739492683017489494e-01 6.080660778454982651e-02 -9.833921210366619592e-01
-5.069406820130871738e-01 5.288439122588019237e-02 -6.560733781520994290e-01
-2.586379338395036753e-02 5.670457158680507898e-02 -1.392137828269490903e-02
-8.951299065749058759e-01 -3.708254772889562484e-02 1.083208650847746896e-01
-6.644874928418517679e-02 9.455728683752417929e-02 -2.286730259018655148e-02
-3.817291530129470201e-01 5.268087713925804216e-01 4.014195834229443149e-01
-8.058451238495035751e-01 1.163658524410075973e-01 1.274040416177869839e-01
1.174242402929965567e-01 -6.149500717740289391e-01 -2.324327502882157781e-01
6.522713477083039169e-02 -1.418649924203871371e-01 4.170760773476248767e-02
3.341422834971822797e-01 -1.818611700822047317e-01 1.792407325059113266e-01
5.033300998463220433e-01 -8.735496014796650943e-02 5.448015140060129546e-01
-4.369182559413595235e-01 2.789813602442984264e-01 2.024440228821116142e-02
1.189715659668640485e-01 -1.888846553847271792e-01 8.278907024016440852e-01
2.027481610424372860e-01 -2.368474814714482402e-01 2.719668105758782373e-01
6.096078923873914091e-02 -1.174328119252299879e-01 4.923048446131089717e-02
2.102026282598380702e-02 -5.411817005111932977e-01 3.534515995716185771e-02
1.418968492627463163e-01 -3.329178579601682619e-01 4.141056067746708980e-01
3.390208005824736914e-01 -4.030831845840419092e-01 -1.830571420815900185e-01
6.534234216477464996e-02 -1.311534016058463203e-01 2.826027909147620434e-02
9.309933954813345292e-01 2.666068328441337787e-01 -1.647842726937270574e-01
1.137436414190058365e-01 -2.090491520357228017e-01 5.249659671761263205e-03
4.240066597859434294e-01 -4.097785866337366190e-01 -2.638854871350199693e-01
-8.400685304159705158e-01 -5.345874319666401586e-01 1.597128384196700446e-01
-1.092718304687910064e-01 -3.557703211964254320e-01 7.767192815687946617e-01
1.399219691429935686e-01 -1.157851885299662625e-01 5.023719809217319643e-02
-5.796742412496029839e-01 -4.476720915163031056e-01 -6.887463200384945639e-01
-7.551768604689589326e-01 -4.708151193320472827e-01 4.622461030127668069e-01
2.030361795319547413e-01 7.191549706101394435e-01 -2.088063853688316984e-01
-2.040789705671501239e-02 4.706597068786717158e-02 -1.999057090153505759e-02
6.486067298181420748e-02 5.034192770161056707e-01 -5.715700181669123303e-01
-2.650583817372407780e-01 -7.451642865162485529e-01 -5.241450216310395982e-01
1.452814130627899381e-01 -1.297782912110435061e-01 2.646219615303468248e-02
-1.483053643970739556e-02 4.946579199347954092e-01 -2.811215732973663117e-01
2.356197413694305631e-01 -1.066018557878140871e-01 -9.856212597342444148e-01
-6.764478608276629501e-01 2.421322153865666793e-01 5.766041601283000695e-01
1.949694978827049563e-01 -4.608733955092632617e-01 -1.314932316056528494e-01
-8.674413524459598790e-01 -4.691345723687831981e-01 -1.800022448938441710e-01
6.509230046161261773e-01 4.404098755647581909e-01 6.205725514502899998e-01
8.673459289407231543e-01 2.122116373214434637e-02 -8.254149038692128182e-02
-3.198105566989253856e-01 2.096777631075477100e-01 -1.401798639286682691e-01
-8.639741315449511738e-01 -5.085418051955702401e-01 -9.926594862383684992e-02
-6.013566170418256362e-01 -2.280979186627259958e-01 -7.092855113150072777e-01
