1.197729785623714155e-01 4.344303876576666723e-01 -7.509636084330103545e-01
5.055994085812186567e-01 -7.209785609243319904e-01 3.537011721671723952e-01
4.876892740112976909e-01 -6.585339867746337061e-01 5.275710777972767440e-01
5.870748935470017082e-01 -3.220873245087499948e-01 7.206958136717253049e-01
5.558151393065059453e-01 1.130032503673645827e-01 -3.252991268756940113e-01
2.185086075542085060e-01 -7.153183617559323582e-02 1.118473211444308002e-01
-6.885535073550709539e-02 1.233415604293134071e-01 -1.893977781740933675e-01
5.169920457844766337e-02 4.593586437979662040e-01 -3.834286190327108601e-01
-2.476125251191055032e-01 6.721461533591581716e-01 -1.660311712323594424e-01
-4.325406142127828923e-01 -2.091668851264696649e-01 7.244488864676220663e-01
-5.402842184458940267e-01 7.183173899753911851e-01 -2.894335270442025543e-01
4.118902332844627812e-01 -6.968060733520218264e-01 4.661012599980886018e-01
-1.612223310728723991e-01 1.455660955760618436e-01 -5.775406984621268142e-02
1.316500168460233919e-02 -1.987183144618057395e-01 -2.752653120770745532e-01
4.481553874533293347e-01 3.808990068214942321e-02 -7.737062298565142160e-02
-5.504895744517473988e-02 -2.203180996945673653e-01 -8.855783160151612377e-01
-6.418496727474517494e-01 5.101489422898664028e-01 -5.742353834473752361e-01
4.188697196572909176e-01 8.311115646054773043e-02 6.499585590895411435e-01
7.836386280054167264e-01 -6.477959001695803021e-02 -2.650077591258575005e-01
1.413565104470192180e-01 -5.234603713789859336e-01 6.216520969111188899e-02
-9.972733680432496056e-03 -7.715257965171271048e-02 -9.822034373691493903e-01
-2.062326163927373501e-01 9.508636521834536171e-02 -4.460353190393688029e-03
7.407638361430686491e-02 2.091393711057113747e-01 -2.534465582135682626e-01
1.969783884183822775e-01 1.531155560652260328e-01 -9.652997730073483718e-01
1.336697521676236955e-01 2.454195522375227645e-01 4.322732136730734198e-01
3.309913407168707522e-01 1.917897986559018164e-02 -1.140367148418449661e-01
2.784421856023284736e-01 -4.525792468556750353e-02 7.102691240134646755e-02
1.639759931935928228e-01 2.730309164033194458e-01 6.054616226519653477e-01
-1.068082542081309760e-02 4.704796301598415109e-01 -2.987184015655403591e-01
-7.144273278338448829e-01 3.589716552676726069e-01 5.858849084589701217e-01
7.382904645859481030e-02 -2.070436559998925230e-01 -9.404389398475683226e-01
2.065751100453289135e-02 -3.740241870925241630e-01 2.118442146930705483e-01
-5.715211050433264273e-01 8.178580111922641172e-02 7.780106007696953041e-01
5.009022137979453060e-01 2.233826543695855912e-02 4.592937002505217275e-02
3.640273029576152064e-02 -2.813869486839087886e-01 -2.827171032635319436e-01
-7.340068256289917770e-01 6.054062639934858908e-02 -1.420340484439192030e-01
3.292265335430771822e-02 -2.526979675433428385e-01 9.608419306619916389e-01
-1.241433102578148040e-01 6.112384243622140945e-01 -3.565038198521570112e-01
7.039090965669407840e-01 -1.307185654025460331e-01 -6.514692986847256950e-01
-8.669985588799664078e-02 -7.312453704409987987e-02 2.181205484938491812e-01
1.265735364967635335e-01 -4.138661368994305256e-01 -1.224996737327083141e-01
-4.027052343410328916e-01 2.978898692774118451e-01 -8.658835240562551272e-01
4.416399535260861348e-03 4.838269605125339323e-01 -3.418405134445876015e-01
-2.480337694854351516e-01 4.881575246800093915e-01 6.780519052320153062e-01
-8.915568847222056503e-02 3.353636032723308347e-01 -8.672194862512452862e-02
3.494256862191603974e-02 3.527232803402840372e-02 9.745892077445650337e-01
-5.360486381451210480e-01 -3.046200465473083985e-02 -2.128799834703502258e-01
-1.025836791901171136e-01 -4.608233067618560108e-01 4.606032072854637227e-01
-6.258452393012599035e-01 4.400427431936057565e-02 -4.963479029271206100e-01
2.555623701517860669e-01 2.743398281885329748e-01 -8.588864783923608748e-01
-9.109190400925641640e-02 3.726002485089481286e-01 1.918407805269420341e-01
-3.202826724654950774e-01 6.637306919207246192e-02 9.392445544302927551e-01
2.099059901603317693e-02 -2.648132480540637546e-01 -2.940714468590465147e-01
4.020979536027607937e-01 2.470977719891293348e-02 7.709897473530591405e-01
-6.380240273329459977e-02 2.240142097102309007e-02 2.101103518646872947e-01
8.362329152359830597e-02 -2.306110043228420392e-01 1.366417925033709402e-01
-1.221452393639048117e-01 -4.622423465999649372e-01 6.615410774045216158e-01
-1.255670076284054471e-01 4.599347284449881723e-01 1.679732553640225778e-01
3.446019376349484520e-01 1.278317522997395039e-01 -9.044797310502500354e-01
5.986376909990489548e-01 2.471957336142301814e-02 -5.010399755986252868e-02
7.977215622422403341e-01 -1.056114267477321622e-01 3.261666810744626166e-02
-8.551804827795432551e-02 1.822927962141233371e-01 1.733501231324978964e-01
-6.559579671622779440e-01 -6.048577194345608476e-02 3.314396412894337063e-01
1.443262447007352678e-02 2.118912188720318002e-01 -2.229145988280709922e-01
-8.495400703772378881e-01 2.528012720630523624e-01 3.097722081992770327e-01
1.843983083818216961e-01 3.460209171344859613e-01 -4.012710424725947633e-01
-6.129841898328776406e-03 1.328493649924848419e-01 2.431079345683640480e-01
4.485264934026211847e-01 -3.914232460635787003e-01 -7.994779497330170015e-01
-8.988660479456997421e-02 1.959539237016542645e-01 -1.380953766207888567e-01
1.979917607624077369e-01 -4.707073875241296057e-01 -7.093019468073618050e-01
-4.544230052547378884e-01 -3.645496551101159999e-02 -6.956183809789181494e-01
-4.708876861786686074e-01 -4.314731342832336947e-02 -6.523444429295487401e-01
-8.293279526049741612e-01 3.248102227741682668e-01 -3.121323744770929109e-01
7.832246818832527824e-01 -1.133559415746821092e-01 1.567846281247176343e-01
-5.850424613086370185e-01 1.426407016664532901e-01 7.726334867567435927e-01
-8.052701662137936589e-01 1.119825838813627156e-01 -5.011479439300329727e-03
6.137451984749431322e-01 -7.008678676673566477e-01 -2.352025293539465323e-01
4.090552958372927206e-01 -5.945091604521784978e-01 6.633253853441702930e-01
-4.618002192084241786e-01 -1.570972951073875135e-01 3.103453323304302125e-01
-5.568095972248865433e-01 3.988937176666368933e-01 7.110657102063667745e-01
-3.416710320115843302e-01 -2.052816950861556522e-01 8.385067175478742030e-01
1.759497630721581704e-02 -3.239490401162647415e-01 -8.156405390391301413e-01
1.555268520520390607e-01 5.859326994286475493e-02 -2.248300483709811948e-01
3.369372540306880826e-01 -7.238971422113165133e-01 1.720661690607168393e-01
7.295922959235823235e-02 2.074879239496656425e-01 3.316782638340511902e-01
2.029563414337920979e-01 -2.169061469730740599e-01 9.527466451809586401e-01
-1.162034783156327689e-01 4.019799435295252077e-01 4.572448614307714904e-02
5.045313859808998186e-02 -2.677855423889285436e-01 1.650270662205340355e-01
1.713896099704924070e-01 -1.450741902264746641e-01 -9.293598580604474357e-02
-4.474217687521846454e-01 -2.369874653682680632e-01 5.525577600920201782e-01
-2.552921239406184539e-01 -6.574828382618076728e-02 1.782348728062281285e-01
-4.582149483507346188e-01 -8.633402261113240495e-02 1.592170337152713777e-01
8.182266995002799304e-01 -4.549135491630233452e-01 3.326766861559336541e-01
-4.093134384512767815e-02 1.716189691992165700e-01 -9.942584274948536027e-01
-1.361210761249956047e-01 1.212886582792352119e-01 -1.354407601297232533e-01
-5.250173322282295496e-01 2.174749325753439488e-01 -7.816994981406916176e-01
6.506857180268386942e-02 -4.855536484697731830e-02 -2.274369644638264132e-01
2.642497878987229779e-02 -2.435580481109435591e-01 -2.782238477347979133e-01
-2.555757601160445480e-01 9.402433991400708027e-03 -1.621402581708741852e-01
-1.848275421982846847e-02 -4.266604802600411639e-01 2.908645137224210031e-01
-3.374330262972132788e-01 -1.354992874659858848e-01 -4.494280361492919429e-01
-7.552684272266948495e-01 4.629029966100285942e-01 4.496963879081921633e-01
-4.575334752378722447e-01 9.689726580291710412e-02 -8.100983482220184273e-01
1.233230150756124549e-01 -3.665500328570427957e-01 -9.075751565422142397e-02
-1.143744353842488376e-01 -3.942792372389929412e-01 3.703154811641573563e-01
-7.941389393733779833e-01 2.587932500801107816e-01 -3.833819144444617910e-01
-4.556691713119575549e-01 5.864166036768830859e-01 -6.471976967107977430e-01
-5.123297742587896719e-01 7.225869841358852907e-01 1.307562717524947959e-01
-5.200730247710701193e-02 4.805666260042684712e-01 -2.366392188993320378e-01
6.196843078574108127e-02 -2.790184285647866885e-02 -2.293377280081943248e-01
1.089181547825722601e-01 1.504986848640601227e-01 3.150126474077488692e-01
-4.831742494913123243e-01 -2.046925304422467506e-01 4.880670827248469457e-01
1.793460266173615980e-01 -5.977298976535305730e-02 1.626219765749713220e-01
2.101618409348581240e-01 3.036953240619102434e-01 -3.774751576840229550e-01
6.768847825855746070e-01 -5.280675347820465992e-01 -5.271105622392340262e-01
6.194722599057468360e-01 -6.716788564079625434e-01 -3.242838117253028507e-01
6.908559390499681430e-02 -2.852021934355244981e-01 -8.831285143458094122e-01
-2.151750848606439059e-01 -2.386238372800484342e-01 -5.938764596110668315e-01
-3.291149106873219043e-01 -1.110566225336239721e-01 9.051731390553295897e-01
-1.526473066554642766e-01 5.199394653153254220e-01 4.093492885049714730e-02
3.317081497186363803e-02 3.344263909455307271e-01 4.214863836022067489e-01
-4.572694317979039691e-01 -4.496435565809950297e-02 -6.752672212346270131e-01
-2.132579990555639581e-03 5.296023563813737622e-01 -4.254381026322965886e-01
-4.031188407045843136e-01 6.950190886108752464e-01 2.183150756013159943e-01
7.670480370064559905e-02 -3.842796639211634724e-01 8.948807575440590467e-01
-4.296625896018471114e-01 -9.920435477565732463e-02 -5.425899805032954326e-01
1.962601111760445965e-02 4.411829795179998404e-01 -3.135120120270354360e-01
1.256341041993399577e-01 2.994962742585338122e-01 -3.161658111075426603e-01
2.445782271679750874e-01 -6.150332010191292831e-01 -2.591214396378535567e-01
1.418581612643120271e-01 -5.575900268411306815e-01 1.263397783701118160e-01
5.883534424328575735e-02 -4.441508390871420908e-01 -5.368160184254953116e-01
4.323134605820070364e-01 -4.007765864725031102e-02 7.937273262487957171e-01
-5.713958582597461477e-01 -4.315561318577956079e-02 5.572543749950387149e-02
3.888435469111434228e-01 3.809083851754760386e-02 2.233238772574800690e-01
-4.108541544283431102e-01 7.311512479217848748e-01 -2.528217367818606509e-01
-1.293009469729677063e-01 6.207286258801436585e-01 -4.767108797917237184e-01
-1.635485515651108890e-01 -9.105345719748506039e-02 2.162602449093585510e-01
-8.500301951005305445e-02 -4.945768723585352022e-01 5.639326432167200975e-01
-3.137504368149738876e-01 -1.728743403629754427e-01 -6.009089990710548834e-01
8.072307540690747407e-01 -3.230658116076616793e-01 3.895196863395342102e-01
5.596150583386124699e-01 6.627639660232116647e-02 -1.845992448449151613e-01
-4.722574822628373137e-01 -4.045369230303637320e-02 -2.095898567353778053e-01
-1.895000626273614028e-02 2.771972625697914916e-01 -1.978209229177210482e-01
-2.776270365194553058e-01 3.571661836745220753e-01 -8.983108624241350482e-01
-3.627988207346348748e-01 -1.409279966442796572e-01 -5.845083453175317079e-01
4.594469352532101758e-01 -6.471891715652419164e-01 5.627466698178287263e-01
6.789835823253536073e-01 -3.410671885428266381e-01 -6.709752247184198604e-01
-4.395637328009004419e-01 -2.976206763541469624e-02 -6.376786241574779190e-02
8.866450582773671707e-02 -2.413957008420609118e-01 1.265003193366809331e-01
3.985146302035565968e-01 -5.151507417595965199e-01 -6.898225120167018609e-01
-5.768017803076614936e-01 -1.207252452704485335e-01 3.680600663468255318e-01
8.464762180377040091e-01 -1.555136675726340734e-01 -1.359064229899454579e-01
1.307333548763802700e-01 -4.278577627088618884e-01 -1.065818919802876547e-01
-1.598701780512810366e-01 1.436787905150939959e-01 6.129363154734373403e-02
-4.981558238799639882e-01 -5.937382641185753873e-02 -4.597462101424466541e-01
-7.593812370062054395e-02 3.748804840450515319e-01 -1.215656939489466737e-01
6.070112560400188206e-01 -4.869933159095526376e-01 -6.346814194356390493e-01
1.224820836114190598e-01 2.920044047766848783e-01 6.838796009011862687e-01
-4.207191442180930468e-02 5.441270499094007507e-01 -6.734711750058247626e-01
-5.554364450519704288e-01 5.717305523364821784e-01 -5.976477609169098537e-01
-2.346935749166850216e-01 -7.818385297525499988e-02 1.948856195714773476e-01
4.458537156125294554e-01 -5.302812573291892928e-01 7.181027063147956691e-01
-3.620401189205525450e-01 2.233182609149692022e-02 -8.557907920356676579e-01
-2.543164933853345189e-01 -1.176497493244316461e-01 9.404797091018839428e-01
-2.768768197057366320e-01 6.091475477572534380e-01 3.906174756591411779e-01
-4.515761207424009299e-02 -3.313562729660413098e-01 9.076023727140634101e-01
-1.059195609086617945e-01 -1.529994489602935215e-01 2.367140481993708911e-01
-2.408883650055596293e-01 6.603231433338452305e-01 -5.028993049843768492e-01
-8.832592503218720248e-01 3.551570499596620190e-01 -4.149187256683251751e-02
5.796858230099690701e-01 7.326892803451748315e-02 -2.277513992361853423e-01
-3.601797843694071188e-01 5.753835829710742811e-01 -6.988538766006953118e-01
4.632750227307230739e-01 -3.977403432681711482e-01 -7.893497718123212437e-01
-4.119099668568521055e-01 4.083699117663372458e-01 7.709474134413815127e-01
3.872356139438077327e-01 -7.252854577427516602e-01 3.464229399936113452e-01
-5.559687002753751495e-01 -2.747118018335755613e-02 -8.141872602702576733e-02
-1.577444859994890924e-01 1.253669625429162660e-01 -1.004728272045458531e-01
-2.556564461934977550e-01 4.840632512277678184e-02 -3.077382039456896465e-02
4.541117885444727609e-01 2.223320821891187904e-01 -5.059955500345912904e-01
4.126455074602327078e-01 1.364554472032956760e-02 1.037724040459162278e-01
1.371544903165110296e-02 3.808393944079663251e-01 -2.605953024095866710e-01
-1.503243274158213849e-01 5.792621109105920985e-01 -1.486233882603136547e-01
3.734047609464970496e-01 -5.216621053512021655e-01 -6.818368430727047569e-01
-5.829244226274697960e-01 -3.456424368130544319e-03 -4.621392257999643038e-01
-2.455501922813612681e-01 5.000864328661593777e-02 -7.688716571777851061e-02
-7.990387593199959060e-01 5.735221332135234107e-01 -1.622473721201366237e-01
-5.858857850502527942e-01 1.905560335679958722e-02 7.395909633618552581e-01
-7.868980144109168906e-01 4.011497397118065078e-01 4.453434773108611022e-01
-2.147729383164546924e-01 -2.181221957099719333e-01 9.137828152330017550e-01
-4.536956598601379897e-01 7.264620054521435666e-01 -3.053065429417632370e-01
-2.579464511319841669e-01 -5.751791543028920289e-02 -2.658251559675058329e-01
-1.188449056997493841e-01 -2.787479023449679350e-02 2.020833113317525020e-01
7.509332297533566347e-02 1.367561388169076242e-01 9.210069280336322661e-01
8.535264313990659213e-01 -5.369871753990739238e-01 4.182516993185260434e-02
-1.739657381644088008e-01 -4.118090175628647542e-01 7.227297306011518652e-01
6.991626804525113981e-02 -1.024862007911247347e-01 1.929520452303982447e-01
8.249690061595536805e-02 -5.206275674928160235e-01 2.213850133920396979e-01
7.156808652660964776e-02 3.348777711557551218e-01 6.488906912249780001e-01
1.230770155472978300e-01 -3.402148926725153122e-01 -8.687379274268219875e-02
-5.081999493869182594e-02 -3.152520344776893468e-01 -4.376304744881345243e-01
-1.845869771936008846e-02 -3.980106136513122950e-01 2.699208062598904556e-01
1.379513622816326834e-01 -4.850854116439594632e-01 -2.370561970196214396e-01
4.165345758177749214e-02 -3.912806620849972328e-01 -7.227050498351474950e-01
2.153291592506477725e-01 -5.482742051505559711e-02 1.403906730180722595e-01
1.017415684311248764e-01 -8.639960359946995128e-02 1.862183758667946554e-01
6.491064351022608481e-01 -5.823133989298221458e-01 -4.806420025655355199e-01
5.536264840225165601e-02 1.936316728452338043e-01 3.085904739543244291e-01
3.122028351315452865e-01 -6.900199278916518963e-01 -6.315133442107284667e-02
7.978169887501650459e-01 -3.594718867230638493e-01 4.139223186988135739e-01
-2.776825430358788593e-01 -8.298667802920578485e-02 -3.044637628765936577e-01
6.226206187599594433e-01 1.831067109385638506e-02 -5.122202923183385992e-02
-1.373995014205727228e-01 8.570346590034369494e-02 1.476073037744160266e-01
-4.840365021933327183e-01 -1.873283020336286020e-01 6.643202862607009429e-01
-1.403477163147214268e-01 -4.578154698507411746e-01 5.776677894188332330e-01
9.421239767447264768e-02 -4.418194405339765513e-03 -2.222193873685632814e-01
1.263688992400620881e-01 5.421902287496079692e-02 2.586184565131538493e-01
2.595573003249641020e-01 7.198249316144368637e-02 2.869960498752121558e-01
-5.002881315245751859e-01 -5.593424993926514321e-02 -3.924616301091481962e-01
-1.583852870583183081e-01 -2.596181280404558089e-01 -5.092528687712722935e-01
-3.784783079629471803e-01 -5.752540240183755260e-02 -7.745731079719118117e-01
-1.213807514666311316e-01 2.612820837896196458e-01 1.964438369446642324e-02
6.783264512323559092e-01 -5.901882387828234489e-01 -4.363556813668336143e-01
-1.386996128370697468e-01 -7.856429677804689649e-02 -2.843739360349434309e-01
4.253207624062529946e-02 1.345840919015148518e-01 -2.335810761233692578e-01
8.476234185485170824e-01 -4.511386400157352816e-01 -3.063898619609770058e-01
-5.999402071319939189e-01 2.822232056380998434e-03 -4.236445144869089297e-01
-2.377131050171220061e-01 -3.763493836799293168e-01 7.026114110305011762e-01
-2.174699297467906356e-01 -3.586022022062156367e-01 4.374623475858665511e-01
-3.135901066913768243e-01 -7.614710935563184790e-02 1.690461647683418889e-01
7.179974635401067951e-02 -6.002648731779985231e-02 2.074891603715611488e-01
-3.660250642344200500e-01 -1.235517640795910817e-02 -4.393310090160821441e-02
3.792936624692120479e-02 -2.704844941718948514e-01 1.774381816691823488e-01
3.686462540855046099e-01 -6.004428409837080372e-01 6.672211722097638464e-01
-4.339019131813622310e-01 6.088976936664528550e-01 -6.264308242425635775e-01
1.989867895769460437e-01 1.677715910454476433e-01 3.851156192924399257e-01
-7.551974649841495246e-01 9.355089546622957775e-02 -2.089465841718917971e-01
8.256305495284880225e-01 -4.685748770014248055e-01 3.020377986847309626e-01
2.726232803405916894e-01 -5.533608969998441429e-01 -5.941059619212443188e-01
-4.090836592442652353e-02 4.092153675500735943e-01 3.993675083981954588e-01
-3.431147540516866212e-01 -3.274789940413421613e-02 -8.355948896544749260e-01
8.299824566595218056e-02 3.155026939108799278e-01 6.950934383044136133e-01
-1.622690878110142620e-01 -4.431895784086133383e-01 6.065896409921420762e-01
-8.604028666115616231e-01 4.691103842553409065e-01 1.204386516534666635e-01
1.757325614652705328e-02 3.650399870235124800e-01 6.730713982763841807e-01
3.801347789643240438e-02 2.858278483726489627e-01 -2.486999390806930721e-01
-4.588455041486799169e-01 6.383381705841417730e-01 4.331184967510684491e-01
2.672756544353944302e-02 3.740724620915678034e-01 5.912195461334734947e-01
1.794293863133165079e-01 -5.476328938466401564e-01 -2.046698928889483238e-01
-3.231501240194440960e-01 7.024371127606630072e-01 -4.518414227272984918e-02
-6.412938341188245683e-02 4.333534065440619032e-01 -1.721206032088639371e-01
1.809858299730838227e-01 -1.827164970141732792e-02 -1.807441602925363711e-01
6.182700295399206070e-01 -5.069971261479588875e-01 -6.053884975467751506e-01
3.032744360320197563e-01 2.202036077843803619e-01 -3.464663790122239351e-01
-2.758831419687574615e-01 5.323280575418285476e-01 6.107186612892157029e-01
-3.644032419183623195e-01 9.881377304514861459e-02 -8.849500961744986016e-01
8.236508617195814619e-01 -2.572355222605097191e-01 -4.499763607284806843e-01
3.510755674767934709e-01 3.072805545669620719e-01 -5.973159794573666970e-01
-1.687489237976045053e-01 1.446908810528031442e-01 -2.093572412610317235e-02
1.869744038204066705e-01 1.880925421041431678e-01 4.035099956443142233e-01
6.534842539912408821e-01 6.410524281217915010e-02 -4.816256617620453540e-01
8.287638036948535847e-01 -2.588675500498862081e-01 -4.364397778124243787e-01
2.574983587516278538e-01 5.374041102398455921e-02 -9.714193433711979520e-01
5.105024579416750363e-01 -1.828097800335547751e-01 -8.547136890948280330e-01
1.623867739128712906e-01 -8.399088719328079433e-02 -1.569116631503767734e-01
3.173769397900970679e-01 -1.097055646200018747e-01 9.067954339775874395e-01
1.052387077816112626e-01 -4.205260658896179948e-01 -2.448939038682121094e-01
1.579154236132409295e-01 -5.237549584455261087e-01 -2.327020507552769041e-02
6.463851199962682426e-01 4.292336449954056027e-02 -2.218981481571945802e-01
-3.207037664460916093e-01 -9.854296922790009572e-04 2.261858795317538140e-02
1.124317769718803373e-01 -4.695206157192010066e-01 9.016557039003256224e-02
-2.370518295027448236e-02 4.139572495215405046e-01 5.560869092400980707e-01
-2.228313509412204740e-01 6.674313848834634300e-02 -8.199051436650757474e-02
3.384445388328766180e-01 -1.524386675313858797e-02 1.158441186972892362e-02
4.043159212697778893e-01 3.585203990189610775e-03 7.884968664054208265e-01
5.461511976941234581e-01 1.568526964598986884e-01 -5.068916560106910829e-01
-1.137276067619115427e-01 1.771830861309569433e-02 1.906175507198211161e-01
6.802838494657914570e-02 5.022292396400633852e-01 -5.649142155078862304e-01
-2.746904416096689339e-01 -1.973554605149465957e-01 -5.744994317255089911e-01
-1.313761448626671879e-01 -4.850719896068287143e-03 1.902240302266886007e-01
-8.126368886654011803e-02 -1.667413225750360994e-01 -3.242741809914987949e-01
3.542061931948946585e-01 1.127500250291795930e-01 4.060565198066334314e-01
7.575949300724940105e-01 -8.452709019647482169e-02 1.443232377501989794e-01
1.426889635097661722e-02 3.242323863019017875e-03 2.273432191829622973e-01
-2.839484575121947046e-02 -2.444573534979567198e-01 2.263512912819800327e-01
-7.410964406031700369e-02 2.321609666950760209e-01 -1.424841797320661185e-01
3.591295544426447578e-02 3.822181691986294670e-03 9.815783121675983880e-01
1.428325786303369649e-01 4.301906938919987655e-01 -4.822798189035211180e-01
3.010561309352898229e-01 3.243729911595108484e-01 -7.283927502130292941e-01
2.385766755197994138e-01 -2.545602709388752882e-01 9.364666655912098348e-01
-8.585091504330645551e-02 -4.175063843862786284e-01 3.638619605730551987e-01
-5.957858132151064301e-03 3.986348645974830407e-01 -2.456984919660634148e-01
-4.886179317198813266e-01 4.121391934482654951e-01 7.393781482883123868e-01
-3.325217907705387277e-01 -5.588286435221538964e-03 1.687123751189808368e-02
-2.861929829282551241e-01 -6.859569217199400215e-02 -8.566761101835843606e-01
8.769514013088466342e-01 -2.300772028551933968e-01 -3.097441144203336161e-02
6.786339055826877686e-01 7.187104000141573967e-03 -5.745920298428738304e-01
-1.093763339375377064e-01 4.370227135055860246e-01 -5.135997138850729310e-02
8.793603309888071706e-01 -4.720979959154379402e-01 3.745517161050133242e-02
3.392640342800975484e-01 -1.518508237538260773e-02 4.396696305114679987e-02
-2.902694283726258151e-01 6.973598292503125906e-01 -1.775086383429477499e-01
5.414777960076052610e-01 3.028426559616598929e-02 3.551061699412249029e-01
-1.405626854167392747e-01 1.045359182203540599e-01 -1.458250058011499595e-01
-1.032098679030618721e-01 4.278670563273235805e-01 -6.777329171323315249e-02
3.977539464159772220e-01 -7.240896319902044853e-01 -9.645068069789043685e-02
5.492437637893031466e-02 4.815756528708621809e-01 -4.298359786339838728e-01
8.610246955830809235e-01 -4.955104946992548998e-01 -1.774935206170237811e-01
8.204835340319862613e-01 -1.244087950159321054e-01 -3.016691848701795742e-01
-4.719138728755836176e-01 5.463559094969406837e-01 6.015815878593934185e-01
-1.043136093065297337e-01 3.020147336883676203e-01 1.123234693437293458e-01
-1.331069962617971447e-01 -6.082039517142447116e-02 9.856262173752363687e-01
-5.952571570995048716e-02 1.359257612902229628e-01 2.047563081415541275e-01
2.175330852316222086e-01 -1.069361966639007511e-01 2.052048399910981827e-02
-6.707736687795720076e-01 5.351431312425963815e-01 -5.143112661137489994e-01
8.088355969370981668e-01 -5.583788927695755300e-01 2.304351723350646086e-01
-6.359956698238602435e-01 6.723888249477252832e-02 6.973679163817916304e-01
1.765381269953974208e-01 4.260443260326975401e-01 -6.669698306062643578e-01
2.599780530744730811e-01 -6.655606525111183724e-02 6.832698206409544735e-03
2.314662861038766783e-01 2.751459018138538992e-01 -8.756157686574725929e-01
-4.990743582780162169e-01 -1.851538156815353831e-01 4.408559564137440878e-01
-7.196606823887251592e-01 4.934719129204899468e-02 -1.440691235909418166e-01
5.881768420625425042e-01 2.540639779008267707e-02 -4.047945273105130887e-02
1.937197276670161172e-01 -1.121816299184659055e-01 8.160710354369589414e-02
1.303541525128407430e-01 -4.362988998358015014e-01 -1.391728598071952094e-01
-3.632078055311892539e-01 -9.664596324276827910e-02 -7.399916383250787488e-01
4.529728254222361583e-01 -7.509624057933150798e-01 1.195880559058561249e-01
3.518129914880895881e-01 -5.190590036765427850e-01 -6.844271019001814116e-01
-5.952242532300385802e-01 -7.974617525119193084e-02 2.368524034737042872e-01
5.500453826156330439e-02 4.461205437448567679e-01 -7.908424629902404135e-01
1.633481125693594591e-02 -5.462773555572505435e-01 6.315957538646393976e-01
7.444155258867665159e-01 -2.701993231090928788e-02 -1.965522599913428481e-01
2.400970892335260731e-01 -6.839400464529874490e-01 3.123881175553688827e-01
-2.652384584285946700e-01 3.077403526672481959e-01 -9.215651901813269875e-01
-2.844780970934053244e-01 6.595452363619359604e-01 1.175998851804069406e-01
3.442849321609815494e-01 4.994155400791489008e-02 2.548272475665466774e-01
-4.656889803629580410e-02 4.571380926414722601e-01 -2.236315523100159686e-01
5.083525149045268338e-02 -4.145021339983057107e-01 -4.051736062319572507e-01
-1.134834531390932072e-01 -3.724105949527952708e-01 3.474448660546799461e-01
-3.574773657578439456e-02 -2.334322572909310334e-01 2.289225740337255954e-01
5.449313373288581369e-02 -2.841437858300439601e-01 -2.580888573824490217e-01
8.177181863384896943e-02 -2.904150910788331763e-01 1.219603606713027394e-01
-7.891883416881797508e-01 1.177342068975592571e-01 -1.431205943506415335e-01
3.834228997859377014e-02 -4.231910782565023177e-01 -4.880319483524109825e-01
-6.948203500129458421e-01 3.869076533072303425e-02 -1.969397371209306580e-01
2.139348616853153362e-01 -5.311805682402956919e-01 7.698245803850315427e-01
8.080001158785072857e-01 -1.090337542846858826e-01 -3.331288777156551362e-01
-4.784213462231406422e-01 -1.818495030259983380e-01 3.877888704696810795e-01
-3.673216435123865531e-01 -2.559687925540132802e-01 4.236611082469943224e-01
5.716613148283002932e-01 -6.452407453211373989e-01 -4.259430974219060029e-01
2.033151144489592776e-01 -1.300337317554708071e-02 -1.704855124572801361e-01
-4.511613161251564752e-01 5.454018966122732293e-01 6.083488315319796058e-01
7.443645378291362524e-01 -4.889440230607026705e-01 4.607255777064132585e-01
5.722613454453444604e-01 -1.217181784205314393e-02 5.405581502910571379e-01
1.323210588035349244e-01 -2.663846326872309489e-01 7.130804437738618926e-03
8.051681414383002888e-01 -5.290906780383913821e-01 -3.171334598743140165e-01
-7.974189394629035976e-02 2.980687463921462554e-01 1.837446944194141840e-01
5.098783469671821500e-01 3.512109541171607591e-02 -4.819492129302330174e-02
7.614409611739166861e-01 -2.480262367552064084e-01 -5.808116499522926190e-01
-2.413989746269390446e-02 1.887720685095633510e-01 -1.998626176581004277e-01
1.623117443634195523e-01 4.054706485117174353e-01 -7.599326357186660941e-01
2.241268011128873527e-01 7.317663397525066282e-02 2.843353616491905989e-01
-5.067457660851573120e-01 -6.263547960087366417e-02 9.960327345414241029e-02
-7.327532413800601496e-01 1.510924956650019080e-01 -4.309469975358712901e-01
-9.585171403233305742e-02 2.536270314583267682e-01 -9.700828271110815137e-01
-7.300852917001243725e-02 5.576699120869916815e-01 -6.702338429868668346e-01
-6.307259656984159912e-02 4.798919517335736851e-01 -2.139413705750061179e-01
8.280727513779165272e-02 -4.470049386058789209e-01 1.468136902171084668e-01
-3.437773632612394770e-01 -6.401517416426126886e-03 -9.249774490403686600e-02
-8.694496615442715015e-01 3.712842632687738953e-01 -1.518202026133696758e-01
1.520620819492720655e-01 -5.167984194721627622e-01 7.798958492624600281e-01
6.189806753388890082e-01 -7.293019938384279754e-01 1.560204913615789446e-01
-7.634709181883109208e-01 5.565018095433914569e-01 -3.217388661685443574e-01
8.769603465205896287e-01 -3.408830841012804869e-01 1.626318227488836032e-01
4.877974612195352111e-01 1.998665169454896529e-01 -5.094418549057315726e-01
-8.762843814961572830e-01 2.564347407956713565e-01 8.995523035412868185e-02
5.103501055711411050e-03 1.174886331239786887e-03 2.258764418703282650e-01
-4.054524128319764720e-01 -1.128225570400344102e-01 -5.801039264442473531e-01
-3.812465410104589059e-01 1.215678802564238575e-01 -8.792560611357382871e-01
4.401838278317480313e-01 -3.398077401065383724e-02 7.813483616483916094e-01
-1.267341891549303434e-01 4.862354804969779010e-01 5.546982136677094388e-01
7.092457438686818882e-01 -2.388317453087607928e-02 -2.811745223261145898e-02
-1.285807385429373756e-02 -8.471589254296497777e-04 -2.397687085440194099e-01
7.953738994859007594e-01 -2.856917937817597397e-01 -5.164821818795298780e-01
-1.436845311197746666e-01 5.124394862061533162e-01 2.967924817801292359e-01
-2.463893548700722969e-01 6.571255732539942329e-01 -5.219846992299925770e-01
4.732770582062572617e-01 9.436950146796510563e-02 -2.171955702884546813e-01
3.854000239078329559e-01 1.930021791659645297e-02 1.610262307227801615e-01
4.700999501939310821e-01 -7.162240601361993253e-01 -2.292671996498513998e-01
-3.582495525616194443e-03 3.347545256867329178e-01 7.674729714212596976e-01
-5.733680902710884819e-01 5.793763123418110839e-01 5.045394679944313898e-01
-5.157573238285307893e-01 -1.742667400884250206e-01 4.403599338239180261e-01
6.288715736433344583e-01 1.036641298973151396e-02 -1.265649907209570948e-02
-4.235760946567692087e-01 -1.217993455069209946e-01 2.258222678458065291e-01
8.654151629950316282e-01 -5.012505057486669191e-01 8.340449722527641663e-02
-7.278619560617608508e-01 6.601375866369963985e-01 -8.428318904705500714e-02
-4.026870085655739340e-01 -2.286733291142016289e-01 7.402759073443831994e-01
-3.207330581410121617e-01 5.588100204349789601e-01 5.784208535529536954e-01
3.711360957562626073e-01 -1.478406584715546146e-01 8.825595527838054899e-01
4.112912960163457310e-01 1.008901692675658462e-01 -2.210162951145036581e-01
1.203515071852581525e-01 -4.760210573718040572e-01 7.133138313303967470e-02
-2.273384543286527393e-01 6.707180928294939060e-01 -2.830480258783035219e-01
-4.478618546211024509e-02 -5.204606745941140478e-01 5.733607512286438279e-01
-9.374178006394635887e-02 -1.819170729948120790e-01 -8.972774264007875589e-01
-3.638197543464244399e-01 -6.328360589651006729e-02 9.020092844878438987e-01
1.887171679577394692e-02 -3.162714665812006998e-01 1.989707222548449672e-01
-1.372038966829628170e-01 4.804739716605244682e-01 6.448756243531407473e-02
-4.899930731830092201e-01 -1.287233294392562399e-01 2.675323882062008440e-01
2.638848407057380330e-01 -5.680971275944410870e-01 -5.483837029482382386e-01
-8.377090699920373973e-02 -3.210558001742942480e-01 -5.188060321437680811e-01
1.156452756885080133e-02 1.810032243065463065e-01 -2.214899678653547699e-01
4.853820335935044028e-01 5.536468314733788282e-02 5.550489091276776810e-01
1.518542303190229675e-02 5.358074097478756626e-01 -5.618501020324367934e-01
-6.986300533571387916e-02 4.783405960079491481e-01 -8.098897435653875654e-01
-9.525471952207906212e-02 1.258562856700597143e-01 1.739080115438544072e-01
-3.483669433125494153e-01 6.469605109965577139e-01 -5.815424325633542502e-01
-1.673757150688141848e-01 3.439652260214507984e-01 8.359157251189225368e-01
3.399215141213243196e-01 -7.254085283438840293e-01 1.948213979772524529e-01
-1.244273888992226823e-01 4.657072221893319708e-01 1.991895646322711377e-01
2.345531216180642975e-01 3.506680324724069653e-01 -4.635619753144802901e-01
1.726679199102416351e-01 -1.352160336695104048e-01 9.665964300651899155e-01
-3.074883321522406954e-01 5.606827583638417378e-01 5.683427231415772996e-01
1.898705734632067654e-01 2.453036938993886085e-01 6.823738648483748115e-01
1.683342981961901963e-01 2.647834204906691913e-02 -2.086628100635219141e-01
-4.678563239443498945e-01 7.360377233491359750e-01 -2.286209354455056297e-01
-3.173062320896670729e-01 6.954284164803168321e-03 -1.157031363707029803e-02
1.337502891496448465e-01 -6.990199522829756811e-03 -2.083457900790762485e-01
9.527505371606914686e-02 -1.849903432729774755e-01 1.428656087880199321e-01
6.202235781650009550e-01 -2.773323642944323097e-01 6.872283977482014361e-01
6.802932895038907857e-01 -1.261652127326457484e-01 5.160391501071055487e-01
6.702131992631493729e-01 -2.926109743778522732e-01 6.268354090968791814e-01
-2.227523699284889580e-01 -3.255826349258376662e-01 3.952950408930264725e-01
4.112380442644452683e-01 1.440759418425470798e-02 -6.130959335883043662e-03
-8.485300284056640496e-02 2.199900865526469573e-01 1.694032081081805197e-01
-8.136534976306145639e-01 1.796769662346892060e-01 3.925798578490121149e-01
-1.906615290615219505e-01 5.680412455162937579e-01 1.657311580998058476e-01
5.236931300123141625e-04 3.207213879068466778e-01 -9.343338085489278910e-01
-3.829370047274205935e-01 -2.553908429210776654e-01 4.424805121823651710e-01
7.331735511477920353e-01 -5.938691175327460298e-02 1.153866609193990450e-01
1.261164368483148057e-01 2.150468063184389766e-01 -2.765033770337356755e-01
-5.863686674684333022e-01 -2.429275099324692752e-02 7.105748347122331499e-01
-1.010625533787785392e-02 -5.010595793788607394e-02 2.192301285244116771e-01
-7.660298047705482727e-02 4.130850120800108605e-01 2.930059782394712209e-01
8.314369792021847339e-02 -3.019356917785424588e-01 -2.152329996142419155e-01
1.465800154816938317e-01 2.225214696166196715e-01 4.131960452262798400e-01
5.374693866206029513e-01 1.628435355544819441e-01 -4.989858292970390519e-01
3.204367122462368211e-01 2.612897317069588082e-02 2.086617866308578539e-01
5.253679919700084966e-01 -7.073849102661864396e-01 3.864394069050245961e-01
-4.551454110937027120e-01 -2.640274366501618730e-02 -7.100966634767098551e-01
-3.163653638538684865e-01 8.977238056901491736e-02 9.389786538135779237e-01
8.685072366149217959e-01 -4.862365574689834213e-01 1.013775328007588961e-01
2.564956065511172500e-01 3.180996524242089007e-01 -4.352149742848078207e-01
-8.789566464044576422e-02 2.451667519251342353e-01 -9.733225291226860199e-01
-5.990790624969304368e-01 -1.131293678134439734e-01 4.972111090170153735e-01
3.823202575303332740e-01 1.220458401320001496e-01 6.025867046556055984e-01
7.792704849927218902e-01 -3.940652840411756341e-01 -5.086055705661822746e-01
6.041317609709033754e-01 -6.351462335573910822e-01 -4.250522640234583038e-01
9.351887866799589444e-02 -3.672301651793064003e-01 -2.233525042402087213e-01
-1.956668890458699017e-01 -3.222714130811201727e-01 3.691066781089900606e-01
-8.712706583106376301e-02 3.952258152941351410e-01 2.305057285368857511e-01
6.203527966936353555e-02 -3.010889627228800491e-01 1.485920126773193906e-01
2.031732526596547184e-01 3.549130489857212772e-02 2.450159925034671171e-01
2.714989913265604682e-01 -1.408325867931681805e-03 -1.319871294702526232e-01
-1.515244628127357385e-01 -1.168372849205812358e-01 2.279965960356538923e-01
-3.848956533289304427e-01 -1.604637535485137489e-01 8.366225333539436537e-01
-4.414946635499731320e-01 6.843713512499173257e-01 -4.729798288287488384e-01
5.804684511785433987e-01 1.100900038680098676e-02 3.505546811558608034e-01
-1.132977771803091865e-02 3.953851979811294215e-01 -8.811225155601424275e-01
2.154484873617677765e-01 4.655496921390034001e-03 -1.758798637543814991e-01
-1.622744328670577829e-01 -6.293125336429744587e-02 -2.741922011802866987e-01
5.360383656292319610e-02 4.210016826139659218e-01 -8.276003749968910972e-01
2.950073368438686505e-01 -6.826154562232182865e-01 -3.650110709958497013e-02
-7.884702886258799781e-01 1.641369558421500452e-01 -2.850205348108111325e-01
6.067193496946106102e-01 1.173466117771042880e-03 2.125637881828781328e-01
4.526979248138006395e-02 2.312118407784018725e-01 -2.427855028463690723e-01
-1.920439761591781480e-01 1.092848310060526157e-01 -4.144445135607521119e-02
-7.642564093708278678e-04 1.620324945644355252e-01 2.535483783771431687e-01
-5.921692314245652344e-01 -1.195932530211350070e-01 4.951229359379352712e-01
-4.980959249067747341e-01 5.919845648781890679e-01 5.209723898612855786e-01
-8.519670166359609442e-02 1.579246468153052974e-01 -1.621486785763820160e-01
-2.482316148771345210e-01 6.736736413891555308e-01 -1.758229453014830412e-01
8.593592218598740118e-01 -4.595776755412372405e-01 -2.527930050687660635e-01
-5.728348023301734759e-01 7.324823040476639013e-01 -5.403970200718179878e-02
7.428989260756375668e-01 -4.362978879385675524e-01 -5.361843737799059095e-01
-4.060331247174049363e-01 6.983187457641109042e-01 -4.377337229005801578e-01
8.519252646125582973e-02 7.154017254385115765e-02 9.500589222943317536e-01
-3.714172411962972098e-01 -1.574489650354149797e-02 -2.158562399885783495e-02
3.349192503383956465e-01 1.544966982643964926e-01 6.073885159052982985e-01
3.864763171935697295e-01 2.787039973615499516e-02 1.912556453990422178e-01
8.381987999986153515e-01 -2.436242737661381830e-01 -4.029390170678703309e-01
9.148275082661098956e-02 -3.675064094827445449e-01 9.760576027847167602e-02
-3.068110847421468557e-01 4.972339983369333978e-03 2.909180904583247990e-02
-8.888533888806227079e-03 3.539523518575892203e-01 -9.139246690132077910e-01
-4.426738323563310651e-01 -3.415643992134241580e-02 -1.468335856860046931e-02
2.061251691252491136e-01 4.932699573326829179e-02 -2.087806225594046605e-01
-1.605695076186268999e-01 1.412286057864860223e-01 -6.885222824425413224e-02
-4.049646551029520980e-01 4.934492122221741384e-01 -7.676139685541787383e-01
-5.252373156217602368e-01 6.535985826381695007e-01 3.820262034358962722e-01
-4.060834625499999684e-02 2.665765558695370463e-01 -1.752997826508747303e-01
-7.960372163547604907e-02 -3.078642498590787868e-01 -4.747261443320803798e-01
-3.930701338011848844e-01 7.320533492917360441e-01 -1.743392840509672692e-01
4.042371492854093251e-01 -7.049935785647180042e-01 4.405517508193973475e-01
4.520457019767413348e-02 -1.320864523069754104e-01 1.945945605730891870e-01
5.494872077888386386e-01 1.769068149567479611e-02 8.944037511846103516e-02
-5.625798431884364570e-01 5.707911479279087485e-01 5.249082259197315192e-01
-7.902349880715647812e-01 3.253102542346772985e-01 4.772580334369809774e-01
-6.039813133970347442e-02 3.509075035361528538e-01 2.568963828314215769e-01
3.560606884025625529e-01 1.416623574764751259e-01 5.488145328408212675e-01
-5.724439294669657619e-01 -2.083689983555150546e-02 -2.732700627782758684e-01
-3.996299073304058203e-01 -9.920506946884663502e-02 -4.095639895103609374e-01
-2.040281034166331608e-02 7.692091566953202127e-03 -1.000000000000000000e+00
-4.115535711602075764e-01 -2.798413922789928093e-02 -1.654426552462738217e-02
-1.610469877193307919e-01 7.739510779661946949e-02 1.277750730640163090e-01
-6.344525091996802146e-01 -6.228682296457769066e-03 -7.818276656566743033e-02
1.249853508598703367e-01 -4.088504529909002261e-01 -1.280307609228600596e-01
3.222817362663633611e-01 2.984870162404841820e-01 -4.788565968224940961e-01
2.969108969711974355e-01 -6.530945719266764149e-01 -2.540145006844538589e-01
1.832249329224052217e-02 -3.054043564856795401e-01 -3.232686110420466830e-01
-1.596906622931386910e-01 -3.030527590824112494e-01 3.269985371149892739e-01
3.912021810844190650e-01 1.373170939524104295e-01 -8.645943842227048481e-01
5.386881603177364752e-01 -6.301016334038956890e-01 -4.744722772851445725e-01
2.470815442390283945e-01 -2.253369030755511190e-02 -1.279146104246531579e-01
-5.232410495191706090e-01 -4.460366119747766894e-02 -4.586386743435837410e-01
-7.384260213747797508e-01 2.456835387786991676e-01 -5.021544830994235653e-01
-5.388720549593847275e-01 -1.646500957397370735e-01 5.066566598181100334e-01
3.134502171733840048e-01 1.797574777080127584e-01 -8.947195252144268807e-01
3.648442048922697634e-01 -7.196453283024998315e-01 -3.638674287694384363e-02
1.185427950562384786e-01 -1.219953586946344037e-01 -1.819898678973422002e-01
4.190540063483598199e-01 -7.343373322273858417e-01 -6.157787678923985070e-02
-5.467124320080024580e-01 -2.716977693787882286e-02 -1.878078030839177293e-01
-4.294121725148121738e-01 7.377697386226490517e-01 -1.697950772976417055e-01
1.612519745723516307e-01 2.504135250595504458e-01 4.827256246612883772e-01
7.025591965214025292e-01 -5.195174206500990238e-02 2.203879274262021126e-01
8.450866682147859521e-01 -5.531657049332417975e-01 -6.645243188249522204e-02
-1.760508526675179722e-02 1.448541758364795817e-01 9.443112085739292505e-01
5.817284280546899389e-01 3.505072544030773951e-02 -8.390663124748613810e-02
1.106771072369808380e-02 3.965782366705059570e-01 -2.664929185852810134e-01
4.889618512280062834e-01 -7.520092388018850826e-01 1.486477420282960593e-01
6.346750335915397612e-01 -2.163647318843560929e-01 -7.489982290552572586e-01
2.543587874030192042e-01 3.279356589916326281e-01 -7.917764917114282763e-01
-7.378665517828741915e-01 4.083584586409886308e-01 5.234262784853147554e-01
-3.074473705488647846e-01 9.807804249110806463e-03 6.324673325624541494e-03
8.771535546080519996e-01 -3.770147494486680850e-01 -2.588742482784160415e-01
-2.516021351421248720e-01 6.509509763198186860e-01 3.732337699698870092e-03
-1.421262474714146407e-01 -2.876853411816427397e-01 9.029378919556778627e-01
2.698539427309126770e-01 -2.541223277811337916e-02 1.375433836860050496e-01
4.342928480542985192e-01 6.440188599257899715e-02 3.299903680756405278e-01
-6.002435284510707625e-01 5.653238212131619367e-01 -5.635765836187686117e-01
1.482492390675071436e-01 -4.893890157291782561e-01 -6.742979045537590699e-02
-7.242554282017141798e-01 1.406789740808643248e-03 3.081083290055346424e-01
3.290705462308866069e-01 -6.877523708166112248e-01 4.837992034374676842e-01
4.455960061408612005e-01 -4.466260070715402097e-01 7.805299030163475038e-01
1.199765808410123702e-01 2.526337012114173719e-01 4.259877420287458416e-01
-5.094874330066796464e-01 -3.572935284902442610e-02 -3.546839651467179055e-02
4.975787793932509584e-01 1.445419897696826328e-01 -7.354340000384568254e-01
-8.619516452502662407e-01 2.865404756828660582e-01 -1.616089282663915050e-01
-2.205056636307790863e-02 1.149654472102090846e-01 2.304899556042334929e-01
2.871573627156039366e-01 -6.354985347972205156e-01 -3.248263816108657442e-01
3.872827205705661191e-01 9.352330237054447271e-02 3.838843901177300122e-01
-3.762144174788337181e-02 -2.730805922526896579e-02 -2.482814027716256922e-01
-3.937796395813103478e-01 -2.670942730506862747e-02 -1.386534167207725543e-01
2.172490396869283524e-01 -1.050830398836790774e-01 3.341998374680955203e-02
-1.732139387550179210e-01 1.355940836135474670e-01 2.430294260257054653e-02
2.678446392185846459e-01 1.171007606475236162e-01 3.538793294062331785e-01
2.788428629266768710e-01 3.352859045194899190e-01 -4.970104234174059776e-01
3.037929448187011161e-01 3.400829555948214900e-01 -6.531616768204436818e-01
7.803725785474207033e-01 -6.498247516618850528e-02 -1.523381352817364254e-01
6.566243234340393697e-03 2.070494175196441744e-01 -2.180946976890005273e-01
-6.040984329145637766e-01 5.478804474676336467e-01 -5.791023145085526513e-01
7.877837887920313698e-01 -8.151942965799306717e-02 -6.407419764538739571e-02
3.100147693025091522e-01 -1.143665799291449098e-01 9.115963093857041288e-01
6.619442553778012162e-01 5.471745893281890899e-02 -4.875195387659656543e-01
4.274744416642078937e-02 2.497585292593267892e-01 -9.649135395481647226e-01
-6.934652491401248620e-01 1.074338863414814049e-01 6.286309436989485633e-01
4.355711027452373596e-01 -5.337565730663456076e-01 7.198567437238704292e-01
-2.167170475750945513e-01 -2.794936742311028219e-02 -2.348164934020399441e-01
2.023197258807930832e-01 -8.734313817584225814e-02 -1.055410908546393634e-01
-1.092604999397091547e-01 -4.735091366202805463e-01 6.442290409230425619e-01
-5.098004491353999024e-01 -3.182023312020530736e-02 7.991822462077085021e-01
1.214023882056286113e-01 -4.144585950082473880e-01 -7.538664618942642059e-01
-2.985155032444283124e-02 2.893686955053443310e-01 -1.865771147796320972e-01
7.156606891154347616e-02 3.397428285447846585e-01 5.590919667426489381e-01
1.624698073225149808e-01 9.480250464041047043e-02 2.936956843678109608e-01
-5.538844793345191336e-02 1.011605912769070331e-01 2.090798037926822062e-01
1.232729267856988858e-01 -4.183523393930061451e-01 -1.572574021734832739e-01
-1.014113270074351869e-01 4.761425627098707647e-01 -1.183305186624970529e-01
3.527720517596472007e-03 -4.475848641876502276e-02 -2.458489137580268935e-01
3.813878295493345894e-01 2.851316781182527405e-01 -6.171138693908750916e-01
-3.670990398095350798e-02 -3.573967313899734793e-02 -2.507620731745267006e-01
-9.071040046296889592e-02 -1.529336835811814510e-01 2.340640934848953469e-01
1.840801263096143725e-01 -6.508219280841818222e-01 3.039606399909500212e-01
-3.936897242979243289e-02 -5.054990105335316342e-01 6.763156353321949643e-01
-1.859153975228437783e-01 -7.964313941973312494e-02 2.070939913164112911e-01
-4.922757210108826276e-01 -3.395048480780635258e-02 -1.577031443410645273e-01
1.600452307858830359e-01 2.324189312871071389e-01 4.442414477705205478e-01
-8.730816131723069529e-02 -2.733201767988914233e-01 -8.001190193802303341e-01
1.787507284949260700e-01 1.132597677938274733e-01 -2.454201630241340804e-01
-2.013780892042510151e-01 -4.152222290066551746e-01 5.731320287956152004e-01
1.164198672009862379e-01 4.615914448263391257e-01 -5.166028835694783661e-01
-9.782379774155711138e-02 3.181351036962647982e-01 8.417350064465918269e-01
-2.939888728639028503e-01 2.176229108988066846e-02 -3.601485865899194810e-02
1.169466916785259630e-01 -3.566812486663194504e-01 1.917969959854534320e-02
2.136253368314357803e-01 7.976373769891560717e-02 2.900168331419353263e-01
-8.028171069961222983e-01 1.979344630121614435e-01 4.404219503449494089e-01
5.793325465658694107e-01 3.215955559490026733e-02 -7.371097025314601314e-01
5.895611570145533609e-01 -5.610008529605806649e-01 -5.606435941817312640e-01
2.683989361668171481e-01 -6.834682766909657703e-01 1.067071161840605215e-01
1.467183706826725165e-01 -1.358221943722598413e-01 1.207480506737635823e-01
2.799410091600252337e-01 -6.393570458752972918e-01 -2.734299480217414202e-01
-7.395383916405937064e-02 -4.703108114566720288e-01 4.270446272100539842e-01
-6.522470408904426087e-01 3.583990340786604167e-01 -6.421110147532060886e-01
2.079288369499861511e-01 2.174372411644477365e-01 -3.070109297914311863e-01
2.431563898497630938e-01 7.874006371719899366e-02 2.934381723902083627e-01
-6.688627674873964812e-02 -3.383749443491807507e-01 2.830393117556870841e-01
1.596865210387357070e-01 -7.018912120528490728e-02 1.659516131320206145e-01
-9.243178520701805789e-02 3.137308363821313395e-01 -8.169551055024520947e-02
-1.984162762667060487e-01 9.149890434320090415e-02 4.872562647582680956e-02
3.507051195759677831e-01 -7.173112226147313475e-01 -2.864047017367453169e-03
-1.711711497956064088e-01 6.233927118002365875e-01 -2.254313347211419905e-01
-3.110841200540147011e-01 7.035787459492056639e-01 -3.452649543170003832e-01
3.057536908220148120e-01 9.803621887374365518e-02 -2.247942437674997629e-01
3.777333495071882319e-01 -6.752632618436352208e-02 8.554984224192456743e-01
3.452652851490256025e-01 -6.089108870592624401e-01 -5.102441568544558992e-01
1.810261133903866004e-01 -8.369497200547870719e-02 9.609455293743356386e-01
5.991088735150451594e-01 8.569784025056162435e-03 8.239138625133653193e-02
1.485509741248832449e-01 -2.056617070383434109e-01 3.596835467265691033e-02
-1.631125197213106615e-01 1.164016780143451585e-01 9.649972764405309045e-01
1.170179936493847966e-01 -1.348799674317291142e-01 -1.794966150698043272e-01
9.799782597871685430e-02 1.171592235966402301e-01 -2.423917216108756878e-01
-4.458845701628009750e-01 5.045315656787464909e-02 8.754498585544053801e-01
