-4.420681541406335513e-01 2.397881462165946664e-01 -8.268920259753481661e-01
5.544034974186395903e-01 -5.594862585241006103e-01 -3.178235735738845769e-01
-3.525383346175403054e-01 3.374432133368815423e-01 6.926926983528817194e-01
-3.339341293718601777e-01 3.831991910044769134e-01 8.261808211282903880e-01
-6.483038193773031921e-01 6.400180417201207783e-01 3.522086102808743568e-01
-3.699238359459059988e-01 4.602631820682851482e-01 5.657626029137656776e-01
3.068296220559073029e-01 -3.865165182456521409e-01 -8.798548755912677377e-01
-3.445428335360675165e-01 6.084005725324812680e-02 -7.659438122482566946e-01
-2.135700933756903563e-01 -1.534717072729683829e-01 -9.567235063720583854e-01
2.886930249332829157e-01 -5.065194539460093903e-01 -7.323817243541478339e-01
5.375052247440048614e-01 -6.263188143338572766e-01 -5.164840852160499374e-01
-7.127996958852480525e-01 3.664045312648975261e-01 -3.352406404730259304e-01
-3.034993373732280952e-01 4.101983740109516607e-01 8.403987171977151949e-01
-4.445331562152252669e-01 1.441670521953114792e-01 -6.998828600523538945e-01
6.395236793046661372e-01 -6.560577227201783712e-01 -3.125010669108040373e-01
-6.578330346887780733e-01 5.751468902248180193e-01 -9.772629901214642534e-02
7.479069938767551884e-01 -4.000948300361600873e-01 2.436314326837136501e-01
-3.001865600552793834e-01 1.281165036262791601e-01 -8.846798071859232060e-01
-5.160440886017598761e-01 3.266656697220360894e-01 -6.186014553201600874e-01
-7.083698345389172202e-02 2.869544771896735957e-01 9.364783553843247788e-01
2.965410169360894188e-01 -3.456026497149147225e-01 -8.779034763962436649e-01
3.402900986746056344e-01 5.230136328564056331e-02 8.683087691633089023e-01
1.279791102616237020e-01 -3.979447153357355549e-01 -8.068318001663611350e-01
6.286205608594834793e-01 -4.729482956048345899e-01 4.810636173461815268e-01
-6.682815886485726775e-01 6.470769692356507230e-01 2.870154958429295133e-01
6.286294101315201832e-01 -3.215828363493168363e-01 6.912704539869221065e-01
7.125926058442569322e-02 -1.619342262396908649e-01 -9.263521261790820249e-01
-7.333539808868925203e-01 3.327675982753559025e-01 -5.664402856446000278e-01
-6.677253998074639263e-02 2.943307794407177824e-01 9.331785427177663461e-01
-6.199487416382212235e-01 6.206229299347888473e-01 1.773166294826843403e-01
6.945517648556590595e-01 -6.177491520638470623e-01 7.943389925064799073e-02
6.246603991744027473e-01 -4.606683693602878216e-01 5.110622090574654663e-01
6.575353967765160679e-01 -4.703015696380035138e-01 5.094971438061678404e-01
-1.102323944430904923e-01 1.745709576411122732e-01 8.611340452217831620e-01
2.596782826643744824e-01 -3.821403431259769445e-01 -7.037520025957302305e-01
-1.925192401117673535e-01 2.411608598267698245e-01 7.836746199471900098e-01
-7.105012844739421185e-01 6.149343798707210818e-01 3.238395865099499837e-01
5.217153090683126493e-01 -1.499203684165633377e-01 6.495609372704578277e-01
2.302473038445010944e-01 -4.004523313351383562e-01 -7.173091496559896862e-01
4.872930905599615059e-01 -2.354549925410443501e-01 8.096876973622088025e-01
-4.863486486778136331e-01 2.821190986140722501e-01 -6.484623517018317518e-01
8.192285548439185439e-01 -5.084093281198356351e-01 8.633520933197154357e-02
-8.021023372711281185e-01 5.847258939386944521e-01 6.792633417276748575e-02
7.037377825014733412e-01 -3.421817118256023083e-01 3.738884294154600219e-01
-6.109566464936484476e-01 4.610288020631875261e-01 4.814518776897901420e-01
4.476490721685010832e-01 -1.508220830789664679e-01 6.599830871405114596e-01
-7.312284392824760504e-01 5.653810743674568817e-01 3.264281194741239234e-01
6.884153543933843045e-01 -4.704274544278296832e-01 5.052683508400650503e-01
-3.072775350102562864e-01 -6.090188623257112872e-04 -7.915951843420607759e-01
-6.301749585968677847e-01 3.711572824768938350e-01 -3.969017514185113615e-01
-3.697510078124027766e-01 4.593574863099984529e-01 7.889390629482834205e-01
-6.147208522722995561e-01 4.500983460926722413e-01 -5.308946841293674668e-01
-2.663618021238243760e-01 -3.424789707542084949e-02 -9.844451442242603267e-01
6.878783901663007017e-01 -2.884050432954624044e-01 6.027862514524642279e-01
1.141213508638759949e-01 3.269103035914257271e-02 8.203161583554356984e-01
-6.772562594726883045e-01 5.077943732608147798e-01 4.202961906622148525e-01
7.014939804873481233e-01 -5.043343664430987028e-01 4.420657334287385054e-01
6.000653643837715601e-01 -5.701869793479912296e-01 -1.937390696426349590e-01
-7.290512976740993745e-01 5.773327399342651489e-01 -2.749219393953102886e-01
-6.133149129423856039e-01 6.312274007067310011e-01 4.179293026776293996e-01
-5.586380077412907985e-01 3.004588089296718056e-01 -5.440658590238998116e-01
-6.365896195170134275e-01 5.250164932399886686e-01 4.029932517926627239e-02
-7.279821302905488123e-01 5.116389409489898732e-01 2.971920037309018214e-01
-6.829697735034307993e-01 4.723478409307775294e-01 2.075839028270126674e-02
-1.927426459220466792e-01 -6.651144639368113121e-02 -9.978733710757962116e-01
-8.254603302238948670e-01 5.370092928659025988e-01 -1.271560234917342158e-01
-5.991089336346462346e-01 4.380908188412322435e-01 -4.883034263487882609e-01
-4.897957239894982218e-01 5.311488424572464728e-01 4.088380564661296956e-01
-9.938104657120823415e-02 -9.403322976735775662e-02 -8.353794006236821001e-01
-8.250502069520589121e-02 -2.518957361043454024e-01 -9.567662683060310647e-01
5.209543584060303267e-01 -1.399169972025804398e-01 6.621673779175936136e-01
4.346615735063229513e-01 -5.444525691901189735e-01 -5.279282712143142930e-01
5.935283859861546496e-01 -6.325666847414146421e-01 -4.908383213052152638e-01
-7.567735922451882535e-01 5.331939093677030561e-01 -3.741428437866146095e-01
2.771615775551252159e-01 1.070334418034551011e-01 8.622573391960045575e-01
-5.032785496758912513e-01 5.891916352764960951e-01 5.837387737241214181e-01
5.884944501380481308e-01 -5.886791961280400942e-01 -2.359585630739661766e-01
6.087262871129355268e-01 -4.647758443683173146e-01 -4.739262612684855824e-01
-6.986388431157640744e-01 5.866360157949894738e-01 -2.138273773904707242e-01
6.426618697730850371e-01 -4.178543447425736024e-01 2.840904624197604367e-01
-4.197391111240350026e-01 2.156587292411518697e-02 -7.956052032323820411e-01
4.459518902261941364e-01 -2.418153138926914802e-01 6.477316037920887171e-01
1.584531944357235600e-01 -2.514749960346833180e-01 -8.038845927925108992e-01
-7.573682707952358317e-01 5.650363343673531213e-01 -2.987823658725977105e-01
7.887222620127104511e-01 -6.165450520230223441e-01 3.535135887083163449e-03
-6.298099361165636623e-01 4.805148830276206873e-01 -4.409670945252380236e-01
-6.600204045816820964e-01 2.889303884491538632e-01 -7.070552373503338206e-01
-6.449542855810902475e-01 5.157237638423556314e-01 -3.215049157978824238e-03
3.906217223999287058e-01 -3.629193803523955708e-01 -7.227072429686441923e-01
6.766654819202437832e-01 -2.647908734837011724e-01 5.802805830812642895e-01
-1.924555679763665927e-01 -4.952407684792288489e-02 -8.187631077974723004e-01
-3.437485083445047662e-01 3.913580517062989483e-01 6.182801153634099878e-01
-6.657473524067937243e-01 4.809969594264856263e-01 3.914992037528364777e-01
-2.848703425233665154e-01 2.892316511029843773e-01 7.728106254967085365e-01
9.430182650215547524e-02 1.885735846097977564e-01 7.980307382949590744e-01
-7.181695459045795982e-01 3.241008611774585102e-01 -4.466188962664204287e-01
-2.867998601611794207e-01 4.374494559194724852e-01 6.412960675988133019e-01
7.521814731472546978e-01 -5.294658413646191608e-01 -2.704945579766098729e-01
6.933584645724144568e-01 -4.672211459554262425e-01 9.217760094553498901e-03
6.434525347641837367e-01 -5.262147888910911897e-01 2.433388228567894829e-01
8.047047240332247942e-01 -4.914792736643601168e-01 3.685556893635046072e-02
2.066173510015707204e-01 -3.966535784148960131e-01 -9.148002325323030259e-01
-7.139721687090055946e-01 3.488346610012087456e-01 -3.782573051147973264e-01
-6.178865866287927000e-01 6.199263175766041023e-01 4.489152266959089976e-01
-3.706745244141045892e-01 3.632341267444685884e-01 7.824213033965385922e-01
3.523327293825034290e-01 -9.743860516558565388e-02 7.187422927330696654e-01
-4.590200571134923080e-01 2.048899722850718585e-01 -8.675699695193532790e-01
-7.063025193707933580e-01 4.425526489544621134e-01 -1.135491493348798064e-01
-6.725965742498584143e-01 6.507370033932182718e-01 2.119372830962118759e-01
6.491663004513480439e-01 -5.927127117725576877e-01 2.234630282993346241e-03
-6.236730263095037197e-01 5.653491627959474908e-01 7.982633712482024857e-02
-7.457718119387955757e-02 2.022199463747546833e-01 9.369143153508204813e-01
6.455377933503693155e-01 -5.213301419361956457e-01 8.872086319236699437e-02
-5.506938476103884206e-01 5.361537449087511176e-01 2.999208031718123557e-01
-7.248087106004809099e-01 4.993992179462787839e-01 2.767670730174269234e-01
-1.580448711016305434e-03 1.474294862730971267e-01 7.978056616884873220e-01
-3.785557430425696146e-01 -2.572022137923814233e-02 -9.064271998580322176e-01
5.929010090972121061e-01 -4.654943825787710154e-01 -4.250757064296756260e-01
-7.026530109871608198e-01 4.717457093053126216e-01 1.396902648163445004e-01
-8.847812887770863111e-02 -2.463840443092922827e-01 -8.657605606130560627e-01
3.325807800160193728e-01 -5.305257040910318356e-01 -6.939795698794078982e-01
-4.461712649823475485e-01 4.755106255673409166e-01 7.345392236137896491e-01
-7.188303332548249269e-01 6.462466331364863370e-01 7.972513972112725555e-02
2.025394379099658068e-02 -1.216521113462162712e-01 -9.162823353751217148e-01
6.093535518707093868e-01 -4.636177039795535970e-01 4.579703285668961232e-01
-7.379594929045665275e-01 4.729557868965074130e-01 9.808324598168294273e-02
1.967768171822014411e-01 -4.453898991875653302e-01 -8.564256159520716727e-01
6.159873321840794169e-01 -4.972659288554644452e-01 -5.573191875728530364e-01
-1.381244572128683956e-01 2.047415768209929487e-01 8.053967475700604117e-01
-2.061095857615529436e-01 -1.187064191906150729e-01 -9.878210048844541236e-01
7.272483007684960032e-01 -5.924292521632659181e-01 2.150702285325932217e-01
5.513849867654253556e-01 -3.917040707452870141e-01 5.739295024932171696e-01
1.008329131980865434e-01 2.453938451566582343e-02 8.489793828203843207e-01
7.771022929202916485e-01 -5.952914942313602964e-01 -2.082803006154987091e-01
7.773000350806691383e-02 2.257737110487860466e-01 8.103226454354204300e-01
-9.101537077742731519e-02 2.572065107990596511e-01 7.572602267319534786e-01
-2.977396110597720358e-01 -5.227421904713513284e-02 -8.174417649350910198e-01
1.052358289149729759e-01 4.597246788750364299e-02 8.154425095051974770e-01
5.858407545283706996e-01 -2.335149637567798531e-01 5.514310168743216112e-01
-6.496692713631456728e-01 5.847444056146563485e-01 -2.342253294060323010e-02
-4.500383525294942566e-01 1.131253090056791311e-01 -9.065127929777518911e-01
7.154792700979438480e-02 -3.234303307257195836e-01 -9.598703588392893948e-01
7.521056592019237375e-01 -6.102377333152306793e-01 1.429374052594274136e-01
6.596608505451090343e-01 -5.513402977161007135e-01 2.459004710019075113e-01
6.752001021358652322e-01 -6.196777131829017682e-01 -4.259953206638243395e-01
8.191953986581901326e-01 -5.610434559367958318e-01 3.886965210773698359e-02
5.086677935582498700e-01 -4.837582748962272472e-01 -4.526888265284905732e-01
-2.165485289707042710e-02 2.167814267028858599e-01 9.556056397037103745e-01
-6.695356926957420907e-01 2.688093771408822108e-01 -5.371684702940082712e-01
6.691474923482200188e-01 -4.373539025682492976e-01 1.906103444085208432e-01
-1.419111202753373380e-01 3.395827465618002639e-01 7.322842909358138197e-01
3.919877514179517797e-01 -2.447886203367589594e-02 7.513311155036032085e-01
-6.472817745804979594e-01 5.135882052752278604e-01 -3.441311762549118525e-01
4.080563688147929580e-01 -4.796909765443539420e-01 -5.604419535809941344e-01
2.249806748978892268e-01 -2.829012198423549451e-01 -7.867697843636620725e-01
7.225689481266152070e-01 -6.070452810094377760e-01 1.605239880992192503e-01
5.155681185468099503e-01 -4.732744395253821179e-01 -4.604405869511214444e-01
7.957833681273499549e-01 -5.468416416525246904e-01 -1.373572394871893365e-01
-5.421410007373578255e-01 2.778343634902157855e-01 -5.728430558513847304e-01
-6.126415160755990241e-01 5.474361374864741281e-01 1.280059736059122599e-01
6.957780630594001536e-01 -4.312680602707256172e-01 1.581177336620972762e-01
-6.149898370442485884e-01 4.445930653710060132e-01 -3.958175718666125942e-01
2.605352437513736019e-01 -4.018533398969875159e-01 -6.977228947333459219e-01
-6.832975085345102118e-01 4.080194654959926059e-01 -2.580579577008451087e-01
5.425563286511891903e-01 -4.967156143417495451e-01 -3.926188285228774943e-01
7.368694681887604236e-01 -4.587311633114318221e-01 1.128044916531148988e-02
-6.429015933456431187e-01 5.719417784428935114e-01 -1.241095304346656256e-02
-4.004058620631174015e-01 5.529786607653420782e-01 5.823065921288244073e-01
-6.507768175543452438e-01 5.032849653051572059e-01 1.915252525344411736e-03
-2.706458892382458403e-01 4.337671305803139643e-01 8.370761652965383881e-01
-4.500882451366722270e-01 5.694248545625758551e-01 5.049521016322768840e-01
-4.834732060248812524e-01 7.635673206833785975e-02 -8.642943278737467150e-01
4.274488546140370882e-01 -2.582488814402325583e-01 7.517915903378450393e-01
4.602523425891131420e-02 9.049050483062515138e-02 8.174805454444614705e-01
4.661553319502234616e-01 -2.635906450605846607e-01 7.809863266123008296e-01
-2.846757432485175210e-01 4.916473171538200404e-01 6.916194776049976456e-01
2.688448196358738662e-01 -4.555614297913678223e-01 -8.626963946584980114e-01
-5.230434145301753324e-01 5.430608274249471012e-01 3.512737748433633067e-01
-6.721219256082300308e-01 5.873002514385922135e-01 -1.283945106671219583e-01
3.675176829973378911e-01 -4.879477248586898686e-01 -8.133628063585398582e-01
-6.674114035598346373e-01 4.776907660540266054e-01 -5.165112222088724669e-01
6.436341430455019275e-01 -6.536739217776755817e-01 -3.579366942921017869e-01
-4.776248564284332754e-01 7.718187179050388369e-02 -8.734532206854329628e-01
-8.128275097273701677e-01 4.647579699064336989e-01 -1.810231936770517192e-01
9.339110381412690787e-02 -2.350755819186230444e-01 -9.722389388144212496e-01
-3.055505828970623283e-01 5.304437871962981027e-02 -9.619661972886881518e-01
-6.962370508159948512e-01 4.905939155911370753e-01 3.341521775159687069e-01
-3.212878832974506715e-01 5.919880474383226732e-02 -7.752743049458846736e-01
-6.888758755576577242e-01 2.702489024684803232e-01 -6.300295431551191649e-01
-3.928579534903670761e-02 1.308226957308721572e-01 8.403188787978105312e-01
-6.075339899545844080e-01 5.897777106254482593e-01 1.580921113641102493e-01
3.195704174956022214e-01 -5.241747181561781099e-01 -7.092354964253922978e-01
-6.203917871884646607e-01 6.382363310629323161e-01 3.809004481583470048e-01
-3.750795144381816604e-01 1.468617018954717912e-01 -9.090197236344574883e-01
-8.983068001969124472e-02 3.422349656989916444e-01 7.680033929103095014e-01
-1.343584968023833481e-01 3.577495742783365351e-01 8.987740971917788091e-01
6.487271133791003841e-01 -3.949997190354120336e-01 6.207697872490542945e-01
5.424537158382671809e-01 -4.513707426718663318e-01 -6.370103346526035937e-01
6.871405876297889126e-01 -4.741840125575000342e-01 4.997578063557507333e-01
-5.836320290658555399e-01 4.813163590037869422e-01 5.767060170845096367e-01
-2.979807789595387280e-01 -3.125283398215319974e-02 -8.048252691204522691e-01
-5.422321362541322465e-01 6.150001079114345570e-01 4.979433450515567405e-01
-6.278643684316208562e-01 3.447625577418020337e-01 -4.295838745917071599e-01
3.177145751183774736e-01 1.940645809048801781e-02 7.680295955859787194e-01
-5.731497584099680687e-01 1.536304169986481560e-01 -7.842998803400871299e-01
6.344450161919604758e-01 -3.740850290137783807e-01 3.546061574712853770e-01
-6.440459943372409679e-01 4.760178250887239226e-01 4.383520292045816613e-01
5.284727304139993365e-01 -3.540678264778662765e-01 5.579148382727066036e-01
-5.132914757577866638e-01 5.831831124312126802e-01 3.911870105556115584e-01
6.203815293938942377e-01 -3.913587236517958590e-01 6.351722547725239254e-01
5.093814403033034566e-01 -1.934198669306037288e-01 6.100594014126581310e-01
2.294510744514567380e-01 -6.680453415905870940e-02 8.979249420403856430e-01
-2.587920528876184179e-01 2.841193724683743205e-01 7.487250746061087092e-01
-3.868112807220884693e-03 -2.826379226296762415e-01 -9.709527641787565333e-01
-5.424881289193944633e-01 4.324574986359867035e-01 4.980911191365338664e-01
-5.596766758555524746e-01 6.134211719673197116e-01 5.038816852221940090e-01
-6.569839128679427764e-01 5.012677764833559646e-01 -4.442507075757903268e-01
-1.818130117861420647e-01 -1.178440264760323569e-01 -8.281445004149896594e-01
-3.464134556809787130e-02 -9.027383411293968263e-02 -8.794802955502621922e-01
-1.992531204087197305e-02 2.200039438104486045e-01 9.556099858554004678e-01
5.293925600916199459e-01 -4.452376579484082497e-01 -6.526244679274583183e-01
-2.628296068010531061e-01 -8.064802459211520280e-02 -8.271021530565345614e-01
-7.874916510122237367e-01 6.113556024325643712e-01 -5.087858402406003622e-02
-2.120116871508267165e-01 4.299852534028368312e-01 8.377832594713984227e-01
6.167584887671028193e-01 -4.691669280761485150e-01 3.493804991129686455e-01
2.784320701560129563e-01 -7.456282833368370333e-02 7.606164139615182451e-01
-6.432336256666507102e-02 2.586780410846318268e-01 9.449301465133531641e-01
-3.610421977523228243e-01 5.549228263918414700e-02 -9.515651852228087515e-01
-6.394653931375691158e-01 6.277409445758662665e-01 4.063734068253920251e-01
-6.806269948600954800e-01 3.757054705909794179e-01 -6.482601912593249915e-01
2.813675610177435171e-01 -3.115863552829692407e-01 -8.659480559957967172e-01
7.498172728158554179e-01 -6.339760660291853256e-01 2.916150432512863711e-02
4.982833008407155928e-01 -5.232610798678938302e-01 -7.119697687337454006e-01
-2.847901244382741726e-01 1.166782389661950442e-01 -8.423027988695199753e-01
3.009532339077732876e-01 -4.191421892940720428e-01 -6.677958378678222617e-01
-5.326337214392768971e-01 4.371691296397953730e-01 4.754896546169584126e-01
7.638606416833545465e-01 -3.771916443462927093e-01 4.147189098123149620e-01
-2.064621756884656434e-01 2.835826409121003921e-01 7.342908508095640219e-01
-5.974013080257559727e-01 2.043062938543301066e-01 -6.194988699391990039e-01
-4.921015773082789146e-01 4.177871046864993221e-01 6.614993729647291598e-01
6.014579503761817714e-01 -4.475343107791055486e-01 4.043184860540631753e-01
4.961035225093923806e-01 -3.041491917327222572e-01 5.933267363015874984e-01
-3.031605739561232804e-02 -1.760018389886145174e-01 -9.999559828969057929e-01
6.785052009849740218e-01 -5.376810890816031696e-01 -4.654472279645837651e-01
-2.657720585954289616e-01 4.054799981047261803e-01 6.570985799460399290e-01
-1.616888624393000573e-01 2.126444020452481765e-01 8.170604410969249942e-01
-1.116646165069403729e-01 2.110006416454122125e-01 9.190231652096260140e-01
-5.480269824071868356e-01 5.478196165369554338e-01 6.130204306801249059e-01
4.802546482614516443e-01 -6.054923539303441737e-01 -5.607338489041493457e-01
-2.796089048335199112e-01 -1.791340540867512876e-02 -7.999213880308114755e-01
-6.597751655867984955e-01 5.687747695826926853e-01 -1.335330419486644160e-01
-5.821685415394899366e-01 5.126041841116494302e-01 5.887108972602325130e-01
-4.909855422528880409e-01 5.222549508013070163e-01 6.783763576279789875e-01
-5.328663581782508984e-01 5.089753105021248558e-01 3.506423002155854562e-01
5.287522485061338928e-01 -4.335856612040707714e-01 -5.694099980249816007e-01
6.626449491387940149e-01 -6.103621779711693174e-01 8.822913012601987098e-03
5.417902826357000601e-01 -4.601957886133239417e-01 -4.658457196227028252e-01
-3.779114954566490936e-01 3.675813964298588199e-01 6.376919158816496402e-01
7.005906005910962353e-01 -4.847722729970649902e-01 -2.528410277875595691e-01
3.466218115246320619e-01 -6.750609955847947097e-02 7.267100557467460753e-01
-5.269451723698744816e-01 2.900523888341848822e-01 -7.884533187108722085e-01
-2.946590301454925509e-01 3.099884755623230626e-01 7.188623024384203086e-01
-5.442733062893747586e-01 5.234514409583150840e-01 6.306447352584615418e-01
-4.082278308187258786e-01 4.143132351249067535e-01 7.693560655900462120e-01
7.803182448069955202e-01 -5.173517427834001259e-01 -1.484874550009036842e-01
1.673385496468407785e-01 1.844883750548436951e-01 9.114416845044486237e-01
3.123161786647672411e-01 -4.289624319933170726e-01 -8.690894109425112424e-01
8.062376987777214454e-01 -4.733382383274168381e-01 2.989975448031846339e-01
5.035561109500714672e-01 -6.091478401892999051e-01 -4.821821545085768768e-01
-2.969976217450027711e-01 3.932325716999868215e-01 6.406751328943665058e-01
-6.991292407042238866e-01 6.046274425031104016e-01 -1.403166028224917816e-01
1.324051613433051000e-01 -2.006406306391848859e-01 -8.802418249921768467e-01
5.323554110775867709e-01 -4.347053471457363316e-01 -5.695421360691537149e-01
-5.325960227252839463e-01 6.003013461856536725e-01 3.746562118351077220e-01
-6.483679993332838176e-01 3.796386979952986462e-01 -3.596788322135013871e-01
6.938728856364866360e-01 -4.731803519261598145e-01 -4.416295598710386766e-02
-5.560239143400930173e-01 4.699396560461487349e-01 6.127322215995666399e-01
7.606403354863732202e-01 -5.385060019260478059e-01 -2.573010784497969383e-01
5.334376742452672238e-01 -1.252739972512833810e-01 7.755792179449561008e-01
-4.382113530848019134e-01 4.596215266245531339e-01 7.445519291903041070e-01
3.379902748942384960e-01 -5.091031850952237869e-01 -6.452482397434096129e-01
-4.411654629773945069e-01 5.746003192670814386e-01 5.431201304459477575e-01
7.542179935731193607e-01 -4.482328158891059067e-01 7.315306686358948041e-02
4.005779131656174163e-01 -6.981361423787853064e-03 7.815826370265122058e-01
1.393910519090622302e-01 1.420544114393887947e-01 9.605768267405117022e-01
6.035789576109380494e-01 -5.250033233989006565e-01 -2.238664955086150377e-01
5.095974050198098793e-01 -2.816965313488480893e-01 5.694140733188725045e-01
-5.932707217722655857e-01 5.168843775557649955e-01 2.231924198993824049e-01
8.009817477113735373e-01 -5.985608645630416946e-01 5.398360677867163060e-02
1.571447446747746002e-01 -1.007146309105141392e-02 9.124878550238634256e-01
-6.788902704207548933e-01 3.090385270851701560e-01 -4.570358247120540618e-01
-6.186655918432170109e-01 3.541788774846694743e-01 -7.064555851218734528e-01
-5.110164758635319382e-01 3.175926939688932249e-01 -6.221031430388035410e-01
-4.490473609222700446e-01 5.243651722418696259e-01 4.698812101327661250e-01
-3.904179695569013897e-01 1.193253199687031446e-01 -9.260676166091968975e-01
3.284451599455148751e-02 -2.636510372116323553e-01 -9.856545913304637363e-01
5.139774146985018888e-01 -6.193368625757563750e-01 -5.120034033668866558e-01
4.668379313456639812e-01 -1.410502827581192331e-01 6.596698001678368284e-01
-6.925241434980657917e-01 4.285378525796027516e-01 -1.892274467271857497e-01
6.035343455632996568e-01 -6.215682681856616876e-01 -5.122446415643868711e-01
-1.370660831862925699e-01 -1.502883874558309518e-01 -8.306853886512999274e-01
5.886927077401433728e-01 -4.378003945265534491e-01 4.777206126164362798e-01
6.058103901659114277e-01 -6.465046883527778565e-01 -4.198975479059730009e-01
4.602149953238185986e-01 -5.689526051736828460e-01 -5.029261449652202565e-01
6.672872474139184273e-01 -2.782114261012669787e-01 6.467194797022142172e-01
5.186906203697426720e-01 -5.928022208506812385e-01 -6.256381105214252614e-01
-9.910112171929527647e-02 1.694649350609018779e-01 8.384453318250677523e-01
-6.881168438746555482e-01 5.787719267283012448e-01 -2.217088307600098840e-01
8.183940391945264681e-01 -5.149007064854312921e-01 5.576723041582132279e-02
-6.037435487263458356e-01 4.254666413877771225e-01 -4.307752182443740918e-01
-3.826434546447901597e-01 2.010717799774551229e-01 -8.386226751365486454e-01
3.558170139598584858e-01 9.075674845502089069e-03 9.012419475887371023e-01
-5.543662287359419905e-01 4.520432641115399997e-01 5.974327746547009044e-01
4.445075977845946991e-01 -2.700964291665977068e-01 7.514749230085684406e-01
-7.028961427560205255e-01 3.924319890636734920e-01 -6.136763185025992939e-01
-1.123836314485796989e-01 1.967901150457989912e-01 9.069369124576091012e-01
-7.355874587858640679e-02 -2.585598906086192250e-01 -8.657346997230418451e-01
6.043876434562848177e-01 -6.318318615086153667e-01 -2.613105499578119439e-01
2.528491219398685819e-01 -2.948996554079482135e-01 -8.827603151840778262e-01
5.357564242101350294e-01 -1.210625739178418231e-01 7.579850384459791979e-01
1.704337305776548461e-01 -2.311723252933650108e-01 -9.011354078347231233e-01
-7.261404262069588444e-01 4.725788243243143616e-01 1.184571560730661999e-01
5.555552366889357496e-02 6.422636977139845049e-02 9.143483928488076451e-01
-2.221536331213123383e-01 -5.233924047936470980e-02 -9.937777368320949156e-01
2.891404750765476650e-01 8.847475635820128970e-02 8.963143548836128849e-01
-3.352643569201570473e-01 -6.936622730669951553e-02 -9.025146318410153246e-01
-7.250353249356180640e-01 6.447724858674294124e-01 6.548760447177093269e-02
-7.939928006492593671e-01 4.462018521581903596e-01 -4.097130365851252565e-01
-7.553719711802161507e-01 4.670160400412924351e-01 2.668401427877067217e-02
-4.133823750935824437e-01 3.700683396774585021e-01 7.226913462787076803e-01
1.577474572378590595e-02 2.558453055843823987e-01 7.921992647519329189e-01
4.566428920321011775e-01 -5.052771594947054190e-01 -4.966773438837648880e-01
5.288706311772399804e-01 -5.551993705315682037e-01 -6.654091702997727564e-01
-4.735929615853965435e-01 5.149625445566108350e-01 4.353832149254099337e-01
4.238956915947500459e-01 -2.554353264670393697e-01 7.523652940007991008e-01
-1.622909006916145036e-01 3.940066782579026983e-01 7.375112576700333378e-01
-5.135514895709546446e-01 3.340023551007812452e-01 -6.414372316159566711e-01
-4.324738387747448232e-01 2.838697263244627927e-02 -7.954145974871564828e-01
-6.578873591738231275e-01 4.918420325886509459e-01 2.912907061428713501e-02
6.469303365018361784e-01 -4.806852201803586966e-01 -2.925026793019289695e-01
-1.240177762845892234e-01 1.863060525305987591e-01 8.328779578979904619e-01
6.642408761447085030e-01 -4.832108369717064700e-01 5.468700951716367470e-02
4.189821770021197045e-01 -9.364043932952362259e-02 6.989700522558232043e-01
-7.700151266665956618e-01 4.285070907238187066e-01 -1.739032719391503945e-01
-2.955394590449595960e-01 6.226248165711315702e-02 -7.885888295895391309e-01
-2.913794136413736524e-01 -3.149310544551388313e-02 -9.762266371463895753e-01
-6.465688044173510951e-01 5.612799250066714540e-01 -5.437990475270456509e-02
-1.162639466025149892e-01 1.786836225686327106e-01 8.586005726360205204e-01
7.503061439352701756e-01 -4.357784636816234847e-01 1.207183589391592343e-01
-7.121083733340419775e-01 6.490562418247487475e-01 1.555491112563294198e-01
1.045909263993241300e-01 8.119043536269407446e-02 9.576212008254001429e-01
-5.176622091990649155e-01 1.138358670750268947e-01 -8.452913882324567529e-01
-6.333250071107947576e-01 5.486877126198859145e-01 3.039973511959103911e-02
1.963757497541224750e-01 7.349271294921033704e-02 7.820851517855279544e-01
-5.122334725442198033e-01 6.068001654775653231e-01 5.188151589744198766e-01
-6.521063571141186843e-01 6.391217743774089133e-01 1.507262510805933708e-01
6.138388552521354402e-01 -4.840823517763950812e-01 -3.190647353149361209e-01
6.916767711392304285e-01 -6.583550575180130426e-01 -1.802284797678723183e-01
7.677472966589711234e-01 -5.113868032827367793e-01 -1.770887059182857104e-01
7.911501874156413594e-01 -4.324653917388522895e-01 3.610962870579269568e-01
-4.686881433109220119e-01 5.499905395001031955e-02 -8.638778708555743258e-01
-2.880866770415455580e-01 -1.090555497125166307e-01 -8.937890191734080281e-01
-2.772646774308738515e-01 4.730276810515352537e-01 6.709744230818905919e-01
7.352399073813822294e-01 -6.346608449757957793e-01 3.734950330247039513e-02
-1.979690182477702662e-02 3.277298429669755486e-01 8.632945380030341287e-01
6.003869486858525173e-01 -2.627017921794111421e-01 5.127524228807517348e-01
4.357923495749567722e-01 -1.312900559729751615e-01 8.727580374643783001e-01
6.281554814167263912e-01 -5.191163021808151701e-01 -1.483561437482892598e-01
-8.080887530764842008e-01 4.416431977813761733e-01 -2.948336070255896946e-01
-5.173628181839424744e-01 4.403555441280729843e-01 4.712647308511505595e-01
-6.570802656922084539e-01 4.850849204664945957e-01 -1.289454792729610444e-01
-6.564667641396247921e-01 4.699767103992960604e-01 3.519183409802444373e-01
6.701530490857404709e-02 -3.709283288384178090e-01 -8.797781383203481242e-01
5.079538138958850091e-01 -6.167664102806129645e-01 -5.153615039981114254e-01
5.201433029082176418e-01 -4.895730687921620583e-01 -4.318278401559830781e-01
-7.727735111338716045e-01 4.631665357800510696e-01 -2.981156313700687038e-02
4.862486980746843490e-01 -2.899812562838783303e-01 7.524353775790485477e-01
-8.045755082230688915e-01 5.629325086423742075e-01 -2.105200299069248382e-01
1.483858260103935456e-01 -3.448974732803074539e-01 -7.647001738139911353e-01
-8.073443795655668165e-01 5.018845029624637855e-01 -8.990043263839578302e-03
2.055118474404014350e-01 -3.743868155748746873e-01 -9.261920760639994477e-01
5.745898527910540121e-01 -2.852962858489211939e-01 7.471330306979934166e-01
5.215997770681678469e-01 -4.335523912927827239e-01 -6.409454551445405990e-01
-2.268672425714291785e-01 7.068407355255969249e-02 -8.856308812394249053e-01
-3.174359481261320171e-01 -8.507670943494331783e-02 -9.015518746009132389e-01
-2.172440884874689837e-01 3.916320166523449588e-03 -8.188775692358039038e-01
6.358671907248956146e-01 -5.044334374282380962e-01 2.548500493077002771e-01
-2.615771373734048777e-01 2.918756713773353328e-01 7.357597655431548089e-01
5.521218821973943314e-01 -3.917613544658202773e-01 5.444216171960372108e-01
4.826229245667358336e-01 -2.949626194319755479e-01 7.418788732935234220e-01
-4.389456398941767312e-01 5.766762836680082716e-01 5.871343242073290281e-01
1.496429974383610140e-01 1.953928722324221601e-01 9.161493853628179806e-01
-7.613753055519719704e-01 6.180698809832982921e-01 -9.913632569275909745e-02
-6.527241572927472424e-01 6.411367228720588063e-01 1.608549305053513512e-01
-7.828219735386415801e-01 3.928939492724172755e-01 -3.867364240066627490e-01
-7.395732171288365020e-01 6.252645328451873485e-01 2.288317165143445298e-01
-4.597014411989123195e-01 2.789329507732503100e-01 -7.587221772920863527e-01
3.941512166996785638e-01 -5.494634373712318220e-01 -6.001529489376125071e-01
4.338531596534684343e-01 -6.981646139396663342e-02 7.182833786167647228e-01
-2.515520576070416348e-01 4.591662606876941166e-01 6.915791068450063417e-01
-6.568411817054665702e-01 2.324052047851140890e-01 -6.270903730766730355e-01
-6.188525870067375090e-01 6.326966259254642733e-01 4.084937909108201093e-01
1.625481194132922247e-01 1.929493719849973976e-01 9.001929005693835029e-01
5.857500665093406944e-01 -2.448338624266626906e-01 5.378258871885710501e-01
5.920457807539818429e-01 -5.615930213869714249e-01 -2.206210643784333458e-01
-6.543572731058068248e-01 4.992036071413492593e-01 -5.374586748469008940e-02
-1.248785651836838012e-01 3.981093267818218706e-01 8.082429043968775151e-01
-6.624780752403638395e-01 6.022555067912747084e-01 -3.082641762552816231e-02
-6.347921614886306019e-01 2.103815474146584763e-01 -7.053478422095093014e-01
6.026973704415231059e-02 -3.237202824207415786e-01 -9.575177477311855867e-01
-6.340116099088973778e-01 4.791544775627144537e-01 2.350358650886795742e-01
-6.943072098611462462e-01 4.739369469514485012e-01 2.077363506839529361e-01
7.968425471026497897e-01 -4.476741586137517048e-01 3.423399546067360522e-01
2.594474318178127126e-01 8.154136012778068210e-02 9.330082000778874285e-01
-7.771370919203430816e-01 4.058121907005050044e-01 -4.671702617014849568e-01
-1.721803413245827363e-01 4.143127456956783305e-01 7.463988298275717748e-01
-6.338656127999939827e-01 5.592843560981889395e-01 2.747923346222296004e-02
-5.009007313986874044e-01 5.174589069450726830e-01 6.735001116890639850e-01
1.851834412994657064e-01 9.114323020064091230e-02 7.857330172934327006e-01
4.983602333313452704e-01 -2.427098997996176566e-01 5.905348758631250305e-01
-1.502514642023080604e-01 3.612817635091537527e-01 7.314038477945661310e-01
1.967892526842606460e-01 -5.530270472614915583e-02 8.415307401895222306e-01
-7.866111506444086743e-01 5.725370453386812164e-01 1.593746783745493834e-01
6.352843018012237497e-01 -6.549912637731847287e-01 -3.007126249638131799e-01
5.589399911011257993e-01 -1.788021712290467080e-01 6.210934488128967423e-01
5.812177496471446908e-02 6.793273243726101474e-02 8.322277104073385612e-01
-1.411072683730133360e-04 -2.020148764907384042e-01 -9.965146588486314405e-01
-7.662518732291695445e-01 6.104293846584900596e-01 1.818663245273715590e-01
7.130404234899837546e-01 -4.571090147183300978e-01 5.077151260087621187e-01
-5.756288493703878295e-01 4.084236871618068809e-01 -5.521309858420440086e-01
1.754795193570466982e-01 -3.605353001171533456e-01 -7.506370620373757907e-01
-2.695376327733686184e-01 -9.992999690007584035e-02 -8.467714892062351284e-01
4.012998625452754431e-01 -3.797260035120836874e-01 -6.733422654967167187e-01
1.139138829681948101e-01 2.225062690636115878e-02 9.158591932098618660e-01
2.982275577762996677e-01 -3.080542250260800419e-01 -8.192820908174333061e-01
1.959711940725349377e-01 -3.305019736442353917e-01 -9.388392174588889860e-01
1.834220657180798963e-01 -1.453692503152783245e-03 7.942170788773158518e-01
5.239496620022321416e-01 -3.599860257840958866e-01 5.939011261001730935e-01
-6.058390444540144859e-01 4.171341284421392070e-01 -4.203249578707909939e-01
7.537171266587776586e-01 -3.617904119403397289e-01 4.284230056062575676e-01
4.784929911785315571e-01 -1.199028675748533557e-01 6.762525367742667770e-01
-2.648400636863769073e-02 -2.475366867360422884e-01 -8.268440959913311294e-01
2.823970548112050283e-01 -9.523178105993586329e-02 8.982039814369546793e-01
7.879809938456272533e-01 -6.151194638567052397e-01 -9.764445689089498726e-02
3.312115970650971186e-01 -1.820611521456052401e-02 7.475114449285605867e-01
-1.402014656091913336e-01 2.631386177378370328e-01 7.492390096674664823e-01
-3.926788819553068688e-01 4.052086568478501793e-01 5.836753630818899419e-01
-1.098435444102904279e-01 -9.541656989717273163e-02 -8.318441347697230759e-01
-6.176294732966968598e-02 -6.572678122450018035e-02 -8.886461744247314831e-01
6.403651942914012629e-01 -3.034125978335917573e-01 6.878219732462645952e-01
-4.399516782857197938e-01 5.668974936185415814e-01 6.380616840284818458e-01
-7.061552421740975305e-01 3.616511300183770650e-01 -6.274746581439591964e-01
7.332025663679342387e-01 -4.912156707154429203e-01 -2.046759423292393854e-01
2.638454725887630081e-01 -4.910054189814860859e-01 -7.459447473898265235e-01
-8.083302513312645710e-01 4.895847652509475734e-01 -3.322319133520608148e-01
3.221752076535084330e-01 -4.056787110531380192e-01 -6.609303120612644022e-01
6.813491849733664951e-01 -3.013281909654816904e-01 4.558011241610840925e-01
-2.665365455768646807e-01 3.102217461527387310e-01 8.552789279893293628e-01
-7.474477003325924462e-01 3.671962269067216011e-01 -3.559719736509392440e-01
-1.728924022288978457e-01 -1.987798227375340565e-01 -9.270932321112372865e-01
5.771409985239791401e-02 1.728889672160752455e-01 9.646416862504381129e-01
5.730499639207927709e-01 -5.567692602249979528e-01 -2.744824711807717921e-01
-1.034505065095210202e-01 1.794240521699718149e-01 8.191693815971590187e-01
-1.914978601296592198e-01 4.078865264883752562e-01 7.179261947495985119e-01
8.071684666040550571e-01 -4.901700544414367422e-01 5.532947934358175418e-02
4.480928846393168463e-01 -1.853395800458318698e-01 8.486835525759648391e-01
-2.985727429212321482e-01 -6.023237328464150359e-02 -8.237823077579433662e-01
5.252756615014001484e-01 -6.227913605681967280e-01 -4.799531729161519711e-01
6.969489583806776078e-01 -3.066174553592939667e-01 5.963282055900660517e-01
-2.652643482409572928e-01 4.310473430333207345e-02 -9.639969519773261553e-01
9.396827663260810815e-02 2.743191313498596212e-02 8.947701728096484342e-01
-4.711299512858899141e-01 1.732214133769409414e-01 -6.740294526883908732e-01
1.377078389623152543e-01 2.969367028887101578e-03 9.119361340960300266e-01
6.010960137983801799e-01 -4.530024122688571797e-01 4.271241686683336924e-01
-5.972032778281647497e-02 1.392909718832368027e-01 8.745625022117002878e-01
-3.760469102409058628e-01 3.940728490878659951e-01 6.024139892930017171e-01
-1.913433154681380977e-01 2.300495153710931384e-01 8.163587474635389807e-01
5.991499446291671527e-01 -4.464243401492575258e-01 4.165026522607581660e-01
6.335868359468296296e-01 -4.736716893686371277e-01 -3.751036640599534899e-01
6.367066937128479376e-01 -4.109363359589679465e-01 6.065195099846114601e-01
7.181909012665020908e-01 -4.237040318770389224e-01 1.610893456988446715e-01
-3.996916633193992596e-01 5.569069681907301561e-01 6.040646580464487103e-01
-6.487670355559561619e-01 3.783087486608726069e-01 -6.688584187669257552e-01
6.729046609501243559e-01 -4.823844037578383648e-01 -1.396568671830237737e-02
-3.679430434576037162e-02 1.973418198719892325e-01 9.508891711433244964e-01
-7.034179591953926280e-01 4.728768782725475406e-01 1.617943685730495185e-01
4.766236816954906308e-01 -1.229685092983820449e-01 6.732287779161151287e-01
-6.366118050711058185e-01 6.369263176016852768e-01 3.772190008925949134e-01
-1.027566812479760311e-01 -3.458471199553340286e-02 -9.407907632419989508e-01
-6.787662754428820389e-01 5.666792322253209058e-01 -2.437479540223475294e-01
-3.922701692959308928e-01 2.218425586460594234e-02 -9.312872214613139299e-01
-9.934247575126589624e-02 2.700689271048144491e-01 7.526375997432699361e-01
8.107110469950690179e-01 -5.090200273651604990e-01 2.575998489141439474e-01
-5.133828960152126974e-01 1.020681305210215939e-01 -7.395909260519025752e-01
2.330734914927690971e-01 -3.146825185455642271e-01 -9.158058920078149256e-01
-7.746623419553032575e-01 3.927197712786362205e-01 -3.256474222401018470e-01
5.678667647249423522e-01 -6.278864939588574279e-01 -5.178777648722644456e-01
3.924271972582950019e-01 9.287115217610540999e-03 8.440012409135807525e-01
3.751441089380758154e-01 -3.596815822960859887e-01 -7.122636860162688821e-01
3.695880161289533117e-01 -3.763663776262641258e-01 -6.747019200951457352e-01
-5.816319555857605295e-01 1.917335189721740552e-01 -7.980800414446387325e-01
3.771416475329776308e-01 -2.051065506771598546e-01 8.085494611985256652e-01
5.965726939267409490e-01 -3.337572641448574018e-01 4.421052302087009611e-01
-3.441981090301960977e-01 3.575122126290452562e-01 8.085373517745944039e-01
2.139534045922009131e-01 1.327765141414411487e-01 9.288712335121308561e-01
6.227661125045218515e-01 -6.135836258119118369e-01 -1.565828624434250638e-01
2.460557342970115524e-01 -4.776866181696196589e-01 -7.500284476074720041e-01
2.020238775849581003e-01 -5.067929500522434100e-02 8.188104884014331120e-01
5.237389572668751381e-01 -5.707747622521538444e-01 -3.837537343232419462e-01
-2.177861844176828265e-01 4.011082287402527313e-02 -8.384020766334606689e-01
-5.630815757503009333e-01 6.276100366808505804e-01 4.128618439134167373e-01
5.845933148641768717e-01 -5.413876473388993249e-01 -6.156689681240495871e-01
6.721948199233219734e-01 -2.597082607033787682e-01 5.833369361603273351e-01
6.280586638593510518e-01 -4.736208054882042884e-01 -4.671399308901501568e-01
-8.209212343338588846e-01 5.595743371324612969e-01 -6.945883734570872103e-02
-3.770224547889706318e-02 3.219788944014496668e-01 7.991739815884952858e-01
-2.760523899203624065e-01 4.563877261647801831e-01 8.149176067601445750e-01
4.938430817437093334e-01 -5.473324466427638146e-01 -4.343227823025671008e-01
-7.852890520653937889e-01 5.098230393459670662e-01 1.071284989944403798e-01
-8.226950785828758272e-01 5.186918160649710563e-01 -2.183501236690287839e-01
6.787432886775062180e-01 -4.612209069967500019e-01 9.119306967309612211e-02
2.827449233132647288e-01 1.835237552886425857e-02 9.409010073795662787e-01
-7.166283321830324571e-02 -1.835147554570314421e-01 -8.261336688191851518e-01
-3.600395842442636885e-01 2.498053243705890616e-02 -7.767731929601529028e-01
-4.107162412697748510e-01 5.628001400064968074e-01 5.966024111084474724e-01
4.163201467251729376e-02 1.540806811528281361e-01 9.631171426315057182e-01
-1.294801348852918643e-01 3.657638948219257835e-01 7.492263134596512941e-01
-6.494403360320443186e-01 5.248096703068202418e-01 -2.582613722532494660e-01
-5.628885298184630459e-01 2.354031806440127772e-01 -5.861509077174350546e-01
5.578173658784276734e-01 -5.052313273460224963e-01 -3.566226127378713806e-01
-7.820863183475917912e-01 4.132077234847620351e-01 -4.513556518466164680e-01
-7.916894807220872243e-01 5.527706794094702225e-01 1.411079504989522226e-01
2.848288750932770896e-01 -3.045054923279214010e-01 -8.470019803839008432e-01
-6.431065913113349630e-01 4.888699930353812007e-01 -4.576983571286109553e-01
3.013948426771592692e-01 -1.200673462175004813e-01 7.627451758489371958e-01
2.612307718052769290e-01 -3.211726460188604748e-01 -7.458037630771088278e-01
6.860106798902994019e-01 -6.352362124119012021e-01 -3.755748033592870017e-01
6.145044625105308134e-01 -6.039366985310536950e-01 -1.681938745422609793e-01
2.904191510052274716e-01 9.394430010159801614e-02 8.432225593304850664e-01
4.592049827866244716e-01 -4.926092197493376901e-01 -7.566782597975824087e-01
-7.473810534778607684e-01 4.880175733206464361e-01 1.612866727382215315e-01
-2.438779996195216127e-01 1.177845975445700015e-02 -9.773741492555654276e-01
1.800179497757228020e-01 -3.711783414497203670e-02 8.328151514993453741e-01
-4.166227320439173654e-01 1.116644107488310757e-02 -8.099525039832123907e-01
-1.185538994395960929e-02 3.226969262235181990e-01 8.609552156722548588e-01
4.834303572199023513e-01 -2.817878778400403905e-01 7.630618598268330555e-01
2.369593213332284731e-01 1.214522567384904300e-01 8.226300658976217761e-01
-6.893182124636456631e-01 5.852309011352707646e-01 4.022530589106376731e-01
-4.261152622720036365e-01 4.022853780608629526e-01 5.755016360266167474e-01
6.617620129494284908e-01 -2.671838148289845671e-01 5.190801293771760694e-01
-7.459908218059183582e-01 4.286256952067437065e-01 -1.491579423107157465e-01
-1.877903227297362532e-01 -1.163554068435633110e-01 -9.953140952521816187e-01
-3.902193951765388080e-01 4.955519674264746710e-01 5.428201500422895620e-01
-3.363060633143560851e-02 -2.692076127914481698e-01 -8.417179637091894984e-01
4.943120599333343246e-01 -5.102388604991970888e-01 -4.454309933238421171e-01
-5.370867113234593926e-02 1.732171288105087414e-01 9.341282864220279425e-01
-6.717286638386948949e-01 4.788646056517854577e-01 8.294338407101681243e-02
-7.730470661941268862e-01 4.922803345735839997e-01 9.687593542395411816e-02
-1.751061024818330036e-01 4.302373789976344232e-01 7.937069198449163698e-01
2.548720342553762938e-02 2.935379427493750581e-01 8.425726781422788747e-01
2.479632918885059656e-01 -4.349096824024341612e-01 -7.082559543775541755e-01
2.809324802757102169e-01 7.895057922920215021e-02 8.047085990594637916e-01
-1.259401088306305871e-01 1.904128629661531735e-01 8.230061087265031494e-01
-7.736758153537311167e-02 2.608050621731732854e-01 9.425941245897744292e-01
-2.004235972590593662e-01 3.642440465181514542e-01 8.909984200691025702e-01
1.405228871452652260e-02 -1.691729112122341006e-01 -8.321308299879933701e-01
-3.985477780382888913e-01 2.190078720209082952e-01 -7.689076700686716670e-01
-2.793989688382332859e-01 4.365373438985743482e-01 6.477565635278035305e-01
3.026234265401801515e-01 -4.726151408634334250e-01 -8.430259972041019845e-01
-8.682960083134996787e-02 2.551989654386715434e-01 9.410722914997095012e-01
-7.602687226078727045e-01 5.006919486468426328e-01 1.689556345565502438e-01
-7.823432856265261082e-01 6.015946412181469860e-01 1.368071498166357203e-01
-1.691284041405110572e-01 -1.936549533645545718e-01 -8.802923528105135453e-01
7.408735458549263464e-02 4.094692347196897397e-02 8.664620380841961955e-01
-7.275279039706199491e-01 3.372237815291017626e-01 -4.206396653325816803e-01
-6.247121777514227370e-01 4.678353206303675904e-01 3.136602416866361431e-01
-1.493285484809207531e-01 -2.110181973983810133e-01 -9.455433536630492020e-01
5.065630312205476882e-01 -5.504440115001398848e-01 -4.125491285494375937e-01
3.201249657552575623e-01 -3.253186526695343583e-01 -8.235973886742268268e-01
7.405482697964640426e-01 -4.381093705334727084e-01 1.061929963256394022e-01
6.412623252570165411e-01 -2.541665944673742739e-01 6.846570772363386181e-01
5.374696304739682295e-01 -2.491616503409594952e-01 7.853748549479633301e-01
7.711854702328891920e-01 -6.200598838041552208e-01 6.768261177383461114e-02
7.425607938876618297e-01 -3.462456433718806847e-01 4.537892153848082089e-01
5.914897569005351796e-01 -6.370805617342872873e-01 -4.748448050519796237e-01
-4.811501643907303283e-01 2.088807476727562451e-01 -8.615850924275287870e-01
2.702939174358614527e-01 -3.704328840843620352e-01 -9.016056483534324872e-01
2.354752110369541518e-01 -4.554445345441989201e-01 -8.591068565133891388e-01
1.985135491811367003e-01 5.285216833553259275e-02 9.588509923720275330e-01
6.245123122506888169e-01 -5.614020634937276766e-01 -9.642314690739553495e-02
4.510285859543857745e-01 -9.277204577275746655e-02 8.631768781938818913e-01
-5.533123512351137974e-01 2.281064683577144203e-01 -8.218291821119678708e-01
-5.749685478035029135e-02 1.379360761439926142e-01 8.770785295178427088e-01
6.197602733225250626e-02 1.318832840255363126e-01 9.631207482952774956e-01
-4.270609873513873112e-01 1.492783084332087971e-02 -8.159098228791311636e-01
1.772107936468754197e-01 -3.202441824403373105e-01 -7.581271296101691481e-01
4.259413306295027901e-01 -5.069078904221706594e-01 -5.336740112990402407e-01
-5.402379017195092503e-01 1.568597698326799628e-01 -6.714973869724902844e-01
6.558291820379289483e-01 -3.660634212888069783e-01 3.421425036712071877e-01
4.853758541610873056e-01 -4.480652969600223412e-01 -5.255613972614981977e-01
5.986303182937883216e-01 -5.214917404397181322e-01 -2.444121677460140418e-01
-4.206527210667732608e-01 1.446341415715057532e-01 -7.121535218677780277e-01
7.362759901993057854e-01 -5.547880393093852502e-01 -3.411364847395861877e-01
7.695591458643955551e-01 -4.025198132552847419e-01 4.385566700920959238e-01
6.037992049002099959e-01 -3.159704921836378744e-01 4.516298798198862818e-01
-6.284857450198760853e-01 4.704974398451537421e-01 2.934253472368973381e-01
1.143615651041126197e-01 -3.316986641800436786e-01 -7.810099668266254902e-01
6.293438620779424619e-01 -4.305018969277001339e-01 3.013858998253099442e-01
-9.405204472562513074e-02 1.643407232798976825e-01 8.735693907442636519e-01
6.030087246532265244e-01 -4.267767097198713611e-01 5.730692531639862697e-01
-3.280829822504962023e-01 5.197061647064896706e-01 6.756864744611449369e-01
-2.444352262119618008e-02 1.361056082891007879e-01 9.260555546887406786e-01
-4.254015934806149035e-01 4.958612318645957417e-01 5.010318319434762246e-01
2.144409732929747001e-02 -1.468387080662161837e-01 -8.529380852834111959e-01
8.968543704973550024e-02 2.507997927211181866e-01 8.744986603462789887e-01
-5.685108548820646535e-01 2.065530035156316613e-01 -8.142778879144429993e-01
-6.480216898521811153e-01 2.839611313779559776e-01 -5.007245090502371321e-01
7.987758400060828157e-01 -6.029232115206566434e-01 -6.548339588304967485e-02
5.079859048227645113e-01 -2.256703604473135338e-01 8.098553799858430047e-01
-1.418945617326765329e-01 3.560664326354501252e-01 7.355996461274747489e-01
-7.463674020962519640e-01 4.332192795726555468e-01 -5.261538107855026070e-01
6.145956936391931968e-01 -5.225266199355876884e-01 -1.935726145156334288e-01
-8.225945826078853162e-01 5.112706646706026703e-01 -2.289789917085537641e-01
5.252924375611330854e-01 -1.984460688987245702e-01 8.102068774309506560e-01
6.583766645691514485e-01 -3.974472865785728670e-01 2.881489327499636155e-01
2.824248247362971531e-01 -1.277229527897131012e-01 8.400880099523820865e-01
-5.174342512830157892e-01 2.656878892305963857e-01 -8.128431318084462509e-01
