3.478364667720666992e-01 5.532123541686546631e-01 -7.011171679343477514e-01
-9.061709719681891873e-01 6.653555507724724649e-02 4.176137974376357698e-01
5.469955273109509131e-01 -5.676948630589730982e-01 4.667647343796793580e-01
-5.407796244464782021e-01 5.035202574479004101e-01 -5.096789383660093042e-01
1.354810266263612173e-01 2.392756857190556641e-01 -6.042272551015804849e-01
-3.117169021168209042e-01 -7.793559648013403951e-01 5.425657886118274709e-01
-6.747937361022446900e-01 6.797100615998762363e-01 -3.309235216496163590e-01
-6.764458820848877618e-01 -5.751567275177076333e-01 2.187100007535268120e-01
9.763835629935740945e-02 -5.447532322697899998e-01 -7.544223841809293007e-02
-6.792164714486068622e-01 -5.945355704907518968e-01 4.130449959140699567e-01
2.504984069506433486e-01 -5.808986332880247162e-03 -3.379554781011746556e-01
-9.833930568608573175e-01 1.570490919926937345e-01 7.902738125718549583e-03
-3.752134189049081692e-01 -3.832509692374047594e-01 2.720437887219994983e-03
2.200848440477340753e-02 8.430455959977621871e-01 -5.588963363078146562e-01
5.600008007673769050e-01 -7.698403896767750387e-01 2.422465522551312811e-01
-6.552604804216172196e-01 6.518914609938463167e-01 1.388742024535891684e-01
-3.023540699660272058e-01 1.249429195790709990e-01 -3.711545696045619874e-02
2.393087751205514868e-01 9.300870476507178131e-02 -1.323352139969641850e-01
-9.946347192346487454e-01 7.790034373289224379e-02 8.069645644089462611e-02
-8.080169396194111231e-01 4.179785551323364490e-02 5.122206446660368950e-01
-3.309683728421164428e-02 -3.936608200188115858e-01 1.621220737935743020e-02
3.230980469299494784e-01 5.563346419684445099e-01 -3.559795406376747157e-02
2.836858200509920214e-01 8.367613162365343804e-01 -2.849305048993716616e-01
-3.205200367685464014e-01 4.183918651823448354e-01 2.004667991152063733e-01
6.013318809320535724e-02 -2.950118681904306817e-01 5.850744630574818139e-02
-4.532352130323604733e-01 6.568300379921294674e-01 1.592201396768810340e-01
1.027102803085209459e-01 2.747292252097420229e-01 -1.212782446771180772e-01
-5.868683088489762278e-01 1.948862524369345262e-01 4.868840834772582560e-01
-4.595496642088575667e-01 1.048848692702127883e-01 4.933969354196370838e-01
-3.792870411139916409e-01 -2.181691604568375686e-01 -5.093681582188060858e-03
-3.178945104483632544e-01 1.078522137673511710e-01 2.882757482032147767e-01
-6.192400769628966795e-02 -4.325234723179386398e-01 6.878509417507308044e-01
-3.748902409552316017e-01 7.192000298585051743e-01 9.549244592623504224e-02
-7.058879593143133624e-01 -3.689161259629241685e-01 2.268403601351624485e-02
-1.108595737590837155e-01 -1.723970957419299899e-01 4.719713345329850651e-01
2.218530263895051313e-01 -1.644181023926513108e-01 1.914032534747790726e-01
4.818191794703390041e-02 -2.830542425163135589e-01 5.570167649388081399e-01
1.572267678649552358e-01 5.209467504685114658e-01 -1.646815240874547823e-02
4.114987508959955242e-02 4.606154544734350487e-01 -1.267000897280815171e-02
1.598189028090864217e-01 -6.106024723544876132e-01 6.462119782135526957e-01
-4.163568991617156434e-01 1.549226402895906296e-01 -3.017980464960822728e-01
-4.447152433932806681e-01 3.648560616362083175e-01 -5.095932549815254120e-01
5.314778202214033298e-01 -4.256201750132624362e-01 4.794404707764695073e-01
-9.404719671515043844e-01 -2.097404231443568690e-01 1.904763717058995387e-01
2.849646118084473434e-01 -7.181996408290020062e-01 5.614580364718153582e-01
-5.266960597944116973e-01 -4.798678421940170136e-01 6.667542419665077880e-01
-2.386727311863492962e-01 -4.623849472039578967e-01 7.157547005692259656e-01
-1.774025571640363286e-01 -7.476163689803381196e-01 8.459797419869202750e-02
-7.448517263598785076e-01 -1.511104917003178172e-01 5.911347708986820493e-01
9.075438591246498543e-01 -2.070459203258890879e-01 -2.867515475132744740e-01
-1.344044122403069974e-01 -8.387145344730557728e-01 1.729991908053101768e-01
6.222585046037494294e-01 6.382208034458131118e-01 -3.768837948008945671e-01
6.190968101735296880e-01 3.432148189562342355e-01 1.735785540724490289e-02
6.560784067885351289e-01 -1.878086361689867145e-01 3.258526081933236229e-01
4.059726369062630624e-01 -8.473242358412504949e-01 1.725437785957268932e-01
-7.697096727776951974e-01 6.137096533987776992e-01 9.341336825730818527e-02
7.132201955023560747e-02 2.236575776390325732e-01 -5.428495581037037221e-01
6.783208051103407910e-02 -2.399008665316307021e-01 1.427928354165625136e-01
3.754911489563217963e-01 -3.058957911684596076e-01 -3.230873893286570486e-01
3.273059857733200961e-01 -8.725601514572139950e-01 2.843274743086821044e-01
-3.735393699267713224e-02 -4.141067872143782691e-01 7.340606959509944109e-03
-2.077778875006794090e-01 -1.296231109326953790e-01 1.962928470355592980e-01
-5.129898489122481919e-01 2.904450076602706488e-01 -4.418932762730112263e-01
-4.739842554800839380e-01 -4.985771207265564386e-02 -1.239147361110995160e-01
2.314573535829493878e-01 -2.073194198311839043e-01 -9.871208903159608972e-02
-6.643456701418064270e-02 6.131484959334477791e-01 3.622098365326305303e-02
-4.513261840999597263e-01 -4.428464858512740077e-01 8.565891962153350872e-03
-5.331837079952753689e-01 2.163276220737306577e-01 4.583053672780886267e-01
-5.898454849687333468e-01 3.785160771475546415e-01 3.754585655760386276e-01
-6.468179833955137736e-01 -3.605181411766051891e-01 6.382371660652211842e-01
-2.009433185000894795e-01 -1.048361254364824635e-01 4.401895999053500597e-01
9.233115380968204278e-01 -2.385939452581315734e-01 4.869003758020000461e-02
5.076905778661390256e-01 -6.312269520772642029e-01 4.734926984735845501e-01
-1.867276219353326550e-01 -1.164591827885343989e-01 2.648216603611343589e-01
-3.453435175630983345e-01 1.409275738134153355e-01 -2.188027227147917864e-01
-4.047792400396081902e-01 -7.882719734689965785e-01 4.129349009053400743e-01
4.032721723307799294e-02 -5.189675344592192818e-01 -4.901731613055053394e-02
-3.957712008772769074e-01 -2.802458464944828087e-01 6.909675490660907027e-01
-4.589662904020513912e-01 3.577545182332417251e-02 5.419481331805260371e-01
-8.222508722047185969e-01 5.603404071972623024e-01 1.052732774379697422e-01
5.544784495930660251e-01 -1.759417152797479178e-01 -4.938065602046062819e-01
-7.556721942537152348e-01 -1.275357471313536273e-01 5.822209221195124851e-01
1.855749583942926592e-02 4.021895803150737914e-01 -3.385631554815793365e-02
8.313731316635597501e-01 -5.197204824935302003e-01 1.322677796793248275e-02
-8.191897339445943782e-01 3.820745513679953964e-01 3.169588608486600956e-01
-7.709932926686046128e-01 4.019709488617108639e-01 -3.388374808378146197e-01
2.540811705844310264e-01 8.064171771299101510e-02 -5.095201123661743381e-01
-3.002973686770448736e-01 1.145396657708554616e-01 2.924217789875897464e-02
6.241929898003162336e-01 -3.134365912920594743e-01 -4.151447962612025977e-01
-8.618813962237342752e-01 -2.032438671036472244e-01 1.247660130269223448e-02
-1.280882186888420982e-01 -2.161527541115066120e-01 1.639540930268479635e-01
-8.871218812098551343e-01 -3.071625680903245503e-01 3.764710158009397234e-01
4.227541115604856459e-01 -8.156743840249029986e-01 3.567317379679929013e-01
2.567348974755399027e-01 -1.268253312770384611e-01 1.023459571637357346e-01
-7.691084740698518329e-01 -2.876540679013968593e-01 5.676454052002455342e-01
1.925245543108662916e-01 1.051817751356293601e-01 -4.613424537684659987e-01
2.412081701240094134e-01 7.686408047705818938e-03 -2.137948010259323461e-01
1.430453980063835359e-03 3.969053198279131056e-01 -6.682070382957484567e-01
-7.488154745640684951e-01 -3.009248333656208696e-01 -3.059312502129206066e-03
6.701396841599800425e-01 1.014885991218921063e-01 -6.022807019520428629e-01
5.698400840792419014e-02 -2.047600319078591025e-01 3.606517124926321149e-01
-5.084334319757741749e-01 6.739459986316596041e-01 1.486551549156401031e-01
8.350901474114051926e-01 1.759474239187002742e-01 -4.852180306607780103e-01
6.679537622118159046e-01 -9.435889778334095868e-02 -5.324712631912794647e-01
-8.782748480605966357e-01 2.321129688206372832e-01 3.722675041132186280e-01
2.837305623338085003e-01 1.921580374036393341e-02 -5.055949715211436463e-02
4.173248421764113592e-01 -9.291826638850009257e-02 -4.921411461021440448e-01
6.146048963448763613e-01 -2.343165541540338237e-01 -4.641941701705470935e-01
-2.143268298037595276e-01 2.376490161418159941e-01 -4.899367998483890319e-02
2.938762497854608413e-01 6.964950290917269748e-02 -3.956082015692734960e-02
9.043727499950375559e-02 8.711919634105792509e-01 -5.011084854465179816e-01
-3.312921754749539316e-01 8.663494597194663915e-02 -6.202492931832402634e-02
2.506891880342917434e-01 7.426154550097709972e-01 -1.134565804556641189e-01
2.454805579275957106e-01 2.627216085878451846e-02 -4.023499114784995223e-01
5.582149490522019253e-01 -5.340221850758318789e-01 4.655581451463818299e-01
-3.498794466924361468e-01 4.268896322922908770e-01 -5.737596449155448752e-01
-9.649547332238165298e-01 -1.366105589579366397e-01 2.708810390200866447e-01
-5.665505989520439600e-01 2.367062119348305183e-01 4.571632826302132191e-01
-5.521904132479579230e-01 -2.957911733112943142e-02 6.033436070102828896e-01
6.581733077248376196e-01 5.094137075136295767e-01 -1.276707231208746574e-01
7.569100830889298193e-01 3.335336001639001013e-01 -5.391557728986142717e-01
9.138415393376682072e-01 -3.412853888944277769e-01 -1.088199980209902384e-01
-6.889690098988997535e-01 6.054320912679455047e-01 1.783036296352374095e-01
2.172218553282463382e-01 -3.913759522536755520e-01 -1.465963078952843002e-01
-3.345665107524508630e-01 1.929986917547688030e-01 2.671422413948251195e-01
-2.967509993481028951e-01 1.191619173608351734e-01 7.418467077229838613e-02
-2.556283768968892756e-01 -2.829588397364630192e-01 4.970509377392542949e-02
-1.139217506459446472e-01 7.054338302814515682e-01 2.671889037826515739e-02
5.036223085928607235e-01 3.730483171464902270e-01 1.543520760260174741e-02
2.595592186146200020e-01 -5.277750634993892860e-03 -3.750002373268718769e-01
-3.809031307037820668e-01 6.713401543408262229e-02 -1.351307967530529230e-01
6.242393294131474979e-02 -6.697070209051533274e-01 -3.543627445433814721e-02
4.404041205724236185e-01 2.174501886598999983e-02 -5.810279334558614561e-01
2.433928420314119823e-01 4.399025179916156714e-01 -2.120169809227395730e-02
3.782302850653061488e-01 -1.210533025492008669e-01 2.758156006962126927e-01
-2.486634939145721812e-01 -3.756227147413881279e-02 2.780742610896417277e-01
-9.212605346040484422e-01 4.498413029365236349e-01 4.510754892984051787e-03
-8.109212648018910841e-01 -4.554749850346970774e-01 3.004035234399559662e-01
6.670920848449823914e-01 -6.373629261055416828e-01 -1.000260942883845344e-01
-4.057422966462388980e-01 -7.896564860018784326e-01 3.986199819217823292e-01
3.158056939551262543e-02 -4.495200437669326643e-01 6.705544884391785310e-01
4.553213416031411942e-01 -7.339158273653727527e-01 -6.709752471673142982e-02
-3.408951624322847374e-01 -4.251138365498027816e-01 9.804204389542454240e-03
-3.127821133844839729e-01 8.770146602563545779e-02 2.976170077330295149e-01
-8.951224691281247647e-01 4.903122301166420449e-01 5.218661070338913993e-02
-4.408880459482448361e-02 2.198296909873505844e-01 -2.943929341452720116e-01
2.308306171617998878e-02 3.377599854735165441e-01 -6.399534186039190775e-01
-3.706099769095945740e-01 8.123380999803528901e-01 -4.792066546877717381e-01
-2.774526025407560992e-01 -8.343845742489679890e-03 3.771296244053945479e-01
-1.156159157966397816e-01 2.988734383302408815e-01 -5.467820168397697911e-01
-2.633732335381294143e-01 2.300235847029468983e-01 7.345148535512376065e-02
-2.624777412518481956e-01 2.733215990458619515e-01 1.063051997080996514e-01
-5.788671829063131158e-01 2.039915284032127185e-01 -3.651709663163046349e-01
-6.734212546401916466e-01 -3.552547750560329232e-01 -2.043420742840808832e-04
-2.405625545413886679e-01 2.609688563049356591e-01 5.014584315145768911e-02
-3.123579529400777877e-01 -1.478340155076334483e-01 6.059339767490837803e-01
-3.108956021822990579e-01 -3.172409165253170515e-01 6.952426673758181908e-01
9.217480741243180287e-01 4.901730914363016528e-02 -3.468521885605078126e-01
-1.185386983560508672e-01 -3.775856151190861709e-01 3.627306745627066620e-02
-2.915724296464328180e-01 5.164725117057941683e-03 3.893074564540922600e-01
6.931646815648750959e-01 5.374964163925854965e-01 -4.618209487861890672e-01
9.455297326471556740e-02 -8.872344616676307583e-01 4.208758087546742854e-01
-3.195266878969098886e-03 2.049953673438371093e-01 -3.529098215445005682e-01
-2.693410248618807734e-01 -5.684629823019378136e-01 2.530380013520450513e-02
-2.889892305401332018e-01 1.578215182971700326e-01 9.177866133172193908e-02
-2.156365776279666260e-02 -6.711929202183410936e-01 -7.036508140096731437e-03
2.383791076689792121e-01 -8.392955062171015834e-01 7.123810889147096093e-02
-2.851826039781233946e-01 -3.628430660390065399e-02 4.549186857633010228e-01
-5.152145472400625481e-01 -5.369704791918510356e-01 6.001358381397141339e-02
-4.205303633567715194e-01 6.529962498769045220e-01 -5.581937551739483139e-01
-6.314178144929551983e-01 3.273209328821783948e-01 4.127167217598967097e-01
1.053010527998559931e-01 -6.321349863818525039e-01 -6.401566597747840315e-02
4.713104770308839675e-01 6.653307053582224739e-01 -1.523745289209047504e-01
-9.180579933076306043e-01 -1.997298307017950428e-02 4.206058314603600135e-01
-7.044978061430618999e-01 4.533560375254908070e-01 -3.977690880720006206e-01
3.540567786339555711e-01 5.530197050143057513e-01 -3.854000693125631677e-02
3.521442302207035066e-03 7.806082390223634260e-01 -6.232542206936724227e-01
4.656725222747105652e-01 -6.531560109120189139e-01 4.933001425533101725e-01
-6.586013913223447425e-01 -5.575675623163737216e-01 5.222256644631758649e-01
1.567076774938451211e-01 6.970949303246471995e-01 -5.246952854202194955e-02
-4.630115371889766407e-01 6.982037846936695047e-01 1.246603641568991977e-01
2.035295907447246810e-01 -1.749427395108212324e-01 2.071182562430509133e-01
5.137433961662946080e-01 1.474763353194051899e-02 1.963891545392383864e-01
-3.262491346250431801e-01 1.039306777397725062e-01 -8.340232086230386921e-02
2.762012737053509692e-01 -1.378527397793678777e-01 2.104943893117902087e-01
6.744047956072268812e-01 2.909284810952122990e-01 -6.171632946088267957e-01
3.480466430313162163e-01 -4.452423005464147265e-01 -2.456572180451132015e-01
1.515369658181110468e-01 -4.875410770235790170e-01 -1.042574072846790822e-01
-1.717860099453505651e-01 2.659234602062092723e-01 -6.818223463411858531e-02
-6.593589553103136602e-02 -4.634168222008853144e-01 -3.114442703987220767e-03
9.261878517497286190e-01 1.649836222132416153e-01 -2.374504963984565842e-01
-1.974856145322335388e-01 -9.759797985696974654e-02 2.954787280835373120e-01
1.524394484563402208e-01 5.505477368645964598e-01 -7.185534361624892341e-01
1.349202940441724674e-01 1.320877802345233609e-01 -3.732641541653973216e-01
-2.222938988896742615e-02 3.095130958699441881e-01 -1.013097098299529375e-01
9.156671242765819230e-01 -6.883687917100549114e-02 -3.420584277979888954e-01
8.080222750820252875e-01 1.450119321264596306e-01 -5.175331268581867539e-01
6.980025603275993307e-01 6.731000799164878201e-02 1.608030293190800264e-01
7.184463197977670745e-01 -6.533691951714581947e-01 1.428587322805065785e-01
-6.248565566683335071e-01 3.968732765860767953e-01 3.672899986611417034e-01
8.996337799634706034e-01 -3.894586282926504883e-01 -4.878192532805036841e-02
-6.169525235260637785e-01 5.749395900633379464e-01 -4.528159910316495451e-01
8.704735353875007187e-01 -4.064884147663099800e-01 1.134928182451575562e-01
5.313400501655801689e-01 -2.410617426855827476e-03 2.140771802050122630e-01
-1.289531194469065167e-01 7.953634704944581024e-01 -5.937653407770119296e-01
5.855129149071197636e-01 -5.813756070495695871e-01 4.319864819447834514e-01
7.382421695374544734e-01 1.042516600767943447e-01 1.230732696999281839e-01
-2.297977751821635856e-02 2.280433778909047304e-01 -4.667878999601162149e-01
-1.569178252184198763e-02 -3.949428278278688809e-01 1.050673687807929420e-02
2.107516673347087366e-01 -2.454988265204206543e-01 -8.087842721271210067e-02
-2.917928588534772216e-01 2.616260962036653925e-01 -4.453316724499598034e-01
-6.665370431221008252e-01 6.094048216213528990e-01 1.845531455304662560e-01
-4.536341882033302457e-03 -2.119596225802826139e-01 2.331980972987252598e-01
-1.434413942044433440e-02 8.686448307821643677e-01 -1.480791025001928496e-01
-4.093809751486449100e-01 -1.807370747621017334e-02 -8.781184713061253311e-02
-9.071062895221833067e-01 8.157843646739050547e-02 -1.182908712304021198e-01
5.750784979453883450e-01 -7.095516685554262848e-01 -5.373685524455860257e-02
-4.742564991499731986e-01 -7.499683267400378828e-01 3.100958877938675418e-01
1.746975405926131375e-01 6.508151270554738410e-01 -3.820804712632178135e-02
6.717060198766374723e-01 -3.534789320656486211e-01 -3.814829161364390320e-01
4.528024076368164508e-01 4.195119495784715435e-01 -6.990616972164200860e-01
-4.986530513623599892e-01 -2.331500791783545912e-01 -5.613983591240302717e-02
-1.532574622858895452e-01 -4.133578713131563775e-01 2.286983299753434298e-02
-3.363040282618747767e-01 -1.802799934170940810e-01 2.554317505509708097e-02
-3.679676323620019729e-01 -2.378641935195689172e-01 6.740222589173117118e-01
-4.664331745553146336e-01 1.061517672969857079e-01 -2.623113783285995759e-01
-5.800662635289328684e-01 -3.919924735545502470e-01 6.648513942099263385e-01
-5.228630376348212261e-01 -5.303834167295816693e-01 5.842980836233456488e-02
-2.975709175829600595e-01 -3.963673556810859977e-01 7.119066723835483224e-01
-7.429186834957496322e-01 5.282716411587938810e-01 -3.489837656527767229e-01
-3.250543592103440765e-02 2.399226709097171395e-01 -2.153909149766485009e-01
-3.891485183250987800e-01 6.462087240593646920e-01 -5.760606042346244626e-01
6.801736677710527035e-01 -5.625337134757937285e-01 3.458170330097086187e-01
2.293876046295446197e-02 -4.374023312647485340e-01 -2.323842520069244535e-02
4.880001318377611419e-01 -5.747215026189540499e-01 -2.237590552622151507e-01
-2.593689297399424665e-01 -1.109874872773307236e-01 5.337547681564197566e-01
3.324164093899562578e-01 -3.360269843288644226e-02 9.594947987774149478e-02
-3.125362444536803896e-01 4.292993878378469352e-01 1.918373604056846371e-01
-5.419750271745370496e-01 5.590909172379775471e-01 -5.078209246923306441e-01
7.542572078656829548e-01 -2.772268176815603780e-01 -4.014180415836504090e-01
-3.654640158396708083e-01 1.314677031619645720e-01 -2.241431610493218041e-01
3.086249002520060070e-01 -7.050964448608492210e-03 -4.667225850445921864e-01
2.219627899729695875e-01 2.349064447568511849e-01 -7.954940401657414895e-02
9.307847337972525725e-01 1.486302285386585376e-01 -2.218772230173824134e-01
-8.947838011066247543e-02 2.362215860928834621e-01 -2.243880638339570965e-01
-2.439001024355230418e-01 -8.311672289012449477e-01 2.303207779485655637e-01
-3.484226575508890256e-01 -5.795336415051189904e-01 4.170599079720242741e-02
-1.662246681541478810e-01 -4.054212147383736142e-01 7.004005488047342354e-01
4.371426384954373856e-01 -5.184570935743733067e-01 -2.520130217131824613e-01
-3.117955727392011656e-01 -1.014766190754646941e-01 5.652911945571889030e-01
1.319792401510466451e-01 -2.016972891747360330e-01 2.147932558003900483e-01
-4.762894666842770394e-03 -2.440871304839620226e-01 1.587670824808989078e-01
2.039402700053557227e-01 4.349794426501270572e-01 -7.177127273806386265e-01
-1.180604203869581176e-01 -1.505250841519119032e-01 3.428414963472856680e-01
2.492381086765426690e-01 -1.925756641178133777e-01 3.434404953205093536e-01
-3.925564591294160022e-01 4.215929829577919064e-02 -1.205867092631575654e-01
4.150687853725887888e-01 -5.223848437380224780e-02 2.101879545569078633e-01
6.485373841473424106e-02 5.001023582287446034e-01 -7.104783432958385880e-01
4.765056547714295321e-01 -6.000642160472373643e-01 5.064312282025126288e-01
-4.645100400824302977e-01 1.707750467373090331e-01 -3.365919816963838240e-01
2.461270892342696248e-01 3.601464523294014425e-02 -4.247501382033561645e-01
-9.709717303502658770e-02 -1.861255460533535189e-01 2.397981809661464958e-01
-3.624753689632425613e-01 3.147880659272236231e-02 -6.093062203473506577e-02
-3.458683356692982547e-01 8.956377039488133684e-02 -1.064613329789981661e-01
-9.660216685848732610e-02 2.933473225162333553e-01 -9.472145559396083492e-02
-7.479621064081564130e-01 -5.093519233725449791e-01 4.350449017622504688e-01
3.030431798983746483e-01 -3.928015104347107878e-01 5.634161202597171014e-01
6.424745713367964184e-01 4.125176287695494493e-01 -6.142099505839524465e-01
3.049487162205306578e-01 -4.210140180349161154e-01 5.754003125756911308e-01
-9.844146491936649201e-02 -1.719862654784068134e-01 2.789696667915315120e-01
-7.785546260029089227e-01 6.524770742451422301e-01 -4.101429380773968097e-02
8.471558542400045022e-01 2.179972193950152903e-01 -4.546882027141018606e-02
5.094184649509979623e-01 1.541241270741400826e-01 1.069336926207406363e-01
-6.130860428042586019e-01 -4.337249126215648731e-01 6.388879509640935650e-01
5.796186124857286570e-01 5.665950882508388742e-02 -6.110409195439577834e-01
8.155850803976373298e-01 -4.762170941844109939e-01 1.913132121504104721e-01
-1.564573434755913983e-01 -6.636533513181684940e-01 6.772950041097399732e-01
2.687569398908694063e-01 1.124876890547346492e-01 -7.574567872093490584e-02
-2.397591498006180766e-01 5.940592091728755797e-01 -6.437621082652451587e-01
4.124268963147544320e-01 -5.015200004102893239e-01 5.507915507497083141e-01
2.163627902811902926e-01 1.517271080868357880e-01 -1.305117990409040696e-01
4.974202058645545987e-01 -7.520654850922817714e-01 -2.547000968317739492e-02
-1.573639581985289138e-01 -8.419736284441508012e-01 1.918109224386605471e-01
-3.267578370246073116e-01 -6.130180859509870572e-02 5.363006088570436702e-01
-3.712314589993129244e-01 5.970567893389997494e-01 1.744568883317377528e-01
5.228540462092432506e-01 -7.625016071323098554e-01 3.343052003630169189e-01
-3.714384133835569313e-01 -7.947669035162108209e-01 4.542887055565464349e-01
-8.749660646734036540e-01 4.992918955267443559e-01 -1.422227058452047166e-01
-3.611337959576864098e-01 1.744187030751859491e-01 3.321010876324869132e-01
-3.772767084131160020e-01 3.173132519112668026e-01 2.829697765500642226e-01
-5.184083868149632623e-01 -1.082081598956568386e-01 6.360709280690811651e-01
2.397290642284478357e-01 -5.725671541573551515e-01 -1.411474739827271452e-01
-3.481132184149065001e-01 7.431474415190120197e-01 7.011887558909363216e-02
5.014659877529460408e-01 -7.726615615247942603e-01 1.800943043913038472e-02
6.689946237940977980e-01 4.495689181486791086e-01 -7.816498168119816181e-02
-4.972589222272658649e-01 1.541608853652494671e-01 -3.240404157839834598e-01
3.916335275548754047e-01 2.448132661159698464e-01 2.554476652687473134e-02
-4.026357830142531236e-01 -6.568333761139382165e-01 1.001001186995605086e-01
4.417293938886137084e-01 -2.149891704255723068e-01 -4.261072178811269873e-01
1.361247505867120566e-01 1.332947528850387253e-01 -3.252927783214116242e-01
5.185621612106925404e-01 5.956820828443429999e-02 1.657107746612829224e-01
2.557849434370095820e-01 -1.084382002360794461e-01 -4.339506368651984552e-02
1.478027982382685568e-01 4.473221351432493109e-01 -2.536034767569437381e-02
9.710454824638638238e-02 5.968394333265097940e-01 -7.100444819237169414e-01
-3.236710422021598088e-01 -1.486147577321997038e-01 6.117159524295486817e-01
3.399682885500277529e-01 -5.484069398510509341e-01 5.854293098478092761e-01
2.152790159292555794e-02 -4.298612951889251299e-01 -1.974139874282613769e-02
-3.864111688637861253e-01 8.176424842591594189e-01 -1.451420063539639316e-02
5.651650977449542701e-01 5.918040961831864122e-01 -1.393541275006842661e-01
-2.270688898440652304e-01 -3.768052177734684816e-01 2.860345029758181584e-02
1.462035034332598571e-01 -5.681994635486328216e-01 -9.634482221150972303e-02
-4.216510108972360560e-01 5.524425424606387303e-01 2.179327296967969729e-01
1.020040373391496585e-01 -2.066450116434938311e-01 2.326138045471371762e-01
-6.113075928943180193e-01 6.765926001649050781e-01 1.273109149090460857e-01
-9.086027744139940632e-01 4.354367394341015496e-01 -1.139185792881940024e-01
-1.803340172157637256e-01 5.634861444870473690e-01 9.078147447629827949e-02
-3.003747241224878906e-01 -1.057112074984493388e-01 7.714473941912214361e-02
3.788883407900375255e-01 6.958197056438929218e-02 7.123725671675185112e-02
3.198014376608706022e-01 5.335033557485118205e-01 -2.908957706546107941e-02
-3.967895698040991848e-01 7.566911907073037291e-02 -1.684733938849406476e-01
-5.659120024235561042e-01 7.813042694847767144e-01 -3.366768071888373570e-01
5.360275705878895236e-01 -4.352222152834986368e-01 -3.295063319174207916e-01
-4.524406104877890522e-01 5.029425242295998411e-01 2.570630938121805098e-01
2.180913660985487335e-01 -1.659032859821174544e-01 1.849493922279313862e-01
-7.354498620972983458e-01 -1.429584148928037257e-01 -1.096560997417782707e-01
-6.987521733299536519e-01 6.387380779969894506e-01 -3.386825262272237791e-01
-2.702634364809158862e-01 -6.070780482370832232e-01 3.627707524114179294e-02
1.297953588544820472e-02 5.982531231161281049e-01 1.156668334407151902e-02
7.116021971341860430e-01 8.717144233629579853e-02 1.442682584568145132e-01
-4.638703927385474657e-01 6.969510089174526524e-01 -5.143576192447552042e-01
-9.074028794243424456e-02 -1.674437009054641767e-01 3.167469017321544733e-01
5.010314817961982609e-02 2.720332391623348500e-01 -5.930601906963587355e-01
3.214458901009765168e-01 -8.664846473265361837e-01 3.317745334274420643e-01
-5.291571665980605577e-01 -5.478865504624836902e-01 6.373943814034155331e-01
1.789584405260536137e-01 8.718356936268973900e-01 -4.484421707990277062e-01
-2.211097269412847788e-01 4.208518324342187533e-01 1.093187213299258859e-01
-1.424258937085856602e-01 -3.949364282833532913e-01 2.914117050554140831e-02
8.353534511115434658e-01 -3.715678497566219929e-01 -2.592234749348105716e-01
5.201637373764917971e-01 -4.305492633803241764e-01 4.864707117289333582e-01
4.824913840976067236e-01 -3.767528358973843416e-01 4.891960304265256521e-01
-7.549237069368891495e-02 -6.777644768710132661e-01 1.199003808102990995e-02
-2.646275838308044248e-01 -3.523375904134714576e-01 2.723447546229637931e-02
-1.470831134443784660e-01 9.024076254731555613e-01 -4.363893614622130768e-01
-5.340010563237385099e-01 2.149715345513895093e-01 -3.804105265557525817e-01
8.546037791174694309e-01 6.239519716392750472e-03 9.353703803466677236e-02
-2.672485770267621907e-01 5.485576899875714840e-01 -6.341673204233901906e-01
-4.253179494677049588e-01 8.611821961125926128e-01 -3.406696526744210640e-01
-6.468841698717715527e-01 -6.259046757952725359e-01 2.917111583778420059e-01
4.107338314770844212e-01 7.590255936316382401e-01 -5.024752919394636086e-01
6.882295125373738554e-01 -5.919626523490632009e-01 3.159412521712138266e-01
-9.552327301811153193e-02 2.501872953886797868e-01 -4.716352493160241299e-01
1.104272180875034703e-01 -2.617221099849548205e-01 5.022388354210437500e-01
-8.785914617120558212e-01 4.247322938836489703e-01 2.111810804964109889e-01
-3.040598674527993928e-01 2.637216771529423687e-01 1.866985443049035687e-01
8.231966686122499377e-01 -5.159854255260560851e-01 1.160518277534854925e-01
-7.528284853446367553e-01 -2.361227921390082751e-02 -1.762288520711972617e-01
-2.005413547573751953e-01 -1.610833036782532701e-01 1.668485819664283498e-01
-6.791564308263996486e-01 -2.822294729107978628e-01 -4.214180550729145630e-02
-6.517738260369817516e-01 7.418476854701585577e-01 -2.689383886833518478e-01
1.139894815052838045e-01 -2.702475570500348367e-01 5.139290323095191404e-01
-8.118926722478901903e-01 4.624016543775414517e-02 -1.869772224918746228e-01
-3.629766953574224686e-02 -3.552099822842484933e-01 4.044600161998909704e-02
-2.698297506900961817e-01 2.221531676555691948e-01 -3.679089485488110656e-01
-1.907306435763589103e-01 7.191975351728334687e-01 4.550985436086864289e-02
-4.066379000416072698e-01 7.344872150015710477e-02 -1.768121022718827096e-01
-4.877469893020793812e-01 -1.001939009233382416e-01 6.299372534564330328e-01
3.372826371201206874e-01 -3.008050242846750377e-01 4.917149040536559212e-01
-7.192597086828826647e-02 6.353171835255083666e-01 3.457131976792813394e-02
3.678058655430077040e-01 2.830883395006966174e-01 9.610411042600276732e-03
-8.545305367687451303e-01 -2.236875058956871998e-01 2.124413187967665734e-02
-4.758970564558737681e-01 -6.275360969769564479e-01 1.088360524272115604e-01
-1.258748114394172592e-02 2.159359440453977319e-01 -2.847567454065367265e-01
7.775597238813418688e-01 1.197450730271309577e-01 9.185404618160156187e-02
3.214658000451923181e-01 1.322047594941592463e-01 -6.078328063545099802e-01
-3.230344736527299143e-01 8.129045599479874928e-01 -5.066464147114659866e-01
-4.003809052134375546e-01 3.384668453942708821e-02 -1.218789202390373194e-01
-2.665216647478638734e-01 -4.436985605674046568e-02 4.345893132205717602e-01
6.329110165228840623e-01 -7.239064442210995098e-01 1.984236382377514984e-01
2.266011772824904069e-01 -3.805486411702199701e-01 -1.547142471608781711e-01
-2.902195247032393066e-01 3.734791840635582477e-02 1.810884749499704349e-01
-3.955795844096848812e-01 1.880916662801818684e-01 -3.426107212478387010e-01
-1.895346556113228498e-01 2.579222104480692890e-01 -4.528131196382958468e-01
4.024466583098391670e-01 6.382476489769279837e-01 -9.357124542168321346e-02
3.261667394790155883e-01 5.477562461336713540e-01 -7.068971658564807692e-01
1.510193596576787090e-01 7.555888967102132314e-01 -6.360768139432283474e-01
1.898799801073712268e-01 -2.741294466461975943e-01 -6.615576302778611306e-02
-1.941598285884149899e-01 7.805357643784959221e-01 3.677161437041431662e-03
-8.268627187905865927e-01 4.770115794507245877e-01 -2.594525111064472922e-01
1.879138054591196205e-01 9.097084628938659212e-02 -2.702650840514807529e-01
-4.913841408691259627e-01 8.504569498758656199e-01 -1.749980240684691490e-01
-2.195191718015062077e-01 9.160349969387724389e-01 -2.344044478936757325e-01
2.717366433299676087e-01 -7.359011287360540943e-02 -2.874720559880610260e-01
3.648807214500948692e-01 3.167611131269091329e-01 -7.015492507006479972e-01
-6.563332934204498814e-01 2.304128317039543794e-01 -3.602449454397425588e-01
-5.018808325630801093e-02 6.459847891022304500e-01 2.471754708580931742e-02
-1.701924952338117192e-01 -6.312764795766623305e-01 2.178453399711269278e-02
-6.812746611137598940e-01 3.709679257839615940e-01 3.823961204351923882e-01
9.952691155923196198e-02 2.071457137937748882e-01 -2.025301720949049811e-01
-5.322941348163111597e-01 5.646936171086449630e-01 2.406241464333508107e-01
-7.272301241847253239e-01 2.884069713736452378e-01 4.271079613589945922e-01
2.966792411854701217e-01 -1.948755282030483760e-01 -2.664562009825784394e-01
-5.982918638634669023e-02 -2.697555231939701703e-01 1.206266069505445154e-01
7.200637378026301105e-01 -6.439275779084541185e-01 1.751594354070842297e-01
-2.030307553820824007e-01 4.275430336424222433e-01 -6.223301844702078256e-01
4.463762710884507379e-01 7.341440303085871033e-01 -2.305250725025623226e-01
-7.719687468097060634e-01 2.447991179412703500e-01 4.377013261672929034e-01
-3.174045472140458735e-01 1.690122809400798065e-01 -2.545479640707786761e-01
9.303905464457037366e-01 -2.962745921589873821e-01 -3.076839288190850660e-02
8.614681012531492099e-01 -4.649277773332137209e-01 4.848081967568754896e-02
-3.157607278805451001e-01 -2.526918085016908733e-01 6.712897052794515318e-01
7.563549841944123830e-01 4.944998717734074289e-01 -3.018561922923401197e-01
-3.360659164001112420e-01 -8.208450346420905763e-01 3.280295936604840645e-01
4.221666989849146567e-01 1.288957974948621854e-01 -6.364317059776712915e-01
-4.763418775189072196e-01 2.993455290127354784e-01 3.781472376987458639e-01
7.212155315921291165e-02 -2.064236135586635101e-01 3.619073008461664021e-01
-9.380856105417877400e-01 -1.165514960059295807e-01 5.408459602167363378e-02
-2.020409125760494386e-03 7.580443177803608545e-01 -3.764554694038090704e-02
-2.826989135971399447e-01 1.639457160608815134e-01 4.855011457453242696e-02
-2.335017831400537369e-01 -1.590114012044175629e-01 5.703409149275621148e-01
-5.120373473402423103e-01 1.731128219061094653e-01 -3.441941091964175192e-01
6.710791573818959410e-01 5.911917960923679383e-01 -3.743583819544721858e-01
-2.447344896238388690e-01 -4.389945120162212777e-02 2.758405942977517622e-01
-4.774060133499925113e-02 -4.387057940817158941e-01 1.525844152787096555e-04
-2.133727578573008377e-01 3.532866229367717104e-01 7.753217470024309499e-02
1.892867054373559010e-01 -2.192054228487599343e-01 3.979679576246957784e-01
-8.735164685826494191e-01 2.419030000798368385e-01 -2.123537493582415558e-01
2.500699193614009525e-02 1.954767244745445054e-01 -3.482944964593707726e-01
-3.019198272638267538e-02 6.126370645644099167e-01 2.366148050475372702e-02
-5.697321172772712439e-01 -2.769660535493335685e-01 -5.336586280198982873e-02
1.751816345101866734e-01 1.046498546689405562e-01 -2.777400235497653469e-01
2.257188746519103451e-01 -8.362519878130719730e-01 4.748296411727588318e-01
-4.947504567180137647e-01 2.574868999460344088e-01 -4.210892532045038550e-01
-3.662670251013252498e-01 -7.297941512710305334e-01 1.510931038124223857e-01
8.840907972501949041e-02 1.823790257323245623e-01 -2.659830129016982903e-01
-7.911196190569595998e-01 -2.037608881177014608e-01 -4.611445256921150454e-02
5.350385432528651508e-01 -7.517660285363724215e-01 -1.828523873059785141e-03
-2.770536621749649098e-01 6.831258102944813039e-03 3.215177200827001314e-01
2.269248952757902671e-01 5.186315699175338967e-01 -2.124635208091604083e-02
2.571789178917247565e-01 -8.898990989406967422e-01 2.646338008918887041e-01
-6.197620751992823918e-01 -2.557538818704502281e-01 6.557129353702029206e-01
2.188737771131597232e-01 -8.022515194931297833e-01 5.218277518104181834e-01
2.396350831613595078e-01 -2.624271347599168580e-01 -1.483070430262196093e-01
-1.453532364870412374e-01 2.484089906499262757e-01 -4.433980539218053685e-01
8.157853452728366928e-02 -5.122605791664487374e-01 -6.715798889509147496e-02
-7.596711616637245035e-01 -4.544491625775622934e-01 4.897298428865383135e-01
-7.934256920860621731e-01 5.408228024170127490e-01 -2.765563692301915566e-01
7.741497289913441548e-01 -5.919086142650321625e-01 1.168322174088996801e-01
3.086451646809682536e-01 2.925171564186047554e-02 -2.127491764867628452e-03
4.875395978955974208e-01 -6.533714724375583316e-01 -1.550489038712377921e-01
-4.398610266722783463e-02 2.595205574385487934e-01 -5.218177094171565500e-01
-2.585469432682189761e-01 2.208701128097826649e-01 -3.611483469134096347e-01
8.960701353141861114e-01 2.090058877359682599e-01 -3.554098121089362405e-01
-3.213434193236215930e-01 9.047066410568209427e-02 3.237030649881694755e-01
-9.516575972326862809e-01 9.770724470770333903e-02 -5.656510995648150741e-02
-5.352626298363364343e-01 4.100835882344789352e-01 -4.941708369751908192e-01
-4.975084548370672932e-01 8.480175630039923362e-01 -2.442360908346663806e-01
-3.236810184200278884e-01 1.238593358895112156e-01 2.893528825177464903e-01
6.497542763646199093e-01 4.831624049574043123e-01 -9.445047637134437735e-02
-6.833626985429925860e-01 4.177661619294850137e-01 -4.116080955290630228e-01
-3.583236716589887627e-01 -8.053381758547647484e-01 4.355779787708463635e-01
-3.837853680139901580e-01 6.812297813996621987e-02 -1.407449617736375447e-01
3.593411311062113533e-01 -2.281309548111844776e-01 4.155866409356255842e-01
-3.053536703323098678e-01 8.807114304418434125e-01 -4.096475963130739029e-01
2.796354922888872885e-01 -5.682764857992166352e-01 6.095958297217437538e-01
-3.354815607299891922e-01 2.274036252244861500e-01 2.543259687228304200e-01
5.103281575177981422e-02 -3.989547225110379181e-01 6.461947605136746375e-01
-5.543461125047214333e-01 2.135694213724765589e-01 -3.764804526271098850e-01
-2.072522132718400689e-01 8.846177568717212836e-01 -1.298566553164141879e-01
6.654209770513090927e-01 -5.238994761467486994e-01 -2.434454458564828394e-01
4.439268384803369272e-01 1.263696452383552549e-01 9.194684005566132468e-02
-4.042283204019657683e-01 -7.564697841225932473e-01 2.188953274626394552e-01
-7.097508056666174125e-02 3.109040281448992027e-01 -8.462923582301011549e-02
6.344710635199101167e-01 3.988531455216715038e-01 -2.139044558355524331e-02
-1.966107616247867174e-01 -5.277797236373892309e-01 1.035999614733717350e-02
-1.881144809782987204e-01 -1.464726369274804429e-01 2.018532774862634438e-01
6.005669280036274316e-01 5.928193227478516514e-01 -5.337328541886307010e-01
1.706412564606510640e-01 1.031398580246669222e-01 -3.081756276932411387e-01
6.092476128382202649e-01 2.042581501792064824e-01 -6.443937108227577593e-01
-4.091765880531337274e-01 -7.491884788752937174e-01 5.206014913272739575e-01
1.012066625697176925e-01 4.662765902853843736e-01 -1.905589280853326947e-02
7.359797280191968660e-01 -1.713412932707721482e-03 1.872229569267835347e-01
1.197882546418385097e-01 -3.084255976478161854e-01 5.585168138587363051e-01
5.346166403493644026e-01 -1.502154081205868685e-01 -5.050536015924483868e-01
1.877443626202838500e-01 -6.603285744603525353e-01 -8.457445186323361841e-02
-1.228476367922539010e-02 -2.659007845065816111e-01 1.248479198263769130e-01
-1.869630732641830162e-01 2.154247049688618465e-01 -2.645816942141915318e-01
1.737364837760195235e-01 -3.451757868796201389e-01 5.740758247456053676e-01
6.761709396382403758e-01 2.205655831842790772e-03 2.068184635491124579e-01
3.549849445177989948e-01 -7.123725590555448628e-01 -9.311217539429686441e-02
2.859794550274040725e-01 -8.539394689010632034e-02 -3.224614936580845748e-01
4.984685439334906598e-01 -2.535022823699756983e-02 2.239225737760885127e-01
-6.358154747845715660e-01 -2.287759076413700965e-01 -7.733887801237709914e-02
2.864887555899027771e-01 3.966996728974639397e-01 -7.159999217174404240e-01
4.158597293503309422e-01 -5.503737383383477955e-01 -2.258931051013896574e-01
6.612364768400404991e-01 -1.367117813064427922e-01 2.956339096788730969e-01
-2.359921206624570333e-01 -2.993112742794951653e-01 5.143683212652401526e-02
5.543732582021786426e-01 -1.116515831784115585e-02 2.245741400550849143e-01
-3.789327035640248642e-01 -3.491212779898386076e-01 7.056814964579275484e-01
2.946794156105898566e-01 -4.112077579489393231e-01 -2.160979666823302225e-01
-3.084022188838896339e-01 -5.547658455654774778e-01 2.757172427032218015e-02
4.478720128111764454e-01 -2.227014217440983213e-01 4.032305923484159060e-01
-4.434594541230083564e-01 2.201996606540730650e-01 4.012066989611566270e-01
-2.964467951426826842e-01 1.269598425708822198e-01 1.646395046875717347e-02
-1.985166987758234525e-01 -6.222390043830834383e-01 2.571851411366735812e-02
-4.306613100604755190e-02 3.380394921495048499e-01 -6.161369032597119322e-01
7.436669307146337449e-01 1.946968405984534911e-01 6.366241054737296901e-02
-7.380682420351936113e-01 -4.283461893291185540e-01 9.444371127760702034e-02
-3.773568562370703261e-01 2.001065617869901836e-01 3.402716613582723038e-01
-3.328686549948446927e-01 -1.678486056721726349e-01 2.975790079227820517e-02
9.596890505055205578e-01 -7.235205849444252546e-02 -1.849366178386850634e-01
-2.633001764105412090e-01 -5.758023850502670404e-01 2.606947790843545248e-02
-5.788243325255630900e-01 -4.483227866249337445e-01 2.692535357325053988e-02
2.137983517064388495e-01 3.907058140542995495e-01 -3.177333350832875491e-02
-3.465893067423265750e-01 2.887831547774755148e-01 -4.734207302973030274e-01
-2.017728615226224154e-01 -1.075329404310953058e-01 4.499293941611127723e-01
-2.948137099494999025e-01 1.402491042216858219e-01 -5.888763484611143906e-02
2.457680340145886322e-01 6.844085279595824023e-01 -7.138101860743557847e-02
2.472040277406272191e-01 -4.143579212456939276e-01 5.923385666630046620e-01
-7.271837195043668878e-01 5.341231486429899589e-02 5.466909785004400169e-01
7.048478803553301919e-01 -6.156532724981845783e-01 -9.507036710004786173e-02
2.863528366036968698e-01 -8.285991002885213508e-01 5.359651050876888811e-02
-5.762972748414578739e-01 -5.003725248354273791e-01 6.343908607223951446e-01
6.464390325116509128e-01 -3.899181309347594659e-01 4.026869573057547114e-01
-3.616531222459177242e-01 2.411041657825563067e-01 2.936661087339562659e-01
8.152700505663437736e-02 8.665286399815471663e-01 -1.868999131166658723e-01
2.552414487890493078e-01 -1.349930964468886441e-01 1.408491553834861632e-01
6.808282999584732709e-01 -6.701521302062471985e-01 2.247831947937641572e-01
1.822970463112549289e-01 -5.629056771706979490e-01 -1.151394776045916724e-01
5.109150583144183022e-01 -5.891264183330227611e-02 2.558892228981169414e-01
6.564785683598269028e-02 -2.415048168463831135e-01 1.406576814349186355e-01
-5.186038095525331570e-01 -3.262465509831248278e-01 -3.017081950248590508e-02
-2.809213316428054164e-01 -1.877528711082014357e-01 6.222809321011624206e-01
4.687025588324417735e-01 -7.989211967009595128e-01 5.660579482675973106e-02
8.667912575090511509e-03 3.891478373178810513e-01 -3.960668706569168973e-02
8.266022768184679015e-02 -8.821036938831959828e-01 4.382580251106277802e-01
-4.341101108013394327e-01 2.182316350024189056e-01 -3.876418348363639410e-01
6.705452367481266052e-01 -2.490454280282962674e-01 -4.493043720353613324e-01
1.197793471855842923e-01 1.844052742381583343e-01 -5.203858493548736419e-01
-5.130039858877619707e-01 -3.164647115283120149e-01 6.882217613516565802e-01
4.674330587959598104e-01 7.119781949500341156e-01 -2.130315459967066505e-01
8.080284535154014930e-03 2.860472783508588579e-01 -1.316484378401423516e-01
4.305201665685474688e-01 -8.113482785460192082e-01 6.068548537775643459e-02
2.940534569151754818e-01 -1.915631732773640655e-02 -4.302669258988034984e-01
-5.464333411396904427e-01 3.728546436037865064e-01 3.683326075643781894e-01
8.999864762817986197e-01 1.089847783857857133e-01 -3.905238130212100589e-02
-1.045443016567607075e-01 8.700700803743451894e-01 -1.217516492065665312e-01
1.563561842444106398e-01 -2.560893916135263959e-01 9.436235926496864754e-03
2.122964250548561582e-01 -7.391126067361328822e-01 5.784451208484174822e-01
1.313454646699145634e-01 -7.931112651513227974e-01 2.611622743010943298e-02
-3.323281927889148446e-01 -4.409349557665111913e-02 5.229977850836899922e-01
2.770039059755990962e-01 -6.363058926026682327e-02 -5.770325083040637494e-03
-2.700923580494940524e-01 -1.923625297778603638e-01 7.670738892553702337e-02
-8.970390671062323795e-01 3.668078034392487363e-01 2.459099305946934599e-01
-2.921613743893006765e-01 1.598886943503364522e-01 -1.652016949326800266e-01
3.737365393541792202e-01 5.501690475186605811e-01 -6.957473458620506701e-01
-5.190184356223669776e-02 -3.480535442368541954e-01 6.498095112401962581e-01
4.993643179042135671e-02 1.850628350359033170e-01 -3.951124670296172203e-01
6.263876055699292567e-02 -3.253596575297277860e-01 2.493066154731201495e-02
-2.366703152481514916e-01 2.220195741176219650e-01 -3.573445049642710036e-01
-9.762778329674931532e-01 2.719661351433499408e-01 1.478278817735398931e-01
2.176532983424042944e-01 -3.054436752017041234e-01 -1.275287487224342209e-01
-9.362365591396420994e-01 2.625405045651458824e-01 -1.192731072342826520e-01
2.584679707752994826e-01 -9.144846952922319749e-02 -1.017622401575387497e-01
9.305951343078255888e-02 -3.285566411071428328e-01 2.835717390195364703e-04
5.162807527492311310e-01 7.029418135689861069e-01 -2.602137242021365648e-01
-6.153129575156798259e-01 3.000861710637856006e-01 -4.131167802332174066e-01
5.834879183523052903e-01 3.371777826116433840e-01 -6.609588127973831106e-01
1.732963652720633241e-01 -3.322553421802491580e-01 -8.207888053489559299e-02
6.350013864681195441e-01 5.819293061553601487e-02 -6.013835947273358240e-01
-5.504471586480050860e-01 -2.278251006666681122e-01 -7.117371769570952911e-02
3.652410028234777672e-01 -7.687162702579268814e-01 -3.168244498588893704e-02
6.573257004007253546e-01 3.819511100464395015e-01 -6.127541889191286950e-01
-1.584818457670289504e-01 4.503472885319397268e-01 -6.459169201770542657e-01
2.323324921733483372e-01 -2.895197079418579955e-01 -1.443291186908449431e-01
1.148376075927706325e-01 -4.733817050818029393e-01 -8.061395668340588794e-02
-1.450568644900837589e-02 5.680641264062487039e-01 2.071924958461612148e-02
-1.261363316271076340e-01 -2.012851054632641967e-01 1.859472300125165067e-01
-3.346036568080547335e-02 2.794899076547331940e-01 -5.584717773761060933e-01
7.818046915209976300e-01 -8.388084672312616508e-02 2.041341531256988251e-01
-1.250042341048126782e-01 2.269444907400010036e-01 -3.667425970494524456e-01
-5.596201914780458281e-02 5.665803243647724585e-01 3.500379879639316238e-02
-2.342798792965686272e-01 -8.199639588012428426e-01 1.989035109737321561e-01
2.608137121975354633e-01 1.682576715847396709e-01 -7.080148315063423958e-02
2.587504199446400976e-01 -7.048895814339789512e-02 -1.575025995214238139e-01
-6.187313683468549375e-01 7.357440480938597371e-01 3.208439005739396888e-02
1.239758174163440030e-01 -3.349608472784660895e-01 -3.173437199974354916e-02
1.757396644178075840e-01 9.626221675247360887e-02 -3.187062031107555926e-01
-5.090435935092597619e-01 8.281975266678509584e-01 -3.131013955023498885e-01
5.992730754592116155e-02 -3.522084036560012010e-01 6.162800236817614907e-01
-4.352003070740271817e-01 1.493374143241109619e-01 4.429124673815373336e-01
-6.236545716754607893e-01 -6.315449087514889426e-01 2.483830855240865831e-01
4.225441614700986559e-01 -5.793055303677556722e-01 -2.091108145426484877e-01
6.410853904183276830e-01 -2.735163761598745080e-01 3.733066846953061457e-01
4.603793652769282430e-01 3.652431738504252068e-01 1.597442114032159369e-02
2.108254481407152159e-01 7.182258790299920204e-01 -6.536223893469270685e-01
-8.502906966662738819e-01 6.268520042677666604e-02 -1.674522926762607999e-01
2.925809493794612748e-01 -1.529262542718714257e-01 2.735092330104146319e-01
-3.821876864879013014e-01 9.416249297276503560e-02 -1.777431935515218220e-01
3.512525851818388833e-01 -3.438882093182132338e-01 -2.852567780693807675e-01
-4.799284723511004214e-01 -1.091752638488095450e-01 6.331191844924926038e-01
-6.104422889971555799e-01 -4.467530876272358953e-02 -1.801222253733748557e-01
-8.481654319155994548e-01 2.746237177682084862e-01 -2.474425745871874638e-01
-3.518001264111893511e-01 -5.279769833027125880e-01 2.585962100611351872e-02
-2.140516057790659565e-01 -7.681241527141986492e-01 1.174339882203211116e-01
-2.885650172569346195e-01 -6.626016946720943990e-01 6.624729477695945334e-01
7.782070810980364906e-01 -5.496785290689628622e-01 -1.030539737323737798e-01
6.586714248175828956e-01 -6.820061465513982402e-02 2.552644249350347061e-01
-2.653200046942333912e-01 2.247764953347410333e-01 7.343755234285095912e-02
-7.009196831801738359e-01 5.051378632201299901e-01 2.748568928020926339e-01
-1.574851010251511127e-02 -6.695832502933486419e-01 -9.468443345692280355e-03
-9.914431903517419153e-02 3.117827249701290437e-01 -6.834967030763011708e-02
-1.315215786186382102e-02 3.711188162344223329e-01 -4.690182104131843804e-02
6.020310416484718763e-01 1.949062075330220967e-01 -6.452096976253154370e-01
3.125871998463883306e-01 -1.325952539189318991e-01 2.463929807042537501e-01
1.866297087560012946e-01 4.255454948456807718e-01 -2.821356240863738193e-02
-8.147149498355986397e-02 -4.132197462827378875e-01 1.694381773196244542e-02
1.362721809764672609e-01 7.778499397818047223e-01 -6.191126906222265136e-01
-8.667115545325994042e-01 2.944819993706456751e-01 -2.290792837790046610e-01
6.665286694801227929e-01 3.644782354779788069e-01 -6.106717473116686223e-01
-3.354950724470961432e-01 6.374172744452177852e-02 -3.715006108771777560e-02
-2.085746726981004551e-01 -8.937375605516427457e-02 2.805323059512142003e-01
3.349894416182264134e-02 3.659662239825930419e-01 -5.811030084036492710e-02
1.171853301784838569e-01 -2.227092415317690755e-01 4.164818280576965126e-01
-2.748864729411821806e-01 3.681752739774634131e-01 1.547578152628163728e-01
5.677853772613088434e-01 5.903439211426377842e-01 -5.717076200161832489e-01
-8.555903392268219762e-03 -2.461249142605983764e-01 1.553972261428757107e-01
5.263272427255097918e-01 -5.528067823571234385e-01 -2.434845615981784395e-01
