3.643912712618184169e-01 -8.352124308724845347e-01 -3.244228854438819254e-01
-5.226256147095605931e-01 -6.237572956707631427e-02 5.247880941953880773e-01
2.172430988978971481e-02 4.628059024726270398e-01 -1.334680959980419634e-01
6.130833105011622708e-01 3.138230919246113859e-01 -3.708934707810234155e-01
-6.708011870388327358e-01 3.699514148729169949e-01 -2.018799943288592247e-01
-7.195262746529970110e-01 -6.451942437247314421e-01 -9.929073921446146533e-02
-7.963541846368746846e-01 -4.283677117424222747e-01 1.713712011004845659e-01
4.457894006730723363e-02 3.600366625397410925e-01 -1.268758891529306043e-01
8.543420263115093505e-01 -2.170342380463747278e-01 1.716736477203706923e-01
-6.185242161455964949e-01 -7.347583726272320925e-01 -2.069637211744750627e-01
9.610017249893922919e-01 -1.057999812199557216e-01 -2.451327886167128656e-01
-2.184428077638528587e-01 -1.608570224259257136e-03 4.821456480509309639e-01
-2.852085831648547565e-01 2.218923796222384004e-01 -2.097516378094978484e-01
3.723388634744161096e-02 -2.535576361821832436e-01 4.713360165866760376e-02
9.128836094463048390e-02 7.402383417486241290e-01 6.339013231123039604e-01
-2.055516886557513245e-01 -1.536283817223630943e-01 2.334692883548935838e-01
-6.133393340861482690e-01 6.635085640950098007e-01 1.042896116087538710e-01
1.040176941693689294e-01 1.360863331963078071e-01 -6.073426188424380784e-02
-5.484497522187715690e-01 -3.354629088894935801e-02 5.402676456399073679e-01
1.708040791397738845e-01 2.877669799409381390e-01 -1.855141091867507364e-01
-3.322989234547191750e-01 8.186145598612368790e-01 1.683039134991491936e-01
-4.403954804176561377e-01 7.002273429671547478e-02 -4.164599155739526770e-01
4.542157983534066412e-01 1.919299090450503897e-01 -4.426127444848077519e-01
1.808552893901982650e-01 -6.043833787578228520e-04 3.388199779463123007e-01
5.650033274148998780e-02 -9.043444564323880330e-01 -2.957231168541800126e-01
2.403709619720276469e-01 -3.364986030852757382e-01 1.442039083044359959e-01
-9.566572227798209038e-02 -1.538425533350404328e-01 2.396298807799107644e-02
7.847247540929799259e-01 5.200494201387551030e-01 -5.550341279803937961e-02
-8.551971343540752946e-01 -4.000853046591314882e-02 -3.407617677421829749e-01
-3.281626886103952007e-02 -8.507458093615226646e-01 -1.054791720861852078e-01
5.892822759349732875e-01 5.604269542841115032e-02 -5.366935820551577141e-01
3.052089461410975590e-01 5.840075683028299602e-01 6.683874870367108034e-01
3.743239616611306747e-02 1.792326431507805240e-01 -3.316572336649154656e-02
-9.154854642615801730e-01 -3.740038267272833283e-01 1.896956302162500912e-02
-2.067628025976653849e-01 3.619415485217240547e-01 7.290884301533090417e-01
1.633703292140088401e-02 4.734416151612302892e-02 4.204980345395696872e-01
-5.571965368561303950e-02 -1.381844192404366733e-01 -3.318425041251095442e-02
-2.544935325258166903e-01 -4.252481547905671011e-01 1.977910823924231565e-01
3.394414564348295360e-01 8.539770980636087749e-01 2.505503461872238824e-01
-1.392102511093583905e-01 8.870550257339222533e-01 2.970274419489284390e-01
1.928703942734074361e-01 8.452502730487211346e-01 9.925475617760232128e-02
3.673674293832207005e-01 -4.445609362482660920e-01 1.560763726558928866e-01
-1.854347168860720485e-01 4.735343319890986807e-02 -1.829900733489884801e-01
1.750205103123191608e-01 -2.893716720373986848e-02 2.300552788766056789e-01
-5.479509021656858714e-01 -6.818680401715578876e-01 -4.990928878950759984e-01
4.414363597774126347e-01 -3.562205240237806825e-01 2.120908503280119206e-01
-7.154329713963502035e-01 3.713594576758382226e-01 -1.791345638375959892e-01
7.061361251099609881e-02 -1.794525422413019433e-02 -3.141787645280572638e-01
-7.662047329708199239e-01 -6.051619853040258734e-01 -2.297581864847210442e-01
5.866257450567908399e-02 2.681450868337958426e-01 -1.011144195799717205e-01
-1.668171950852224417e-01 2.631652675431115918e-01 -1.208215818026045357e-01
1.122397628960964712e-02 -9.080321440644214537e-01 -3.430394981892410100e-01
-1.181003277550821129e-01 -4.753707313977371118e-01 1.338766816334146237e-01
-9.108626961501423702e-01 -2.710932574343258641e-02 3.252865655426107616e-01
2.639508195126292756e-01 4.619394563770795603e-01 7.018661239365699966e-01
3.277748926935269425e-01 -5.514425512384925065e-01 -7.171126943847125901e-01
3.826642592392858755e-01 6.643794969313604470e-01 -1.130010987628798091e-01
-4.421795804776149086e-01 -4.432550230360209897e-01 2.604374027091121979e-01
-9.563190272729871211e-02 -5.840084757684660399e-02 -1.261868382800699351e-01
6.260533465059592295e-01 -2.881200805444459334e-01 2.586577278047206829e-01
-6.518819328247753564e-01 5.412654725106946091e-02 5.552694760446658107e-01
-8.628555679298939574e-02 7.456713207311196356e-01 6.337400527211094481e-01
6.054941226750162192e-02 -6.674262682919633594e-02 -5.076843538656314880e-01
-2.056398107111136186e-01 8.726510378262408718e-01 2.618487110823841668e-01
-7.793705639127926910e-01 1.288088651294656828e-01 5.006331871582471171e-01
-1.899957262515920842e-01 -5.920620098249411781e-03 -3.528384752020243820e-01
8.516191181488937945e-01 2.081446034726682215e-01 -3.115685245223021593e-01
6.270038568362432119e-02 1.880820948835330852e-01 -5.590316413195142026e-02
3.944694465066480027e-01 4.543328720489827610e-01 -2.595188183294347972e-01
-5.180680045508253562e-01 5.934519039410394159e-01 -6.602608664466036448e-02
2.749867816631453715e-02 -9.934043471301035044e-02 -1.009185892469331713e-01
-3.022380756396998991e-01 4.996329041682732730e-01 -1.412422430429178810e-01
-6.580023237239575155e-03 -1.898543726573016233e-01 1.395049228193991466e-03
3.853855756059256232e-01 -5.753718444173283597e-01 -6.892416505929075399e-01
4.385192947011559150e-01 -2.566355257136936907e-01 2.667480771197167089e-01
-9.217486392577539656e-01 -3.594523840448189955e-01 2.553057233336123583e-02
-2.229637704025582146e-01 -4.042844021902191054e-01 1.862602246649379678e-01
1.641344381402094488e-01 -1.785108534883078080e-01 8.697139784405409635e-02
1.611077662682385836e-01 8.649126241025157924e-01 1.401897684755338269e-01
-3.481948777269025519e-02 1.270287992821639844e-01 5.855642200692626753e-01
9.435617783650299684e-01 -2.584043123384754947e-01 -1.891260390145738379e-01
4.343392060433798330e-01 -3.159807657593965424e-01 -7.061246243988338334e-01
-1.771040269853186300e-01 1.695474175353529900e-01 6.485654608509969776e-01
-3.492743002044841338e-01 5.210671710037880766e-01 -1.362049082859063676e-01
-8.614365675022687130e-01 -2.598544819179047227e-01 2.573401656631442158e-01
6.726518755688402074e-01 5.581587623278555510e-01 -1.308149293971117566e-01
-3.416417233573615930e-01 -3.424796632868648549e-01 2.761816240633673258e-01
6.971855332711933695e-01 2.418718665277855284e-01 -3.972914533122771652e-01
-1.978892374902056495e-01 3.852655921202532280e-02 5.251906491187174897e-01
7.310687363423248875e-02 -8.658202510205322833e-01 -5.060166759858850671e-01
1.009194393975318960e-01 -2.221837022867643729e-01 5.064595736005601812e-02
2.451795104618016141e-01 2.582002945665804461e-01 -2.610002592381038267e-01
1.151644419967187971e-01 1.639564038157111658e-01 -9.586637066816192099e-02
7.715607824736742115e-01 -7.881143342497516635e-02 3.333572991524973439e-01
1.597147076647682240e-01 -3.543872853470862727e-02 1.438735781176018469e-01
-3.662553948787084651e-02 -6.659627134136771043e-02 -1.757929193504214893e-01
3.165331745730055185e-02 -5.403460175570998780e-01 1.008646171456484830e-01
-9.151261458194849194e-03 -6.619392577961398516e-02 -1.809601119974023342e-01
2.903482531537590616e-01 8.629768350551246803e-01 2.095279292436316165e-01
-2.708162533708995956e-01 8.368121454731836106e-01 1.693126834452942653e-01
5.448034590519825610e-02 -1.286472375410460112e-01 -4.702138162406264976e-02
-1.973783113135355871e-01 7.924877979468230027e-01 5.615628294515904173e-01
3.061768152364695017e-01 8.597162322147020586e-01 2.127880664426360924e-01
5.042890888475676237e-02 6.303819826017558192e-01 7.040891626394031322e-01
2.828266877213432839e-01 3.834507909860203068e-01 -2.469484064813006752e-01
1.227261202907451165e-01 -1.611105113032699487e-01 3.728270090075795629e-02
1.476466318760167873e-01 -8.780089775075740066e-01 -2.120939376463537029e-01
6.264353407821008357e-01 -3.187075756100506974e-01 2.373070977119119407e-01
-8.081807661715845192e-02 -1.034575118563636070e-01 -5.600435496965244786e-02
-4.367229604766645346e-02 -4.843217759739668754e-02 -2.428848726727075580e-01
9.092136574412319483e-01 -2.774922795206203885e-01 1.972898459514390093e-02
6.831963913181888781e-01 -3.408372563873802163e-01 2.030024152852119290e-01
7.868431673702551699e-01 4.840169407427638570e-01 -1.119315226492607895e-01
9.527110654752292129e-01 -1.828110085091853854e-01 -2.421428813437861982e-01
-3.078110152853328341e-01 -3.401081582524841385e-01 2.565262628335192585e-01
2.168713377879182003e-01 -2.148106184779692840e-01 -6.952281814052413411e-01
8.492386050344726822e-01 2.537049738466303217e-01 -2.808585661066846928e-01
5.563805668785093417e-01 -3.422316261051090991e-01 2.304266063323255620e-01
9.733809278599854231e-01 -1.493176405888746727e-01 -1.624245385971242461e-01
5.239809612704314778e-01 -6.817567357788475446e-01 -5.238079665308580379e-01
3.036478836650517432e-01 2.870322213460294036e-01 -2.989872742746149115e-01
3.463119886326539998e-01 -7.211120362524974237e-01 -6.092899765208593665e-01
9.080077919616555415e-02 8.945377744519000807e-01 2.436803837721657484e-01
-1.658921009654110712e-01 1.274629646287521630e-02 4.653193512127280496e-01
4.873931009216291715e-02 -1.292300856888133898e-01 -4.984856875289420119e-02
-3.255372011153639944e-01 -5.779252379803565542e-01 -6.898419754828071238e-01
-3.069765136102894920e-01 1.400409721361139670e-01 -2.749252120792863296e-01
-9.630547989518689622e-01 -1.785587483780226581e-01 -1.815030608680706925e-01
-1.759368542475601149e-01 -6.817775805175759762e-01 -6.874417477267643628e-01
-3.146991122303109401e-01 8.323834091642386968e-01 1.963402538483671467e-01
1.004664237971456290e-03 -4.562807014499782321e-01 -7.608374686578527335e-01
-3.647953059791256836e-01 3.430332195576046850e-01 7.069543333857848388e-01
-4.822853981973436177e-01 -6.816572884657019493e-01 6.867275159786499772e-02
-5.174985556849716062e-01 -4.233717299869346751e-01 -6.364327268416336558e-01
-1.213196291787026204e-02 2.916623741175451701e-02 2.970636391589755454e-01
-3.714856429904770385e-01 -4.989591868112705497e-01 -6.909287888847340797e-01
-1.607493923062104924e-01 5.725161279173839324e-01 7.210815707455928703e-01
-6.406719152054781707e-01 2.398953873977220375e-01 6.035017917507279339e-01
2.733507338616786297e-01 6.298168208261571699e-02 -4.573082629142556366e-01
5.216382476836635418e-02 -6.470543594183310043e-01 6.831158066789332073e-02
-9.900040469734577853e-01 8.964488481654439567e-02 9.877130820700113362e-03
7.028563355378601996e-01 -4.805436964136183819e-02 3.886621336630485812e-01
2.349945120848926927e-01 -1.751537223497043327e-01 1.691281832061849733e-01
4.420559304244309762e-01 5.830607911999527992e-01 6.107427156004259228e-01
-5.042147234604881234e-01 7.247757905299310188e-01 4.499854284708711405e-01
7.570531552289406774e-01 1.155153603204931434e-01 4.279270443307696681e-01
5.543504896908223456e-01 -6.562477210951361828e-01 -3.965200251948843013e-02
2.087446120001382535e-02 -6.613362749715673283e-02 -1.691080739031254332e-01
2.269860303805207313e-01 1.656141882877051330e-01 -2.866625526052122841e-01
4.098057825599902282e-01 3.123805679274775371e-01 -3.458910502215983285e-01
-4.269471870557050019e-01 -2.195004560181221531e-01 3.968989360415710599e-01
1.093199249517381594e-01 1.123434632897213209e-01 -5.097711347395307568e-02
9.839350219254519581e-02 -8.665772653805623449e-01 -1.593165535836240376e-01
5.741850284990142050e-01 2.797663295982255049e-01 -3.980788821915908771e-01
3.148434938690800045e-01 -1.712495341355050604e-01 2.517219770798830303e-01
5.783213875255261982e-01 3.954125629651868978e-01 5.803010436099675928e-01
9.842491666006694673e-02 1.263140046700588770e-01 -4.327099562737817678e-02
-1.137913280020881046e-01 -4.323240140101358708e-02 -4.008069385514567706e-01
-6.720674816952688924e-02 -1.363589337307362370e-01 -2.592018004791778185e-02
-4.094397852351333023e-01 7.341190547309552894e-01 5.280641746661313141e-01
-5.152924201441138052e-01 -4.119621040872851747e-01 2.915732878312977672e-01
2.946565897211320117e-01 7.609306573011659358e-02 -4.590657500319390572e-01
-3.713583784475485983e-01 1.555096756832542379e-02 -4.464784858699303305e-01
-2.562747483176394669e-02 -4.395256154814521782e-02 -2.808644284139044101e-01
-9.620215321150216159e-01 -2.220958131565299865e-01 9.849382170522949509e-02
3.645477100621886124e-01 -7.485585794011628824e-01 -6.041051208698428043e-02
-3.726564468440311112e-02 -7.294857285413751669e-01 -6.763753282311572024e-01
-2.472934640431966556e-03 3.142329604989844705e-01 7.135432701315809201e-01
-2.864462747550740040e-01 -1.058452841674539097e-01 -5.592305389904487223e-01
-4.825620609305616288e-02 -6.388563673966060064e-01 8.202123110548731333e-02
4.993594064964296947e-02 5.895662498520097550e-02 1.355180088373876823e-01
-1.146364628567697608e-01 1.056752128102162250e-02 4.071438713113010310e-01
2.577195335524449793e-01 -1.623822049111266763e-01 2.013982329263266091e-01
3.031490749486563940e-01 -3.912916944082825421e-01 1.584334030286282946e-01
2.173343864135399428e-01 -2.494950879142306954e-01 -7.122761712056353556e-01
-5.511556257503728018e-01 6.611167935239654625e-01 4.969497802210078863e-01
-1.292188575873200462e-01 1.843938969122736748e-02 4.444932625417934435e-01
-2.385425998383791657e-02 2.144097271411188610e-01 -4.778104803651082866e-02
-1.406167169006259654e-01 -9.117026888346993485e-03 -1.416482359438448746e-01
-3.424134349914948472e-01 7.153971146548335769e-01 5.904636498474283846e-01
-6.828229416228523974e-01 5.620367126767563670e-01 3.234185066906217210e-03
8.975518509643118925e-01 -1.475327856188349551e-01 1.661008511780380226e-01
9.730293911347448477e-02 3.256923279215824252e-01 -1.400005422046031456e-01
-1.934619753722602864e-01 -2.137282727909070867e-01 1.863253428673825041e-01
-1.717047631793593709e-01 2.694273213413606038e-01 -1.246090256816769076e-01
-1.265340148789012020e-01 6.945309710722633034e-02 5.352976492470290504e-01
-9.509664044583902021e-01 -4.907317716828089177e-02 -2.036915493325578974e-01
1.691583810459924841e-01 -2.719167626413204197e-01 1.056829309633161434e-01
3.156986410639776031e-01 1.842703852290936695e-01 6.090711591003904468e-01
-4.591016574145199286e-02 -1.948022576654830917e-01 1.808027968829210852e-02
1.810890834523004866e-01 -1.688383893800811109e-01 1.059512168652123332e-01
6.697573287000661013e-01 6.818979928496106124e-01 1.681036278863646816e-01
7.670867753773528974e-02 2.213301995755400930e-01 -8.796976236194740950e-02
-3.984445794179755640e-01 8.004916066876515135e-01 1.856686027084649693e-01
6.686394188216857049e-02 -6.134197507167397090e-01 8.042515988736083365e-02
9.046396086347098520e-02 3.289302121338797402e-01 7.102830945546614316e-01
-1.647021270600205478e-01 -5.524932501671955820e-02 -4.611207956026540100e-01
-8.137563489262296113e-01 5.028751151224465366e-01 1.865902811948585427e-01
2.261695298720974856e-01 -5.941092412908512976e-01 8.380453787835961954e-02
9.204403286175494303e-01 3.625963714449347841e-01 7.055720642204132975e-02
-3.902327871019626859e-01 2.307486242066939253e-01 -2.740525184707018336e-01
-6.670278191540790491e-02 8.366601634721942959e-01 5.256545801831482567e-01
-1.096536686158540164e-01 2.221227965531748227e-01 -7.647587808126682374e-02
2.143017904984765853e-01 7.724801823757045938e-01 5.747864921188529097e-01
3.265054448437884060e-01 -1.521441050009386953e-01 -6.644477154180852274e-01
6.163987518957075168e-02 8.198217834717534958e-01 4.900301931274787109e-02
2.644828468336048455e-01 5.295208485759256289e-01 6.948388698921253992e-01
-1.769563356391264664e-01 -6.287924522548844763e-02 3.071092375270763064e-01
-2.594562114646635775e-01 -5.877468184866447842e-01 1.406157857030683189e-01
1.171945504944688493e-01 1.659423256443148462e-02 1.370095222692994663e-01
-9.231715421820694267e-01 -3.796880739502282442e-01 -5.081889541664058596e-02
-6.419995850991454533e-01 -3.401227709402522836e-01 -5.681344418160265697e-01
-2.231793206254700790e-01 -7.904187689912677006e-02 3.643509499054174428e-01
7.511651811292371361e-01 -5.711595838079905896e-01 -1.767592979558119393e-01
2.598916538989656244e-01 5.215051617619608226e-01 -1.884931484165101867e-01
9.954718759976585729e-02 8.183663154805276285e-02 6.713491207099834060e-03
7.374126919564371052e-01 -5.228518107052186892e-01 -2.518772166294467457e-02
-5.832072774505761004e-01 2.777163081673111322e-01 -2.864389219464718583e-01
-1.519528042596315354e-01 8.796715366356577803e-01 2.395487134334260415e-01
-7.676573884655857327e-01 -3.741499785029501202e-01 2.499057042971422338e-01
5.297112181515494234e-01 -6.619205064914878145e-01 -5.421986826114271185e-01
3.532242432340217952e-01 -8.068855641170994408e-01 -1.569731670584880445e-01
-8.550630501031705744e-02 7.176040322143752981e-01 6.563700733611649296e-01
-3.962263896707490102e-02 1.733066595334283866e-01 -1.743898874671902244e-02
-2.417024201893618884e-01 -8.385316201648558287e-01 -9.559597398197963725e-02
-6.085688177774396523e-01 3.467053353732317822e-01 6.208752858045109013e-01
1.774813685223721738e-01 3.781515048123753470e-02 4.323162743717487433e-01
-5.542108290778212654e-01 1.759948878556440999e-01 6.277660440226875416e-01
-9.357759947446072646e-01 -6.048153467109056158e-02 2.728361338711116080e-01
-5.890533567272021771e-03 -4.110485463468657036e-02 -2.986275756829482320e-01
1.994664921714430217e-01 6.522396391940685767e-01 -1.127308622898634538e-01
-1.553162045135738356e-01 -3.151929367831447504e-01 1.476142344655146377e-01
-2.292315443001004260e-01 9.120959059607371133e-02 5.935778853690598655e-01
-3.013078223182175108e-01 8.370209987078582881e-01 4.064689708495750620e-01
1.219916264352485652e-01 8.956735309111226728e-01 3.037914775521795563e-01
-7.178049758692918170e-01 -2.694427804770084256e-01 -5.122113880903463867e-01
-9.525834171976570453e-01 2.104868488622899381e-01 -9.030947656334780901e-03
7.131153495962311295e-01 5.940844947994291525e-01 3.464799651894250876e-01
4.755527658775433181e-02 5.468562880809839377e-02 4.395544167334397012e-01
-3.274634597710444628e-01 5.951846362445957217e-01 -9.746908011360470858e-02
4.182718822343856058e-01 -4.657788423833432723e-01 1.525516379412401591e-01
-7.416563531954709632e-01 5.745034457443354281e-01 1.387338609991367322e-01
-1.070858871498340942e-01 -2.050170482437021213e-01 7.285814573803753302e-02
-8.467984770385724724e-01 4.040158409327646027e-01 2.728536689353108606e-03
1.898279318335155397e-01 3.964728232923744877e-01 7.129454317301581190e-01
-4.497574804953832217e-01 -2.396401684484323891e-01 -6.297541757370562765e-01
1.705773853040377097e-01 -4.276914008840456555e-02 -5.279961541588186202e-01
5.621773233739726372e-01 1.298247895104791272e-01 -4.964551644915762840e-01
3.231124554577295971e-01 -7.715149344987468072e-02 3.469030068367521813e-01
-1.407670204833363636e-01 5.976743888014634382e-02 -3.423375247290660894e-02
4.374022830209858270e-01 -7.441722941385842116e-01 -5.184278488104619997e-01
9.970852941932012437e-02 8.453261082790139436e-02 2.306184311827450765e-03
6.122040720347465825e-01 -1.698816858486692505e-01 3.408467332541829653e-01
-3.137403738134622588e-02 -2.632420246571287037e-01 5.933456059871782678e-02
1.309415101931384606e-01 7.622100008275943805e-01 -2.218342247736430906e-02
-3.078063345315117938e-01 -5.713599912338629405e-01 1.587693832640394431e-01
9.213430372650257549e-01 -3.033554874335911422e-01 -6.896634586998609540e-02
1.535060066629885533e-02 2.810256831367750618e-01 -9.176641344727348715e-02
7.896610947547375581e-01 2.877516387015099236e-02 3.722603547837681770e-01
-6.613182708713323532e-02 3.849768761918759274e-01 -1.193123850612324566e-01
-6.335693429037798918e-02 -1.553994597387718946e-01 -7.763212629902052631e-03
8.775589078168084534e-01 2.169431675354190070e-01 3.163202043374403472e-01
2.789727798841681178e-02 -3.014496946671056388e-01 -7.277468245353756471e-01
-1.022222341908781557e-01 5.479028413137670972e-01 -1.156987955921832956e-01
1.522776208429121314e-01 8.965852193287437988e-02 -1.821510001259868949e-01
-4.357877246867256638e-01 5.924091516957993298e-01 -8.816185413833525775e-02
5.520688215045799208e-01 5.849863661787015889e-01 5.399383202038642304e-01
3.249376679448554572e-01 7.926877782445124199e-01 3.335926276569942117e-02
4.222277559227577970e-01 1.406901162413511097e-01 5.683598657690733802e-01
1.841450919804834760e-02 3.211221063673262710e-02 3.099303621805343800e-01
3.128928538333199116e-02 3.810356447132678265e-02 3.741172483760004108e-01
9.111504492833229218e-02 -1.037294721079607962e-01 -3.910484727714473585e-02
-6.448723630974919629e-01 6.711848639698304586e-01 2.331452370943765395e-01
-6.772856359800737414e-01 1.689925422570965896e-01 5.747404360582507588e-01
4.933068185131932459e-01 -4.540291781194107923e-01 -6.813537182251498958e-01
1.478255457426141672e-01 -4.233589910041168358e-01 1.116756503894721086e-01
-1.612834685128687051e-01 -6.292826349710613221e-02 2.537999906745644352e-01
-5.465482708266674594e-01 1.777064629353893310e-01 -3.532997702118092498e-01
-1.775648038337700740e-01 -7.828579371609376558e-01 -6.080394990876498706e-01
-5.507906811944517367e-01 -4.968273748882581775e-01 -6.073008045453511805e-01
6.322134084230545126e-01 -5.623564116433072968e-01 2.625964868683216755e-02
-1.159411701874591555e-01 3.250497222606660991e-02 5.646373609837643942e-02
4.141485102425492282e-01 3.967494631996706933e-01 6.556835901897810626e-01
1.160999788230772517e-01 1.426301002786085625e-01 -8.565446789461556021e-02
-9.790544055558544900e-02 7.537884822648867333e-02 3.948456816174226308e-02
-1.252862665704643219e-01 -2.116760962281498404e-01 9.598536262834818367e-02
-2.527321282726281010e-02 -5.887858660337488143e-02 -2.036743852553928313e-01
-3.688400156252694684e-01 7.242517956089554731e-01 1.936883919473055340e-02
-2.911385005280859861e-01 -5.481305853989690835e-01 -7.084072377427753642e-01
-1.577574126620793216e-01 3.360180400841913939e-02 4.956990673861084717e-01
4.212278641701100446e-02 3.284983491848244425e-02 3.286443746013689715e-01
-4.191252753425643851e-01 -7.665600741201811230e-01 -5.073161371208604331e-01
7.823147102871225167e-02 -1.632220773695368735e-02 -2.566856003423093058e-01
1.233146401293305598e-02 3.178069967829013492e-02 3.069082299624328880e-01
-9.955846652787606610e-01 -1.136776119425251530e-01 5.085645976729877976e-02
6.280964756370592816e-01 -1.602058111553343045e-01 -6.120201241003900838e-01
-2.236463872295968158e-01 -1.934590401859941911e-01 2.378237552002663846e-01
-7.372432607479413313e-01 -2.207890562437813675e-01 3.818173247419727745e-01
6.321984583062789653e-01 -6.514461946961028760e-01 -1.152060313914295975e-01
-5.096208962243999885e-01 -3.688799518312300685e-01 3.199341269623163231e-01
-4.201260460834986277e-01 -7.609145807471170420e-01 -1.706619406473231654e-02
-3.367049461278927014e-01 -7.386162779071384077e-02 -5.315841305253597993e-01
-3.781671530300633743e-01 -1.642383525461374727e-01 4.150050553116989560e-01
-4.657587244817181782e-01 2.263722101040283319e-01 6.641994969324600540e-01
-9.691482186563590284e-01 1.993317370261813160e-01 8.253543187410941617e-02
-1.256253403292903192e-01 -2.249250895713383533e-02 -1.899431541999037909e-01
-1.134742866944698364e-01 5.241164570664991890e-02 3.763174242191161950e-02
-7.079954107127898189e-01 -4.305900933372794892e-01 -5.070364096716304392e-01
-8.745019464845523727e-01 -4.679687381021614412e-01 -1.618189950541260025e-01
6.294399283765382824e-01 -6.131780667531159246e-01 -3.989548958421221259e-02
7.183969433745394095e-01 4.532960547520503702e-01 -2.166241596209098064e-01
-2.783012345850608416e-01 7.167238871352393792e-01 -1.386373027942291482e-02
9.516754649304662861e-01 8.506104766426377667e-03 1.544404735601864198e-01
-2.671718391347538413e-02 -2.439993267595388926e-01 4.655623927135731782e-02
-9.570722958581042716e-01 2.142119083720974426e-01 1.841076238141938284e-02
9.772335718628499812e-01 1.777103591995154996e-01 -4.794061418530873309e-02
8.504347129038100639e-02 -1.899882749812695920e-02 -2.084159344834001504e-01
-6.818811590352671370e-01 5.220144195115999919e-01 4.962782157589795684e-01
9.306841511369091657e-01 -1.668331079685588803e-01 9.070306237999721521e-02
9.935887916446460577e-02 5.124526940090856630e-01 7.290123448755844171e-01
7.287911636937083326e-02 -8.626936275507292307e-02 -5.487298826933711959e-01
-9.529577189742211019e-01 -2.566366985535742939e-01 -1.780494374476038200e-01
7.242986547837669542e-02 3.914419580651904984e-01 -1.410145988371086234e-01
-1.741261525253312847e-01 -8.944072018405428981e-01 -2.385893847008258295e-01
8.991782612286508547e-01 -2.293295790061262440e-01 9.575109786437610571e-02
4.234566467769629305e-01 1.524991008639001444e-01 5.752221354961810640e-01
8.290304250157478627e-01 -1.210796905260932560e-01 -4.669334936586070350e-01
5.332324530743621782e-01 -6.213614796096551818e-02 -6.063099392706612356e-01
-1.593758336449576651e-01 1.679466547418518863e-01 -9.433152787721321708e-02
-6.125609690734316048e-01 5.948544670194391148e-01 -1.440412714868191495e-02
9.884334957451129666e-01 -6.798615190767447192e-02 -4.177255438805646537e-02
1.721635178488177542e-01 -1.990588399840658926e-02 2.553682703430599776e-01
-8.777053855471450561e-01 2.103164166195752305e-01 -1.699970739663652364e-01
-6.434458896807736528e-01 2.763109972196886033e-01 -2.788000187674128383e-01
5.648025879277043249e-01 -2.485253143264600784e-01 -6.552068192240670941e-01
6.282472063181542277e-01 -6.005155846681237142e-01 -5.055999104024043733e-01
2.576041668924757000e-02 2.532068396251899722e-01 -8.035094137939560732e-02
-9.210100600850128216e-02 3.985914802480437086e-02 1.023707875303231651e-01
-4.228995179189376508e-01 4.785217064963847022e-01 6.847718989090902930e-01
2.087210162859748919e-01 4.516987596626211854e-01 -1.924614542634710268e-01
-7.159647763084855399e-01 -1.006066330942552781e-03 5.056838421071863099e-01
-9.288441543090518726e-01 2.614996118029836447e-01 -1.477115333604782019e-02
3.939909968038961541e-01 -2.481737547228305696e-01 2.542139998226317643e-01
5.266592368408025415e-02 -7.770402639846800408e-02 -1.182856819773181051e-01
3.409362089225890791e-01 3.484083852179844509e-01 -2.931447201363248656e-01
1.261912085548221873e-01 2.096132751595821547e-02 -9.682594059429514011e-02
-6.264564923428147525e-01 -1.811514434684879105e-01 -5.467458678149136331e-01
6.975709868133451730e-01 2.532865138454474807e-01 -3.895017579387527462e-01
5.088531806260860879e-01 -3.703704631135097958e-01 -6.844863720065902379e-01
4.797057667442696238e-01 1.775131042358981115e-01 -4.589982533884504057e-01
5.375015571030634653e-01 -1.958559107285778034e-01 3.265952735663085194e-01
4.466414497527715355e-02 -2.589852946456491223e-01 5.104219789784424782e-02
-6.471808995322102520e-01 6.194573923256628811e-01 4.313998921666419295e-01
-1.003306449188100247e-01 -5.782989573459908217e-02 -1.161095778218392272e-01
2.933162830125723985e-01 1.225977461597499985e-01 -4.086049376761490826e-01
2.888916109065385318e-01 1.901895180994098433e-01 -3.439729871206294587e-01
3.667399502399649736e-01 -2.316170267950140860e-01 -6.984718861536147738e-01
5.229382951598396945e-01 2.105447820816928051e-01 -4.429311195272723212e-01
1.323951377350043312e-01 -8.425978945023883393e-02 1.657521612143593795e-02
-8.649657871748180904e-01 -2.520946436825310388e-01 2.591784108048297841e-01
2.773851005020785410e-01 9.938976054311085551e-02 -4.184234223944686137e-01
6.769180330455694117e-01 -6.423161060445974346e-01 -1.951911745704879853e-01
-1.145747925915350379e-01 -3.199004220276998600e-01 1.212903766941882400e-01
8.438607581717853801e-02 -6.559543292456861130e-02 -9.566905740284886717e-02
-1.775894911632516504e-01 6.281613100261305982e-02 -1.370973955990770210e-01
7.822911693201221872e-02 -1.505537838136026818e-01 -9.487229673142661204e-03
1.091573056926993263e-03 -5.190237715131846841e-01 1.063286697107310580e-01
1.010309724619415372e-01 1.538097553217795121e-01 5.989534381135084296e-01
1.057706864849337070e-01 8.944726731706857947e-01 2.499977584392865382e-01
5.071748092467608382e-01 3.173698235891817543e-01 -3.692570033821773179e-01
-9.193025101411927968e-02 -4.457807896008734727e-01 1.270070947379201010e-01
2.836175440075319187e-01 -1.516912854911472291e-02 -5.507233609802573149e-01
-9.515210428932713294e-01 1.506301649196137848e-01 -8.488098344047152743e-02
-4.421736750158302698e-01 -4.377942414624493295e-01 2.637697573400142326e-01
-1.236271582181102530e-01 -2.325691762662102785e-02 2.384874837411141979e-01
-7.268369851600843257e-01 5.265476753598045123e-01 4.314064190093202522e-01
-8.972578653250184999e-02 5.754020492097569051e-01 7.255296404056917892e-01
2.961592969207038073e-01 -6.183199697381467352e-01 7.004844048288104419e-02
-4.053116875863157359e-02 5.729170705877014713e-01 -1.128382818031409829e-01
1.345084548049253481e-01 -5.075356365701968464e-01 -7.583056564470579408e-01
3.708184336696534154e-03 -9.076762737841492790e-01 -3.549269183478487300e-01
1.937919179992835250e-01 8.212427981234144969e-01 5.441727015133168005e-02
-3.346086663236578357e-02 1.496024313376518866e-01 5.948800017384384478e-03
8.628150594446591659e-02 -2.594690917631533034e-01 -7.117826235436469640e-01
-5.335536163543783128e-02 -6.836095019809075302e-01 6.083981552315103486e-02
6.395382296639781083e-01 -6.793973010800726797e-01 -2.619387855524519249e-01
8.258346359640496015e-01 4.479609495645357070e-02 3.471894593938545936e-01
-2.617104413077983582e-01 7.786948721107225246e-01 5.552691610124258492e-01
2.339544255180299459e-01 9.833362126890221599e-02 -3.689814149919703468e-01
-2.111718397904628064e-01 6.113515617870686203e-01 -9.280532846744045383e-02
3.727020640974481047e-01 3.662895256200478511e-01 -2.994116156727903433e-01
-4.879838608040670822e-01 4.976196326804020464e-01 -1.484257951082130211e-01
-7.452372794180134319e-01 -1.654710469064999689e-01 4.111277636042139361e-01
-2.358665873351876163e-01 -8.784470044085420648e-01 -2.002317733519246024e-01
-4.774134203329920001e-01 3.719063162545768741e-01 6.780530962029656106e-01
2.086760322946752400e-01 -3.916667243351180661e-01 1.274632388607880584e-01
-1.609435716793158611e-01 -1.076571911316105690e-01 1.574535540146079771e-01
6.052326786336208464e-01 -5.994172137423586788e-01 3.170054528225815332e-05
8.395394483388555346e-03 1.005625843143804765e-01 7.010879442683169704e-02
7.078205129998814682e-01 -5.681352911580852538e-01 -4.297693438572773861e-01
5.473539046268616204e-01 -6.847765804225618425e-01 -4.936543973051059075e-01
2.207969748286806033e-01 3.715096191371395490e-02 -4.434627537179720025e-01
-2.715398696591351246e-01 2.898016493319102160e-01 -1.826882041519303779e-01
1.829682788407630267e-01 1.637136682001665844e-01 6.035539573605308572e-01
-5.482022379901483333e-01 8.514038512274964277e-02 5.984051762816328113e-01
-1.904348826861382293e-01 3.820452397896630103e-02 -2.187225089663987487e-01
1.378781483804789598e-01 -4.770258244264578007e-01 1.082266775943535597e-01
4.109360795798424615e-01 -8.125942334736391270e-01 -3.661329872741682090e-01
-5.776066998726249180e-01 4.594295602150160751e-01 6.162823959323877610e-01
1.553206137719943536e-01 -4.098730828092287531e-02 1.077227297015611457e-01
-9.316742705193325862e-04 1.215028213348920000e-01 4.107151765908491348e-02
-3.728557318808976007e-01 -8.631780204421032887e-02 4.785094597478560252e-01
1.779682844892765958e-01 -1.140551117010293464e-01 1.092646644957177976e-01
7.914264911549573345e-02 5.399509588800686238e-02 1.094189323916828216e-01
-4.901431127035300178e-02 -2.572177584222513635e-01 6.230672290634732546e-02
7.904254796036136455e-01 -4.898146500541735171e-01 -5.831421691407644159e-02
4.526634569744665271e-01 -7.961317741669299286e-01 -2.853138567908540257e-01
4.739717136274063658e-01 -5.209538829054611853e-01 -6.719088468672820280e-01
8.838732338339578831e-01 -3.488930533984384574e-01 -2.226965535799081686e-02
6.064078668926112074e-03 2.568427211244956876e-01 6.868509765228725250e-01
-2.555141346151947879e-01 2.377170671368392385e-01 -1.820747899040614515e-01
5.312869352730380523e-01 2.180990317599430239e-01 -4.385779960238396225e-01
-9.623049988406228161e-01 -1.032403166560057067e-01 1.969471504936355644e-01
-1.475967978329089103e-01 -4.699150851036368315e-02 -4.333282542887198496e-01
1.178739129700044491e-01 8.591047675755772439e-02 -4.925460956431690351e-02
-2.578379493310429260e-01 -4.732434837318315601e-01 -7.257913127383033292e-01
7.804683744896844244e-01 5.763746777099573171e-01 1.167949729875133874e-01
-2.045498542846087009e-01 2.341006856583639426e-02 -2.934898504030827859e-01
7.058452985723151496e-02 8.076690187866307769e-01 3.199062886484158041e-02
3.442911921421240584e-01 -4.388274385450053883e-01 1.539707289899907294e-01
1.588547047119033551e-01 9.064967225417501495e-02 5.204493772709508637e-01
-7.452703067516797120e-02 3.184063433791007314e-01 -1.038937734728707235e-01
-2.321913649992253803e-01 1.344290757379988134e-02 5.107901459557933066e-01
-4.094650410538382967e-01 5.529281417311617819e-01 -1.186112877269992899e-01
-3.623105831567104973e-01 -4.009683767561331158e-02 -5.015698066447643599e-01
7.373014679792173898e-02 5.669559706267185417e-01 -1.288096370253624112e-01
-7.187819719796136042e-02 2.099544521230768679e-01 6.654017247774360877e-01
7.617006402246967456e-02 9.062908453902474015e-02 3.656020305498571682e-02
7.919134968843515310e-01 5.319693753011334181e-01 -1.491526626909268037e-02
-2.070767536798316377e-01 -8.652913274866635973e-01 -4.680675305782040496e-01
1.840626357425149406e-01 1.669536416539416090e-01 -2.144921616170288037e-01
-8.009129897482757110e-02 -9.821760468322508764e-02 -5.349428602300142499e-01
4.925689999955233656e-02 -5.969557848601306227e-02 -1.581060242712688246e-01
-7.348365563105175857e-01 3.645433178421794707e-01 5.252298164511581824e-01
9.422432534188412978e-01 -2.596923523700554390e-02 -2.902766041797765206e-01
-5.062690455341684048e-01 -3.090347651453644318e-01 3.591707201828946983e-01
4.027906881219505131e-01 4.908728249942994615e-01 6.554623830322141576e-01
2.638704896009753109e-01 -1.367253599424403387e-01 -6.503524150972237461e-01
-2.303002127689448772e-02 8.986197718181089256e-01 3.051606880610475692e-01
-6.310233440513327574e-01 6.794183506349926738e-02 5.681375442387963659e-01
-2.156300143897002530e-01 1.016089301438362624e-01 -1.870422541839916741e-01
1.038715109089577426e-01 1.837619862936048024e-02 2.434074864872230459e-01
1.733159703760276948e-01 5.182121738485726686e-02 4.585963404686357325e-01
-9.635265528937851931e-01 2.165912993755381710e-01 1.363489371128025207e-01
-1.257241754986369309e-01 -4.966702734718671935e-02 -3.897148292214227400e-02
-4.024116034637303385e-01 -6.940773409722869047e-01 7.143089809879321628e-02
2.922687745859026132e-01 -7.898545399375646037e-01 -5.547105359543713643e-01
7.659969271274540414e-01 3.343675600592761477e-01 -2.921440031691885375e-01
1.935894825608325542e-01 -6.786924804075818163e-02 1.859530526369312653e-01
-1.452458267503392020e-01 -9.037515352045794037e-01 -3.229203805969299013e-01
1.883494397756159400e-01 1.430420837612826103e-02 -4.470867833867120389e-01
-4.643647831275974913e-01 2.858870417372900152e-01 6.766706927144018335e-01
-4.258944256592017696e-01 6.479292612459807144e-01 -4.341742382897487151e-02
-7.497390996465868040e-01 5.054702283397060070e-01 4.180043193423377268e-01
-6.018223977785505663e-02 3.053939662923776388e-01 -9.780452602058838096e-02
2.515034755746681575e-02 1.401739656468897199e-01 1.170565667916237916e-02
5.882989135307729045e-01 -2.099745440146928432e-01 -6.393720391401868097e-01
-3.699207099458307613e-01 -7.813524298245763111e-01 -5.228396488228970185e-01
-5.357582625319471381e-01 3.705768462799117757e-01 -2.275097981028237071e-01
-5.032334119400513339e-01 6.164193331493798139e-02 5.952431887615854400e-01
-6.715653575902594263e-02 -4.016621544820922485e-01 1.163834249325872566e-01
-7.391963660040633544e-01 -1.767742016709839339e-02 -4.231762126298159732e-01
-3.936423720007500848e-02 -6.295140972200337359e-02 -1.855724424782740634e-01
5.316735875248379539e-01 -5.700213447791847576e-01 -6.162407898016848407e-01
-2.039124814214469117e-01 -8.632112878947449663e-02 3.185548889331916156e-01
1.960359835453513288e-03 3.410338525698998757e-01 -1.122097787075456016e-01
-2.467560389396905585e-01 5.202223793693910858e-01 -1.287376562455378182e-01
1.268464495936280634e-01 2.477010043203174347e-02 -4.115444873987203489e-02
9.174008165756205591e-01 2.052885441209208461e-01 -2.200723453486720660e-01
-1.361349227614920276e-01 -1.409074940539548348e-01 8.383630575947340069e-02
1.742441137813802443e-01 -4.064085017461813859e-02 1.888722141695549639e-01
5.333184818599447929e-01 -5.543406031191189243e-01 8.184205787340134708e-02
-9.713238535852057876e-01 1.913981425483159138e-01 7.867473724898391141e-02
-3.748848774780343118e-02 2.582876098846175264e-02 2.608819273039710285e-01
-4.804975519504286474e-01 -7.982080603928409790e-01 -3.697221093574566964e-01
-8.442236267278108164e-02 1.256604485037839114e-01 3.121567410347150361e-03
-1.235401900282502990e-01 -3.370905303411705911e-03 3.744146661831068146e-01
-3.734535702738477070e-02 -1.903764079543548704e-01 1.036649949492699646e-02
-8.906997901928469519e-01 -3.539819427411347585e-01 -2.866846710464226455e-01
3.582911073955889480e-01 1.914420507157868767e-01 -3.992605595787711570e-01
1.857018217876900135e-01 3.089018200256775648e-01 -1.973691068102165214e-01
4.572272334704619023e-01 4.042204487132747270e-01 -3.040865834034339743e-01
4.206880116099601663e-01 8.131195489735776327e-01 1.448558546010458303e-01
4.012931228888867441e-01 -2.462634583992335813e-01 -6.985099186780479030e-01
-1.901399557424311160e-01 -3.207831831924122801e-01 1.741686451006539960e-01
-2.805490441210973240e-01 -1.820204599868496809e-01 3.204640234193447679e-01
-2.271692639607564845e-01 -5.952397270484075659e-02 -4.910340614052317587e-01
-1.789591747295468105e-01 2.897325277305622948e-01 -1.311811283595039901e-01
2.460714519074566620e-01 7.786128910646141765e-01 -1.865419896559000973e-03
2.091827893980027220e-01 1.540453205885339849e-01 -2.667412845482853290e-01
-8.045377140524427595e-02 -2.410223847864585156e-01 7.025318342790119741e-02
1.796297721126329239e-01 1.253681136255750672e-01 -2.301154902265608315e-01
-6.964647713414321428e-01 -2.577575738988920340e-01 -5.258993739600901218e-01
-5.130362912008451515e-02 -2.074650733535692293e-01 3.092303297577848886e-02
2.447471550087664538e-01 6.751258110049894456e-02 -4.246388473537326402e-01
1.820449527487055241e-01 7.992407342689178407e-02 -3.003925111991410657e-01
-7.897973952943213583e-01 1.957873478534187528e-02 4.666639402021852678e-01
-1.692081695905107430e-01 -4.910114390476268825e-02 -4.493737767447830711e-01
-2.022783760599401737e-01 1.980283898979834090e-01 -1.408421933300278428e-01
-1.049307709571931785e-01 6.319547834086873539e-02 4.220789454046860317e-02
-6.223175634731762523e-02 4.333970718232645764e-02 1.465652978108657190e-01
-1.416009318885103896e-01 -2.303749525827387401e-01 1.205495855571973723e-01
-1.496757065532959563e-01 -1.384981641689657095e-01 1.143260443882612165e-01
1.097506946711152287e-01 1.381588396470344315e-01 -7.183064129831373545e-02
-1.617538544918350751e-01 -1.653388130769141151e-01 1.404388406050451066e-01
2.133428423596296086e-01 5.505358397301367557e-01 -1.646182580794509076e-01
-2.896318484918614534e-03 -4.366371923780028030e-01 -7.594243205781080475e-01
-2.634719833825728205e-02 -8.045222746218064769e-01 -4.065652383265266900e-02
-1.043621033358095168e-01 1.692218109973052387e-01 -4.515968509244692314e-02
9.270809374143551551e-01 2.775984945548871652e-01 -1.243448376173108272e-01
-3.165271735895764382e-01 5.667453952462356837e-01 -1.131763852096605988e-01
1.564101033716585043e-01 -5.042294047771208980e-03 2.760852495212702817e-01
3.913206382652750781e-02 -9.852157290881601026e-02 -9.564110165530757823e-02
-1.765758140033175105e-01 -2.570965035980568580e-01 -6.854551534096761101e-01
2.621919695286372212e-02 4.196213051158497603e-02 2.107717966652559172e-01
-2.032487119894076932e-01 -1.327144073401874125e-01 2.483195376094858575e-01
-7.840402255111936780e-01 -5.527374643057868520e-01 3.705800481773556358e-03
-1.830300190018333828e-01 -1.729417945102443288e-01 1.795682744289982813e-01
-3.907764445027642197e-02 3.181878692373742434e-01 -1.013908069652754707e-01
-9.675895368577824840e-01 -1.871086521315888651e-01 -1.636258466868157069e-01
6.651279809423409350e-01 1.498363453699139702e-01 -4.657761140490404572e-01
-6.285701576044487870e-01 -6.074723828680298476e-01 9.495525010472344318e-02
-4.726437583350986960e-01 -8.054975142506600738e-01 -3.574052400404568175e-01
-4.171331151372442148e-01 8.067693472643748809e-01 3.096007340101962768e-01
3.582053646930339341e-01 1.081504084512161651e-01 5.510517734105249144e-01
6.005135291677390352e-01 4.741804801948690806e-01 -2.506555757129573792e-01
8.645202207781670090e-02 3.073052754116190055e-01 -1.296904160321993293e-01
-9.510243522788968118e-01 -2.785082561611231314e-02 -1.967366404610774167e-01
-7.830234000280261730e-01 -1.090571931652104254e-01 -4.296439426199830658e-01
2.483968940747148801e-01 -2.321419555817460234e-01 1.649753764626999408e-01
-9.162469956752090638e-01 -2.550941940853230783e-01 1.804143384482693735e-01
-6.503585714016965613e-02 2.517104276400443374e-02 3.925132007148268154e-01
6.642696107012878437e-02 -8.822824527797690219e-01 -1.908207006212440937e-01
2.407176984378977536e-01 -4.371890943508487948e-01 1.305753073743189385e-01
-6.447689805250633732e-01 -3.009488427319116921e-01 3.612935617240037312e-01
1.017053408585133767e-01 8.878809715011167780e-01 2.071000576470915233e-01
-5.679613036492611178e-01 4.992291001107178050e-01 -1.326301292955802402e-01
1.795120969775991504e-01 4.477573357280476007e-02 -3.714676657288951689e-01
5.723917414278055782e-01 -4.393945050414360121e-01 1.621970883234215843e-01
-5.845389047646401895e-03 -4.543177380406089594e-02 -2.607174006362191210e-01
3.613356661577287188e-01 -6.846988790920416346e-02 -6.142977664044985131e-01
7.084774199854498855e-01 6.297575463302156340e-01 4.635992036626519763e-02
-4.726086600490007616e-01 4.908792142822108739e-01 -1.539416459592607700e-01
-6.438220480523819678e-01 7.293307680918482798e-03 5.395592743737567254e-01
-2.582577429293146307e-02 5.362848988767552477e-02 1.576209507368432905e-01
-1.124575248085358525e-01 -9.235601521064651376e-02 -1.248381516292778985e-02
4.949701206261812592e-02 -3.264853704930121836e-01 8.090328041713092111e-02
-1.310172605887305886e-01 -3.354838293974750085e-01 1.340263418126454997e-01
-3.680537028916382458e-01 -3.290795538259907449e-01 2.977604523409193571e-01
-2.653288308557637531e-01 -3.385479890944526060e-01 -7.062755853011084550e-01
7.269862187653665375e-03 4.539568039543935563e-02 1.975200324380338712e-01
2.651350994737095568e-01 8.624392798499929125e-01 1.788851223745730468e-01
7.220558215927314061e-01 9.821745388779055952e-02 4.458609371542791022e-01
-7.265426795732944365e-01 -6.096833690480802925e-01 -1.115212087188230741e-02
-1.932399626166698692e-01 -4.501316412744119644e-01 1.642953464414586562e-01
2.656341796731736538e-01 -8.662557899578288145e-01 -2.871230302776497934e-01
-7.745329246642161936e-01 -3.618846417982677921e-01 -4.577632758235184451e-01
-3.731928151043832353e-01 -6.587938458852815593e-01 -6.349372044137198134e-01
-7.501025572439137812e-02 2.445720306846096703e-01 -7.389510373205487870e-02
-1.307048527873681254e-01 7.827156490705355907e-02 -2.000341192833907794e-02
1.488571824696625634e-01 2.850449436734224240e-01 -1.669228912962762157e-01
1.083169637951746228e-01 -8.312695925427275589e-02 -3.240472986695438345e-02
4.658487359176871623e-01 -5.709303845816151579e-01 8.448327993241605549e-02
-9.165889941143835484e-01 2.681198822247808922e-01 -4.047772238293133318e-02
-1.554053603930177470e-03 -2.539875932836216932e-01 4.762195609884875558e-02
-2.556487016359526576e-01 -1.324869066003737383e-01 3.375776316357764761e-01
6.542263615169077173e-01 -2.047553329285945467e-01 3.089285474010428634e-01
2.786064865898963405e-01 -3.304922838850889999e-01 1.633183077351053059e-01
-1.349746648487014644e-01 1.420124942827760972e-01 6.203015798824392801e-01
3.189038466036845376e-01 -7.810696085288540425e-02 3.427452815131770136e-01
-2.003094022658015450e-02 8.131196349150504599e-02 1.005471941762222238e-01
5.777241424876373710e-01 1.317409092904695822e-01 5.269941870446330778e-01
-7.996730455889523581e-01 -4.005671927001386301e-01 1.974357721199701265e-01
-1.759617316008505461e-01 5.105621639194076744e-01 -1.253650490343170276e-01
7.259756298311011991e-01 -3.186763808739411785e-01 1.990715128271610956e-01
-5.243354241944033767e-01 -6.771579250779713455e-01 -5.254658334225590366e-01
-9.007986595187385259e-02 -1.915094656064683931e-01 4.740053350416559980e-02
-4.775415234006785692e-01 3.412186331356866775e-01 -2.409396993490923733e-01
6.369634136638926414e-01 5.044388647376405466e-01 -2.108701462644657909e-01
-8.521374517609200394e-01 -2.019085703297167078e-01 3.088025645460428792e-01
3.249064045629304620e-01 -3.627635652658671717e-01 1.743892228045031412e-01
4.177465108843427810e-01 -4.667351288788736952e-01 1.520150053262363243e-01
-1.148264631662365004e-01 7.718194199157098201e-03 3.983113999276048367e-01
-7.159745522539501250e-02 4.775052811141816123e-01 7.415044599773046308e-01
1.557520835748449073e-01 5.015287372600920474e-02 4.493861108839609098e-01
-3.705432208996042864e-01 -7.422412651018489571e-01 2.247952248574821774e-02
3.164537797023603272e-01 8.181647485744742987e-01 4.566108734074322828e-01
1.519868855879006608e-01 6.529060432298187944e-02 4.780492200268353642e-01
-2.016261923794219757e-01 4.829003721199714994e-01 -1.331816675137574846e-01
-7.537223596123130420e-01 5.541610170492076159e-01 3.271311450884967220e-01
7.545586953435635680e-01 -1.233266390121196959e-01 3.183933870089234452e-01
-1.975815198974663345e-01 8.277729474315901337e-01 1.088177365795881951e-01
7.134817976042555632e-01 2.013404003594899960e-01 4.805937292117430926e-01
-5.322309080665411640e-01 1.327785077132942193e-01 -3.837850650392590213e-01
-6.223994247372471866e-01 -2.981215716823644724e-01 3.674427537741655758e-01
2.505356431811973650e-01 -8.685399256868462370e-01 -3.806237240813291067e-01
5.265721893064558845e-01 -5.912345167906442045e-01 5.072239341483398417e-02
-1.852218044803238817e-01 8.275834091529947756e-01 5.110171119782122018e-01
-3.270975176472497026e-01 2.609673838869262519e-01 6.952434786173918857e-01
-1.587773876885298363e-01 4.191686000369640452e-02 5.095306276179969451e-01
-1.328146112226239739e-01 3.920701192652477074e-01 -1.275503485232525880e-01
2.715719018270430496e-01 9.115963573771229678e-02 -4.222581883444556650e-01
2.643296375818650068e-01 -4.683105391990319277e-01 1.287187461302655711e-01
7.296950752463307599e-02 -3.397161506761738892e-01 8.747172456797387696e-02
3.318312681894971528e-01 4.013508903879336454e-01 -2.642095360133633886e-01
-9.071466496033829818e-01 2.586388544281581492e-01 3.229270348418972758e-01
-4.807468016124606947e-01 -7.434665182806903250e-01 -1.698682878875788088e-02
-4.967148008863710440e-01 -4.822782784553541480e-01 -6.403316782961679943e-01
1.147824374631700867e-01 7.571712376080418083e-02 -2.817306508196976839e-02
-8.689320553594785945e-01 4.061864821024023242e-01 2.656312844395787853e-01
-1.215609295365579351e-01 -9.664667036491741969e-02 1.806129803729060457e-02
-4.466486539475753026e-01 6.902642164729043840e-04 -4.768118941227545426e-01
1.206655451841684851e-01 1.133534207330857621e-02 1.619337669437461713e-01
9.937999611042647174e-01 5.294844283882908093e-02 -2.757844349811026594e-02
3.014141724885350745e-02 2.902768025360686344e-01 -9.991216135050949576e-02
5.453031633932472477e-01 -6.957310044414718453e-01 -9.712176131072569607e-02
-3.436196547577072269e-01 3.158330682908238596e-01 -2.122442394965288193e-01
