-1.366247647137510957e-01 9.680913099566459401e-01 -1.136760065993584479e-01
-2.650004099626213083e-01 -3.894409053397785564e-02 5.952014944154507825e-01
-1.368780312978237212e-01 -7.609350186841526975e-01 -5.566125112841995293e-01
-1.659514896901808090e-01 -4.115643190839222698e-01 1.448623645610855049e-01
-7.144248692563618395e-04 -3.026979894004173943e-02 9.868320777250289000e-01
2.521727720174428700e-01 -2.162544348054068200e-01 1.642167288164335937e-01
1.312224068373041841e-01 7.910984054696142964e-01 -3.339878404988468885e-01
-4.587374043303870108e-01 5.559803034220990314e-01 -5.329808530019870538e-01
-2.484709736587744355e-01 6.522297927252590499e-01 -6.880523514641729843e-01
-3.433728918103577388e-01 -1.341507442062463140e-01 -3.781318931508159120e-01
-3.005412841463405565e-02 -9.383841658527761198e-02 -2.355240223866719718e-01
-4.782639861317073415e-01 6.779932730305676669e-01 -8.460985622731800881e-02
5.076277167615548397e-02 -9.055130018897581401e-01 -4.058633357595987645e-01
4.336773638850752732e-01 1.638769732990957018e-01 6.926274127498224242e-01
3.699533197273643936e-01 -3.195646392789002754e-01 -3.746469027715660371e-01
-2.211014057241417197e-01 -7.434012921321242473e-01 -4.339044398109256351e-01
-1.568352484605028130e-01 -6.719842859790308154e-01 -6.609153167003523066e-01
7.799742114945386329e-02 -3.339398782552278067e-01 -9.100518089657780862e-01
-3.434618059788225319e-01 8.868937003489808513e-01 -1.443179748074398805e-01
-3.445111810941543506e-01 2.968417401891844665e-01 4.009117936162976403e-01
-2.177196549479203103e-01 -4.940621625484054036e-01 9.279434844909029492e-03
-3.736098978348628141e-01 9.894568908738390900e-02 -3.338042335033994390e-01
-4.076332918328407495e-01 8.285381480315731073e-01 -6.218668047135319371e-02
2.051301957350004368e-01 4.012634045063181998e-01 4.941420246269163236e-02
-2.957217838331076543e-01 -4.620403636101103606e-01 -2.604789487938778403e-01
3.665578474081350180e-01 2.455272846753464855e-01 8.080326877584526057e-01
-4.700454340281686599e-02 -2.763536915204962141e-01 9.132793401889109930e-01
-2.497454991899234200e-01 -7.286400911361371469e-01 -2.154790345995677980e-01
3.342717614307795237e-01 -7.740417494498422757e-01 5.422377779847271650e-01
-3.800007046592837612e-01 -1.817904864344790927e-01 -7.652932999608796916e-01
-3.769447163707415616e-01 4.664226524666558182e-01 5.122431386446425483e-01
1.944029926593441315e-01 -8.700608755887205836e-01 4.694571906015879703e-01
2.894198845010786392e-01 -2.721134673195388376e-01 8.831681679493050274e-02
3.061922313092843018e-01 -1.637093751092259797e-01 -7.069668041338510456e-01
-2.280817426672859805e-01 -6.430703375002615185e-02 4.819726777480069502e-01
2.329145846336436454e-01 4.098932536341658439e-01 -4.992731249199838239e-01
2.529470953055093507e-01 -8.541448201279842056e-01 4.753256841641071984e-01
-2.186007998036496314e-01 -3.742603835104147403e-01 -1.571287491556089266e-01
-1.122439083915746372e-01 -3.446258975895963306e-01 -4.216983064941911110e-04
-4.683174629525189148e-01 5.120560903483828419e-01 -1.949735146837425562e-02
5.051148028175624916e-01 -2.593198509439034738e-01 5.041936951906955677e-01
-3.761542593705060056e-01 3.742583188456178878e-01 1.051313348287577082e-01
2.305411468249170814e-01 -1.861000933867505425e-01 1.923695196034487798e-01
-2.458013004286340175e-01 -6.583536954564123134e-01 -5.530586335258418362e-01
2.901765954091228839e-01 1.394424861105196013e-02 -5.904441745692111665e-01
2.327276196804272668e-01 3.639879161577637690e-01 -4.251613400631260031e-01
-1.405400930342586840e-01 -1.075219009601853376e-01 -2.463877965140487680e-01
4.497112863688764728e-01 -5.288034543189218395e-01 -2.478088317452329659e-01
-4.824403303425296441e-01 6.685504687833860871e-01 -1.369979140041263921e-01
6.561192833677358116e-02 2.871592469880226428e-01 -5.649494769268237349e-02
1.020326579499884756e-01 -9.775221049678081142e-01 -1.724593462447263914e-01
6.678288010487107296e-02 -3.891525551006030370e-01 9.102238723552116273e-01
-1.024002226352598299e-01 -3.095253278995578894e-01 1.931297884730929781e-01
4.753488834435394272e-01 -3.093811862906601373e-01 3.248996468569421703e-01
7.994251684639933075e-02 -1.277197690065471902e-01 2.361319265552993540e-01
1.109838461142514526e-01 2.315484773174111832e-01 1.781315454483536065e-01
-4.594581386247070798e-01 4.249790119403480948e-01 -1.338629297694139964e-01
-3.241182243609821434e-01 -1.562314052959714594e-01 -8.558302355741758127e-01
-6.243041416055821607e-02 -8.916227293221312689e-01 2.495363504237886332e-01
4.526677713487995414e-01 -2.133209261964652270e-01 7.739168910715658045e-01
-4.611591984482475703e-02 2.300218630063280145e-01 -9.032483778234769167e-02
-2.169561183805899240e-01 -2.571861205862125965e-01 7.004595113703314668e-01
-3.060276740359342273e-01 -3.204524938090982933e-01 -3.184120144377616812e-01
5.669255392634640206e-02 -2.626246713110405029e-01 5.631655734659558182e-02
-4.935444601380067908e-01 6.054284580135583793e-01 -2.771921959870357055e-01
3.094551932221525914e-01 -7.542033352885657571e-02 -6.075812465962101561e-01
8.896988973811045809e-02 -2.573700106598553750e-01 -4.212630144849360825e-02
-4.292866415451392914e-01 -3.415616619444026246e-03 -4.831171041001625643e-01
-4.066340775961994614e-01 3.688999525152610315e-01 -7.459004701671002602e-01
-6.908881344265012381e-02 -2.909988515961972610e-01 1.655981345604752020e-01
-1.378885642631600683e-01 1.496379127196319214e-01 2.643919851955124911e-01
2.906160826806605813e-01 6.526268880235567282e-01 4.792112228228873061e-01
-4.415389998918112235e-01 4.981934021884947272e-01 1.364496880370870135e-01
-3.847153831039186178e-01 8.300877693502137777e-01 1.372879244135007115e-01
4.666549305439472439e-01 -2.254720248469459787e-01 7.445780768333299937e-01
-2.224960073671749250e-01 -3.993178109425490896e-01 -1.397977450446302172e-01
-1.027906193882011654e-01 2.437468169610482738e-01 6.544601373814670775e-02
-4.040537088156199719e-01 3.983578033307300648e-01 3.986044100273139490e-02
-3.036619490821820255e-01 -1.529448931267759007e-02 -9.013494447002893262e-01
-5.256369429497032009e-02 -3.067600057099947874e-01 6.705555572817958887e-02
-3.953130722358766391e-01 6.153660519593014966e-01 -5.966182276500662240e-01
3.221771591491935371e-01 5.052760737997370466e-01 6.609389865878939618e-01
-4.976997512497758902e-01 3.739678160805406382e-01 -4.440206326273724025e-01
1.035270372765664110e-01 -2.458034731551357877e-01 -8.773714697874790414e-02
-3.723134253792229620e-01 4.192997722360012891e-01 -7.633130415452833439e-01
1.250999284389048283e-01 6.026180057698861114e-01 -6.133254187641715705e-01
-6.361005714827194790e-02 1.627902584497031013e-01 2.210048499262606270e-01
3.201886475909653806e-01 -7.944616696266703082e-01 5.250577387473911450e-01
5.159052764314765449e-01 -4.022737482809014553e-01 3.896204669801797138e-01
-4.894606013292476243e-01 3.017022948938254956e-01 -4.468021403889813614e-01
2.059412539484485605e-01 7.582921382835152713e-01 4.858476247402289672e-01
-2.030569002888330810e-01 -2.101515647230102202e-01 7.708148785745372322e-01
4.087503207313708531e-02 -5.002008514764934022e-01 -8.498979822328240896e-01
1.889199902219497740e-01 -8.464109561187642683e-01 5.123503617102669327e-01
2.004105612079535026e-01 -4.104549747837522161e-02 -8.602481207425488607e-01
4.191460312767673058e-01 -4.186686780334602509e-01 -1.026797556293218699e-01
1.660814222613692798e-02 9.439811247899622115e-01 -1.102823913993209448e-01
1.260455898474748260e-01 2.945528632751366338e-01 -1.780788247303984606e-01
-4.385031506222228925e-01 4.767607660926310165e-01 1.004414152577844666e-01
2.457189787939691172e-01 4.782589081942205667e-01 5.088159913539157947e-02
3.533456689499664405e-01 -2.035521961597257234e-01 8.951097052151755218e-01
1.102753415679916249e-01 6.893961921268982884e-01 -5.345298943170573303e-01
2.028806182158310045e-01 -7.394032967395290923e-01 6.565624291747056418e-01
4.959207423603883003e-01 -4.691499235145726865e-01 5.903332936169753964e-01
6.337138216502508081e-02 9.133562008780254926e-01 -1.492337322892333673e-01
-4.152815520216675549e-01 5.940759080559198102e-01 -5.866110215775214298e-01
-2.227442930643884211e-01 2.271169489704495947e-01 -9.867328472184098975e-02
2.647670865799108264e-01 2.522611581970413686e-01 2.799691930097630843e-01
2.745346858167744819e-01 6.894363838589977478e-01 1.669653570971398049e-01
2.995396585053156646e-01 5.793858770499665800e-01 2.081900614480660661e-01
1.938863400111368387e-02 4.023304921890996089e-01 -8.526021895447821741e-01
-6.928799891547625378e-02 6.268592337933387437e-02 9.649848483102614338e-01
-1.101412435777695542e-01 9.070361348020268277e-01 -3.424605123292166486e-01
-2.437303684433846096e-02 1.245637590936667094e-01 2.444131783347685827e-01
-4.031561464628319325e-01 4.460963712607974307e-01 3.432510059853513540e-01
8.951230406093596548e-02 -9.574927131648229839e-01 2.384063936802840178e-01
3.777807826332775232e-01 1.089525666252213337e-01 4.167179005984739670e-01
-2.125283960616479728e-01 2.497657520434270195e-01 1.550644490605262715e-01
-4.476311567753412657e-01 1.763816199784516356e-02 -6.748876609541055727e-01
5.175803558135826377e-01 -5.987709473364132284e-01 3.059805973695350345e-01
-2.271388892942481363e-01 -7.640933168401360387e-01 -3.241884622494590751e-01
-3.599347310860877003e-01 -2.886492881185004356e-01 -7.381347937993412156e-01
-3.324747527934515667e-01 -4.322163844797650700e-01 -3.702396686029422734e-01
-7.438334432698917587e-02 2.375376685268090204e-01 9.470031729347825333e-01
-2.378625232088383001e-01 -7.209425814225543794e-02 7.620378110150283213e-01
3.958432845417782509e-01 -4.678296345334573836e-01 -4.959985496962847074e-01
2.979345473603007277e-01 -9.484626759497173376e-01 -2.622444361307997920e-02
1.024076814663249374e-01 2.582024893138621380e-01 1.409773033574379941e-01
1.731617528760082680e-01 -2.147859290289785283e-01 -1.843092944598847260e-01
1.437148192604011387e-01 3.361811196953853886e-01 3.921742445845410180e-02
-5.000517608462569097e-01 4.176229939882037945e-01 -4.153448881082782429e-01
9.945172327492557418e-02 -4.639288091272896208e-01 8.780032413296989802e-01
-2.380621260634696035e-01 -7.521284148814095794e-01 -2.830974836186123111e-01
5.120398821733784800e-01 -6.169934290211128713e-01 1.514698774968598616e-01
-2.558759803089822316e-01 -6.716703402346352325e-02 7.005380987033054119e-01
1.674461344260358142e-01 7.454706098518311119e-01 -3.277817195493837876e-01
-2.045435271579199021e-01 5.547238806526301191e-01 -7.828298142010303717e-01
-7.253461078073523451e-03 1.154523334508731486e-01 2.475447308508473554e-01
-3.015131858605746840e-01 -5.802897571559032519e-01 -3.045940097011138326e-01
3.580278387691627207e-01 -2.797712217397363421e-01 -5.570969018066527223e-01
-2.745658051761983853e-01 -4.955778673971593662e-01 -1.887413578710441520e-01
-2.874723149688299118e-01 2.811920342595262134e-01 -2.717666526732789162e-02
-3.424288270260338052e-02 -1.583118089844822163e-01 2.659134483360285905e-01
2.447476239628687822e-01 6.788030539020049048e-01 -7.015628771129281405e-02
-1.356911889914703094e-02 8.525969169236340406e-01 -4.159893645939441442e-01
1.779306780677855637e-01 3.368857356628356392e-01 -2.353233936485473188e-01
3.020006866529624800e-01 -4.259894155052353776e-02 -6.224796408008529403e-01
2.925235605512991888e-01 5.193946798537761866e-01 1.852634203624212716e-01
-8.217674545479858317e-02 6.526756068567117486e-02 2.937068761910654469e-01
-2.521684724025835198e-02 -1.303350895772410409e-02 2.908233595445462449e-01
-1.924509092014180800e-01 -2.342318017260269503e-01 -2.271013984810001107e-01
-2.874008272498922989e-01 -6.442478558414276302e-01 -3.864643276761781654e-01
3.659526488714828774e-02 1.293538138386122194e-01 -2.395945650207788047e-01
4.936089038358948411e-02 -5.867416399271251082e-02 2.674359916824193273e-01
-1.549466706000137139e-01 -5.062963468682015744e-01 -8.133710487224203867e-01
-7.451583279180269692e-02 -7.742687032797572755e-01 -5.881473998756270305e-01
4.856912384548705552e-01 -6.499666664622356649e-01 4.401523908337955371e-01
-2.273130355507411993e-01 2.673800254658857956e-01 8.755069772587778520e-02
5.226652046148962290e-03 -5.303085864561388751e-01 8.068899958830209052e-01
2.539340197050629633e-01 2.199043793664730018e-01 -5.492293222725289636e-01
-4.246393078267852172e-01 5.203230026883148840e-01 3.018581849215886126e-01
-1.377144192137376988e-01 9.285411797571202497e-01 3.211558625145392032e-01
-4.500270853678279837e-01 -7.214965667448011190e-03 -5.945019442511321195e-01
-2.674765733603594597e-01 2.815738218387865421e-01 7.781241716695584953e-01
-7.614364288372804657e-02 2.384305383697744030e-01 -4.866728788746796375e-02
-1.235024042843277936e-01 -3.426449759258846650e-01 -3.819517677524931348e-02
-1.784787635804656325e-01 -3.805559178718739277e-01 2.875218859537758131e-01
-1.443067341337253562e-01 1.523788089227416376e-01 2.656219139914676730e-01
-1.389191457717112166e-01 -1.926437962136445525e-01 3.449143616497483689e-01
-2.919235431285632787e-01 -2.519685155307007651e-01 -3.131393089627445003e-01
1.799205465657392478e-01 -2.157997609425967300e-01 1.437796661888937066e-01
3.556020041633134454e-02 -6.574104966157398033e-01 -7.421360870241496821e-01
1.803179087215566745e-01 -8.880646721760967477e-01 4.370006427471710420e-01
-2.408024872753600776e-01 1.605228610096630093e-01 3.520199196106800765e-01
-2.537924854752334758e-01 -5.492449742893299458e-01 -8.584244254887984926e-02
1.284806816692894427e-01 -9.382759969204687023e-01 3.163030941676049923e-01
8.887698346869360444e-02 1.436590663877846119e-01 2.355202936670415526e-01
4.225290598876890735e-01 -8.439120107154374217e-02 4.093554793914399026e-01
4.522708707931386019e-01 -7.060025406673370307e-01 -2.051947154530919526e-01
2.749204020448960950e-01 -7.075828701589415015e-02 -7.545685111110151944e-01
-4.518407967816626680e-01 4.280992974080646829e-01 -9.586446572961182522e-02
3.983580528829017142e-01 -3.389445372581313398e-01 8.202745107719612294e-01
4.362028808034801308e-01 -2.428252276024366885e-01 3.119653445298987693e-01
-3.448283907993455188e-01 -4.460714814529209010e-02 -8.603690345746514145e-01
-1.697047638657284835e-02 -2.890426093627507798e-01 1.367707310875035734e-02
2.774983515148216617e-01 7.044171596266735058e-01 3.206872777737156954e-01
9.274098286224287391e-02 5.256509687695026106e-02 2.659397907924715976e-01
2.908184377989108671e-01 -2.750650013733907384e-01 -7.525418794042270099e-01
3.414043232085820501e-01 -2.210851564327691032e-01 -4.765442870352407101e-01
-3.263468465814250430e-01 2.848352862991224144e-01 3.359386795702031248e-01
-6.391996351518092201e-02 -3.087858268413802842e-01 1.030010737465430759e-01
6.169006392324605931e-02 8.374191900065151850e-02 9.981269926563552941e-01
-3.990053079246365653e-01 -2.197061985296186806e-02 -4.275837005003589320e-01
-3.433155200526842865e-01 3.339042837375870709e-01 2.252542563821909594e-01
-2.550345749015943686e-01 -2.552663858952560760e-01 -8.828570824841740494e-01
-1.532800439102584011e-01 -3.739046328873353864e-01 2.042014122485159844e-01
-4.122129912936867147e-01 -2.012377683013837348e-01 -5.846882721525298310e-01
-2.273937086453979572e-01 -7.623932782765205918e-01 -1.047880359539934414e-01
9.711377190719226726e-02 5.272235501053494922e-01 -7.163325303891114881e-01
-1.622351780182803016e-01 -7.909196813701215856e-01 -4.635073959017773082e-01
2.361504246030255993e-01 5.021220062858710032e-01 -5.780448722828969432e-02
-4.700607842368730860e-01 4.897386741901656459e-01 -6.918046652749151870e-02
-1.414978465369111094e-01 8.577457882671966072e-01 4.781620057311364302e-01
-2.336947541090774183e-01 4.158022777525522962e-01 -8.554454730005823793e-01
2.326500754261138504e-01 5.978655439813938127e-02 -7.939656846235344512e-01
-1.129886994789005561e-01 2.395843000833155212e-01 9.252533581531262319e-02
-3.277693992549045032e-01 4.020581035624933713e-02 -3.187493648029973148e-01
1.710594145362258622e-01 -7.572228939732552622e-01 -6.086159652424092403e-01
2.468445359143974643e-03 5.417346448311773921e-01 8.429224259679041209e-01
2.314015122985354500e-01 6.392913816451148978e-01 -2.155697140462023709e-01
-1.389852396611088448e-01 -3.912260941964512684e-01 -8.868435368604036251e-01
4.314857377475493361e-01 8.426842046931480590e-02 7.635459397869261977e-01
-1.095452916685187156e-01 1.805083986865191892e-01 -1.505727286762508221e-01
2.226361338528528577e-01 -8.156519111340515549e-01 5.522788133218471396e-01
1.523824973092327839e-01 1.678713259334496943e-01 2.423000376330906869e-01
6.588707863823509148e-02 2.881851742184259879e-01 -5.031616149484668260e-02
-3.744071778166321307e-01 7.677934102549563988e-01 -4.263578796883842892e-01
2.875986256180530498e-01 4.317926125075343680e-01 2.181384057113203434e-01
1.438883943532177356e-01 2.454363975598549130e-01 -2.636593603418415643e-01
2.889950585639756153e-01 1.482891782096925140e-02 -6.454222167420010647e-01
-1.545601483967418976e-01 -7.963207369894038656e-01 2.434397980518823446e-01
-1.639583574031110436e-01 -2.581299526785182374e-01 3.542278192299752604e-01
-1.114039066832106378e-01 -4.159536269838207123e-02 3.378867503989315124e-01
-9.681324397358655187e-02 7.018558392584091365e-02 -2.286838201268600601e-01
1.239890972630472710e-01 -9.374807707270624846e-01 -3.239145732100495167e-01
-3.160933414025860477e-01 2.432509744757500314e-01 3.978345072031057583e-01
2.117928482334742457e-01 2.959696378174492271e-01 -3.647979961357247780e-01
-2.585715819504723623e-01 -5.708902362710133183e-01 -9.528857873137829004e-02
4.278315877812177148e-01 -2.960683303635641139e-01 2.370127378747263203e-01
3.456838173602408415e-01 -1.241623830802167927e-01 3.028225587424207554e-01
-4.656036719123022305e-01 3.123090246539850789e-01 -3.173607798366647748e-01
3.993564609725788750e-01 -3.454946837791034731e-01 9.555662017320329382e-02
-1.684519049366205168e-01 9.706736999487922679e-01 8.566249568634042022e-02
-2.235811642522702869e-01 5.210153698873424416e-02 -9.485690438586178441e-01
-2.057331899613400739e-01 -6.462123352226486483e-01 2.794817569346410568e-01
1.649722381192773174e-02 8.257164424112611867e-01 -4.406953883494398871e-01
-1.085397699369625019e-01 2.448683159983584823e-01 6.506585999312879467e-04
2.811686031584595957e-01 -1.581536969547158999e-01 2.381691241513173019e-01
4.493148375261641347e-01 -9.721884002624446575e-02 7.786898569674948201e-01
-2.713942959466111859e-01 2.764043452173428617e-01 1.815833293841013218e-01
-4.920183184306534674e-01 3.151846025395279027e-01 -4.539857440051979220e-01
3.871157593434966238e-01 -4.382172013021992107e-01 -5.229786399133700137e-01
-2.187896475315889155e-01 -4.793979184974656582e-01 -2.356343102139123180e-02
3.790434146902853518e-01 3.793754592680321780e-01 6.565624568694070629e-01
5.038135655067587093e-01 -6.674541468777532849e-01 1.057838866883644008e-01
3.877472940041042093e-02 2.575209024709582128e-01 -1.071816320858760135e-01
5.094748847223580235e-01 -6.094979627694688817e-01 1.173246264812439071e-01
9.752357686690778238e-02 4.968940531184172782e-01 -7.396254864764203463e-01
-2.742932042073564225e-01 -4.016982332498257313e-01 -2.352335782930398134e-01
1.769700969897960649e-02 2.915876768966076116e-02 -2.580293773403684598e-01
3.168111416386228396e-01 6.089907146616828637e-01 3.784197973229534995e-01
3.025182095363670998e-02 -1.279291274142297097e-01 -2.248651614957619949e-01
1.728056527068990711e-01 -2.344015367905915304e-01 -1.467288688355505299e-01
3.150782943271244751e-01 -1.027454471925549617e-01 2.938611706549978941e-01
3.209995151895309040e-01 -7.286124188204087804e-02 3.126785458459480638e-01
-4.345732059373961786e-01 -8.022983673049860487e-02 -5.698056270898785858e-01
-3.786036479583428371e-01 -3.378229230514477321e-01 -5.225221056375577433e-01
-6.170027511837048589e-02 6.882876365623228354e-01 7.199979427421550060e-01
-1.900591939837534272e-01 9.267680424121151894e-01 -2.723825787584762126e-01
-3.463617385538653726e-01 -4.322901903000233581e-01 -6.188363562404411988e-01
2.199111429833521536e-01 6.357458002414264620e-01 -2.991320306417035169e-01
1.679785246036311379e-03 1.406801647643046715e-01 -2.167970584642540666e-01
-4.966872157084139400e-02 -5.673904953935348522e-02 3.014082799624137610e-01
-2.845882612786136412e-01 5.040357211604263865e-01 6.966588266330616674e-01
1.780942825192262935e-01 3.825357336878595915e-01 -5.517588500516375227e-03
2.916182301977119917e-01 8.030778935177236566e-03 -5.951880642588615045e-01
3.489995635199349411e-01 3.907645406166489477e-01 3.761361644887318834e-01
-3.931837875321277376e-01 -2.461862313293927962e-01 -5.099450485518578491e-01
-3.571157437157671533e-01 2.472391275637593200e-01 -1.856853411660909781e-01
-4.497163071600501771e-01 5.013764108369687111e-01 8.350566389968432091e-02
-2.447234716018035217e-01 7.591309665948713370e-01 -5.714167297343174523e-01
2.868654590521318992e-01 -3.613820508770020090e-02 -7.070023685283149950e-01
4.836773718700525942e-02 9.028165634608598111e-01 3.569728489386737591e-01
-2.737101155384412121e-01 8.862989817751740773e-01 -3.155516211904116908e-01
1.365005310970461294e-01 -2.238407982896176707e-01 1.299353183802911260e-01
1.559199379903639382e-01 8.445208308089990901e-01 3.606759688173926670e-01
-2.220151499644119619e-01 -5.624049968400797184e-01 1.226495389590446933e-01
-2.331876460120085870e-01 -1.956592685806305132e-01 5.461667138247179309e-01
2.248694218972527650e-02 -2.674266956365484726e-01 -4.180021390535626491e-02
1.391187704600556629e-01 3.224541741298644348e-01 -1.534977067992282507e-01
3.747777605420018476e-01 -7.727666237887728662e-02 3.545300660570662177e-01
-9.838096111431009205e-02 7.463653909253491481e-01 -6.114965548451319899e-01
1.882411537379622690e-01 1.408975729361685303e-01 9.768121793682559284e-01
-2.605201638494284988e-01 -7.423646674086104014e-02 -2.998810707717464163e-01
4.904911946416623536e-01 -2.540050421437148875e-01 4.312565527797729281e-01
1.950431240033749236e-01 2.305795023083664630e-01 -3.559024496124867931e-01
2.471392902384551490e-02 -8.296955231364084860e-01 -5.434173770340791076e-01
2.988172138960092372e-01 3.933754002434771135e-01 8.064462428340435363e-01
-9.741662117716997499e-03 2.392419212090766967e-01 1.065576321666719672e-01
-1.750013359207666375e-01 -4.225955212065419242e-01 4.164576409427101639e-02
2.782094585064957548e-01 -1.234855453915163492e-01 -4.067906433042167702e-01
3.804711920337888187e-01 -3.976589642844895467e-01 -5.364820192033502577e-01
5.158024762750684777e-01 -4.205619072445653250e-01 3.632029919289353481e-01
2.328979903407874807e-01 5.162463547596620739e-01 -1.934245144905220870e-01
-4.491036582091934570e-01 4.274662699460062831e-01 -6.485692716956522608e-01
3.681985233088768683e-01 -6.725212648561685880e-01 -4.764616675868218465e-01
-2.060681927064175190e-01 -3.942032830608124816e-01 4.023171064068745140e-01
2.075056442439749682e-01 3.985207686237404734e-01 6.294912732376488351e-02
-1.630283934166796289e-01 -4.245993869337787441e-01 7.096432506831328313e-01
-4.190396714178724197e-02 -1.890481897130077693e-01 9.440091231650238335e-01
1.795215245321988076e-02 -9.237144601166094038e-01 -3.470353062264230348e-01
4.577715667476241479e-01 -7.969426415231017913e-01 1.511154141738586809e-01
1.584102600074839551e-01 -8.077297622635956076e-01 -5.535171328641862454e-01
1.892833593740050058e-01 -1.141378135197872595e-01 2.406841936297714479e-01
1.435492880650685033e-01 -2.449884526683563934e-01 9.677169017324538380e-01
1.918904789631609153e-01 8.389003905325109756e-01 1.940767251544000260e-01
-2.142022422184896580e-01 3.706897885705721235e-02 -2.569026607738042478e-01
-4.999896873664690933e-01 5.264540124944672161e-01 -2.716845407783090027e-01
-2.177810205205306660e-01 2.138013042800716301e-01 -9.303676173782357006e-01
2.057415439162907089e-01 8.046739993216998066e-01 3.420889817898392082e-01
-1.296267199681139411e-02 2.566097906552188834e-01 -2.612063532203528354e-02
4.744995719813117907e-02 -1.851865120312769794e-03 -9.567684327471032146e-01
-6.871792089943465354e-02 6.808590780896074668e-02 9.652615965236822637e-01
-2.328024658325748841e-02 9.491241374815034826e-01 2.486316200247657981e-01
3.437411545094478660e-01 -9.188722028436302480e-01 1.355644650004132479e-01
-1.389031872707442161e-01 7.866572435874007452e-01 5.864463646078105219e-01
-3.163274738151327647e-01 2.164384874864980490e-01 4.561179042413438522e-01
-2.185439618472165280e-01 -1.736724131010611571e-01 7.555867649134851982e-01
8.432835558397952513e-02 9.263153793008702674e-01 1.483477903262993558e-01
3.042961763764338023e-01 6.329931415254272942e-01 3.006886848792142408e-01
-2.643046561647643955e-02 -2.772083079506320602e-01 -5.960916125258221981e-02
-2.065967193877639163e-01 -1.660232725136809862e-01 4.571761179557835564e-01
4.873314242758549630e-01 -5.863572083330682583e-01 -5.252447267551916404e-02
-4.056215955528646999e-01 2.326123236816918793e-01 -2.702918173614051178e-01
-1.052309482120296902e-01 1.434174341378898487e-01 -1.867457570500803687e-01
4.648245252662665528e-01 -1.869124903059766196e-01 4.179797299992998316e-01
-3.154976741174850829e-01 2.097175746797068363e-01 6.495079234329856899e-01
-4.911514603701007675e-01 5.463823696955828479e-01 -1.434167971957392429e-01
2.580291050267160546e-01 1.961127357802230353e-01 9.332775833201166771e-01
3.222555640148287437e-01 -3.040404206724789948e-01 -1.962978409136195423e-01
-1.522143461099847439e-01 7.391545488485093962e-01 6.360920852770688416e-01
-2.557929980137361725e-01 3.680107833724746147e-01 7.804876687549863190e-01
2.244193066497175149e-01 -2.880345871781466241e-02 2.829951146637281756e-01
-4.249733356699547659e-01 4.752458767120467664e-01 2.119704971021107998e-01
-4.901546380429223082e-01 2.928319608958622755e-01 -5.378059357960240927e-01
-2.358814570107161668e-01 -1.595666621918898076e-01 5.410103599972995170e-01
-4.353197149375075958e-01 1.377874108425003741e-01 -4.042284703468130846e-01
-2.056034358372823001e-01 -4.394894760836895453e-01 -4.620991966245717453e-02
1.732173053120602754e-02 -9.522723927889336082e-01 1.823444472062094035e-01
1.824458187084908867e-01 1.779556163150128878e-01 -3.522227137794616825e-01
2.743569320919107546e-01 -1.843516109179573759e-01 2.114851279271052764e-01
-4.568332428224337050e-01 6.656235660048145930e-02 -5.300529164203474641e-01
-3.743322958049322691e-01 -3.128113521711325395e-01 -6.759490218384066607e-01
-8.009572233710481048e-02 -9.099145897707977548e-01 1.333579964623783920e-01
4.510866747410796074e-01 -5.903753302734612296e-01 -2.745655993502462699e-01
4.285134916596566867e-01 -4.081838868051543834e-01 1.253191827789820571e-02
-2.640906543876712087e-01 1.594647970650474311e-01 7.798379669456203533e-01
1.723367907694973444e-01 5.136483116340557764e-01 -6.214437722648408213e-01
1.282259329289440163e-02 1.315658316569574549e-01 2.363544835903992614e-01
-1.541214126358069793e-02 9.679150473289573897e-01 6.587393289861831480e-02
-3.985541916325636147e-01 4.196665081201715330e-01 2.660898616173034692e-01
2.176343451825767938e-01 7.889853283201486711e-01 2.040328852761904774e-02
1.646484389952244387e-01 -8.398796843661323619e-01 5.257323520930073935e-01
2.177306998140327576e-01 4.483664604950617361e-01 -2.105309582262740453e-01
5.126680356376387415e-01 -6.239327494104535132e-01 1.683729437789575067e-01
6.437816439338438224e-02 1.477349270457439245e-01 2.291715404492743191e-01
-1.640232052017653597e-01 2.440942695296699494e-01 -2.227029340190427378e-02
-2.548749426398023640e-02 7.124159644357225263e-02 -9.690465132406819171e-01
-2.862943040379363757e-01 2.031344209502028986e-01 7.403311754108841125e-01
2.217310691683256063e-01 -6.909085286788702041e-01 7.037735350937871504e-01
-2.235489401526463971e-01 1.254129983301134621e-01 -2.149007037798456310e-01
-4.544595924366851003e-01 6.306111593723311148e-02 -6.701063434470573288e-01
-2.850711243575964060e-01 -5.817734791555938534e-01 -2.146484399735403004e-01
-5.005019357748405895e-01 4.795705971849615334e-01 -3.176823644657102985e-01
-1.606778289454248720e-01 -2.071224581092319661e-01 3.699497026050244108e-01
-2.485477258378161192e-01 -8.094566926365961979e-02 7.221506298913690225e-01
-3.998621422747885568e-01 4.119889364501502782e-01 1.538694976629869648e-01
-4.358205997682144117e-01 6.979929211597404315e-01 2.011461483379574644e-01
-2.109786297804827349e-01 2.187675551787132966e-01 -9.314810428101517603e-01
1.857611677619930013e-01 1.156925119198385921e-01 -8.418405942216669047e-01
4.799908785143127132e-01 -7.388654467577556728e-01 2.103672463027705594e-02
-4.095221100862968255e-02 -1.445675243930634735e-01 -2.147665558936097396e-01
1.069762588389164826e-01 -7.639182826074076837e-01 6.269269339751177839e-01
1.428725546982318462e-01 3.478546996358821697e-01 -5.071710105840928490e-02
6.427331878871243680e-03 -9.686516053133948922e-01 5.030170483965721445e-02
-1.204225109572229085e-01 1.701393478100237944e-01 2.331315263056144282e-01
-4.571380682707485987e-01 7.240012384627645403e-01 -2.583653954701783939e-01
-2.732614586005638335e-01 -5.621645898552796172e-01 -1.609022071424863753e-01
3.023573249665085783e-01 -2.806831196399906525e-01 -2.151671425976720287e-01
-3.352491258247350947e-01 -6.845897052376435921e-02 -3.584212283028708756e-01
1.986655644045423053e-01 4.463019026679114765e-01 -6.238998874476200385e-01
-2.109375428848625222e-01 -2.504596869726008479e-01 4.663823895192164559e-01
-2.276061312872460288e-02 -9.325347158436392281e-01 -2.803468318890357525e-01
1.513629690343068768e-01 3.013948717259727905e-01 1.264630064079813598e-01
5.023585432428091524e-01 -2.212632481104080950e-01 5.999182851111639625e-01
4.429962503013968322e-01 -6.844467377606952563e-02 4.540608800153596025e-01
4.446407327915781749e-01 -4.489579387441160474e-01 -4.518421225336616970e-02
2.813737838791446899e-01 -7.897536553260376957e-01 -4.799589401049813575e-01
-3.804769899588007487e-01 3.780486214542332357e-01 9.332734674954690224e-02
4.381895639581336321e-01 -4.557145414371296388e-01 -1.296708553770178629e-01
-3.156625125383938912e-01 2.997785930899533047e-01 2.418257594927826493e-01
-1.012989430566199750e-01 8.276890303997975762e-01 -4.983192361763462697e-01
-1.681624732242204268e-01 -2.412719161612319752e-01 -2.060832717946056991e-01
-1.006591698850997502e-01 8.418965607393167350e-01 -4.744808147380049634e-01
3.471970209620771075e-01 -3.006389905059133616e-01 8.780296634268881517e-01
-2.122436362666776100e-01 -3.384209326354395420e-01 6.416888074893233318e-01
-9.217362839792098139e-02 -5.300039431423879677e-01 7.306259240355961193e-01
-4.359895050007540074e-01 7.027920684017451292e-01 1.941994302962423979e-01
9.094021445583089225e-02 -1.972302051424539293e-01 -1.752831295806705492e-01
-3.775161298192356019e-01 3.284835367356854774e-01 -8.000216429041316635e-02
-4.058038563616078176e-01 8.285413675018122870e-01 -1.208827798821520694e-01
-1.180410275024395550e-01 -2.619060812234253466e-01 -1.554653551565003400e-01
-2.987818954861162224e-01 1.997429672900462583e-01 7.070243266078083400e-01
1.703617915892723655e-01 5.915465278789757697e-01 -5.437534246122717185e-01
-3.025720445417240390e-01 1.995251822949354048e-01 6.951017356152581206e-01
-2.298983340928034136e-01 6.547362299682678299e-02 4.194120655612658122e-01
2.713485984615337521e-01 -2.837312848725503933e-01 2.328123019324296328e-02
1.477488209194181001e-01 2.971960908814455515e-01 -2.174179635879638917e-01
2.535651369308390968e-01 6.277219832762510610e-01 -4.948962518704581870e-02
-2.744402927780243417e-01 -3.583249154518897139e-01 -2.557457634186155460e-01
1.039232494262123940e-01 3.641761253869602033e-02 -2.962716766445788186e-01
3.682701628724288079e-01 4.096764042831728125e-01 4.468068683219972304e-01
1.784211718715860429e-01 5.539453126169557873e-01 -5.669683905889413289e-01
3.393102618779808011e-01 3.365260113423279575e-01 3.579557143235650440e-01
2.499728904300597132e-01 1.074188974702361549e-01 -4.792451314086063063e-01
-4.166275098074582739e-01 -4.140348188740615443e-02 -4.720876531400609033e-01
-1.728519895591985045e-01 -1.209017794410941760e-01 4.006778001112847876e-01
-3.685717482023302960e-01 8.545283788121302848e-01 -2.091842718336440476e-01
3.655691401664967755e-01 4.054303083786764961e-01 4.328471849772742575e-01
-1.626591206655177146e-01 -9.532062464056718920e-02 -9.632119373304123267e-01
4.260254621972198175e-01 1.478797494653092681e-01 7.394738307014327994e-01
4.589103161318531798e-01 -6.411564959757372062e-01 -2.271510932771344804e-01
1.228235515707977975e-02 6.390414609140562807e-02 2.672366767582872171e-01
-1.619721317751184886e-01 -1.005964257173693061e-01 3.870958704685766305e-01
-2.318307203290755347e-01 -2.474335565035244155e-01 6.124475895080593313e-01
-1.964364248587657791e-01 -3.725099714706667786e-01 -8.697607963245139739e-01
-4.289054118490029377e-01 6.022646328378854497e-01 2.996630002720929165e-01
-2.334835100327296020e-01 8.696039304185646523e-01 -3.942046545761892506e-01
4.132830131575210286e-01 -3.635321851102478186e-01 8.804398183485895313e-02
2.037640750064649009e-01 3.648548262651042373e-01 1.129067430072449862e-01
-4.800626025470163816e-01 6.742049189642526086e-01 -1.041578495974607582e-01
4.742791849095130408e-01 -4.702358500862263702e-01 6.367178765256939488e-02
-2.333703285728420118e-01 -2.097097267643684149e-01 -2.672042149364726726e-01
-1.380693373446357508e-01 -2.454958886519680583e-01 8.521429858359722553e-01
2.773466316657961506e-01 -2.221905839485442957e-01 -2.877265115121185879e-01
2.788654147957676521e-01 -4.364019597424581565e-01 8.653980737630031506e-01
-3.372018430861672411e-01 2.578481504832647597e-01 5.530256137057537602e-01
-1.526074913756657880e-01 -4.745548466412803923e-01 6.888532948514706211e-01
2.431559884069969812e-01 4.635792867581314813e-01 6.390875307942225914e-02
-3.084366188225904915e-01 -5.356783400493376757e-01 -3.073920808602737531e-01
-4.402457801951012439e-01 1.350316616425064342e-01 -4.174255392277442800e-01
2.342375443203597862e-01 -6.338412978368185291e-02 -3.817323312337065899e-01
-4.185209688685291862e-01 1.310138827470364031e-01 -3.765286533377912304e-01
-2.869342317208684046e-01 -2.859695719201058028e-01 -2.990758192651094549e-01
2.782431451646943388e-01 -6.628625378435119841e-02 -7.454513476426054552e-01
1.648650243227794271e-02 7.641357426602549130e-02 -2.497852197016469933e-01
4.242297816305226066e-01 9.234658604067012833e-02 4.930818806263195797e-01
2.294249680666999441e-02 6.834831891282974192e-01 -6.322921702340783545e-01
-3.048303556231621858e-01 -1.058344293140340703e-01 -3.349640464723979139e-01
-1.425544625882807677e-02 9.631889751102329367e-01 1.455627040414735063e-01
-4.515271858252837833e-01 1.926051506382208400e-01 -3.985262740292285222e-01
-3.176423311846661712e-01 -4.049968279082674094e-01 -7.265256570701416061e-01
-3.840157798297408887e-01 2.942829776959597354e-01 -1.575840789186002677e-01
4.326663518732994373e-01 -7.192260934774504788e-01 4.807505582442557768e-01
-2.998823887155203649e-01 1.332740981998412899e-01 6.616600007413050433e-01
-3.400622149103681435e-01 3.372182727910044142e-01 1.474792901996869465e-01
1.353064815853454173e-01 3.510761249477797885e-01 9.296434954070718071e-01
4.418906146183658179e-01 -4.911338177213698808e-01 -2.380507678807517735e-01
2.985118947352865537e-01 -1.887241365923122693e-01 -3.760151632272216160e-01
-4.198714243616750164e-01 4.818590550246341087e-01 2.782902407440924208e-01
-4.158829325667680044e-01 1.599309779809564014e-01 -3.508903893184918132e-01
1.252773593320021805e-01 2.335818308698454360e-01 9.712051595552860794e-01
-3.925616556048423522e-01 3.861266067600605534e-01 5.277288212152467239e-02
-9.355098744039491709e-02 3.971329593112650769e-01 -8.839135093569032708e-01
3.227802648995476975e-01 -9.222407332810017566e-01 2.020739944543497035e-01
2.531928762943977951e-01 -2.826697323055541444e-01 -2.608929284075643326e-02
2.958220323807222440e-01 6.632445649193448034e-01 3.337683752793538239e-01
2.416169189394182324e-03 -5.545683174635523266e-02 2.803274515050523386e-01
3.543337502164016217e-01 -8.551433373173492614e-01 3.654430131946984628e-01
3.673074223221790557e-01 4.048992439490493034e-01 6.653997194377857527e-01
-3.135874161383055969e-01 2.977514974833075923e-01 2.412329091351800847e-01
1.962716590279566797e-01 5.308605301173709989e-01 7.961461330904163747e-01
2.738559622593009779e-01 3.637346354177942165e-02 -7.063903336869356009e-01
1.571135707362164013e-01 -7.492905518775333507e-02 -9.018106356524427936e-01
2.211054552359671410e-01 7.963726382837432727e-01 9.614253242166900804e-02
-3.051703358338317407e-01 6.735768335669231610e-02 -2.895033616968843426e-01
2.155491842593063867e-01 3.567838236974337218e-01 1.449794090480142350e-01
4.354569849053657737e-01 -5.147387589006401365e-01 6.868890671293393924e-01
-3.696688982803541523e-01 4.946596665847914909e-01 5.345523182113198768e-01
-8.106331053250209751e-02 1.764268757675907517e-01 -1.597983144227410057e-01
2.217581533895370272e-01 -6.411512583798626430e-01 -6.831726846827952393e-01
-2.395933670684599892e-01 2.082382567657551919e-01 2.864431924572646282e-01
-2.871241918167206641e-01 -2.511186974649920467e-01 -8.582543113834117943e-01
2.315698044493333108e-01 2.100670755428842018e-01 -7.224945660070541953e-01
-3.439616729687062224e-01 3.339631655205911875e-01 4.116645619263717415e-02
3.556074991495245530e-01 -3.413512268183901410e-01 -1.688796105351969834e-01
-7.567250324487988233e-02 -6.721593121440470192e-03 -2.455710006880436891e-01
2.452111025764338870e-01 4.855797506239580286e-01 3.665137155319794782e-02
-4.285400468297543841e-01 3.200299279410341868e-01 -7.312372764957685289e-01
-1.207744668764821894e-01 1.843001086832357985e-02 9.332207089960931068e-01
4.632373649965532136e-01 -5.786523635725344672e-01 5.867190717753787421e-01
-2.657876715023806645e-03 -7.462114527871375191e-01 5.962084886185811117e-01
4.708436050375234272e-01 -7.669611311584819680e-01 4.043628508615421113e-02
-1.643591739435079913e-01 6.159873312426860092e-01 -7.433884522661993177e-01
9.975931689603349806e-02 -4.586051328169890029e-01 -8.563186398376623210e-01
3.651100296436028958e-01 -3.128910923496120433e-01 1.001437418519175448e-01
1.945681446341500920e-01 8.325472242502878206e-01 2.413149861351681635e-01
4.892605849273387042e-01 -7.033506596546321710e-01 3.122436659145513826e-01
1.359308601307185338e-01 -7.425245658276090621e-01 6.567210308357200876e-01
-3.524391061096451283e-01 3.078027028768354767e-01 4.383147874246274833e-01
2.431209100940389389e-01 3.922999885998422753e-01 1.556715583012865667e-01
-2.228857546472909901e-01 -1.079549516754424870e-01 -2.789003946100334641e-01
2.682817945199063026e-01 -3.185834355226093567e-02 -7.562671348792346926e-01
-2.199000639296302129e-01 -7.497117062331636328e-01 -4.198265060568329710e-01
2.161950157103042502e-01 -8.037516992235271829e-01 -5.235441452107356675e-01
-3.136176031684428933e-01 -1.178777988728993559e-01 -3.439943986871775716e-01
-3.488138094479891760e-01 -2.414087304729061467e-01 -7.888454850129227314e-01
-4.845613336739488242e-01 6.265217983133944957e-01 -6.654734218102852095e-02
1.909458149207878264e-01 -8.930254753220580322e-02 2.537153233729674273e-01
-1.201751358199210501e-01 -3.159435339856443425e-01 2.194179547409715603e-01
1.877195689438343473e-01 1.448265754837225472e-01 -3.662411086615953715e-01
-2.799964571170257543e-01 -5.335104152101773911e-01 -6.634880673322144373e-01
2.027418968576157610e-01 2.877874095480394412e-01 -3.450012314791978674e-01
-3.500737874005994121e-01 3.381632208191195921e-01 2.545004450219079395e-01
2.193416640604173296e-01 -6.151915127291223140e-01 -7.039472320536362959e-01
2.410186823791918564e-01 5.497023579547050121e-01 -1.269311281751149545e-01
2.495203379327859128e-01 -3.841979471041920280e-01 -7.876039009871618202e-01
3.175563396065744226e-01 -2.505328469352067211e-01 -3.232515041775541054e-01
-4.796901553118739781e-01 6.337237370233215206e-01 -3.489092552918129364e-01
8.412600412565400532e-02 7.437119948553032600e-01 -4.967726727258465758e-01
-4.613875864113296532e-01 4.629224689708941187e-01 -7.135463774275815907e-02
1.485918607275360168e-02 -2.507089288566736185e-01 1.376349041668919748e-01
-1.268626556733093436e-01 9.548659734853722769e-01 2.329265376046701086e-01
1.057856256653355309e-01 -4.945144430763487309e-02 1.000000000000000000e+00
-2.861569468997189336e-01 2.466222864373769086e-01 3.021655667238259957e-01
-1.863471138338806954e-01 -4.296631890776294593e-01 3.873457097372187859e-03
4.328348718576595644e-01 1.201038942334424348e-01 5.305676326882164950e-01
2.799891682631240886e-01 -3.977111682009971949e-02 -4.809040112063036609e-01
2.205555117653125174e-01 -1.329646325424125031e-01 2.349811147698956104e-01
-1.786590713348392978e-01 1.822566181310692202e-01 -1.511835709966126429e-01
3.693139944750780668e-01 -8.774496206859344616e-01 -1.408829461197605992e-01
-1.088898518927840786e-01 2.451946448019565461e-01 5.409518963283477949e-02
-1.385950157421056150e-01 8.550735230217075822e-01 4.842861637313731760e-01
8.793798474963064604e-02 -5.536266225339175895e-01 -8.092673216092033384e-01
2.770461429014603461e-01 6.063240532594752485e-01 9.676015896579451270e-02
-3.257566363931069242e-01 2.238138621360556968e-01 5.991931035490130064e-01
-2.479762289945160458e-01 -8.574885778921484403e-02 5.487870278281797853e-01
3.683156855660975615e-01 -3.559409344577524337e-01 -1.575061537761976715e-01
2.873688036833905723e-01 -1.239629175475908257e-01 -4.254288441817499766e-01
-1.974517965185930701e-01 -3.510699498572127930e-01 3.868923359367072989e-01
5.152470078381845564e-01 -5.967767026649350992e-01 1.879391972232469787e-01
-3.685694897455262797e-01 -1.871581672714111022e-01 -7.840221483833446081e-01
3.369780555832865288e-01 5.281474546731579345e-01 3.757705595352018313e-01
-7.019592500073483510e-02 6.120455136441154131e-01 7.827615313852933632e-01
3.854577710696455162e-01 -3.648986588002061660e-01 -2.872758623107289910e-01
4.284660838437625019e-01 -2.349248145145075295e-01 3.069433139793966148e-01
-1.560361541650962802e-01 2.285368388615929558e-01 1.558153885800530325e-01
-8.884097807628225929e-02 -2.173322346643928038e-01 -9.569758076287643300e-01
-4.287421379166087565e-01 2.861213383969313587e-02 -7.430022973092685890e-01
1.655742682984554237e-01 -1.591267415883571845e-01 2.070387560300846752e-01
-3.060046390774698866e-01 1.621978722499880787e-01 6.565895131763982429e-01
4.482189855803561107e-01 -5.419719122209363249e-01 -2.713298498131168635e-01
-1.933020396410587427e-01 -7.636894966702207910e-01 -4.610261885416747640e-01
4.181465421219316969e-01 -7.834521457807372968e-01 -2.176549836996227172e-01
-2.271229399742333843e-01 -2.053307290685198461e-01 5.211232745628263663e-01
2.252910273704613331e-01 -6.984625467701642831e-01 -6.326465508431603491e-01
5.110398511082088202e-01 -3.016350390807062687e-01 4.983606705845101681e-01
-5.533313222118891629e-03 9.491079376320850081e-01 2.316563491240568595e-01
-1.073485789152939518e-01 -3.392370341740288398e-01 1.309579868930039470e-01
2.946511433455911155e-01 -7.096677579364045751e-01 -5.546812467767227028e-01
-2.450270166212950573e-01 1.585708054532306011e-01 -1.964631859997194585e-01
3.484466614009862351e-01 -2.384669270409651709e-01 -4.861718979022227605e-01
6.601653728885625849e-02 5.976131201720414898e-01 7.982832595794754349e-01
1.646377314120153479e-01 -6.555480556684955759e-03 -3.330048745288298750e-01
-2.036984711769468381e-01 6.288136212596614483e-01 7.034374239438633269e-01
1.009598378892596487e-01 6.404329000731299182e-01 -6.052062479172147791e-01
1.630424033390618921e-01 -1.529082928010069842e-01 -2.528158376952363007e-01
1.833413576484886620e-01 -2.107315520078603677e-01 1.517491629733987157e-01
3.486441467170485753e-01 -8.069039176746675146e-01 -3.546483431966288569e-01
1.341309653109438726e-01 2.778869491199484898e-01 -2.166168634826639294e-01
-1.982756461784304647e-01 -4.324284933229183281e-01 3.128979393365798334e-01
-3.297610037889405765e-01 5.275067132431420225e-01 6.149545335859439854e-01
1.158952213450935992e-01 8.847027667347003854e-01 -1.127479875313817520e-01
-2.997103192760934842e-01 9.081704118310250928e-01 -1.893587649522521787e-01
-3.686259264245130840e-01 8.705989038393781021e-01 -9.405909911291339409e-02
2.004945453264756761e-01 2.263239299937114812e-01 2.382024202652203992e-01
-3.183281761390009401e-01 7.315740896681036665e-01 4.784091470904746068e-01
1.347524164781037370e-01 1.048912465951816059e-01 2.603337533553387040e-01
-3.534495209923538828e-01 8.508875113793059608e-01 1.912551690204006283e-01
2.540440520977239602e-01 5.732430530602967700e-01 -3.297602977812850999e-02
2.755484582621330336e-01 6.786427124003795441e-01 4.745175717041176799e-01
3.537321084286179085e-01 -3.003974164621931453e-01 1.089430955482925401e-01
-3.680681949546166232e-01 4.457206399853403944e-01 5.416101713268498541e-01
-5.448855980558953843e-02 8.628368371327077568e-02 -2.271165092922370621e-01
1.348630102272180553e-01 -2.416382109178901449e-01 9.189151069772803770e-02
-2.766537993603996326e-01 9.325318955734456239e-01 -1.084918346201716732e-01
4.114502504574699682e-01 2.804154824481814856e-01 5.702802324875527740e-01
3.055525281731168996e-01 -1.481471082960221231e-01 2.590494130187807054e-01
-4.534806345100528269e-01 8.004845725646544952e-02 -6.829467892844781618e-01
-5.002588826179457104e-01 5.106461378912415805e-01 -2.849054689760076586e-01
-1.330151807739365089e-01 -8.798575143962460432e-01 -2.416351740758930777e-01
-3.615969730934685822e-02 8.081473382327494237e-01 5.820572156621419690e-01
-1.357255758675791901e-01 9.482742966069190871e-01 2.553943197520372466e-01
-4.351830988735708172e-01 -2.061490562794776604e-02 -5.134281664175287530e-01
6.589168161496990195e-02 8.665909748156547243e-01 -2.934898272064561664e-01
-4.493879014573650132e-01 6.570912781267362890e-01 -4.369660237083035637e-01
-2.171983225227349656e-01 -1.448200989025451579e-01 -2.715633734334976790e-01
-1.804934043633676932e-01 -4.028041843563684998e-01 -8.629403296628626041e-01
-1.667313774686672301e-01 7.448605160049152074e-01 -6.140629744587983163e-01
1.947262474923358022e-01 7.228218884792946275e-01 -2.755353533612467931e-01
-3.003373251550274792e-01 -4.743855076558021744e-01 -2.710675736276917380e-01
-1.527591872199221545e-01 1.189441636575939154e-01 3.009875636497554297e-01
-2.123982366043713488e-01 -7.205640123034361411e-01 -5.113780779073041627e-01
3.642604709120614292e-02 -4.040333759871566621e-01 8.950476639287009428e-01
1.606835536821100141e-01 3.313794406654405056e-01 -1.955377415218682857e-01
-3.147958822651532595e-01 2.229417770252015429e-01 -1.716265625592440780e-01
-1.774701691517978908e-01 -4.243767006253313379e-01 6.784141694450220861e-01
-3.314793605997826687e-01 8.815427267708748627e-01 -2.204631993830783454e-01
-1.127004041407671520e-01 9.745981859490575605e-01 1.152642362946056376e-01
1.384667170197325103e-01 1.274408385643578945e-01 2.542339958603293537e-01
-1.590511694063419246e-01 3.516760563005952300e-01 -9.016417912993581751e-01
3.644355160668725779e-01 -4.319066364932601654e-01 8.138398787866334416e-01
1.515039586164591556e-01 1.486060533293838970e-01 2.504163094304205917e-01
3.985927268310301419e-01 -3.923985065216981649e-01 -2.232221381532130955e-01
-2.921244670555321887e-01 8.600003893199186233e-01 -3.601121668229186334e-01
-1.699597379763730098e-01 1.489788279656241721e-01 -9.555569696057083506e-01
-1.560361655420594573e-01 -8.372885811023677016e-01 -3.489964551496452239e-01
2.404740368019015750e-01 -1.627382309577283526e-01 -3.118702890310705578e-01
-1.801867376473025584e-01 2.456953374284541469e-01 8.815773241081331646e-01
5.181289731338659665e-01 -5.020612419994362474e-01 2.803684901572886523e-01
1.113079382919153065e-01 -4.567704937623480732e-01 -8.529742680350340667e-01
5.176113668597747131e-01 -5.082910161210845157e-01 2.679390555076673897e-01
-4.236659907021352311e-01 4.326632834698321828e-01 5.496905501167537178e-02
1.640836040841193999e-01 -2.482863142202009488e-01 -1.033268317343912918e-01
-1.673903472549524984e-01 -3.175019636372320986e-01 3.217920017410127453e-01
-1.213199163821519592e-02 3.863568908007913305e-01 -8.730408203045285642e-01
2.249370210229226230e-01 -1.961741197599947140e-01 1.794940642609252901e-01
