3.265239599251821279e-01 -7.632090111900884377e-01 -4.584909511543601712e-01
-9.493120377192821868e-01 1.173592324829132033e-01 4.167668539940869166e-02
3.484444467053633421e-01 -7.597282372310572018e-01 -4.378635856070432486e-01
7.524013022525902761e-01 4.942195196127337903e-02 -2.561109009546286841e-01
-4.084245998591594651e-01 6.432532000166372166e-01 1.360884206094363225e-01
-4.700364259407823209e-01 4.319606694301783567e-01 6.412958958510531771e-01
-5.505854638089445474e-02 -3.961919609568927414e-01 -1.964621050656136514e-01
4.390521558514245970e-01 -1.699541021232326699e-01 1.365076982233278668e-01
3.911566148913865892e-01 1.723872988724993172e-01 6.410430309322309173e-01
4.437854462996950744e-01 5.655833935865103301e-01 6.825162549707157744e-01
3.007740112327521032e-01 -2.503840750873269627e-01 -1.234398942243765257e-01
6.282854677061144866e-01 2.695439721455477472e-02 -2.852255604311296211e-01
7.774457855827643371e-01 -4.904801001082734202e-01 -3.831224104193051150e-02
2.752860682076432308e-01 3.969953954350221026e-01 1.558248371664299747e-01
2.950823954622681655e-01 -6.754163983733548760e-01 -2.023016021101201045e-01
-3.594747000732896880e-01 3.723903492079054522e-02 -8.819713527739053704e-02
-2.646617618196018817e-01 -2.358366986340293681e-01 -6.971130555674062146e-01
5.047149436516304988e-01 -5.823618563895210931e-01 -7.769032665369170199e-02
-8.163004544754868252e-01 2.424933332884949555e-01 3.498333167330545668e-01
-3.908449554954932514e-01 7.023429700957317667e-01 5.508912363605760198e-01
2.710640940941204113e-01 -2.151922652325166385e-01 -2.022561795199565304e-01
-6.088915806464025859e-01 -2.917047417996247449e-01 1.896462583054207493e-02
-6.442579768239145022e-01 -2.494680186990285917e-02 -5.250224189865141389e-01
-9.112057762141225759e-01 -1.108700385101857588e-01 -2.898988333605926893e-01
4.202557393157198007e-01 -2.052893984962407548e-01 7.546165431245971389e-02
4.737545714275837039e-01 4.005062326087344693e-01 7.178266094735117342e-01
3.826528172482069889e-01 -1.155220626085198821e-01 -7.467974756403694681e-02
5.338238363351738291e-01 -6.137152367147921117e-01 -5.672328550166874095e-01
-6.232822609540442649e-01 -1.601429926369982715e-01 1.401964570641885954e-01
4.711965525563306945e-01 -7.242061139331242847e-01 -3.561705541730802449e-01
-3.556733226298074979e-01 3.263787349025921158e-01 -1.925924856083236630e-02
-3.953532981145560510e-01 -3.364973876827131311e-02 4.389867773682949031e-02
3.305654357798334386e-01 1.179132638978974412e-01 2.089795335247737751e-01
-4.310790310717172447e-01 3.463702536921932640e-01 -8.882286786078434637e-02
-3.603760389894443139e-01 5.008861827641548220e-02 -1.067169433010022872e-01
-2.879513501231084072e-01 -1.133581942141067417e-01 -5.637776041896940260e-01
-5.163762931736057826e-01 -6.686760267322977569e-02 -5.734233815626251785e-01
4.707736945495359371e-01 -4.471317694533205600e-01 1.949388959715471145e-02
-2.721223691746926243e-01 2.279043251016662219e-01 5.785099025092675928e-01
-6.244606887810265627e-01 1.639784629315877151e-01 -3.701021873555562780e-01
-2.558487198408762042e-01 -3.430815899044321049e-01 -1.513576780067578675e-01
-2.412543382011043680e-01 -4.625952503373713109e-01 -1.648244830513228842e-01
-1.147712410951283457e-01 -2.450010188473662198e-01 -2.647294329773980381e-01
6.190383487236280624e-01 -5.745766316745219981e-01 -7.592533085897555656e-02
2.309765392759681197e-03 -7.095292892214467573e-01 -6.769669984654114181e-01
4.545661379280234726e-01 -6.681300931023176348e-01 -5.732201196235248153e-01
-3.206205996824334492e-01 -1.568967464459614103e-01 -6.341390091705637611e-01
2.705576239460843468e-01 5.343558054759687259e-01 1.807455097530615284e-01
-9.542012367616552471e-01 8.932913910175029060e-02 -8.886951263011318158e-02
7.181791653884175286e-01 1.799368674015169867e-01 -1.357957781914015671e-01
-5.367756802155863038e-01 6.757490134177884800e-01 2.420214717826366102e-01
-3.852622552972703729e-01 -4.327640556174553454e-01 -1.222854387674165433e-01
-8.443600647374572832e-01 2.264117328544612007e-01 3.098646552878004945e-01
4.370961521743765149e-02 4.350472586256308172e-01 1.857513964218418245e-01
6.886986882299286350e-01 1.484326605766668472e-01 5.810182455619161690e-01
-1.564862351600392887e-01 -1.395137355473653751e-01 -4.452460843877700247e-01
8.098852442372349580e-01 4.088502230498927692e-01 4.054609814868387341e-01
5.101690709754380659e-01 -5.618123869984701368e-01 -5.595155497352979901e-02
-3.594493782381625313e-01 1.033168395351109423e-02 -3.548675664234063887e-01
-2.961217147592231091e-01 -7.202601987078894874e-01 -5.133730973252035312e-01
4.640532038600321263e-01 -3.179015215663958949e-01 8.638872150047355314e-02
2.578823879103636085e-01 7.184703801627180253e-01 3.325474137054363899e-01
-2.925902020527875180e-01 -5.774035376312250945e-01 -7.213326060868707756e-01
7.117210539374766443e-01 -5.696396189730796866e-01 -3.988270152383908140e-01
5.670299031061530881e-01 8.389598090643639317e-02 -1.893465514161913332e-01
5.147929012061990689e-02 -7.104682639630717222e-01 -2.767952617549128136e-01
4.111122086062428682e-01 -6.746258023477795518e-02 -2.123587216934538779e-01
-3.852261117084614384e-01 -4.547835588803867402e-01 -1.328079330416108705e-01
-5.460205414998052786e-01 1.736770621519302948e-01 -3.367209947039258577e-01
-3.826507908801526914e-01 3.842374343307382589e-01 -2.830921748770195978e-02
-1.249005588879959494e-01 -3.864232538437987752e-01 -7.697152823953318235e-01
-6.102341472814560852e-01 2.252576799511282202e-01 -3.080987064349652860e-01
-3.952375727925060978e-01 1.900407675132219087e-01 5.238644700630877837e-01
1.663526119556664185e-01 7.752034835595880136e-01 4.564134677878360358e-01
2.097332017537431870e-01 2.136746294276768154e-01 6.482801855963826743e-01
9.600904681723928524e-01 6.344728927728772450e-02 -4.185349229375674024e-02
8.748667467623464367e-01 -4.288972516572702731e-01 -2.121683205112020187e-01
3.370741936268886185e-01 3.888990955085193102e-01 7.513492162591298706e-01
-7.093799075078954797e-01 -1.884848799598856650e-02 -4.963399135343572466e-01
-3.486295096071539978e-01 -7.808595225147858809e-02 -5.429993274646695012e-01
-5.874724997433293794e-01 5.901664789661531518e-01 5.002406218852613051e-01
6.082610066905010104e-02 7.786505111486360375e-01 3.944169083092132766e-01
4.186926397116843557e-01 -1.402913884196308747e-01 1.011696740962163416e-01
-3.351185005828509755e-01 1.108843233756782454e-01 2.087672718631610191e-01
-6.040077588259485514e-02 -7.699528951924584641e-01 -4.200757720302906728e-01
2.715443496896398634e-01 -7.333316827640593560e-01 -5.941485836960787026e-01
-8.097665799971403011e-01 4.542561463711631276e-01 2.669023589562442567e-01
1.191807372727210768e-01 -2.470598225512536661e-01 -2.855161895647412296e-01
-4.457222692139438669e-01 2.129577856740754241e-02 -4.585982471562347618e-01
-7.503948859851098385e-01 -1.747759442862728552e-01 -5.267788512032854920e-01
5.211461614462969960e-01 -5.307622706874927376e-02 -3.516571253565530797e-01
-3.374439946173333760e-01 1.386642488702360398e-01 5.633448428468195573e-02
2.063485713627078166e-01 7.514795037027602875e-01 5.768659494380798947e-01
-7.096792645819151035e-01 3.841210102793743975e-01 -1.439562809241869412e-01
-4.103747260450351514e-02 2.197276225654073156e-01 3.615522190734525299e-01
-1.240787102681914084e-01 4.896825109559547196e-01 7.578911150316605116e-01
2.998593885094931188e-01 -5.902679320820360953e-01 -7.087789546034946042e-01
-7.609838582889580927e-01 2.337042728514948653e-01 4.064512909487152381e-01
-2.836506699034460066e-01 1.621499054195791600e-01 2.149900903194963131e-01
-6.512849783695019434e-01 5.800179145353835386e-01 4.251651593464466639e-01
-6.851475965688459402e-01 3.433811917368393973e-01 4.953310965836240642e-01
2.340154328199468559e-01 7.162778667730481663e-01 3.203682291124728687e-01
5.246736765235665567e-01 -5.274454450625075674e-01 -6.250138690977021794e-01
-7.728321421719313022e-01 -2.269169020431451300e-01 4.116118937468536687e-02
-2.802392609251523892e-01 6.790640627065847035e-01 1.890410775450737935e-01
-2.286171652657129350e-01 -5.015475146047320143e-01 -1.764924663917434300e-01
-2.811145275583821213e-01 -1.289930614547351306e-01 -2.047793190822459475e-01
2.283384806682838830e-01 7.198772222403120313e-01 6.312495520330290155e-01
-6.395736436960234306e-01 -4.133590628779837961e-01 -1.031808294037474677e-01
-2.846687147190029576e-01 1.582780211316987817e-01 4.169954025156683008e-01
6.915185689104609290e-01 -1.939924886328915077e-01 3.306278961811746075e-01
6.517432435570326144e-01 -2.905332021633735273e-01 2.314846101041174165e-01
-6.339579797547751916e-01 -2.001088989245194960e-01 1.037567268352000138e-01
7.200251580998660861e-02 -2.788408234819944598e-01 -6.896014844141862277e-01
-3.367585906686375585e-01 -4.438624168096488506e-03 -2.503556683857733889e-01
2.329904471740593397e-01 1.653389069337374562e-01 5.798280191703195641e-01
-8.719331568140171740e-01 -2.235220158055052919e-01 -8.363334566739930032e-02
-2.428504595113434306e-01 4.509331491121674751e-01 8.703128723085835905e-02
-8.559688210594901259e-01 -2.874347205050143961e-01 -3.091596600184842725e-01
-8.719941928424906896e-01 6.754589292470611350e-02 -3.150312840624702737e-01
-1.548467489954325760e-01 1.958026754825367977e-01 3.768055345480206264e-01
1.952773655259369412e-01 1.501223920805384582e-01 4.599385827477682209e-01
-2.256987238434778609e-01 3.218448496652779323e-01 1.192281578227971511e-01
4.634665443729636958e-01 6.642732703870064537e-01 5.486606292297770970e-01
-4.495306664493017856e-01 -3.796220092739881202e-02 -5.362518595366044805e-01
-4.628752897892119966e-01 6.670394162481610260e-03 2.404256041669792232e-01
2.806886992855214813e-01 -6.801090882422949901e-01 -6.574682496545876109e-01
8.344189854191271793e-01 -2.385548065954994634e-01 2.448027300222047342e-01
3.062342430785479630e-01 2.530361483149125013e-01 1.602137547127202855e-01
-1.905389514327901490e-01 -5.558995799413578576e-01 -1.980584353729173408e-01
-2.781686179586958518e-01 -6.451463236881602725e-01 -6.762562895432258081e-01
7.690069266046722918e-01 4.679266779092003392e-01 2.846017491659570409e-01
8.086239298520863095e-01 -4.366226971768382148e-01 2.191749819606774938e-02
4.072302748242179193e-01 -6.101460153759592775e-02 1.205456801186835930e-01
1.790768973908140327e-01 -7.796952815472170117e-01 -4.066298439648344809e-01
9.280119005506654029e-01 2.418311505738428013e-01 2.740116912756679901e-01
-8.169961424558691565e-01 -1.615437309413844391e-01 -4.566157708615500299e-01
9.435124388036687793e-02 -7.356422079377401557e-01 -3.025452561172009558e-01
-3.995133263132612522e-01 -1.973650431458362497e-01 -3.410788293159230239e-02
-3.365901031854400816e-01 4.632102186417330070e-01 6.999374905131672264e-01
-1.216421749869398342e-02 -5.899218806564301421e-01 -2.033259019192553974e-01
-6.435042436495251872e-01 -1.786444024752173454e-01 1.248270907042444422e-01
-1.285758849528586545e-01 -2.952689242859486418e-01 -7.294431798372040809e-01
-8.528662948152008205e-01 2.220691919395539615e-01 -2.167525676197632756e-01
7.395951389851247726e-02 -1.930383061490984486e-01 -4.361904214433731108e-01
-7.382187129120432179e-01 -1.346472619679167371e-01 -5.281357374802088112e-01
3.869753190338145465e-01 -1.127154102489645038e-01 -5.290953177879317848e-02
-2.136274278276436289e-01 -1.111600322638522237e-01 -4.423251406539908115e-01
-5.954439718137938264e-01 -5.592183597853215282e-01 -4.866568362097572487e-01
-8.439020108823704902e-01 4.027914667429818296e-01 3.020049231299247808e-02
4.903142425080417310e-01 -5.957339138454561533e-01 -9.342512757366579212e-02
-1.700475436957547548e-01 -6.675134610914802424e-01 -2.698231691995806591e-01
-5.599845684108331612e-02 2.291121276581138955e-01 5.978732566631522749e-01
-2.333657482025855157e-01 7.757038730429738349e-01 5.015233397897901346e-01
2.550924699843272192e-01 -1.793110693667862854e-01 -3.112355839636042343e-01
2.911917267393897002e-01 -7.173640707249739901e-01 -2.562660734834866783e-01
-3.853503466780206638e-02 -2.412392817871218120e-01 -6.675853943137994850e-01
-5.420199434793850773e-02 4.538014956524524246e-01 1.669631484842554470e-01
-2.762272592515380154e-01 2.062801861765496680e-01 1.418926102150477042e-01
-7.144339566786749307e-01 1.563509026248799672e-01 4.065203297968857932e-01
-9.844595445744769302e-02 6.154510302785006770e-01 7.379096989564284392e-01
9.483247442022640916e-01 -1.822012576214677437e-01 1.608263508148186638e-01
-5.079456006359085452e-01 6.986005704998827781e-01 2.981079544581416441e-01
2.213470425961921451e-01 -6.918285048011537652e-01 -2.303092910169454444e-01
1.797050770963168898e-01 7.724261687004275734e-01 4.527767237061013361e-01
-6.463801747678175058e-01 2.566410168185400895e-02 -4.889626313728426266e-01
3.978867194514538186e-01 -8.349805583878767978e-02 -2.420774907866912046e-02
8.345794516939071261e-01 -6.839301508532490137e-02 -3.059842683178274902e-01
-9.624905452510819359e-02 -2.518156016060895119e-01 -2.671265845132544947e-01
-2.038507554041850411e-01 -1.172139204418343600e-01 -4.584695276139094111e-01
-2.672653926493486765e-01 1.806845337885256697e-01 2.078861977607479872e-01
3.230630864823336723e-01 7.420855824286677616e-02 3.594957638814412770e-01
3.709863597773819799e-01 6.617197686282573210e-01 2.850615579307536618e-01
-1.819598984507427714e-02 -1.967070891638774133e-01 -5.803773439351144203e-01
4.106833881442583101e-01 -1.876437954554718568e-01 -5.364712668349991276e-01
9.094948747764751429e-02 3.312199816233326044e-01 7.357247855343727050e-01
3.867809694931208520e-01 3.506110912499996179e-01 1.043093422648225937e-01
-2.865789019190991271e-01 3.354161764972963811e-01 6.761532524236169017e-01
-8.028014760226611646e-01 -3.022750629688523705e-01 -4.414096689865539269e-01
-4.082457951800314566e-01 2.418878366999616461e-02 1.784990234321545133e-01
4.586965116877380066e-01 6.853731665944506890e-01 4.482270458622990006e-01
-2.049558771295184878e-01 -2.068926110069969071e-01 -2.344264979998763876e-01
3.612731865819552857e-01 4.258182342972587076e-02 3.794283742095522216e-01
6.644010066624055355e-01 4.150288873641418963e-01 6.081381701078115709e-01
1.811532710818093139e-01 -2.131609877447014634e-01 -3.088322261398063762e-01
-1.074388103233051006e-01 -5.641696772835310680e-01 -7.657447474074753346e-01
4.436813965674808458e-01 -1.225245656110058173e-01 1.981921949285419815e-01
3.919094492542970487e-01 -8.610145179333149323e-02 -1.912637446836534527e-01
8.318075876464252338e-02 6.340017314617518718e-01 7.401222178374076144e-01
3.600705392583645748e-01 6.377371231499997517e-01 6.699162023948533884e-01
-2.900320173913235045e-01 5.198145167922274545e-01 7.900561259760813249e-02
3.796258312234611076e-01 -3.853701565522991146e-01 -1.687236694964539679e-02
-5.375678323566349670e-01 6.557536973064834740e-01 1.853673785723348455e-01
4.529981263132414060e-02 1.949492635602509405e-01 4.395382979456295969e-01
-1.935037384997328747e-01 2.393974933976450725e-01 2.206631170946647680e-01
-2.591767486240245666e-01 -6.526740392021483927e-01 -6.770707893963460178e-01
4.294989295816247776e-01 4.297069873131962280e-03 -6.831119847242424215e-02
1.763288596258138496e-01 -3.897605873104124652e-01 -7.428131589867684736e-01
-3.499756277430571827e-01 1.266716766239581737e-01 3.817062688431455131e-01
-4.176476415457955338e-01 4.292427137643652357e-01 6.651065930179032026e-01
1.822105826128175843e-02 -4.039232124604393848e-01 -7.687137812645978840e-01
-5.902495149373685468e-01 5.085112287173941814e-01 5.523280119693986245e-01
7.862561405708106133e-01 -5.024711654647582293e-01 -3.546417712659903354e-01
9.032852141243662425e-01 -6.233354917739308138e-02 3.238198384054556955e-01
-7.432855951321364341e-01 3.793778875090536018e-01 -1.343969069442838560e-01
-3.299840609809784886e-01 4.758781111508365580e-01 7.027814006329571317e-01
-2.411261264673660865e-01 -1.422438101137034894e-01 -2.567608649724380521e-01
-8.561913750792822519e-02 2.405430893970836037e-01 3.024371645143524856e-01
8.047577939893113541e-01 -4.133712909697469517e-01 6.142284023515572761e-02
-8.177744409802296943e-02 -2.611071836187373596e-01 -6.972662535454394739e-01
6.204763205900395429e-01 2.672562001321828751e-01 -4.585081098920268383e-02
-4.318096162676842709e-01 -1.458561679184313883e-02 1.561686784317478094e-01
3.265585138575124446e-01 -6.902032548446408455e-01 -6.271641120052160456e-01
2.512556229506620609e-01 5.433594456330517186e-01 1.853394242311674212e-01
3.645885067730673113e-01 -1.446912656039763823e-01 -1.021284174795314414e-01
2.151426793843697338e-01 -7.151244157138145763e-01 -2.586432785199030970e-01
-2.544983324040437922e-01 3.721766542053421278e-01 8.034673798719241256e-02
2.174213399384961609e-01 4.986758471155404160e-01 1.762952488900683956e-01
6.618952300323274196e-01 5.538837493997309513e-01 3.055880113992858194e-01
-6.195081928714088471e-02 -1.824642379041808149e-01 -3.999680974028593794e-01
-5.817995762471210863e-01 5.395583638054018971e-01 1.381846175062022113e-02
7.968810811037266850e-01 -4.255762485870478451e-01 5.048906813541052113e-02
-3.155921990706073155e-02 3.547778922597908946e-01 7.352306635697853920e-01
-8.600088572272331922e-01 6.835431269026880953e-03 1.855751964445439273e-01
1.878636830654203116e-01 1.582285706309499718e-01 4.042029671303748461e-01
5.982572136983668187e-01 -5.536382836944736541e-01 -5.581483955070036806e-01
4.040386348971288788e-01 -5.456509268374997584e-02 1.073743577774939791e-02
-2.536829486033298497e-01 1.631046628007080390e-01 3.580024074839143200e-01
4.098296953457082892e-01 5.689103186006708723e-01 6.974571740857516966e-01
-8.439206142491338936e-01 4.262944827475249610e-01 1.372312612474927973e-01
5.053361681853599796e-01 5.596299124000413822e-02 -1.618173691059351382e-01
-6.776804231884375751e-01 -1.686474420701790378e-01 -5.777634055269968982e-01
7.655212725705884402e-01 -5.342018016801419744e-01 -1.221563641756510804e-01
5.537951130534072286e-01 -6.411222509894518584e-01 -1.633696359449813285e-01
-7.664695703823209971e-01 3.639996314170702019e-01 4.124946426283619405e-01
-4.212803251368641422e-01 3.852845431221857964e-01 -5.923539180957832634e-02
-1.855157434073259060e-01 3.246392111657293023e-01 1.512748577464412825e-01
1.157926905911795951e-01 -4.366851824412018579e-01 -7.652088034813474549e-01
-3.607649499820009265e-01 -3.033267509587178959e-02 -6.456065745085574903e-02
7.248135286416049761e-01 -4.947504761748768853e-01 -1.329805414907898930e-03
-8.019301564600836985e-01 -3.584980247324925928e-01 -1.927770675562470726e-01
4.229358665865458056e-01 -1.482791295180382017e-02 -7.504399448689297314e-02
-1.197041606298195199e-01 5.062437565737875067e-01 1.458893322549281168e-01
-2.882361137354274780e-02 -6.058257923748130436e-01 -2.117292912471336053e-01
-6.725548546804070993e-01 -5.020648536152654273e-01 -2.871109225388916442e-01
3.165418063349231259e-01 5.611637644710166795e-01 1.902958626000922360e-01
4.352366514855792734e-01 6.954773132241253153e-01 4.663749676702806379e-01
-9.349655557517183579e-03 7.487584718717602561e-01 3.119015579684533690e-01
8.370499568210407193e-02 2.502187854766941277e-01 2.953399972748292357e-01
-9.368849847091769156e-01 -1.002343691496550560e-01 -1.200852729568483990e-01
-4.845593560551768597e-01 5.373786819060976105e-01 6.193007103395733459e-01
7.842136524960885424e-02 -4.620304824804628563e-01 -1.728996841209679003e-01
3.087912512807615140e-01 -6.452875133327645729e-01 -1.709812271749219237e-01
3.997259563543714700e-01 -8.509663807066247809e-02 -2.559964598172576045e-01
5.348071395532172367e-01 -1.644377127906180569e-01 -5.022869559796767636e-01
7.282924777399971683e-01 -3.637382911040978883e-01 1.594360281667928370e-01
-9.220125819547259072e-01 1.718534358284080910e-01 -1.450490655336989787e-01
4.162773504107700195e-01 5.974896370758151637e-02 2.536635588830178645e-02
-8.382617621044825551e-01 1.163390628582439135e-01 -3.218725235359076176e-01
-6.688192974542871427e-01 -5.010438429929673365e-01 -2.747779459693984183e-01
2.456485153798769749e-01 2.656259819667204369e-01 7.045000181716520871e-01
7.831592011215423588e-01 2.542406900688732110e-02 4.746748443656950700e-01
4.975701989660854530e-01 -1.244025324102906449e-01 3.006890912785804559e-01
-1.373729437982469936e-01 -6.240826835939748962e-01 -2.313456054276501472e-01
-2.660176713008494120e-01 2.531813242432485733e-01 1.130372671072371882e-01
4.333155339338184975e-01 -1.171089244741972506e-02 -1.154608713630198291e-01
3.942307258736859610e-01 -1.570700138678117475e-01 1.518805941368389298e-02
5.853629489429119648e-01 -4.492308233471788981e-01 6.509083514433752771e-02
-5.241390421538864031e-01 -4.888622726569326060e-01 -6.489815188058853934e-01
5.445668045141773828e-01 2.201732897795949662e-01 6.597602603221272011e-01
2.518712652674899299e-01 -4.822859435394794003e-01 -7.433721364265220011e-01
-8.062391351337926393e-01 3.122160237552088491e-01 3.669432712988040524e-01
8.570260295263965045e-01 -3.744386742252529821e-02 -2.657612352090448771e-01
-2.034926771124475064e-01 -2.284724363789975010e-01 -2.198122689439602762e-01
4.808052391137142001e-01 -9.186327252520956610e-02 3.239229851086961598e-01
-6.006620652019102335e-01 4.807146512414069983e-01 -5.322966255065650354e-02
3.418362327258702149e-01 -2.608072498890915969e-01 -6.015159178841017473e-02
8.183624127672960435e-01 -4.283016987016270982e-01 2.457654226676997747e-02
3.279645392065944076e-01 -7.114136249509341869e-01 -5.994782142941322833e-01
7.927243134479229625e-02 4.185782622697440947e-01 1.902101937238741547e-01
3.137555718762795598e-01 -1.775825744772054071e-01 -1.893377254941341903e-01
6.632857655060573343e-01 5.250682432207574024e-01 5.223374370490356799e-01
-9.223705444857913660e-01 2.660846015721389235e-01 2.260202102209965536e-02
3.446970763682363076e-02 4.988733529694847624e-01 7.763839881633887163e-01
-6.615246049382120797e-01 -4.001760005831436207e-01 -5.771351281100064456e-01
7.558148261824136627e-02 -6.636771465483218835e-01 -2.301761249793199959e-01
5.603576662004285946e-01 3.339239582918655802e-02 -2.476175038204342094e-01
-6.941486125717073463e-01 3.512911739132350275e-02 -4.685261629827152663e-01
2.015864753561626144e-01 5.269348715353184831e-01 1.833947657995812219e-01
8.706275114670226634e-01 2.499096433605980105e-01 4.255688587706893400e-01
6.648615502757608819e-01 -5.469034291383938484e-01 -5.062094389280891171e-02
-4.548620769989835666e-01 -5.325206891868605741e-01 -6.699341776737279819e-01
-5.269791919975639338e-01 -1.437521724063435535e-01 1.163614998386777177e-01
3.506235459166855417e-01 -4.144984439953773303e-01 -4.509210378910453315e-02
5.737886136465699671e-01 5.692852381620036040e-01 5.801821773324857823e-01
1.871530214114301149e-01 4.088371261458380035e-01 1.794249451012387142e-01
2.739993888536985112e-01 -1.645428231727848467e-01 -3.454985298334839472e-01
7.466488342088868357e-01 4.668810523145354163e-01 4.603338246514219190e-01
-6.678272541462152434e-01 2.650876066278264331e-01 4.895977611893756465e-01
5.068913098625441593e-01 1.459466659886679563e-01 -7.168875316157609368e-02
-3.804289900476931496e-01 -4.972954952405951312e-01 -1.566978414263533459e-01
-2.029460372030001680e-01 5.657081688803828889e-01 1.309034188166245671e-01
-7.383328335298429135e-01 3.493580531056025840e-01 -1.716484531223181620e-01
-5.885156986174062688e-01 2.941803969749627878e-01 5.476216924409066378e-01
-2.058657344058646421e-01 3.654974247676952004e-01 1.190328806357298097e-01
2.445620859012599679e-01 2.180034808103595012e-01 2.321396325348604461e-01
-3.491462066065173508e-01 1.718723924912763171e-02 -2.282625817529408407e-01
4.555497081292281814e-01 -2.992361066316174406e-02 -2.291575662110540423e-01
-6.026266086546331335e-01 3.350420494547786121e-01 -1.994962867890399116e-01
3.249196217645582974e-01 1.647202252595456051e-01 1.795383176366370237e-01
1.223885646569257690e-01 1.970900451247278029e-01 3.650103276775134575e-01
5.285970606730980847e-01 6.460905919389529073e-01 3.812802995064526468e-01
-3.608448179578384596e-01 1.037711357446372135e-01 -5.329347761433149422e-02
-9.005563987241098356e-02 -4.827568372462064938e-01 -7.813001814390444499e-01
-9.070289157056604656e-01 2.504088268604594547e-01 1.818330294723816964e-01
6.617801577264387225e-01 3.217213804868030991e-01 6.286538020718953623e-01
5.109502062167564640e-02 -3.312224208740822684e-01 -2.224614591134102537e-01
-4.082268703318907566e-01 -4.044247231338177206e-01 -1.032633855289395303e-01
8.865495862977224029e-02 -3.453755724747589739e-01 -2.064652018215017149e-01
7.957104077073586801e-01 -3.199825663805681841e-02 4.335976139380821603e-01
2.610279999480564772e-01 -5.378836333931608094e-01 -1.224441885415038095e-01
5.362382301519019734e-01 -4.425484112552723753e-02 -3.456622501378229240e-01
-7.801755153791160025e-01 4.287722786788065732e-01 -3.679354499463684952e-02
4.268054652780935432e-01 -4.580552244572266285e-01 -1.110606647104852088e-02
8.141768712518244744e-01 3.140532378662966306e-01 4.868252005274004146e-01
3.994581647908164168e-01 -8.314779341017147773e-02 -2.412174279097982765e-01
-9.501682042733347600e-02 3.093916637917312751e-01 6.947809316570829896e-01
3.463427324790746553e-02 -2.211435898374010667e-01 -6.186313127446307902e-01
1.076872277874556250e-01 3.975240583377969150e-01 1.941984966545672875e-01
-4.831492316313624746e-01 5.664196528046386847e-01 6.079973111247655160e-01
3.645520372415879118e-01 1.311155741451241474e-01 1.339340882174687997e-01
7.445529265607075953e-02 -1.946785758236874442e-01 -5.267931625979425103e-01
-8.974785730879163426e-01 -1.068395842160795306e-01 -3.257547283851503495e-01
7.387031203711519334e-01 3.377875887355957785e-01 2.675823930809039311e-02
8.532268398808804388e-01 1.598813501351267503e-03 -2.403539906747713673e-01
-1.980573991979968085e-01 -1.683552374149654696e-01 -6.101054915164159098e-01
-3.628565441486056864e-01 7.656830101747712225e-02 -8.773310392200202312e-02
8.506637334759881153e-01 -3.495102028556739127e-01 1.055668443604063922e-01
8.984011907411890707e-01 2.250539138200898515e-01 3.833011944021121331e-01
-5.022931112128458109e-01 -3.437708046393183614e-01 -6.933950131061129563e-01
-1.754265994563714015e-01 -7.472382207761086859e-01 -5.556347178501354067e-01
-8.879527609138224697e-01 6.614411660394413361e-02 -2.929838799995129195e-01
5.751034231018610221e-01 -6.453578546873561805e-01 -1.824775813088352905e-01
-3.387259381538572645e-01 2.460359804376180126e-01 -1.525899439215648058e-03
5.353629224969392864e-01 6.450184662231452926e-01 3.972285980785993931e-01
-4.238412479921102038e-01 -6.725118785944685929e-01 -4.568685596766526302e-01
3.105430872984037416e-01 -3.935859413028922060e-01 -7.211042611525125823e-02
-4.570207198279009897e-01 -3.870665597765357013e-01 -8.068647118619451386e-02
-9.568789049683962267e-01 6.915935719333718423e-02 -6.920087674643513043e-02
1.499563842167777605e-01 -3.518649755132668422e-01 -7.307876037418435944e-01
-6.469893292724702150e-01 6.987349147879406974e-02 -4.540841258824999116e-01
-3.256915748634651719e-01 1.325321861630057163e-01 3.652860444434075093e-01
-5.018339965631148786e-02 4.357241327775133732e-01 7.626706704159541550e-01
2.268772372144526039e-01 4.469909528874145277e-01 1.694386325533761561e-01
-3.835938903292435143e-01 -4.819288149556733569e-01 -1.474647308912331312e-01
7.759834398482813311e-01 6.036350395811550251e-02 -2.377259295646450277e-01
-2.454093872641501251e-01 -1.133490703292742013e-01 -2.969545413032751990e-01
-2.408191582397130048e-01 -9.887036265960730264e-02 -3.575754883958181529e-01
-6.260886422500683279e-01 -3.493391060491626843e-01 -3.358874678178502826e-02
2.979607550410682260e-01 -1.962240874082739062e-01 -1.878550450144186867e-01
8.257195442649158945e-01 2.498603276865276890e-01 -2.185795353574135347e-02
-8.581961763396743770e-01 1.875706120669499988e-01 -2.428463461500712794e-01
6.533927988881315096e-01 -5.857480490871387335e-01 -4.698028210738616761e-01
-3.663680322553331536e-01 -6.918209180648271506e-01 -4.053964339312914889e-01
4.518677320752806370e-01 -3.684369133958603076e-02 -2.387916811174479181e-01
9.266650697148233196e-01 -2.830246515197913926e-01 8.012880595290818031e-02
-8.823817891247508205e-02 -2.384988537165861067e-01 -2.841273871677514329e-01
4.132130180385370499e-01 5.780853886945497289e-02 3.339134246833408426e-02
8.223982245667878221e-02 -5.466036423823023016e-01 -1.769179105470221891e-01
5.196532172987744502e-01 -5.410939588246230780e-01 -3.432203053508671442e-02
-7.988562231252757107e-01 -1.219353756968912794e-01 1.318673565274939286e-01
-1.348214451583407969e-01 -3.389577407933028197e-01 -7.532134041326368212e-01
3.808386569302300018e-01 -1.360440533069224855e-01 -4.876992752483533949e-02
-2.152156474761463545e-01 -7.466184709670543596e-01 -4.651307078115206051e-01
1.621326822312422200e-01 7.284565006888158445e-01 6.418422394603693348e-01
-8.719982177789352695e-01 -4.367888212274939272e-03 -3.507170386835423148e-01
7.849863581526734801e-01 -5.303046753562795645e-01 -1.616581040087702037e-01
6.135721863753585970e-01 -6.028481986370163304e-01 -4.991172164810755985e-01
3.845674796155607728e-02 3.253491808361615445e-01 2.319719452286091721e-01
9.337428920753280959e-02 -6.083324811722242709e-01 -1.947192134402791208e-01
2.425987196930456113e-01 -4.489136544471058476e-01 -1.144937124863227712e-01
3.816218669219540449e-01 2.710877314235142152e-02 1.697549998511841129e-01
4.156556353647145735e-02 -5.893504438661504308e-01 -1.959848032512941374e-01
-4.370937006861789209e-01 9.315565225602343014e-02 -3.386743334089738489e-01
6.427945827088825670e-01 4.466709025494695062e-01 1.132886701580597261e-01
-5.333144155885088944e-02 2.001279566863588821e-01 4.785066533985044002e-01
3.629078126139868576e-01 -2.118935519233801357e-01 -5.704017570663718617e-01
2.017874271690820454e-01 -2.156117998825003157e-01 -5.803143232358263237e-01
-8.504544162299344512e-01 1.375897574358941888e-01 2.749557154051808783e-01
2.547525252477366164e-01 -2.402202175714364674e-01 -1.909566246612817431e-01
-4.021744168592698565e-01 -4.426424550425490101e-01 -1.234001141858907385e-01
2.642404860733749694e-01 1.194762011445250627e-01 4.710284956730503847e-01
6.204240757343099100e-01 -5.294106442585662098e-01 -1.568233521057772403e-02
-3.924905181147966826e-01 -2.156221971232302748e-01 -4.655324942959420537e-02
-4.378979253487276790e-01 1.005857950977296633e-01 3.920852248661818584e-01
-2.123650032476244731e-01 -1.291916221944276466e-01 -5.354391103516341621e-01
1.676547904584137771e-01 3.980802785834937629e-01 1.852476050049750023e-01
6.765903666452224297e-01 5.392611262327222654e-01 4.689863416788159212e-01
-7.364784457003568097e-01 -2.788141911874692513e-01 -5.397251078772471455e-01
3.039146065780336525e-01 5.267011350699343231e-01 1.749162619316619871e-01
-2.975814734955775087e-01 -1.039834230319651304e-01 -1.966733060069538186e-01
-7.686317167654959093e-01 2.816042220340173041e-01 -2.288139536371149585e-01
1.216142604586553794e-01 7.830287624641111277e-01 4.944125322331888728e-01
9.683789268163110753e-02 -2.832937142291667709e-01 -2.505704169948052007e-01
-1.174903516888302184e-02 6.217809266303587767e-01 1.998680585855579228e-01
1.736354935757933871e-01 3.648540786740239183e-01 7.563050637485229100e-01
5.075295080365642697e-01 6.557519943037652954e-01 4.952052304950455008e-01
-2.176594464108136118e-01 3.343201980452303324e-01 6.908611150956279756e-01
-1.509371905326459817e-01 2.063511598082951037e-01 3.357823782464462448e-01
7.108082484392842515e-01 4.438191719553687964e-01 1.418557920357169377e-01
4.301552525517063907e-01 5.562259972051070839e-02 -1.461869217139314704e-02
-6.677750050659642111e-01 1.321726677654402049e-01 -3.983510391150363872e-01
-2.204237326395406815e-01 -3.942108290874714593e-01 -1.633163721590076833e-01
-3.198731440512280200e-01 -4.168725129587188549e-01 -1.345850899432042835e-01
-2.364969045955028215e-01 -9.767205694514755066e-02 -4.343589468035527479e-01
-3.997808434739194006e-01 -6.761005330309931560e-01 -5.197137109169531755e-01
3.643103753199462003e-01 -1.234886795764889300e-01 -1.627052530619553239e-01
-2.659804605394684440e-01 2.514029548278270965e-01 6.096339866766283810e-01
-7.320961405415002954e-01 -4.577028858100327113e-01 -3.281309074794862557e-01
-3.837300516624003732e-01 7.414551832411538090e-02 2.591464457087369055e-01
-1.804828982797469505e-01 4.785974048990353502e-01 1.207925615292250177e-01
2.133557675253704988e-01 3.445668599392892606e-01 7.484834831609271655e-01
4.565604621433773658e-01 -1.172100171276445751e-01 2.385225816473253713e-01
-4.143315970759368083e-01 3.943446103412625026e-01 6.600843967383772659e-01
-8.218654896553670985e-01 6.321300704228884071e-02 -3.729044074410102216e-01
5.941658381161795538e-02 -6.371286989780795551e-01 -2.154607545680419789e-01
7.894460623743330130e-01 -4.070088791112968507e-01 -4.273809106362047028e-01
1.486360737934791787e-01 -6.370820194908175527e-01 -7.247916913897258784e-01
9.127242752781589141e-02 -2.735480776511111101e-01 -2.620787993985730369e-01
6.740443319377330544e-01 -2.482534388722920649e-01 -5.124747632292426802e-01
-3.896818734607391255e-01 -1.631282519688924404e-02 4.617598207268785310e-02
-9.038310149000298166e-01 3.132873323636352625e-01 4.268635010376893579e-02
-9.476857778434644164e-01 -2.115713435428988667e-02 -3.860008872599856450e-02
2.711285080268321379e-01 -3.397339351165707955e-01 -1.105724741314703247e-01
-4.741036197752161452e-01 5.512756836398933213e-01 3.220573308736272844e-02
2.387066066131329767e-01 -3.496353689085870409e-01 -1.320392887871850163e-01
6.685472363861652001e-01 -7.310373693829763653e-02 4.419254971473795535e-01
-9.166479516862063859e-01 -1.182571426984710709e-03 8.747720905097654265e-02
2.366312791544604444e-01 6.928282486547689967e-01 6.652096562451197403e-01
-7.672402176525139339e-01 -2.906031802605233971e-01 -5.013920968191839522e-01
-1.207131670874894702e-01 -2.254567231114488479e-01 -2.810844523623901581e-01
2.538451825971804743e-01 -5.575103933178779947e-01 -7.336917128254134557e-01
-8.886124848040625190e-01 -9.217633224501350919e-02 5.819632874322246824e-02
4.646372061781098295e-01 -2.203829158004580735e-01 1.466490901445989814e-01
-3.472937121164010876e-01 -6.262491486902159732e-01 -2.606488617647107486e-01
9.643598417360913500e-01 -1.892437096200119961e-01 1.126339479226062951e-01
3.892957132402696807e-01 4.250213446562914887e-01 1.225988749740470202e-01
4.480354086934927871e-01 6.319529578214535537e-01 6.202995228517214077e-01
-7.869074266649385141e-01 9.957681748681448952e-02 3.203536360619571033e-01
3.404512473624843882e-01 -6.793246751772149539e-01 -6.320214746612488055e-01
-2.777340744496770708e-01 -1.370203761964192135e-01 -5.965135696893218986e-01
-4.339400163093249940e-01 6.422700629075175360e-01 1.343655729359359008e-01
3.859373486162359645e-01 1.823242308358538968e-02 1.605682143816603569e-01
4.602761064502707278e-01 -1.293362026137151732e-01 -4.536182532964593284e-01
3.588793325698569348e-01 -1.433743132867550119e-01 -4.331170110706179521e-01
6.783968590193115711e-01 1.004670268212993767e-01 -2.139152065793772373e-01
5.070461670394820625e-02 -4.642773241545521956e-01 -1.779023936300552222e-01
4.409223017862790028e-01 -8.221747919122876502e-02 -3.428384780997139614e-01
4.242297421189424739e-02 5.837644537386417198e-01 1.929927580252756014e-01
2.076077518310432968e-01 1.573471482466169136e-01 3.666900640413685575e-01
-7.091800531746141889e-01 5.609450086750936704e-01 3.370475388386416915e-01
5.505814232999282076e-01 1.828944967337023664e-01 6.411624524303870531e-01
1.140905180653427609e-01 6.966574462419203861e-01 2.696694834512296524e-01
4.498061695338958499e-01 -5.769038883001307294e-01 -8.165375937586087651e-02
-4.300380369294332650e-01 -5.827195502795065041e-01 -6.484239170823250520e-01
7.405445208800977008e-01 8.480865681826717239e-03 4.863467517544224905e-01
-3.152861218845180447e-01 -9.568355345448106841e-02 -5.507229994539818430e-01
5.278009274081493230e-01 -1.091574026339958564e-01 3.544163494042883444e-01
-3.971927690520143384e-01 6.412362941792141280e-01 6.157394626676798710e-01
-1.895227421936833134e-01 -1.239793301633395350e-01 -4.345160953584418229e-01
4.986666012379675217e-01 -2.436480605594196214e-01 1.742463621517710004e-01
9.430149335217156148e-01 -5.271266126895696180e-02 2.718696320985499182e-01
3.900534706701905829e-01 -2.359414542540595738e-01 1.260100233279039250e-02
-5.789403131674681902e-01 1.656002950387936712e-01 4.733848030702680898e-01
-1.953661695701179035e-01 -2.448982919275567993e-01 -2.155143053747007875e-01
1.552414006914812905e-01 -2.046158990687694801e-01 -5.551638166557665288e-01
4.182750573707876285e-01 -6.023327728981463930e-02 -2.128625571768822111e-01
-3.632991843020074718e-01 4.222208907215217744e-02 -2.400087828306623206e-01
-7.415545856337499853e-01 4.017450888686175947e-01 -1.078448836059276994e-01
6.127673366246415287e-02 6.406829174673411842e-01 7.370399483157801246e-01
1.471320640955905146e-01 1.977082716766876413e-01 5.999484611274079615e-01
4.667936945691212869e-01 -1.965483208517629365e-01 -5.442064202132833595e-01
-5.970755578919610951e-01 6.083240234670240776e-01 1.240996356270843148e-01
8.677934811967363826e-01 3.518097504366795025e-01 3.089948748137689716e-01
-3.877503607392158158e-01 -6.414530116512093816e-01 -2.961773998723258305e-01
-7.120129949251799983e-01 -1.049148773116375805e-01 1.902566873481907617e-01
-3.720134436192694127e-01 -7.355391381192190846e-03 -1.133761551034152999e-02
1.617288499195279339e-01 3.181118184575215668e-01 2.147306307952148163e-01
-7.409801158785830344e-01 -3.262838328086053452e-01 -5.314104957626687720e-02
-3.942100622369832941e-01 6.380939652671367701e-02 -3.095796090885790108e-01
-5.712988271987383682e-01 9.164315412586079845e-02 4.046059739331566152e-01
-9.014886440319916927e-01 2.345471094163326664e-01 2.028172062594183200e-01
-4.199364430687245742e-01 -1.888962311617908840e-01 -9.981395597637398448e-03
-3.062378728844335485e-01 -5.625016143725920792e-02 -2.450354451439022418e-01
5.658646076631616006e-01 6.276694043733667128e-01 4.544197310950064406e-01
-6.593476599614680467e-01 -2.778045728027176420e-01 -6.055573713834186966e-01
-7.413467887154940872e-01 -2.233483880446092418e-01 -5.389046788997564619e-01
1.535113934945143456e-02 -1.855528707908334629e-01 -4.832592983477446702e-01
1.730667384327967129e-01 2.840567557720150016e-01 2.302285528834138728e-01
6.799576358464385351e-01 5.506371214765617417e-01 4.068177034854538743e-01
-1.346243275588763222e-01 2.248484414682419830e-01 3.024764285135572717e-01
-3.563948789782547255e-01 2.994806229543188134e-02 -1.282883125334585983e-01
-6.154457647981077806e-02 2.971718332794637263e-01 2.400305549421291595e-01
5.255642334454792008e-01 6.677380087092477101e-02 -1.725451817374207830e-01
3.655510862123455551e-01 6.051238980154286518e-01 6.941510040486899014e-01
-1.170426313472599927e-01 2.011299773778534306e-01 5.008504651849779998e-01
-3.611393852381916680e-01 5.236377446404577585e-01 6.870238968227923015e-01
6.274698596607072298e-01 -4.741448346101169165e-01 -5.690737534817202903e-01
-1.584263714041684867e-01 -3.088261354569966088e-01 -2.034693250473557646e-01
5.610920435138181395e-01 3.897286088453443265e-01 6.814657629997132871e-01
5.521313843019599876e-02 7.288977281523492113e-01 2.954923646454284403e-01
5.017366231136723975e-01 1.066508676989005588e-01 5.935999061123937715e-01
-5.168472646635098311e-01 -4.427354547666952356e-01 -6.733712816155664749e-01
-6.026671381046301568e-02 -5.344000412478966400e-01 -1.915253977663692875e-01
4.766468068564402860e-01 5.492552517034026555e-02 -1.183503496719915393e-01
-6.535815933562038049e-01 -1.747583275624729482e-01 1.289899410626756115e-01
4.005248521477871027e-01 2.488223743814295119e-01 6.954654684405867648e-01
-5.382236852966203466e-01 4.040003756254020861e-01 6.026131253669305687e-01
4.517864773339776152e-02 5.842723105198771583e-01 7.622141000122202303e-01
-4.587727963628722150e-01 5.883603224989626158e-03 2.340374158220290546e-01
-8.813304372144937782e-01 3.305481394077855462e-01 -2.199695569312608984e-02
-3.570540949717526669e-01 8.742863410735571272e-02 2.032314484025741497e-01
4.615427843999036495e-01 5.551323721028426916e-02 -8.855613865090861125e-02
4.784911696809042159e-01 -2.531752471635360657e-01 -5.928549133833062035e-01
6.304092220619137432e-01 -1.035114283636695970e-01 4.110574271848128625e-01
6.574201669511338109e-01 -1.308199304505917038e-01 -4.451384103626543909e-01
-4.222621394839027320e-01 -1.443986081375105424e-01 1.437405501190688537e-02
-9.413144682805978380e-01 1.919592191937207204e-01 -3.267072994185254292e-02
-5.444373701317551939e-01 6.488711550844454834e-01 1.743129887142159384e-01
-7.061278491607705377e-01 5.092995188940540041e-01 2.359428443396665784e-02
-3.361453696193272833e-01 -3.962018825499780128e-02 -4.532804472431060105e-01
-6.556073415813643557e-01 3.005454567658067400e-01 -2.398562842565495068e-01
-8.283405773033336583e-01 -3.167323049030054682e-02 -4.146277608737553022e-01
-8.787091283571905886e-02 6.089260802142915097e-01 1.797151389849037939e-01
2.286135163479107446e-01 -1.761338476376091422e-01 -4.148925379479972975e-01
-3.121233544747616939e-01 -6.585740702165117089e-01 -6.433781149829214119e-01
4.009728983944749192e-01 -1.448447985267648508e-01 3.685368968983358112e-02
-8.178185701131582830e-01 4.164166947024998677e-01 3.002441356440518350e-01
-8.191430339863293719e-01 -2.513257244932265433e-02 -4.213786490001013019e-01
6.040554860283992022e-01 3.385954966980022629e-01 1.447440877601648308e-02
-6.418308610530515379e-01 -3.686996067280305378e-01 -5.555715656107745870e-02
-6.361636347334918007e-01 5.520200933167421775e-01 4.740209063003419238e-02
-5.073894400121992110e-01 3.137707784830400803e-01 -1.746855478764086089e-01
-6.321385902295800774e-01 6.287486172743339541e-01 2.319845325804557878e-01
3.136268645820795564e-01 -1.792804041563486050e-01 -1.862073742249449881e-01
-5.996704923338352922e-01 2.921558522766004029e-01 5.408252550037986328e-01
6.846229418954713486e-01 5.450287786858585282e-01 3.362720143942019568e-01
1.624562808467991948e-01 -7.041272232551304411e-01 -6.686984466163572449e-01
-7.384180980832675267e-01 4.173548489333405165e-01 -8.967087646166813086e-02
-4.409669286331318050e-01 9.374365623714575602e-02 -3.432963101601536615e-01
5.142367340556153188e-01 -2.715828105066407372e-01 1.681720231991839787e-01
-4.235771399099854118e-01 3.675504313728489292e-01 -7.058645816866475353e-02
1.181044873829415476e-01 1.928145612858099267e-01 5.717903678241312848e-01
1.844365019138096973e-01 3.610683412798267322e-01 7.549798703974099912e-01
-1.273642029435579914e-01 5.679271115548900628e-01 1.551172956546034154e-01
3.932435205004937151e-01 6.504782073793373420e-02 9.211240256678833449e-02
8.530820963474712582e-02 7.411683982674401872e-01 6.392105581670071146e-01
-9.319756751164917086e-01 1.492911521087370574e-01 -1.389015507941230854e-01
6.006208998063194970e-01 2.234749395306956654e-01 -7.528309511184734515e-02
-8.727362199359025574e-01 -2.453620606256863568e-01 -3.147267999415379047e-01
-3.528882742798112870e-01 1.070619214104030215e-01 1.029253413269167090e-02
5.924243384078565766e-01 -6.595732257442704638e-01 -4.246641232792013332e-01
-5.150284074551002567e-01 2.701559690933472702e-01 -2.185820118734854434e-01
-7.356330383217256630e-01 -4.146117441843130691e-01 -4.620885299326609741e-01
-4.887561791661686472e-01 -2.285314623281494567e-02 2.223000332545766178e-01
3.851288787775694611e-01 -5.612474360325198086e-01 -6.868278018910197735e-01
5.649745054425717727e-01 1.151382538465368088e-01 -1.534954332536181132e-01
-3.743427401476747129e-01 7.483423056534120876e-01 4.434575385671463144e-01
2.469210602594064732e-02 -5.237705687572330460e-01 -1.827730302794139394e-01
-1.876050219106811523e-01 -3.967786680584609038e-01 -7.697959521530177707e-01
7.738097131963855846e-01 -4.912639828174494849e-01 -3.940968913976221066e-01
-7.810392725461561270e-01 6.928351550442528491e-03 2.585368753200049663e-01
7.944631971852456065e-01 2.123163602369824432e-01 -8.247389719687758802e-02
1.950133071994528122e-01 -5.986312067230141754e-01 -7.345635580616386440e-01
-9.054797125176045069e-01 -8.232073340245542326e-02 3.579780834826501446e-02
-8.843430300943138089e-01 1.353618363179993067e-01 -2.514740955169806336e-01
4.787868410215179726e-01 7.737290965067687709e-02 -9.613748178700844138e-02
8.235047153357041294e-01 1.419180634408246169e-02 4.417241799585249207e-01
-4.202345279434105407e-01 -6.622444675851593132e-01 -5.326150487396376088e-01
-3.958207011310690970e-01 6.710588485842859663e-02 2.660793681625214235e-01
-8.823745158742513084e-02 2.093990448896315137e-01 5.384333257867610634e-01
-5.029559627679919265e-01 2.986178285105496877e-01 -1.842616659685758218e-01
6.506604428560015529e-01 4.620082012376564018e-01 1.332216686302189201e-01
3.411814283540284265e-01 -3.213631320448674944e-01 -4.814103963376499540e-02
5.674522229653126137e-01 -1.932156126053920508e-01 2.891587451073880377e-01
-2.405804445419872373e-01 -6.883268295174312934e-01 -6.428728691943627060e-01
-2.171312151335264840e-01 2.372820624464949124e-01 5.954809516100598721e-01
-5.539592196510029209e-01 7.882835214007932745e-02 -4.412271287613153126e-01
-6.850793912060254565e-01 -4.733543331867181014e-01 -4.771132371149152118e-01
-2.977645301224459140e-01 3.618833801571979536e-01 4.349229167128244172e-02
1.069547290339393358e-01 1.830080436549254008e-01 4.321263128689036837e-01
9.799929635713907627e-01 7.629798461959133582e-02 4.096641400336131084e-02
3.169323108999098637e-01 5.937491759047743844e-01 2.101119201425519500e-01
-7.174711777802438295e-01 2.007914538908457669e-02 -4.689420229807088059e-01
9.784762219840931197e-01 -1.505491462391887747e-01 -1.104531355881499671e-01
9.593821613781351731e-02 1.827287445361997498e-01 4.949917817986038693e-01
7.715289350455714068e-01 3.389931068969240791e-01 4.541381202540537704e-02
2.864906709012083330e-01 -1.802512538744218129e-01 -2.435019048354673254e-01
1.992241048695542749e-01 -4.629150557080138340e-01 -7.543501681813113979e-01
-1.289868290849198983e-02 2.125844463236388204e-01 3.844194775392199004e-01
4.921564769574570675e-01 -2.368406688394198711e-01 1.720032079032045857e-01
-1.504940293911699763e-02 -4.204189057038673627e-01 -1.912199489957189247e-01
3.478295157144256078e-01 -1.723621126086166411e-01 -5.030047186477335508e-01
4.190427422814735348e-01 -7.795014823907013557e-02 -2.904756750819542099e-01
-2.830168312976911738e-01 -1.805368680016712635e-01 -1.683353470471985192e-01
-7.185762466833549578e-01 2.655715513639583247e-01 -2.658921346636879401e-01
-6.080664016988487353e-01 4.859392676815585954e-01 -4.707460554555725762e-02
-2.106195359532255229e-01 -1.375715408688680808e-01 -3.153523328673356052e-01
4.069362364294460410e-01 1.591815696620137513e-02 4.422037987158991545e-02
-8.142239357617041540e-01 1.591495128251425029e-01 3.263379298090514080e-01
-3.124284026441782880e-02 3.356990072892358512e-01 2.176722292641920242e-01
6.625522704162238874e-01 4.756566783841651991e-01 5.758217803360486942e-01
6.931478102714337952e-01 -4.719647072937820931e-01 -5.117759730691069375e-01
4.843002051219201243e-01 -2.366813942175543528e-01 1.621344018605710424e-01
-4.351562818793537346e-01 1.034712959888171441e-01 3.958960799748256210e-01
3.394885966396347099e-01 7.276674263055229464e-01 4.182108076534421515e-01
1.352546222886681915e-01 3.405802048697784690e-01 2.111644440684517787e-01
4.677435261312243853e-01 -2.933334838241294928e-01 1.039571769320128958e-01
1.111496550631455998e-01 -2.416221481444759955e-01 -2.965499719429740555e-01
-4.422301779548420964e-01 -4.959191954271189307e-01 -1.528004422117376360e-01
-1.222203853446003456e-02 -5.978865206837009616e-01 -2.064605062342325104e-01
-3.632936018035315962e-01 -5.493658550696747245e-01 -7.085005416313358007e-01
8.433499279033592755e-01 -4.716995314680452744e-01 -2.296221709946488776e-01
6.233667960789717188e-01 5.549291485170216864e-01 2.530494126883416350e-01
-1.138160244502519347e-01 5.922151464258202935e-01 1.669128107167915376e-01
5.613845024797396999e-01 -1.478632408397423381e-01 3.345935131296668974e-01
-6.505280308114497201e-01 1.084225438153738064e-01 4.036528209632518904e-01
