-2.028016592606032287e-01 2.546349197987560209e-01 1.182633173624827450e-01
-3.678020685505741794e-01 5.789364865665325155e-02 -8.035670738576296268e-02
-2.111682245590976448e-01 5.642330555624065075e-02 -2.734651279427714465e-01
-3.778053775464817327e-02 -2.031654071917435855e-01 -2.751905306908017934e-01
-3.639182236828668593e-01 1.611328561343732535e-01 6.619916431709746973e-01
-5.717000012260846642e-01 -3.614345388817500893e-01 -7.703878234819633297e-01
7.792757971791750560e-01 -7.080446946326967028e-01 -1.820712090437398289e-01
8.497864761306241077e-02 -2.437812983104277187e-01 -9.426895078066308553e-01
9.087995873347705367e-02 -2.301702331215759248e-02 8.746120162412343024e-01
4.046612210419502087e-02 -9.948841085872213441e-02 6.742892325513688556e-01
5.096815949377290211e-01 -6.426462578164138240e-01 3.446045979806458548e-01
4.280650136841738229e-01 -1.186685555394958458e-01 -3.303446856235853213e-01
8.593530489387412041e-01 -1.521439216294217904e-02 2.136393686424935823e-01
-1.400706025500051688e-01 4.591046040681157070e-02 4.956858331369650150e-01
-7.219321205724186230e-01 1.259133379890884086e-01 1.710116598956775147e-01
-2.702596432176887498e-01 2.136749711487571923e-01 -5.294985844524468382e-02
-3.326389174619509559e-01 3.542163732687616529e-01 -6.411862048335333908e-01
-2.907021744208445613e-01 2.609290353702003462e-01 -7.386242748908771194e-01
-3.239201333640996938e-01 6.762451266206335188e-01 -9.494678491391224384e-02
4.596127500641704611e-01 5.016800340506376576e-01 6.344049012615282646e-01
4.737299498794398378e-01 -5.273545053171325298e-02 -4.613988769895531472e-02
1.389720160866980692e-01 4.883330035615730119e-02 3.070952826274302994e-01
-6.767152193711114538e-01 -2.997602061930703110e-01 -6.396856751197190771e-01
-2.915967437064492795e-01 7.145107782805699692e-01 7.492786781015965403e-01
-7.091147728263187400e-01 6.277815835146933754e-01 -3.640418629855931565e-01
1.793828299367276335e-01 -1.963743343511283879e-01 7.235856236091944282e-01
4.866148084999326606e-01 -1.527609204424144052e-01 -4.560205705288692957e-01
2.291609253842855354e-01 -2.589153095107386560e-01 2.072265830056518043e-01
-1.759995997450420624e-01 -1.013916945710706119e-01 -2.799298040588492631e-01
1.861420724648516489e-01 -1.215999113367449286e-01 3.084897906798088618e-01
-7.379424187693566228e-01 -1.804661397727268524e-01 -3.473927400081052719e-01
3.074437743447284710e-01 5.479339494930185461e-01 8.223141458017397820e-01
3.217353717614941377e-01 5.986885590088694142e-01 6.733810542275976418e-01
-5.354851279828846955e-02 -2.487099184179544231e-01 -2.585102804083421191e-01
-7.078371080987284625e-01 -1.554706784573129108e-01 -2.681869125770576789e-01
7.491315485305460875e-01 -3.983340266404730712e-01 -4.430921897243917940e-01
-5.916692766555122773e-01 -3.928551473291305163e-01 -6.162604881860372918e-01
-1.620802642093449597e-01 -4.935161657792233592e-01 -2.965450130946372109e-01
1.094334377694909793e-01 -4.594204714988036065e-01 -9.127883170361017484e-02
-5.497515970268191943e-01 6.951896288113290634e-01 -2.659062217353148627e-01
-6.814674954654603711e-01 2.513907468067669293e-01 4.271470397859961077e-01
6.431436798260293797e-01 2.911153164286588435e-01 7.335803656991634059e-01
-4.813392836007621689e-01 -4.014537110884903726e-01 -4.083212499719213184e-01
4.468939667800198579e-01 -7.215218488303963840e-01 1.607685232906444772e-01
6.582354815050084351e-01 -6.486445169700977287e-01 3.432553436470610619e-01
2.761760612549093996e-01 4.106385147958701021e-01 3.171501374674439155e-01
-6.252359505659260686e-01 -3.541152254833777602e-01 -6.562851872449712021e-01
3.168097323585158942e-01 3.788390683064857822e-01 3.152397988759631509e-01
-2.127510808363301253e-01 6.117993086045795011e-03 -2.685907532464300584e-01
-1.169709119124927588e-01 9.136666108675632614e-02 3.889533426893456158e-01
7.600364663284082667e-01 -5.051191876587852736e-01 -4.411257174401019276e-01
2.355257284786150818e-01 3.603382239128678499e-01 2.876006464261576245e-01
-6.870704914077866432e-01 -2.603124080793435824e-01 -4.223311404438273020e-01
-5.241447490320229052e-01 5.744596339368910343e-01 -4.593102156592195895e-01
-7.731085658321683596e-01 6.234885523504472005e-01 3.833159737162041836e-01
-5.147758073719030936e-01 2.776696401035816386e-02 1.177900482408882239e-02
5.287152663892711324e-01 -1.404335545107204541e-01 -3.647966709702075150e-01
-2.250143197076830692e-01 -3.270245937929410762e-01 -9.905169985280514178e-01
4.075752192024918452e-01 -3.619450445025206020e-02 4.827373635881088837e-02
9.556493047008505215e-01 -3.135587715552878296e-01 2.963783048917464913e-01
4.021037927135568402e-01 -4.343704658308745747e-01 5.927704975481975502e-01
-1.983370894212947155e-01 -5.408970217346282805e-01 -3.440893994392604793e-01
1.508202900872357699e-01 -1.917733863163001151e-01 4.506942035107586730e-01
-1.777102521697804249e-02 7.732867742603318773e-01 4.818993517869346044e-01
-2.239455265166933051e-01 2.274145873173089860e-01 -2.737213750681786739e-01
-2.636579876320985782e-01 6.928371240214131754e-01 9.416456401233027837e-03
-3.739574694922701559e-01 1.101480582817177672e-02 -1.212883932989938934e-01
-4.460930295217971908e-01 -4.643281928242827816e-01 -4.603794213737901764e-01
3.384019457352130944e-01 5.156624534317498787e-01 8.380048967899385026e-01
-5.050717188494198151e-01 1.769754469960616861e-01 5.080946885775928790e-01
1.324149211337876386e-01 6.573222820801200017e-01 4.115822314619971833e-01
-2.168727992497666568e-01 1.901603320473478631e-01 -7.700721763859310620e-01
3.315256785425929054e-01 -7.969873660761059853e-01 -1.044585659516949899e-01
-2.625513359599669361e-01 1.740539138330656210e-01 -8.226892192789457825e-01
-2.685027292038572044e-01 3.876907173490931613e-01 -4.092398361327391765e-01
-4.429623487942296323e-01 -2.990692736580606859e-01 -2.989016153147271981e-01
2.957628345076036558e-01 5.037662179753153030e-02 9.705205487362063010e-01
-8.552809992821339691e-01 5.807012807518757702e-01 -2.766307047098188199e-01
-6.307338832214154367e-01 6.476160223529697779e-01 -3.581224855521469297e-01
8.292868621173736798e-01 -2.781472522768853040e-01 6.144029032691906700e-01
-5.466053745930321561e-01 7.184645653935929355e-01 -2.190391120468029307e-01
1.587533402351969658e-01 -4.020543457662809628e-01 -3.519593870440725775e-02
-7.555876601458784148e-01 1.173066478758020836e-01 1.228404388228589855e-01
-7.357652910100123123e-01 -1.592636703999828485e-01 -7.235059956076570487e-01
5.859926074927392925e-01 -2.221153880441293638e-01 -4.917438129087005616e-01
-1.271573802345618842e-01 5.103686316655376976e-01 8.312811060750033287e-02
-1.354139838985866096e-01 6.178715883819618088e-02 7.738880357830407730e-01
6.911216537209593502e-01 2.834327516522243129e-01 5.760710178266325032e-01
-2.376722455939785927e-01 8.159689093652965353e-01 2.677810809365962497e-01
3.708745190221159338e-01 -3.644477003840658202e-01 6.671393712202039472e-01
6.175235368224093468e-01 2.437180026178403236e-01 3.219292259471444595e-01
2.809797116794466865e-01 2.915498470733580150e-01 2.757908827986266243e-01
-7.541868457507986401e-01 -2.433007869061627835e-03 -7.636983017348712988e-01
9.435868642582138088e-01 -3.711310176451304566e-01 3.138694079185673780e-01
6.057016319038014407e-01 -5.647258210341814522e-01 -6.217262649616682735e-01
-1.460124185117062379e-01 -1.660255590414009552e-01 -2.780450449301999361e-01
1.980663596001746851e-01 -2.761469767264928543e-01 -6.943983088782638979e-02
-3.431115555452159960e-01 2.782633097598525840e-01 -7.536742508963049092e-01
2.519468009542540909e-01 5.072231198927162898e-01 9.007284924136850224e-01
7.554265845216366626e-02 1.762598185167034426e-01 2.872633466497886978e-01
4.520762855283647075e-01 -8.201852748842216601e-01 -4.749170602590129242e-01
3.960629251956860331e-01 -6.329143446321859601e-02 1.763645248112055350e-02
-1.879106708672194370e-01 2.970367085421889985e-01 8.623557212525230498e-02
6.423066643997572545e-01 -1.895273729524030171e-01 -3.683686845960099099e-01
-5.400683833319944727e-01 -4.328831358230530446e-01 -6.819688933696109734e-01
1.399204204939482471e-02 -1.423230135198094992e-01 -3.124315942951897407e-01
-4.907558470710255971e-01 -4.542317049251999306e-01 -5.032179217251381287e-01
6.362848201120649971e-01 1.696053609235806392e-01 8.359450739987088763e-01
-6.275370343782593618e-02 -2.270996430062782387e-02 6.024235832421274139e-01
1.904447613602940625e-01 -7.702093102879944420e-01 -2.059488951675552959e-01
2.529532805157115316e-01 -2.206702469165393588e-01 8.624300751255412067e-02
2.328299310415208878e-01 -2.458540209664566434e-01 1.893528043834407648e-01
8.369344588006268904e-01 2.887057884170598013e-02 2.490893605575059677e-01
-4.246874391766526924e-01 -4.808434687288872800e-01 -4.620034155485653327e-01
2.307280153359813069e-01 -6.727946546389285132e-01 -1.899822673407988716e-02
-3.215598599055960460e-01 -2.384105112469955129e-02 -9.613570285039413355e-01
6.137079142576474799e-01 -5.714150547477577780e-01 4.741850788722701826e-01
-1.570612085150087378e-01 2.805371604992802914e-01 9.264652407428234371e-01
-1.415677344076302080e-01 3.271767583100495536e-01 1.227599246447986930e-01
8.551976314598980222e-01 -5.961240193098061857e-01 2.131797078295180337e-01
7.418794554593309831e-01 -6.095826397153483178e-01 3.606213926394674085e-01
-4.226281326413857120e-01 7.507514736463528904e-02 2.553461142471532067e-02
9.169265326316738962e-01 -4.271675575419880411e-01 -1.088836543419917369e-01
-1.947492286888724833e-01 -4.536949650108147991e-01 -2.977922722563988156e-01
-6.063712529017768471e-01 -3.784051843178753427e-01 -5.859605269372449854e-01
5.204716688032719890e-02 -8.032251517761930526e-02 -3.781696846687845337e-01
-4.921377091759205902e-01 -2.459798022890339053e-01 -2.703223800791896281e-01
2.895739683682921894e-01 -9.509394023067509194e-02 1.434668665483443961e-01
4.053503001278326856e-01 5.403863828101406197e-01 5.943247052185610668e-01
-2.100499751233854961e-01 3.900595389992873030e-01 -4.874803789206192534e-02
-8.070817636186260469e-01 -5.761010934411482654e-02 -6.673930300195687337e-01
3.346412417719315524e-01 2.997317860037068682e-01 2.831718343164661422e-01
-8.263875153326494249e-01 2.137078426888243052e-02 -1.211827994859451668e-01
-4.396612429478380379e-01 5.461395799154716846e-02 2.733585375831490243e-03
-4.849888925516482319e-01 5.001526965006632963e-01 7.533516848415011680e-01
2.883079984946833596e-01 -5.292530116196622059e-01 2.380775725941665644e-01
-3.291318757558514552e-01 8.247343247364973262e-01 5.487236465060891799e-01
-1.447746192058438526e-02 8.616009548408931976e-03 4.419672361107708225e-01
-1.503382156362317867e-01 2.624324973091238244e-01 1.712303413785409290e-01
-3.905966806790046181e-02 -8.157269099445823082e-03 4.965998794667371707e-01
-5.346445098261014550e-01 2.127502151819530563e-01 5.456894556567056798e-01
2.696017863325262942e-01 -1.595739838325092030e-01 -2.033014257211569198e-01
-5.179329027724572931e-01 -1.052886535784805511e-01 -1.537304451093950142e-01
-9.313561718524631869e-03 -7.229068981031241403e-01 -3.647040712252996308e-01
-3.855254275392689944e-01 -5.094558092719140285e-01 -4.623666234669830954e-01
-2.055115029250036141e-01 2.493834398794919360e-01 -3.710146065420915629e-01
4.030097193871665651e-01 3.142472933843962757e-01 3.015704227726001552e-01
-1.208464285420427220e-01 -2.268474241183661977e-01 -2.688010404286769184e-01
7.448463169847486798e-01 -7.211906633589723059e-01 9.453160569741521357e-02
3.778033790607243092e-01 1.556181486140262582e-01 2.170697338209318372e-01
5.877524636324229501e-01 -7.485054071951874333e-01 -4.874403173929181543e-01
1.830493256239848210e-01 5.658116025029279461e-01 3.581735539537078128e-01
-3.619142925928373056e-01 4.986860326667444387e-02 -9.697569387759182036e-02
4.063536202696172994e-01 -1.102115454070863865e-01 -1.788062237938319032e-01
-2.435888497556117638e-01 1.086348508297401844e-01 -2.284115442609088997e-01
3.038378620391276042e-01 -1.129204785726162508e-01 -3.713519845545564246e-01
3.266721522023809943e-01 -2.906223729213835982e-01 -8.215315965852961755e-01
2.427326832846732063e-01 -4.411045690646297479e-01 2.005452791982338945e-01
-5.536741545376954177e-01 5.307617759139929836e-01 -5.300352500254893462e-01
3.768426554282617857e-01 -5.403883597265783656e-02 5.830038918084919086e-02
7.171018706710009794e-02 6.775259717050911012e-01 3.735512016023802562e-01
-6.087547225250866667e-01 -9.776027392282797546e-02 -1.452427015965016832e-01
-5.807455592982078141e-01 -5.643634813637263964e-02 -9.340713354575784499e-02
-6.922137672926201857e-01 -1.158233024672200573e-01 -8.057062347421807269e-01
4.499604371059009456e-01 -1.285333082998979248e-01 -3.930558982200679230e-01
-1.636117635177080920e-01 7.680010652256128445e-01 2.417943813600411385e-01
7.173118371398591320e-01 2.156291792924499295e-01 3.960366044184929768e-01
5.835312925847311455e-02 3.300456312210132970e-02 3.640898452925145912e-01
4.430462012895257651e-01 -2.685595877710332258e-01 7.971139124256734210e-01
2.149300339493792067e-01 -2.514282608766371108e-01 -7.315062217483221663e-02
1.395662511353804036e-02 -4.872806373453527629e-01 -1.831321005664180712e-01
-9.335915471454883097e-01 3.297391681724072265e-01 5.984269118135418508e-02
-4.531846683116668162e-01 -1.231866957841224386e-04 -6.869950573811622885e-02
-9.911641680429365830e-02 -3.112157456003930012e-01 -9.950597216071680462e-01
3.604638690281966040e-01 -6.705210080042920406e-01 -7.507798387673224605e-01
3.231129980489618192e-01 -3.475211690989211955e-02 1.430795785695697653e-01
-2.206705290532729180e-01 5.647694176084107065e-01 -4.194364101558714641e-02
4.199178245858214975e-01 5.289285386849557069e-01 5.898399040572221974e-01
-2.323714117335249907e-01 3.628664521567327439e-01 -1.296041709873902714e-01
-1.189993983069244227e-01 3.988413187989019865e-02 7.535102405155658101e-01
-4.542908921013034673e-01 2.330063070377271783e-01 6.681769555212991873e-01
-4.869895860316388880e-01 1.370207153747442230e-01 3.917906137366872765e-01
-3.151463630029847085e-01 9.093159154055920068e-02 -9.067738580677249249e-01
8.814445983201028845e-02 -1.378745002398875930e-01 -3.202779278758072778e-01
-5.756980205981694354e-01 3.147853016121195946e-01 6.182221947418644614e-01
4.825934880617500089e-01 9.816142719522280569e-02 1.506639115540684692e-01
5.071393995006971966e-01 3.653116444408310848e-01 3.906488603864530229e-01
-1.412605560420385487e-01 8.119035326228753180e-02 7.981026610063375326e-01
-2.402175783114418040e-01 2.501747607401269002e-01 -2.022565824236091103e-01
5.539497686037425650e-01 -4.493862899932863503e-02 -6.871075047242235223e-02
-5.583956999101283847e-01 4.513400636382043918e-01 6.909865206154993666e-01
2.173345161080360022e-01 -7.649849226280305281e-01 -1.638989419959486771e-01
2.869714699931467661e-01 5.618488086397247505e-01 8.203827660247452469e-01
6.984247147420317992e-02 -6.050649033699847523e-01 -1.644949980920109300e-01
7.015696980116361559e-01 -2.146622971200977115e-01 -3.404902415745623689e-01
2.632152605137955681e-01 -2.397018933370827221e-01 -8.397878896595584175e-01
4.124340639886923676e-01 -3.916778978229373820e-01 6.580949033885857835e-01
-1.499545163271254755e-01 4.423033942884145586e-02 7.095010075211025669e-01
2.689463265656324986e-01 -1.186968697569195513e-01 -3.436938471054384880e-01
-7.042427380972746676e-01 1.471866449503303198e-01 2.277926233953602719e-01
-1.096959350542761336e-01 9.480294340582312573e-03 6.706307201489071224e-01
-6.292372404757324844e-01 1.685743671041378677e-01 3.456788457869717779e-01
6.719848330730018304e-01 3.488640713884789968e-02 7.800680828278404311e-02
-3.950516709459666043e-01 -4.941157037005618480e-01 -8.158173333085438905e-01
-9.446905268414588219e-01 1.856751792497871312e-01 -1.454321948149180088e-01
2.288895263679939507e-01 -3.087192910382469679e-01 1.772784902029224674e-01
1.952023353150634521e-01 3.314682748599205864e-01 2.740948636293933371e-01
6.964617299902624570e-01 -1.568008293884783771e-02 1.056294246400247064e-02
6.006545606434819939e-01 -2.425570091711559961e-01 7.967995916088534969e-01
-4.115867323717518206e-02 2.237429470276540155e-01 9.584471952813958806e-01
8.880561730732481340e-01 -2.970023687368037596e-02 4.867895747322329436e-01
-6.547367130136909630e-01 7.048338958433462975e-02 -8.436909397232754682e-01
1.378618274826085288e-01 -2.591129363677890582e-02 -6.219622640731706786e-01
-3.675059061033579266e-01 6.795838265283276058e-01 7.492777246416004733e-01
-5.820589136237018790e-01 6.965152155510366816e-01 -2.696439012929140455e-01
4.915167931106993043e-02 -1.007464559316968988e-01 7.005584174704009293e-01
1.952048921009923999e-01 -2.876501871167822522e-01 -9.036975682168172375e-01
-5.178674629142785424e-01 8.421348823120737848e-01 1.875664865830284633e-01
5.820910160547114742e-01 2.554743071638951313e-01 8.466746875394934868e-01
8.260784168084219781e-01 5.832382937306612031e-02 2.863787154243497279e-01
2.693941880069490313e-01 -9.473055647793911238e-02 -4.566853221328764922e-01
-7.081345154910376194e-02 4.847114344491071543e-03 7.507967809789560798e-01
-7.358614362234746631e-01 6.842104170665007645e-01 -2.344882784799304232e-01
1.321471975571334723e-01 3.784408122004281338e-01 2.633994682879021720e-01
-2.188817559303357085e-01 2.562180982052583711e-01 8.572299960643575689e-02
3.123871888538683472e-01 -3.590257003198824015e-02 1.542989514746319901e-01
5.791523614479956450e-01 -7.107669738769477330e-02 -1.300431366564593905e-01
-7.619702889693118486e-01 -1.925819533431197272e-01 -6.125595148252237498e-01
5.505866697875456683e-01 -7.938496091069732197e-01 2.567070960111779779e-02
-5.643059420202796161e-01 2.535513637035672341e-01 -8.030404973874367691e-01
4.100887913627476733e-01 -6.452287550555313271e-03 8.397726619786483049e-02
2.612717257197742504e-01 -1.932070934313323829e-01 1.057902205662908240e-01
1.710358846624689122e-01 -6.094807681925696885e-01 -4.654140337375280850e-02
-3.218290295109810795e-01 -1.992167952829471678e-01 -2.471865272186038742e-01
-2.598048218870303849e-02 -3.680080697392887346e-01 -2.171366540279285329e-01
-9.688169099745171098e-02 7.074786764463486533e-01 7.880788501075659536e-01
1.930550290262522117e-01 -1.613608748731008569e-01 3.094233901419896626e-01
4.218355248851289874e-01 -3.183272568425417060e-01 -7.600837481992590572e-01
-5.659927567399978265e-01 7.310016191445042333e-01 -1.967850975730198460e-01
-7.076006552322553489e-01 -2.724416391467270881e-01 -5.471610766098613521e-01
-1.682335644818035991e-01 1.479659157763363042e-01 -3.695267201579666705e-01
2.703478548525369285e-01 -4.764592744735360874e-01 -8.799166018007230639e-01
-3.769828557993751827e-01 5.721560865046229072e-01 -3.307300204198140303e-01
7.649960279405996211e-01 -2.504838255856088325e-01 -3.041487205655238890e-01
2.449662529223743113e-01 -3.971137644704243463e-01 2.733261683958285171e-01
-7.385931209402444297e-01 7.358105982980784887e-01 -8.195111499562041102e-02
-6.918116302226406944e-02 1.192888837031858273e-01 -6.663931994509916246e-01
-8.772161970353752336e-01 2.603068580434694801e-02 -5.575726920842405399e-01
-1.038088835742602689e-01 -7.202239348155019538e-01 -5.128814183547961703e-01
3.049498712376694579e-02 -5.739528487222250730e-01 -1.888689885712058758e-01
-2.635751559029126945e-01 -2.786485973545447248e-01 -9.931317054365204067e-01
1.560438257419909935e-01 3.847017466076319558e-01 2.714714038115546568e-01
2.591636603429901542e-01 -1.090465307190201100e-01 -3.795892885676345196e-01
3.368457172335794225e-01 3.919004181341668169e-01 9.384866992105950212e-01
9.347881516023965887e-01 -1.711053597818171790e-01 1.690584348034837314e-01
1.204045845066615827e-01 3.182462781844562771e-01 2.601698058903782473e-01
-2.642061185140692769e-01 5.562773995161935936e-01 -1.323418046163701844e-01
1.995070373852385337e-01 4.538703875614423788e-01 9.527827343149862793e-01
2.024095593252797087e-01 6.173159695006549263e-01 4.301545910368403391e-01
-3.695816782221431618e-01 7.090839557033362661e-01 -1.025436380445289147e-01
5.011400543568610422e-01 1.789768215740286939e-01 2.179382949790162893e-01
-2.753536229885735209e-01 1.358617591815071968e-01 2.979482090402094663e-01
-5.905771495651352954e-01 -2.735392107129635542e-01 -8.328110972182358740e-01
-5.926884397979031993e-01 -3.896330630733000344e-01 -6.440852558849249343e-01
6.116153516598954454e-01 -8.085436443083932057e-01 -2.767132461584298486e-01
1.751793091154657256e-01 -9.315217295543765097e-02 -4.008115708206151373e-01
3.341114514575185823e-01 2.870390666950138892e-01 9.768311962033111584e-01
6.076405537587211692e-01 -6.643410055672596126e-01 3.261097224977587694e-01
4.771858151364028466e-01 3.219238989554878416e-01 3.299493602381273760e-01
3.866065365593901459e-01 -6.181010831581537079e-01 2.800600353287459598e-01
4.547471072248142065e-01 3.776111177550772191e-01 3.696970990019042835e-01
-3.531291499981634718e-01 -3.747049199507635486e-01 -3.212082276955084970e-01
-3.504222054113351886e-02 1.443132519323432443e-02 -4.271676233358361885e-01
-2.412917614319580739e-01 4.032790916110294832e-01 -1.777034920750699132e-01
-9.385318460950221875e-02 -4.205273570136378591e-01 -2.458991897740618882e-01
1.668052170572238424e-01 2.830042689410716128e-01 2.674928273941309387e-01
-8.599470405053223354e-01 2.017141861229111433e-01 1.053386576745054398e-01
9.541149011531113722e-01 -2.849188751382897289e-01 1.078063928743868832e-01
-5.869266303995024359e-01 -3.205733795014746312e-01 -7.974495667807622867e-01
2.589187062300710718e-01 -6.102874213155646821e-01 8.800092123537470168e-02
-5.559943814218533224e-03 -4.469127183680894622e-02 5.234973419908731662e-01
8.403096816602896590e-02 -5.230182491010070267e-01 -1.218989031909937654e-01
1.850768583374964305e-01 -3.310485000200375505e-01 -9.188490344972600754e-01
-3.057047439471807793e-01 1.579361289363934717e-01 1.737020140933766832e-01
-1.623334725280242696e-01 2.159280653397625815e-01 -5.134981176531662195e-01
-4.335118036646354867e-01 -1.857551197502843865e-01 -2.262861935998876639e-01
-1.459403832460324790e-01 1.978448903532004366e-01 -6.061983691340435687e-01
2.764808914603904544e-01 -4.489045061111600066e-01 -8.803451854882019534e-01
-6.921370302135616548e-01 -6.934440779187898973e-02 -1.352695588321640441e-01
7.205107015008346272e-01 -9.870993307683224860e-02 -1.178334050789934112e-01
-3.568927554138424663e-01 -4.676885650379022374e-01 -3.892276504218670774e-01
-1.042434535019275688e-01 4.109053119259905018e-01 1.209965241237047906e-01
2.299319128114197808e-01 -1.740278497339764474e-01 2.248680350225869262e-01
-6.656241651412336813e-01 3.450843624706775303e-01 5.372933822807355320e-01
-1.025616638163382027e-01 7.988594765425711675e-01 4.175812986415345929e-01
-5.513073785590529019e-02 5.572662716054134213e-01 1.698148106008289249e-01
-3.178578200695970635e-01 -4.418856017419747206e-01 -9.187602782829801251e-01
-9.037936581027423699e-01 2.606603375037509079e-02 -3.550704970421540985e-01
-4.275528481170429718e-01 7.185733163757654918e-01 6.793216807164808024e-01
-6.143273128444739495e-01 9.625587867483173521e-02 -8.595016916576204702e-01
-8.883117214558353125e-02 5.542500143167288229e-01 1.351930550506381112e-01
3.131297617503456948e-02 5.232431696060795279e-01 2.319102745701289436e-01
7.030239617985136746e-01 -1.004717574658345325e-01 -1.356488459631348675e-01
-2.318195836592054915e-01 3.178595329954609361e-01 -7.930378409374981563e-02
3.741106945803088224e-01 -1.619871873642365345e-01 8.703485120553124954e-01
1.786914633635277305e-01 2.210692261141512516e-01 2.684314905143813101e-01
6.725019612431282212e-01 -9.662079364351391919e-02 -1.505358129980309545e-01
6.594968257428366343e-01 -1.670745319765166437e-01 -3.061800390122387805e-01
-4.934316718968279059e-01 2.094534526634974358e-01 5.896188927640374500e-01
-1.523887083843498136e-01 3.795900516211832554e-01 7.488616137741195555e-02
2.440040865733490716e-01 -2.323791923404791571e-01 1.301336944004316820e-01
3.841254108626540598e-01 2.306010935025439856e-01 2.535384810717216109e-01
-6.851641092602279715e-01 4.628116892117650760e-01 -5.931814105994227537e-01
8.102491097432050760e-01 -3.838953665750768213e-02 7.961619806945149924e-02
-7.670651150899979731e-01 -5.264418883126992244e-02 -1.678717876817656385e-01
-4.830680487462996608e-01 -4.400903889287086646e-01 -4.646002897774254015e-01
-3.410095433446223151e-02 2.433035982429526400e-01 9.659966389277696575e-01
-8.538609629528016720e-01 3.463302544218240797e-01 2.604956822534527094e-01
-5.663333367054096401e-01 -3.358608060838721987e-01 -3.962092476411959163e-01
5.769871736299400089e-01 -5.716114091203897685e-01 -6.479192904093749039e-01
-8.373434554301746324e-01 6.705739085479388573e-01 -5.302835748437756402e-02
-5.102278045287327313e-01 5.235501288972448375e-01 -5.276725083903638369e-01
3.606516005381962264e-01 -7.574950045845417479e-02 9.206383170766642143e-01
-1.304186905508785133e-01 -3.880143736840058200e-01 -2.586523541385017944e-01
3.180353136710888373e-01 -1.356534907161796588e-01 1.632214865308126428e-02
-5.311025219371148243e-01 3.177666957824386573e-01 6.671003812867029037e-01
-3.297009900174844299e-01 1.510176687325958389e-01 1.151088124342087293e-01
3.818376103429692581e-01 -1.177016831317512779e-01 -3.289327363163699336e-01
3.700151163620952754e-01 5.013474057898109626e-02 1.614358293430370461e-01
-9.265062056594504381e-02 1.452113609981695586e-01 -6.047442513745294734e-01
-8.651651755647482567e-02 -6.427540574014455332e-01 -8.296039927663648728e-01
-5.339482161905951818e-01 -3.065948002651176507e-01 -8.649282869628128756e-01
7.725154586596350015e-01 1.381607776214199557e-01 3.388219133519256854e-01
3.744684781790164618e-01 -1.241591894025955156e-01 -5.091124791524103133e-01
7.092132742952517166e-01 -2.998751273110696405e-02 -5.627128876498643101e-03
-8.693736464341996761e-01 4.144078187205358366e-01 2.596782693616928595e-01
-6.551341721663724860e-01 5.086328198390902555e-01 -5.524424769443860850e-01
3.064161471301317108e-01 -1.940722208985621033e-01 8.272570110150175848e-01
5.094461547375860322e-01 -5.886319361327996269e-01 4.324045527009431344e-01
-5.340633653495653610e-02 3.709716567352221994e-01 9.715191742672942832e-01
1.491644767742489053e-01 7.390252870821005515e-02 2.950505026902685013e-01
-6.858816043142350605e-01 -1.872479654828161644e-01 -2.947876571629010067e-01
-4.224396477472884270e-01 6.454892527538345082e-01 7.433410386423322525e-01
9.505931766079847023e-01 -2.180980448512847558e-01 3.318538504543201983e-01
4.882745641167053341e-01 4.668675886172963252e-01 7.094258261767233398e-01
-2.769082912198392865e-01 -2.437120565434884589e-02 -2.203328680644126569e-01
5.590108146969408054e-02 3.848408935861543090e-01 2.352827079646885589e-01
-2.159248942535280935e-01 1.784074752546654374e-01 2.334164024516676705e-01
-5.409345933012332103e-02 1.793488262225523544e-01 2.882639653478192288e-01
-7.321612838074367802e-02 -3.028689726530165230e-03 5.391844911103452764e-01
-2.587886356574043561e-02 3.576000435944486910e-01 2.001527133436830364e-01
5.356224086676576457e-01 -4.414947204876324416e-01 6.372031374862570097e-01
1.981632891284241249e-01 1.542278053100876456e-01 2.667777167803802030e-01
-8.882336265781813900e-01 4.717143818094087643e-02 -2.060135029621148195e-01
-2.827950715650611180e-01 1.717412571315698744e-01 1.669683450527427448e-01
-7.582123246987280130e-01 -1.990877507132665092e-01 -4.433238013804411959e-01
3.542494668068178476e-01 -2.029752641227506038e-01 8.352686470594262724e-01
-8.555828416407254000e-01 5.999683259048853579e-01 2.183682807714709129e-01
-1.344154593028829871e-02 -7.650766538102742320e-01 -5.757902975261282030e-01
6.784491792511136987e-01 -4.094810501330718028e-02 -4.170797515303911740e-02
-3.136358950424563141e-01 1.105710337046712649e-01 5.906865774969269900e-01
-2.521344067095719343e-01 3.870438014828563311e-01 -2.808556687974455013e-01
3.205413376792849989e-01 2.611644572844509238e-01 9.850730767785967901e-01
8.078843326621660825e-01 1.327629411504715473e-01 4.911769898524479538e-01
1.138194741494055057e-01 -4.387394550390923409e-01 -9.439037010396048588e-01
-3.757096321486164126e-01 6.742854950025781724e-01 -1.667427906605238042e-01
1.039027332635736045e-01 1.349762171817794620e-01 2.957513670304913189e-01
3.820512928863007418e-01 -3.381190044363342057e-02 7.863885825913254080e-02
1.840561783726433337e-02 1.513874095228902143e-02 -4.877784814179055850e-01
1.214408825593079194e-01 -7.467787439957683793e-01 -2.470213225787019073e-01
-9.214679478039442539e-01 3.142975543418112250e-01 8.572070496839793996e-02
-4.310360697870763702e-01 6.864436826341161965e-03 -7.658903478868646364e-02
6.420627010329403583e-02 3.307580324959923934e-01 2.448981630544630195e-01
-7.443578832773418696e-01 5.934014132675536901e-01 4.526095173617051270e-01
2.288000644770707970e-01 -3.234987254180650695e-01 2.269000411470903367e-01
1.959855578901323891e-01 -6.931100628959853405e-02 2.831760893475386842e-01
-3.262274578424175786e-01 1.135359617573303975e-01 5.737865605738974306e-01
5.393382673885207534e-01 3.149300729336576010e-01 3.548389064027250850e-01
5.635354919503372112e-02 -8.241463497815734729e-02 4.846991449473909697e-01
-9.097177716074361653e-01 5.556858958820160010e-01 -1.644388198345114183e-01
-1.897907301908719757e-01 -3.397019948484016338e-01 -2.708795189352535826e-01
7.365607072919624354e-01 -1.374955970269193806e-01 -1.713392018517459758e-01
-9.278464536971248178e-02 -2.537296741527735391e-02 -3.490660185560763851e-01
6.451557002214404202e-01 -3.343193172038245731e-01 -5.431446675486141240e-01
1.838908668849307815e-01 -1.150385584458892968e-01 8.415907690132282681e-01
2.445746122833232505e-02 4.721152308474303727e-02 -6.503916080772900177e-01
3.472216961919800116e-01 -1.313947051932990162e-01 -1.582285896045221296e-01
2.284301559116918290e-01 -2.960105954013970142e-01 1.001415086721568620e-01
-3.949968836744083972e-02 -6.383254344832136606e-01 -2.909699144463714915e-01
-1.443396990963066173e-01 -7.064742068706753031e-01 -6.134082140090517665e-01
1.069697560817960413e-01 -7.579515996497661057e-01 -2.847078426118739292e-01
3.719065088826266074e-01 3.576614005773449678e-01 3.199809593018700382e-01
1.743656460071018044e-01 -4.590617011102014061e-02 -6.116359984130513849e-01
5.645232602951728573e-01 -7.934473552092767834e-01 2.458995259110312998e-02
-4.858391942198117541e-01 3.093768824787471727e-01 7.058662082704765250e-01
1.792269255786310689e-01 -8.214041203662746371e-01 -5.276762202014451120e-01
-5.784710647327069299e-01 -3.851429360376915079e-01 -5.031944334883550196e-01
5.643382454437552154e-01 -7.990440352465194573e-01 -4.093748733849185695e-01
-5.052453600375573367e-02 4.908089700188137949e-01 1.625271202244410185e-01
-1.054959354046340336e-01 7.242737159409770031e-01 2.403436851251507522e-01
-2.164841825364771377e-01 6.590259504378781497e-01 3.619420413903320227e-02
-7.309220877129152250e-01 -1.480729643351231806e-01 -2.807544149612386519e-01
7.574571216246283045e-01 -2.510150128445358675e-01 -3.155219891771446905e-01
1.032488211391882627e-01 -2.567867250594430550e-01 -9.387335613646776711e-01
-6.241691193904289614e-01 6.226962870764168878e-01 -4.001000515101995059e-01
2.558107509958261749e-01 4.720726675510646397e-01 3.400973871044429830e-01
-1.986194398720840804e-01 1.578543147100673616e-01 -7.973698704026037642e-01
1.064364891125106072e-01 -7.330080182297209479e-01 -7.469968414341053853e-01
-7.399401744939363423e-01 1.398992763777726356e-01 1.784936594202194693e-01
-5.496725879339682264e-01 7.440214189726253313e-02 1.293724278776030301e-01
2.742957764600832959e-01 1.020445117309076305e-01 2.342748246397302891e-01
-3.839633555572162238e-01 -5.324490243929895783e-01 -5.013781253528080128e-01
-1.461296443775910586e-02 4.724333207918531286e-01 1.909860877142798563e-01
8.960301762682636451e-01 -1.125719575810774226e-01 1.264145769271607933e-01
-1.158617336790060542e-01 4.854131650236444551e-01 9.581806214780604070e-02
-1.439473529928899653e-01 1.686893318549101406e-01 2.833015017412045533e-01
-5.759485327977523911e-02 7.740811881775155889e-01 6.477202257563590138e-01
-2.173734732697446548e-01 7.381794216174303314e-02 4.992803721565677866e-01
2.139548935297616583e-01 -4.175256969928946571e-01 -9.111038763724386147e-01
-3.566085002894759381e-01 1.567616451627596996e-01 6.627468866096303257e-01
-8.199479996849965424e-01 -1.249711978884731206e-01 -5.098414911439403951e-01
-5.364920388216986025e-01 1.830184891823417037e-01 -8.508390185417551432e-01
-8.558725770672440669e-01 1.401566236079347660e-01 -6.320478565456508768e-01
-5.201153633473275528e-01 -2.105265659116079824e-01 -9.166008646084407019e-01
5.804439147724164139e-01 2.416816968722412806e-01 2.968263819117857305e-01
-7.848069705192887158e-01 5.014527638609416194e-01 -4.869470650971743919e-01
-2.869456957426255728e-01 -1.100594933601242442e-01 -2.337655578879697660e-01
-8.145608140260925945e-01 -6.711482253685628618e-02 -6.444854274338468469e-01
5.782021533145198511e-01 3.255765117531590480e-01 3.996097401984242126e-01
2.834936270616685017e-02 -1.244983981272554732e-02 -8.116345856349282961e-01
6.529467029144949697e-01 -7.712399914516017141e-01 -3.378944672717252851e-01
-6.251197605404508195e-01 -2.813223052903112142e-01 -3.745577910560163870e-01
-6.980906349565405011e-02 5.413358842861369924e-01 1.513794022724209154e-01
-6.054412585362223265e-01 -1.546086289213183806e-01 -2.093535199459911067e-01
-2.435519104532810619e-01 2.769396375080859785e-01 -8.104148428357717260e-02
4.155623359568336173e-01 -1.367236755740961207e-01 -4.969807509889629382e-01
6.425440096895447539e-02 -5.595115730750817029e-01 -1.511578306122599302e-01
-6.952564334956302661e-01 3.950876887027137130e-01 5.277296653888620126e-01
-1.009887411088799397e-02 -5.729205003192509860e-02 -3.741762579345126460e-01
-1.160560451822594957e-01 6.028195239596707139e-02 -3.830336502138575461e-01
4.887089183385016217e-02 2.335671828708835995e-01 9.863995075280118652e-01
-3.455283538178870184e-02 7.158144372081661766e-01 3.092432424464835461e-01
4.848202337633554238e-01 4.304323754407917701e-01 4.589816743026466916e-01
-9.026410033665999144e-01 2.350052239345362948e-01 -5.315421866220273461e-01
3.570060586265363933e-01 -1.255993829372349102e-01 -1.147899501402669803e-01
-4.304291796137536541e-01 -4.834483855936733826e-02 -1.317863134051345808e-01
6.374923049766856309e-01 -7.428542887480615864e-01 -4.300796697100344734e-01
1.812566116348390821e-02 -1.285303607671327330e-03 4.244184599784811551e-01
-4.963928408449528318e-01 -4.363295640157894839e-01 -4.752922949511209083e-01
3.230683750478249849e-01 3.615364996033195721e-01 3.085715080985453884e-01
-6.251901311170964259e-01 -3.565008767723770178e-01 -6.446619396265883539e-01
4.577830011724076109e-01 -5.009192890146179494e-02 -2.658087173676802056e-02
-1.649116946579644027e-01 4.057495417478564070e-02 5.721235195680106633e-01
-2.426178713530034031e-02 -7.128196323810049861e-01 -3.652277854170944971e-01
-1.138356936512333051e-01 3.099528650747097533e-02 5.043529096449479443e-01
7.952956601302008099e-02 -2.530068600582099370e-01 -2.165925730060218046e-01
1.024605909252434138e-01 -1.454346914101363741e-01 6.961582153155649877e-01
1.981192114585127728e-01 -6.684442601302827136e-02 -5.002363161979631601e-01
-7.435509363877772226e-02 -8.020912093472415405e-02 -3.289468575571997677e-01
-3.186196958113940991e-01 -6.046097277742746856e-01 -6.653850203882470948e-01
2.013863300930446992e-02 -7.090711799010464278e-02 -3.754509477336229750e-01
-2.270956121740327349e-01 -4.608429608710751246e-01 -3.154899473541431520e-01
-9.514252117863087888e-01 4.497290303798459621e-01 -1.721860002272027762e-02
7.139556291062005844e-01 -1.996166165478297227e-01 7.592128749836386525e-01
4.351496733591537769e-01 -3.677353312648057315e-01 -7.695761035014913043e-01
-1.484468819916377573e-02 -3.368576141376290051e-02 5.144551469933993371e-01
-8.514635853678145239e-01 1.817738101797685135e-01 9.328942508712480264e-02
-4.849999036402030117e-01 1.319349800146001894e-01 3.676733716383364658e-01
-3.781438162818548387e-02 4.062258337699926058e-01 1.797744233438248740e-01
-1.983349673523851497e-01 -2.569680411164739220e-01 -9.999412779531069440e-01
2.773564039723807051e-01 -8.924653317021252752e-02 1.673233336162064655e-01
-3.570023711845255465e-01 5.428232352238678837e-01 -3.460430957810464725e-01
-4.539744346498894023e-01 8.527896334793181321e-01 2.953980074665875089e-01
-6.396620793903150526e-01 -7.800727027653605455e-03 -2.793059068818324817e-02
9.019595142437016877e-01 -1.563314883337674766e-01 5.201622992518977195e-01
5.929832442385113422e-01 -7.618115513640149050e-01 1.150368489111215226e-01
-4.424180284086061121e-01 4.980846081664571101e-01 7.849373671448240941e-01
-6.688727090376077600e-01 4.203869526198859563e-01 5.687295978017455900e-01
7.301739220570857558e-02 -1.069359740423355548e-01 7.374228886555755924e-01
4.214328854425397619e-01 -5.166803961313852500e-02 9.285323052089514695e-01
1.646379468151439041e-01 4.228973081761195491e-02 2.928904568184668156e-01
-1.314214011097487034e-01 -9.498535503555201320e-02 -2.994622596715758589e-01
7.461115902977373260e-01 -5.322888411231058159e-01 4.706983829250178109e-01
-2.478755479402867390e-01 4.188652344944974182e-01 -2.010037198601697939e-01
-1.472241538777125935e-01 5.908329798464551086e-01 8.062046406525445741e-02
4.953659000048347277e-02 -9.875821787528384077e-02 -3.571325087936073062e-01
-8.877738735101194933e-01 5.938740001793715306e-01 -1.447170624139454131e-01
1.042518267120733783e-01 -2.686860437910824906e-02 -5.055419634906832549e-01
-8.823413870690172134e-01 -1.962965390751514674e-02 -3.975098735149320550e-01
3.206322012330432014e-01 -6.153858958829988568e-01 1.863957809138862276e-01
5.238816646140521671e-01 -5.338588357924355376e-01 5.184472632562715511e-01
5.477263559006971816e-01 4.220378139557767749e-01 6.731866579100483916e-01
1.991775104057908752e-01 -5.876396205245521670e-02 -5.652378990256441416e-01
-6.182999072178038125e-01 -1.705447752354739555e-01 -2.315611565410203576e-01
-2.891785760984216802e-01 3.770859025196260927e-01 -5.211414694719707086e-01
2.634231038028822525e-01 -9.791286674930432810e-02 -4.306419869967247349e-01
7.351039827426322226e-01 -6.885401691906999078e-02 7.756304577583489346e-01
6.816124976765601806e-01 1.839273196137297950e-01 2.920717988531763565e-01
-1.090833931224810954e-01 -3.955373459844165884e-01 -2.510947410804334479e-01
7.613076630566660841e-01 -7.033779919843957673e-01 -2.610995965934648222e-01
-2.101182663365443737e-01 -4.671574591083709205e-01 -9.420803986690380327e-01
-4.791364010729340372e-01 1.660380235380390368e-01 5.128283117180360007e-01
4.659325607155803128e-01 1.622510452471890782e-02 7.219845451263411096e-02
-6.489005516817519803e-01 -3.069299258686375986e-01 -4.543913307652910349e-01
1.922541749452167936e-01 -5.603956694608788064e-02 -6.213459416995258389e-01
4.540353984111568653e-01 1.106915186147853503e-01 1.685120419132594138e-01
-3.572036884798744372e-01 -5.796760796489528467e-01 -6.612546041823571530e-01
6.109841689927042463e-01 9.057735230455168929e-02 1.363750017350969790e-01
9.342039764428037296e-01 -4.602658469998815449e-01 -1.648930452918252396e-02
2.052874676191368264e-01 -2.623447845694250047e-01 -7.572284211399719911e-02
9.022270388020998677e-01 -5.665967244189715757e-01 6.858757074893316596e-02
4.650471611738708072e-02 -2.712435766957083105e-02 4.245433045584871556e-01
-4.030542059696922697e-01 6.987832025844396000e-01 -1.576021954060274344e-01
-7.148557897800651428e-01 -2.638571949295673846e-01 -5.396705414074101093e-01
3.628346720556512861e-01 4.862946390363260818e-01 4.178326478635438490e-01
-2.294836188253057130e-01 1.111528753456259150e-01 -2.505963377592972940e-01
5.194616396854236928e-01 -1.555444759714323388e-01 -4.247955101971149228e-01
1.117899488847413220e-01 3.614058489924479312e-02 3.283145306237759131e-01
1.894607612352131321e-01 -5.023826890995910510e-01 3.006976178258609703e-02
-5.210850108102721423e-01 7.843309548917570817e-01 5.154358870940844994e-01
-6.290081948600696748e-02 8.910228751886943577e-02 -7.491967225409168485e-01
-3.502445632805863997e-03 3.482084841387140389e-02 -4.945682583070798444e-01
4.792255122943964718e-01 1.994243573453536866e-01 2.334827244519390721e-01
7.733330987500866005e-01 1.771174358351719214e-01 5.656671822387743243e-01
6.857012160913983356e-01 -2.706706565300297518e-01 7.419373090986182140e-01
3.750899930792872539e-01 4.304405586803088934e-01 3.726624344824980839e-01
3.861442630103042450e-01 -1.200919036112049199e-01 -4.346719492957602515e-01
2.756635808303902202e-01 -2.849994210762561986e-01 6.951139313450410695e-01
-6.046547614741948351e-01 6.434997247228254613e-01 -3.668549313945756452e-01
-7.613616471477191450e-01 6.819207857956842700e-01 -2.102013563453211109e-01
-3.360392557176200556e-01 -5.949539099668083031e-01 -6.146164577300887721e-01
-7.325222086676830280e-01 1.423579828060993202e-01 1.905598763267953577e-01
-3.072809866013598290e-02 4.831194706244967274e-01 1.788795732370626890e-01
2.654310462948659688e-01 -1.435413176844374528e-01 1.526515054475802158e-01
-1.602893721276842098e-01 2.979650412995060726e-01 1.252101892801931460e-01
-3.447841023012319650e-01 -2.565917998063778072e-01 -2.653850840174565295e-01
-2.999714571201734029e-02 7.122493621825296550e-01 7.716625066070506023e-01
-2.390779901343466907e-01 7.967844460031509035e-01 2.117477084230943163e-01
7.041356322920819810e-01 -4.669087311443714805e-01 5.734457945116360200e-01
-8.598028945870592743e-01 2.027290194036374116e-01 1.069397882749806156e-01
-1.401310037369946915e-01 5.999497256918654431e-01 9.396937267019314644e-02
2.261249494998810450e-01 -2.763553127944224364e-01 2.238064506082863142e-02
-7.352813748770228308e-01 7.005547861415691857e-01 -1.956802911546393631e-01
3.574833355655068212e-01 -8.384183160863725170e-01 -2.201691913578226467e-01
-2.969402050899648260e-01 1.783348023447081099e-01 -5.046048789930577573e-03
1.577219262919875575e-01 -1.054554233721772122e-01 -8.064162864591906121e-01
-1.609614186070613684e-01 1.170124774018972830e-01 8.242154545302434743e-01
2.541341208878741265e-01 3.808926156348623193e-01 2.984146992851772762e-01
-1.192915326563754597e-01 2.498108072239137861e-02 5.321122255225514408e-01
-2.410506633111617891e-01 2.856632320885210130e-01 -1.669579801706641553e-01
2.088911986006678767e-01 5.600763316357662003e-01 3.727576231675185370e-01
4.605640476591522647e-01 2.358818561456098861e-01 2.590214507331062288e-01
2.167183595507278515e-01 -5.768485625052088839e-01 4.414680557936934147e-02
-4.816236571673988553e-01 5.246990503909727543e-01 -5.125390646931273775e-01
-3.263827315550122538e-02 1.920360003505821311e-01 2.809899708770390858e-01
-7.608682640779186324e-01 -1.800482473323795907e-01 -6.434778378792384013e-01
-7.997311705585724573e-02 -6.734245725924936643e-01 -7.896022064441017285e-01
3.391926802622375475e-02 7.259366537641370742e-01 4.120889057563452695e-01
2.449088148089137995e-01 -3.573298513562259138e-01 -8.933381953874610648e-01
-1.993065264833394357e-01 -3.037677899014177285e-01 -2.689600213990723243e-01
1.454416846800757890e-01 2.518973779148672154e-01 2.677513848826740817e-01
5.975743832898208208e-01 -8.148088992166394595e-01 -2.751773489435890840e-01
1.415399452446684248e-01 -4.053541757513569044e-01 -6.138475644781640761e-02
1.772743169060115309e-01 7.869500312882134196e-02 9.689280471232019076e-01
7.812193285860352665e-01 -2.244893635269318011e-01 6.921362175506152736e-01
6.380159439321142489e-02 1.505765160315358786e-01 2.990010745144883186e-01
-7.492148719142642799e-01 1.081119391246412615e-03 -6.651149431403054202e-02
-8.528512815150086912e-02 -1.493745712598511244e-01 -2.943107408973143491e-01
3.365159354690878679e-01 5.724098672504586149e-01 5.261992810735446335e-01
-5.421452554536763113e-01 3.821369448858773915e-02 4.372035124840865927e-02
2.200370814278279352e-01 -3.009865074327514600e-01 3.232869996042749272e-01
5.662037132307232712e-01 -8.058764793286957717e-01 -2.322664411431820189e-02
5.656407332256769838e-01 -2.318579382208211526e-01 8.137101125369534671e-01
-4.358957026261222611e-01 8.507039402155732732e-01 2.398349293603371513e-01
7.647886543094888356e-01 -5.862122416345705300e-01 3.778735810880845536e-01
9.247638541900425890e-01 -5.010138584385291916e-01 -1.759910185056268173e-02
-1.048223281240318883e-01 5.316887605184146270e-01 1.125753013686912052e-01
-1.556688121887205567e-01 -6.291049717850257794e-01 -3.900797827483278857e-01
-8.414305891943444360e-01 2.960905574180073829e-01 -6.020846495427507605e-01
-5.794869208496413737e-01 -3.413776279286698245e-02 -9.003453554485987276e-01
4.767667135515745169e-01 -1.397671370234760124e-01 -4.183202077863469870e-01
2.213761760371089071e-01 -7.133463547022680928e-02 -6.205517765737479374e-01
3.140814351692565176e-01 -5.841868808521909484e-01 2.180201991604924505e-01
1.925292969885903094e-01 2.041989429783624965e-01 2.672353776434256978e-01
2.669029345768375028e-01 -5.365233101437657526e-01 1.781598565459941719e-01
4.326295132874063976e-01 2.312816251616876123e-02 9.977673299644551630e-02
8.428278114662667297e-01 -6.948558205699402468e-02 7.943754724328283556e-02
-5.357122186531956265e-01 -1.637842598739571720e-01 -2.069856825389036203e-01
1.868868857577271614e-01 -2.458132807314994395e-01 4.187580846504930232e-01
-1.272649120895018027e-01 -6.713336069107435078e-01 -7.657487696048497217e-01
-2.792416984759181764e-01 5.263116174515451995e-01 -1.970127988488319937e-01
-6.451017960146560037e-01 -1.897500267508482608e-01 -2.676750565147930083e-01
-2.102277748861804685e-01 2.189717189726880231e-01 -3.170655647053721160e-01
6.566379572915116425e-01 -5.241581088171365366e-01 -5.760663002900987539e-01
-6.908876794856581016e-01 -4.267519733744402216e-02 -8.229986495935580626e-01
-2.642405493786831316e-01 5.151186807732346384e-01 -1.702173555433453833e-01
6.266320239533629266e-01 3.099852261104067419e-01 4.338199923806348446e-01
-3.962422513933192003e-01 2.812579811046456157e-01 7.682848336260003075e-01
3.832981455649939750e-01 -1.273116835281754289e-01 -5.092276787130505245e-01
3.039373006687497436e-01 -4.686205071499712216e-01 3.789095393409380730e-01
-1.497170888523854104e-01 -5.998151080658954415e-01 -3.538904103194011053e-01
-4.953478854506813134e-01 8.468994185050906509e-01 3.139681430607531021e-01
-5.389658457152675108e-01 2.920354713026582227e-01 -7.797598691316807162e-01
6.873947075196947809e-01 -5.283839407812528366e-01 5.108685337754783617e-01
6.505798984558995857e-01 -7.973755320216497910e-01 -2.130099538374120027e-01
5.095147979742140620e-01 -1.977854536918700334e-01 8.456171463743501482e-01
-3.575852826675764984e-01 8.319896934731355609e-01 5.153615468816241663e-01
-2.916811073742384686e-01 6.671635265837474460e-01 -6.135506068486896308e-02
-5.925366929969124730e-01 -1.157420699709352241e-01 -1.636676775315200894e-01
-4.039743110480316368e-02 -5.879989007352760533e-01 -2.568720169636283801e-01
-2.519466647882059873e-01 2.516104527534416824e-01 -5.126207723281681755e-02
2.949877326470064509e-01 6.065491495603749783e-01 5.423313518962559199e-01
-2.356679814787833449e-01 3.276574447312203264e-01 -3.710613928197361022e-01
-3.237232498872284481e-01 -4.902854086557373314e-01 -8.777568435620805021e-01
1.391517898745844341e-02 -4.149425594942398599e-01 -9.695955859142021405e-01
-8.998092093419456095e-02 8.025837827055622986e-01 5.207192920136038961e-01
-8.122279097539295556e-01 6.529779391065247962e-01 2.615283986268857053e-01
-4.858749888876268130e-01 3.462790976000418297e-01 -7.318899232201663274e-01
6.099827214160468136e-01 2.443731453998527758e-01 3.174033924119242234e-01
-2.259170306121667249e-01 2.223272672027567509e-01 1.367856039970597182e-01
3.185107634665845233e-01 -1.231381753607689727e-01 4.732520646641368706e-02
-2.987393693770348801e-01 3.958313463378029806e-01 -5.018487127683123328e-01
-2.529386898060598243e-01 -6.447434257067580221e-01 -6.618675758111327578e-01
-1.064569632280766565e-01 7.639893533966097827e-01 3.052006477289689323e-01
-1.487680973707959098e-01 3.988067987224551691e-01 7.093754577020200403e-02
5.938795456747020252e-01 -7.644682837994223323e-01 -4.510948393448179217e-01
-5.270774157978919128e-02 3.965808162127670289e-01 9.694198560813246379e-01
