1.691100222052219493e-01 7.944802942449427086e-01 6.730120111461128374e-02
-2.334783849869446343e-02 -1.059906506442323190e-02 1.698869812882225772e-01
-1.288246004311802487e-02 -3.473711625074032416e-01 -9.574262780943028073e-01
-6.716085696959163132e-01 -7.621786850005367597e-01 -8.502376917581484783e-02
-7.548625686879985031e-01 5.814381397579023586e-02 -2.078194872457481482e-02
4.644060063415820783e-01 -4.073391096666096889e-01 -2.675096976029340823e-01
1.222331233916589821e-01 -1.637851212718524907e-01 -7.710134823484304789e-02
-7.272465500774467628e-01 -5.415558298622206168e-01 4.632247258771375331e-01
5.989414134090347286e-01 -2.460673334538868162e-01 -7.711066309910723504e-01
-4.882232962894434980e-01 -7.545722357425415083e-01 -4.986340137157543873e-01
4.289390698267183666e-01 -4.278530059534692009e-01 -2.626602822660904502e-01
-1.169880741309307914e-01 -3.634360145321338109e-01 5.685608787397613550e-01
8.374018229296529281e-01 1.461237628294790314e-01 1.512824935040315288e-01
4.426890765441371944e-01 -5.039884294791409092e-01 -4.102958350687223588e-01
-3.061861449369229771e-01 1.016261101316472543e-01 9.841848028039660301e-01
6.973938041966409873e-01 -9.042119109050611447e-02 -1.226310679962142741e-02
-9.142034609764880804e-01 -4.687835737353129306e-01 -1.112220156779743577e-02
-4.281559053821378802e-01 -7.584727500015531199e-01 1.767428194792931562e-01
7.699934978077577208e-01 6.613078706932880024e-01 2.732355485888203761e-01
1.397033235547736341e-01 1.738770642542624700e-01 -8.637736889893020686e-01
5.386866165101555914e-02 3.948899600667920007e-01 -2.145100497822298724e-01
-1.674513777271787185e-01 4.842554517463110164e-02 -2.177575825118168440e-01
-5.662961570512983212e-01 -1.941022307373750366e-01 -6.253683469468541700e-01
-2.877209444146274220e-01 -5.175084596631942396e-02 -7.803457848060465496e-01
-1.436383274096425522e-01 1.016693309962459907e-01 9.891661211408075971e-01
-7.584723678081630727e-01 -6.980895098580556235e-01 -9.688910204078401978e-02
-1.312880779929336827e-01 1.252350656275794949e-01 9.792197392280679868e-02
-1.379550412494156553e-01 1.810040641893092273e-01 9.544944659527052067e-02
4.419833771347790874e-01 8.565241812778646713e-01 3.439102358264243819e-01
7.609498115761883508e-01 6.863185904848274621e-01 2.435982965585265780e-01
-1.202437762355191703e-01 2.665475336555160890e-01 8.680450227206676361e-02
1.606202148387758100e-01 -6.005923635450043790e-02 7.477462577192278692e-01
-6.873237855230143745e-02 2.014821359167172088e-01 8.671283754374349562e-02
4.140144743325178955e-02 3.349281010256808799e-01 -1.991942855454956474e-01
-3.449149656312791579e-01 4.680411912634350191e-01 8.686263137184870864e-01
-8.084744432192548791e-01 -1.577806545608262112e-01 6.528926639938500420e-01
-2.638705785066068968e-02 -6.670348090510914985e-02 -1.016256967904274194e-01
8.928091386194969212e-03 2.512820061212338030e-01 -2.745246042072593817e-01
-1.731554558699076873e-01 3.082846840923673115e-01 9.991769266330127741e-02
-6.990748465136071843e-01 -5.700240448196480791e-01 4.497645446090335897e-01
2.934996082579932955e-03 1.112715075259387287e-01 -8.498177349113620327e-01
3.262600882280629333e-02 -2.029333882119164767e-01 4.092042054487110003e-01
-7.805897020929082331e-01 2.068646205172494645e-01 3.488650827431433177e-01
-3.987903959893113193e-01 6.447193181321600464e-02 -2.202603107596368959e-01
6.505881004910550602e-02 6.075213002773829224e-02 9.212393868216478543e-01
3.896927822375099992e-02 3.266771312872619459e-01 -2.329440135907435427e-01
1.646036289186355028e-01 8.192546141601844134e-01 1.381590502379580199e-01
3.043344607270959123e-01 -5.629815723137662209e-01 -7.314611331816109896e-01
3.522598631720318951e-01 -3.882251065064551421e-01 -1.800015820158873681e-01
-2.952982748954930403e-01 -2.891233090937732064e-01 -8.723211289068432128e-01
4.333677652110232703e-01 -1.210431292971814697e-02 3.606599022037154101e-01
8.908976367655346840e-02 4.765635891402071334e-01 -2.546041138521161207e-01
-6.828932982056140633e-02 6.592571213006144515e-02 -2.127699490432290730e-01
-7.813901123600262844e-02 4.009234661208644912e-01 5.296372904597506509e-02
6.270943955127206149e-01 2.265549683710188222e-01 -7.806613473897379141e-01
-7.878054513288075267e-01 1.945345456476605395e-01 3.345034448250678305e-01
2.949111825816363996e-01 -2.430507138737987294e-01 -9.570151538301686633e-01
2.175233182716035107e-01 -9.975528507530209699e-02 -4.258287005607927500e-02
4.506299047292721682e-01 -5.063687380408864458e-01 -4.390300966120366244e-01
4.900375576895551477e-01 -4.481282299343957720e-01 -3.629879146705241588e-01
3.560195005657093570e-02 -3.829771625501654508e-02 -1.136045698117112701e-01
7.861311678616515752e-02 2.031364727772817236e-01 -8.110336927304860888e-01
-2.731415055427208749e-01 2.586061170358566197e-01 9.963504343456040802e-02
6.646089018052880881e-01 7.501838481047692353e-01 -1.518263429198989933e-01
4.241686908661361499e-02 7.091392360446235887e-01 7.658719164803857726e-01
8.652653192901908763e-02 -4.934400147351901134e-01 -7.314424784917385181e-02
9.169837109743269599e-01 1.076220922093587412e-01 -2.205183187139246048e-01
-6.769263352853921618e-03 -7.232161890610707689e-01 -6.658419831149382517e-01
1.116338994264672035e-01 7.375355973900132867e-02 8.725026369796611003e-02
-2.025819186993182419e-01 -6.438729777215589437e-03 9.643549612403466975e-01
-6.033550765006833183e-01 -4.741654014127263395e-01 6.224049322816954666e-01
-2.548394398125827243e-01 7.417995495385294735e-02 -3.072848590376316968e-01
6.916477514507353153e-01 5.360219133606080044e-01 -5.123114416219373135e-01
-6.053038263986471046e-01 3.541979902904540678e-01 2.997148249478448490e-01
5.403468336916016773e-02 1.961896757931729240e-01 -8.682955035677371314e-02
-3.376903726500205538e-01 5.623739649593302303e-01 7.736243059266473265e-01
-5.531714013776799499e-01 -4.453783772843713379e-02 -4.625660292730653933e-01
-3.196980639300824878e-01 -5.904493067217290170e-01 -7.799756138553542995e-01
-1.779009338136862683e-01 1.028474450618078184e-01 9.914969325347390283e-01
8.058860226940102456e-02 5.040601311550243352e-02 1.463795871153303341e-01
1.116959668603899197e-01 8.432176890925490165e-01 3.473228308498084727e-01
2.730794046563867483e-01 -3.376555663534960752e-03 7.003165663008349417e-01
1.531845326231679461e-01 -6.515874726722069576e-01 -7.099416372536185849e-01
5.643811605856565716e-01 2.408451616880587787e-01 6.456231924745319262e-01
8.779163782094370205e-01 3.187404440904894054e-01 2.025549280564724608e-01
-7.760612423311784303e-02 -2.716441479680027915e-01 6.915568747162282870e-01
-8.663986398852472140e-03 -2.442941945185850838e-01 6.273917653066873878e-01
-6.147882150157301107e-01 5.023832224960491505e-02 -1.755586105848230272e-01
-1.095226081045480582e-01 -7.761074686516972188e-02 1.605392509637007872e-02
7.787925709892076775e-03 3.980001325899523157e-01 9.702112303146575023e-01
5.385125044806211153e-02 8.300605301510538547e-02 -1.272667708900034333e-01
8.335599949871382863e-01 6.356481886759433042e-01 6.994173879651248427e-02
-1.587662553963114509e-01 6.221484160094585374e-03 -8.324219482088924815e-01
5.402304660693655475e-02 3.244535928872918085e-01 -6.026177128899432578e-01
1.158369165260273032e-01 5.629969894707627098e-01 -2.060770873903890743e-01
2.480272746514969873e-01 3.458293331647962487e-01 9.097660917661030133e-01
5.010009166271844894e-01 -3.693138268695673188e-01 -7.761023835657403502e-01
-2.129172994472722236e-01 4.042944321135352043e-02 4.387863253938740734e-06
-1.913000862667514901e-01 2.645706880559482443e-01 9.893134567135193624e-02
3.291523771755726357e-02 -4.522425321065586812e-01 -7.799775909202651646e-03
-7.416492638027745443e-02 -6.981194444928254805e-01 -7.244936334339726614e-01
1.182338672159256032e-01 -1.500770322187212902e-01 5.287797234228208687e-01
4.459940226709315780e-01 -3.861934965441155554e-01 -2.291068854912062247e-01
-2.624069044348616986e-01 6.799426707869162811e-01 4.736405183061821456e-01
-9.320663063646365820e-02 1.425578118506419566e-03 -8.762602360372612198e-01
-1.870253069217466535e-01 4.201835733663369238e-02 -2.031967890463851345e-01
-3.146038700428832602e-01 4.811197964794731163e-01 2.180885673993281093e-01
-1.939951564651392832e-02 1.702548371101532398e-01 -2.560545518438770429e-01
8.165874761926214531e-02 -6.784916634595157259e-01 -2.270608800153125773e-01
-3.271276819895135857e-01 -7.440923352667513369e-01 1.537344243286493384e-01
-1.197225441631913773e-01 -6.337734337640942017e-02 -4.801991094187075919e-03
9.827868347799009752e-02 -1.644907693171718810e-01 5.789579676458610491e-01
9.352620043404021033e-02 9.700686042559311661e-02 -5.807260162967167738e-02
-4.890721691250807246e-02 2.075061507180460951e-01 -3.533774361617291748e-01
-4.532102269805157735e-01 -2.969874866143278336e-01 -7.711639762177032731e-01
-2.267661536292658875e-01 -7.522212909992589402e-01 3.559450537825824268e-02
-2.015008368922039939e-01 2.074667895685684271e-01 9.990627544569857799e-01
-9.182399602557664853e-01 -2.931693468536744618e-01 3.910651212143709810e-01
-2.037651621649380629e-01 2.886012630685754615e-02 -1.599274551190862648e-01
5.600624529706272892e-01 -1.838821317925850851e-01 -6.269491457952829083e-02
-6.250511531633463624e-01 -7.604244447631471893e-01 -2.983544381709474225e-01
-9.178796837502352368e-02 -2.499804088952249301e-02 -1.222926108852439714e-01
2.097676805143982096e-02 1.978905757839256319e-01 -7.762420470472343181e-01
1.044286156409602630e-02 4.170034083932749880e-01 -5.682125364938032941e-02
-1.070241963195764021e-02 2.781736772715758255e-01 -4.099310022010288490e-01
3.277677221177639488e-01 5.172910071678696875e-01 -5.871046419375522962e-01
-6.713014190626899191e-01 -6.486179261810708363e-01 -4.406359328750926174e-01
2.119657610919034874e-01 -1.747407357647095053e-02 2.273949983856655699e-01
-6.342067122901177134e-01 9.606566370221965301e-02 -7.120579053549803972e-02
4.995189846980590404e-02 3.724965270945881368e-01 -2.323593589669646631e-01
1.954864469644751745e-01 1.395243810473167402e-02 -9.540397190138762973e-01
-4.998508911829309398e-02 6.318226240502715640e-01 8.390279392456353458e-01
-6.340194988381764318e-02 4.452007451803432353e-02 1.317718854515336768e-01
3.467567165712617805e-02 -7.423069794313295056e-01 -3.021700020379089469e-01
1.940398136398712933e-02 -2.273968935513462075e-01 -9.739162284948585935e-01
8.341473588121272043e-01 4.071024528556987376e-01 -4.751759913575288596e-01
-2.519862608063269116e-01 5.564625483776775017e-02 -2.302840028173641918e-01
-2.673599553885463442e-01 -5.309217194632778192e-01 4.850886821924888515e-01
-6.848768846449817538e-01 -6.291993274396850966e-01 -4.432077487431407281e-01
6.946570375879151937e-02 1.188456848599772075e-01 6.599728058431841848e-02
-7.232402441204851540e-01 -1.034676864547348224e-01 -3.294147580560106703e-01
-4.151478310666934513e-01 -5.330213514153889776e-01 -7.625343458134367092e-01
8.369561214735743437e-01 6.246381725431161547e-01 -9.954716795559249987e-02
-8.111835725004091779e-01 -1.457619536652526027e-01 -2.389532237682038263e-01
-2.093490715380871836e-01 -5.394684554575727153e-01 3.895881204921534113e-01
-1.019882205720030605e-01 -8.079186683132835167e-01 -3.386439143393115692e-01
-1.419667269795616416e-01 -6.455043635581177164e-02 -8.873450951223125216e-01
3.315972914909562919e-01 -2.123261089050666392e-02 5.494484332964363338e-01
2.008267304081364640e-02 3.059725480165624290e-01 -3.305156264051398174e-01
1.619557550882056995e-01 -1.011479749981345488e-01 6.591229193283351107e-01
5.478642099893298312e-01 3.863865709040686380e-01 -7.258376704236961796e-01
-6.795606895499335665e-02 5.637378017320894275e-01 8.219088584420498889e-02
-9.151108953028713744e-02 1.856483649711477835e-01 -3.993653731666215734e-01
3.659991833017647300e-01 -5.788075168148392180e-01 -5.644976268672770026e-01
-3.342450557360669428e-01 6.671218995666355900e-02 -4.001948472958088421e-01
-8.147574199686534735e-01 -2.817724317282646607e-01 -3.381288514786247590e-01
-1.743757158542786623e-01 6.549681936059738308e-02 6.410243520205240186e-02
1.567144211804796794e-02 2.956299795439637501e-02 -1.464474018013692536e-01
-5.912225670550308454e-01 -1.397360334225771772e-01 8.447890945762208670e-01
-8.243248427816342316e-02 1.269393371768882672e-01 1.079427310821237246e-01
-1.792527936704667590e-01 -8.276599759939833323e-01 -3.553677991126212299e-01
2.850880207108152931e-01 -3.513253109387032835e-01 -1.333068303204795468e-01
9.949524415404695232e-02 -1.135810535995217946e-01 7.353857926622461294e-01
-2.360358318118782051e-01 -8.733764694471873868e-02 9.338825641166086378e-01
-9.679711292926380939e-02 -3.834351908160136407e-02 -1.026810630580202999e-01
-5.862991344378780667e-01 3.808301350959848453e-01 7.141887008061592601e-01
-4.808010856807008460e-01 -8.268727533700961363e-01 -8.508050352225735025e-02
-8.797109592123381061e-01 -3.913982851096103333e-01 4.115555931147804603e-01
-2.444307612373659011e-01 -6.040853642261260203e-01 3.297822147341352150e-01
-8.578041397166537296e-02 -7.496790089922400480e-01 -1.377801139558569032e-01
8.119413010838020250e-01 -1.228491629723899303e-01 -4.234236439591961276e-01
6.356144207456844164e-01 6.465556165641860309e-01 5.276643737302434412e-01
-2.776733484379603212e-01 -1.309144134443217533e-01 9.155745711190746983e-01
4.570642409604065981e-01 -4.244790614010379715e-01 -7.642891081567196876e-01
-2.479801853453309987e-02 -3.134245054318495205e-01 7.445869106721578201e-02
-5.495714174322169354e-01 1.051938560439646814e-01 -9.184249078472943306e-02
-5.376694478200314681e-02 3.621936198803474196e-03 -1.545310244911828335e-01
-8.171163728955951333e-01 -4.577563411843409980e-01 4.558534637161942848e-01
-9.054051717836304747e-02 -1.024251217432106259e-01 6.775763734158768425e-02
2.002847487047975383e-01 4.956738044674794397e-01 -5.080523887271194416e-01
-4.045973256693104481e-01 5.031962849281178957e-02 -3.507866721761287998e-01
4.625900439439628586e-02 3.348498242296966687e-01 -5.509163300944086572e-01
-9.261732217526971178e-01 -2.011052234147644724e-01 3.979737891881081624e-01
-2.600868573832055761e-02 -2.809316437647166320e-01 3.963428399063140262e-01
-2.839575534836633053e-01 5.216326703038765694e-02 -1.780379259913338896e-01
1.318667498577793043e-02 2.042526608406481925e-01 -7.616058069782529749e-01
4.560083246791356293e-02 2.133922970035662670e-01 -1.246556258911280524e-01
-1.477768479611910879e-01 -2.532637674888897281e-02 -6.756846730523000111e-02
2.934595458338711826e-01 -1.154608948772523208e-01 -1.523599766823191363e-02
6.254685573973540746e-01 -1.768415856675585596e-01 -7.830278139744507593e-01
-1.304026687469578838e-01 7.514683455828524705e-01 5.517939782781738911e-01
1.423156516368978249e-04 2.917920719981120792e-01 -3.928470573539291459e-03
3.566512916287172819e-01 -5.304414712213489924e-01 -3.289999052549194003e-01
-7.699034362263272868e-01 -3.048971296024841626e-01 6.392931770515124512e-01
2.921105941400656825e-01 8.472618327455374576e-01 9.060878780193108717e-02
-6.206280151729182126e-01 -1.754473787879705371e-01 -5.483383070865801567e-01
-3.806105094706996317e-01 5.371599781848402921e-01 7.669398526133146543e-01
6.963116938422452273e-01 6.064118942600741358e-01 -4.166414918548914659e-01
-2.018195826628773337e-01 -6.822793664504097633e-01 1.374543581636165357e-01
5.843310541406568914e-01 7.687910252007318368e-01 4.263469335222350165e-01
2.757177112287392262e-01 -2.320126075715315817e-01 -8.283320418956810482e-02
1.344801974481070472e-01 4.589570761237698471e-01 -4.581689557776804644e-01
-9.125269723094475705e-01 -3.178361173654558058e-01 -1.192715652454526265e-01
2.899872609014261249e-01 -1.794824793705281918e-01 -5.753600502991369076e-02
9.070380292966866154e-02 -7.611596018793642671e-02 2.943932013480403675e-01
-6.056854854604748484e-01 4.197882547394327646e-01 5.085932350729931439e-01
3.800611963362105633e-02 6.369676485870729987e-01 8.430649535798355743e-01
4.851099847983024460e-02 4.597879877316652514e-02 -1.287272371722043562e-01
6.583721864111519162e-02 -4.582932365825183041e-01 -4.300494924903634775e-02
5.571463375321463601e-02 1.194336006450682488e-03 -1.160525737820446018e-01
-1.244895757927182989e-01 1.183420850565223940e-02 -1.614884374820778623e-01
9.345456106173688493e-01 3.642792680748813128e-01 -2.206892498475193920e-01
5.751319289991065897e-01 -9.367192061094804789e-02 6.484821951169802978e-02
-5.074724950122954104e-01 -1.862230804087920688e-01 -6.814259146485910357e-01
-4.103104622664172085e-01 -8.268193237203473878e-01 -5.774663586336287874e-02
2.205658434724538930e-01 -1.689667172589245231e-02 2.220745629607817906e-01
4.805821512644665311e-02 -2.083963076423561711e-01 5.155523022112465936e-01
-2.543462064548757118e-01 -8.388418906436857503e-01 -2.727574868840102473e-01
-1.460561024651212993e-02 -2.083015988524072604e-01 2.888779335874658294e-01
-1.508531647807091758e-01 1.067408996426595647e-02 -1.506289187666973173e-01
2.433243520721482533e-01 -5.842561310570921346e-02 3.880880280682080796e-01
-6.794221143906681304e-01 -7.564625018312378657e-01 -4.051900939187424305e-02
-3.509361912944403139e-02 -2.858594368853508150e-01 5.632068359114106304e-01
-3.744809212784834251e-01 -2.692925733586698511e-02 -6.650057030064842056e-01
3.095818415538532653e-01 6.227946980528582532e-01 -4.141478695906549157e-01
9.382954419634813581e-01 2.105480865649040079e-01 -1.592886998766561979e-01
-2.974517127568544472e-01 5.707266726928391654e-01 2.876875864204692657e-01
3.030578897594644536e-02 -2.252191979247223086e-01 5.075246137005081648e-01
7.500931328756744731e-01 -1.740861594299958071e-01 -5.823546987633843042e-01
-7.967887437226296443e-01 -3.353869611616496216e-01 5.898926848894364694e-01
4.917907182505135144e-01 -1.014587659515853724e-01 6.695808303520359162e-02
-5.287003857364378501e-01 4.701565631945275187e-02 -2.440068697069525117e-01
-8.427640104641105634e-02 -2.837766439204989499e-01 -9.529130540440821084e-01
2.317468179385139548e-01 -1.402482303534537955e-01 -5.424598737589819697e-02
1.866159791684196267e-01 -4.130087213400965296e-02 -3.143721573610728376e-02
7.591791487094660951e-02 2.142085771372249092e-01 9.653367580420031402e-01
-3.342107514699977355e-01 5.455706227986147905e-01 2.925087929081274241e-01
1.071200717115134149e-01 7.319423369261597312e-01 2.730964133136641950e-02
7.793140775304210344e-01 1.679652143426668687e-01 2.871973626343004016e-01
-4.154198925591796043e-01 -4.636921945794669764e-01 -7.880321706265337456e-01
1.012099530538514841e-01 -1.302566487518223293e-01 6.999923800500614801e-01
-6.804410450162108326e-01 -8.766650168192303971e-02 -3.675480192851132144e-01
-1.015459043563119168e-01 1.858501718751151208e-02 1.101250065069502015e-01
-8.513249737903484382e-01 -4.875579945712804064e-01 3.564531382490085387e-01
-3.862120142197491002e-01 5.477749770233331095e-01 3.506617142943800891e-01
-5.491230007662772222e-02 -1.121400006606441402e-01 8.652628755001393612e-01
6.970325486850186270e-01 4.718634258837343110e-01 -5.749643793389537239e-01
-1.674900370183300957e-01 7.325762672317093042e-03 2.749146858985765385e-02
-2.448684072584392246e-02 -7.554996877518486975e-02 -9.569579284102772143e-02
2.151550604647801124e-01 -4.218778434548563910e-02 7.079897189438355554e-01
-5.765231686407548128e-01 2.080900810804126727e-02 -2.781544120697302391e-01
8.744935021061264833e-04 -7.054026901421537321e-01 -1.680025539923675759e-01
-2.206010235666514274e-01 1.964047254211784277e-01 8.570468674884366977e-02
2.905559286202015132e-02 4.186923436995920178e-01 -9.775998523778833826e-02
4.328152164356137699e-01 -1.038410581855256504e-01 -9.299957656565903674e-01
6.281842619916335746e-01 -3.452502717694845846e-01 -5.834305871473826066e-01
-5.718988041773927222e-02 -3.312332016526091660e-01 3.019054799457575045e-01
-9.143574797081071015e-01 -1.990885071063512868e-01 4.385164392507194253e-01
-7.331130609892143601e-01 -1.567102441751471731e-01 7.382077578048049649e-01
7.608655537717382566e-01 2.505107885047057059e-01 -6.618000177736433898e-01
-1.587990192595458150e-01 -5.993513709875010198e-01 1.992316234016377197e-01
-5.466030466185937270e-03 6.943113669190940085e-01 1.203581215288587192e-01
1.142004244289766823e-01 -1.502442945433472010e-01 4.981889920462948540e-01
1.348959737286737348e-01 -1.359532435416178631e-01 5.051181454500579537e-01
5.410556990261574661e-01 3.346780588746114948e-01 7.071740146009080075e-01
3.361024844740519990e-01 -5.470706163902331332e-01 -7.239829798732175803e-01
-9.690364257346237298e-02 -9.128659373071162930e-02 6.081530871877554451e-02
2.444593790705968106e-01 3.507692819592446165e-01 9.113230463673406279e-01
-6.906146207795175185e-01 -7.712289446647999092e-02 -3.376100510337665672e-01
-8.459837688554268098e-01 -5.272474331100357459e-01 -2.264675107557409250e-01
4.300759927692123785e-01 -1.731846219020574396e-01 -3.131432269102424337e-02
-1.238889025692403029e-01 2.323796792286600688e-01 1.000000000000000000e+00
7.433814228044690608e-01 6.277273653092032557e-01 3.821064836039930190e-01
5.051397414704525968e-01 2.697189987875479034e-01 7.200809935872293233e-01
-6.554722216443321925e-02 -2.028813044127809606e-01 7.803466898482378511e-01
1.422892394912647074e-01 -1.595612710524975664e-01 -7.630925480619780987e-02
-7.728493882787659808e-02 5.276128549311052962e-02 -8.493972032601561084e-01
-5.614577750313471949e-01 4.240677807456024739e-01 3.689966603457021654e-01
-4.849384478770344953e-01 2.646774907192625537e-02 -3.594972246655115389e-01
-7.856179878589933940e-01 2.093400337576784842e-01 4.502923687457996982e-01
-9.513073283834011518e-01 -2.752081187404611384e-01 9.471089941188728933e-02
-8.019439476334593309e-01 -2.856364314133074678e-01 6.135437224207311857e-01
2.555895866175044162e-01 -3.909501667874063641e-02 6.505853501649173642e-01
-9.053803936478855841e-01 -1.759584720919882272e-02 3.558880648375314371e-01
-1.689390892295135616e-01 5.790749541378675813e-01 1.838655880317134894e-01
8.462108757994143415e-01 8.081481401434073564e-02 -5.565606598774015534e-01
-1.025104434209868770e-01 -8.799325799696472439e-02 2.465511790985015772e-02
7.213683131213022293e-02 4.950615266477659260e-02 1.496298058528606478e-01
2.514749135614673947e-01 -6.515648401821542146e-01 -5.628059570943874101e-01
-1.566051914739600703e-01 -5.110682215211371782e-01 -8.780113907145068453e-01
-2.879319089284224642e-01 5.637861400098419518e-01 8.121080251910602898e-01
-7.679048360566249898e-02 -5.179618278457812086e-02 1.286477711179450090e-01
-6.407190178019148141e-02 -1.623583077912468808e-01 5.256186863693687594e-02
-1.776978114320740820e-01 1.119901736313813623e-01 -3.560834410371053194e-01
1.321088867077662432e-01 -4.625920763273111413e-02 2.770424596464019507e-01
3.725321231727950488e-01 8.694834903027774953e-01 3.354308663565153670e-01
-7.971289162661859828e-01 1.918053006717809483e-01 3.933042341263471298e-01
-4.130702981376191407e-01 -5.522785662233040682e-01 5.455542638278487733e-01
3.810970517146221315e-02 7.653814275453764415e-02 -1.434923369681553040e-01
4.627369683596707639e-02 1.113267362531908111e-01 9.583652764198351270e-02
4.483203154126345069e-01 -7.605423311729671287e-02 1.107660390835438213e-01
4.105374065172148756e-01 -1.287363427852676601e-01 1.532959250922337306e-02
6.709922627096628345e-01 -1.514587238855998330e-01 -7.435823063594029225e-01
7.296603115091561398e-02 1.127787858565744844e-01 -9.325583371947789024e-02
-7.767737292731315968e-01 -1.309019302284285535e-01 6.979780926891245851e-01
-3.438977348956013258e-01 -1.493956176010469428e-01 9.072993153532634691e-01
3.613912794562459396e-01 -1.607014981452990210e-01 -2.943397146577091811e-02
-6.893503848164059811e-01 3.224737987535840622e-01 4.075950100855656455e-01
1.062042835539781793e-01 4.197719991814339441e-02 -7.108202415010993203e-02
7.259956518369690137e-01 5.688653220136253852e-01 -4.406415548350325895e-01
3.704047359536238870e-02 6.202299323994887592e-01 -8.652078307428721915e-03
5.619895735764333100e-01 -1.397237828475124399e-01 -3.308562246275975009e-03
-4.502876602098609404e-01 -1.127135176787830151e-01 -6.822354358935511787e-01
-1.361968481550640542e-01 -8.130778250697249243e-01 -2.833992180339041655e-01
3.275282749036501073e-01 3.627554074541980977e-01 -7.613075106200494213e-01
-3.249997552064310402e-01 -7.569723618033368240e-01 1.224201311581824825e-01
-1.040898182626502633e-02 2.666637437018071766e-01 9.890483796961103691e-01
6.163678382397053124e-01 7.679240297477781807e-01 -1.575204396011598007e-01
4.760314684782760743e-03 -1.213870242971264862e-01 2.523880354947596882e-01
1.002980133667681628e-01 6.158778258216162094e-01 -1.122717046630909155e-01
-4.133459801740090311e-01 4.532777173697836726e-01 2.565804017160621120e-01
2.850629537377030176e-01 -4.626458342294565568e-02 5.495994005209388078e-01
-5.838547789410946098e-01 -5.928683370132790120e-01 4.847584547710432901e-01
3.042834425601745330e-01 -2.097419313735809088e-01 -7.123696562743134231e-02
-2.094388085679792511e-01 1.246410719583887355e-01 -4.842233055449813306e-01
1.458194010840272413e-02 -6.039977320936079641e-01 -6.320093785666228148e-02
-8.878134000051909891e-02 -5.632316019376633065e-01 1.166417780247149261e-01
-8.852011397161232420e-01 -2.457194089771636281e-01 4.988366959495604824e-01
7.234138208174455409e-01 6.364824554859127570e-01 -3.397688282823137507e-01
1.093123359990576943e-01 9.254180342684904803e-02 -9.925445915497243740e-03
-6.009813656110016833e-01 -2.407592133893177427e-03 -3.094225267841984595e-01
-7.018705703580996325e-01 -6.152173930546087632e-01 -4.325256312430845740e-01
-1.000321331905671823e-01 2.156968954539923433e-01 8.974361025928764835e-02
-4.869542841318418303e-01 -3.000740759646042255e-01 8.027681261292402004e-01
4.378790346381392085e-01 4.799897739364512028e-01 -6.588237074795778581e-01
4.614051295540274461e-02 8.157750416500414437e-01 3.161224788092616422e-01
2.816596523006956176e-01 7.914246499620067876e-01 -6.468921252117218468e-02
-7.391888456705524024e-02 3.119527978993502093e-01 5.938062403769779618e-02
7.846070687953409228e-01 -3.021643893950945806e-02 -6.356310236816195003e-01
-5.806147518771407334e-01 4.412101588372654426e-01 5.735185986979316475e-01
4.182230587795331966e-01 -2.140532981549251104e-02 3.206506551142307981e-01
4.190787136403307245e-01 8.124354839000140771e-01 -9.481746875227421711e-02
-3.057169254105930323e-01 6.784414527025667274e-02 -3.133082944884529875e-01
-2.883735744649198462e-01 -8.426309686084983985e-01 -2.808650677898228976e-01
5.372985055200635296e-01 7.045342539648652425e-01 5.768487139393683183e-01
9.072631701321237641e-01 1.793231845914347866e-01 -9.040973573773514269e-04
-4.171587383300176359e-03 6.285063883041534794e-02 1.418884304101903637e-01
-7.371990470669415041e-01 2.136158113502769629e-01 2.368743108379608442e-01
-7.331291738302606054e-02 -1.344593592797912462e-01 9.781444957622063840e-02
-8.277827436753016910e-01 -5.287695838412317384e-01 -2.738283120854735353e-01
2.124267846158197082e-01 -3.873762884245207649e-01 -9.309221508994147687e-01
1.903393351205427131e-01 -6.561657631894671772e-01 -6.659645125615982764e-01
-7.865764875490431907e-01 -1.820080899750451398e-01 -3.189737457511566676e-01
4.065767916242604002e-03 -2.117161842264612612e-02 -1.284268624581116902e-01
-4.122813203742147770e-01 1.873202913874095488e-01 3.605301206149337523e-02
-5.964582279356814842e-01 -2.398439410463373278e-01 8.009140178571585444e-01
-6.132625517794328303e-03 3.020445280086931916e-01 9.866390879723957094e-06
-2.370448915124140910e-01 1.010889927450579345e-01 -4.066402907020603141e-01
3.772717253273625421e-02 2.108213337731209280e-01 -1.591366247298582615e-01
-4.792072823290556838e-01 -1.037261039039597682e-02 9.257152591541948361e-01
5.825173973967066876e-02 -2.506776020921704373e-01 -4.504289145603931205e-02
-1.695257840052319387e-01 -6.979689153809005564e-01 6.763193563084647641e-02
8.665661045676568142e-01 1.610478288023434179e-01 -5.231331462270430999e-01
5.274113959322622724e-01 -4.390591173516452117e-01 -4.185588845794866453e-01
-4.653763024853686120e-02 -1.045010627873588366e-01 -6.127257689794793349e-02
5.077951594937538810e-02 -2.988985371151938603e-02 -1.113867078023738216e-01
-4.735084209865832450e-01 2.986634120347824717e-01 1.430096120471009979e-01
2.449119478451809995e-01 -4.871920760152703006e-02 3.447231371380635734e-01
-1.702390638518500587e-01 9.806382396309935856e-02 -7.168934182156413426e-01
3.879853903013499861e-01 8.717995485918790255e-01 2.902512583408562996e-01
2.980394275936141257e-01 8.688858829929529959e-01 3.774019598151818200e-01
5.762999158880278694e-01 4.018372922970679939e-01 -7.035988225022320464e-01
3.653711920361808474e-01 3.844755185113862828e-01 -7.473274454495693053e-01
3.638428066813022971e-02 6.872381354627148387e-01 5.940517334111928421e-02
2.463099535481120539e-01 -5.426594364211118071e-01 -2.343359620768894203e-01
-3.391218408223378722e-01 -8.285084003133982300e-01 -9.443097276062305256e-02
1.973125846194666473e-03 -1.237903854463286435e-01 2.503338479806545558e-01
-5.878027227100022234e-01 -6.875042358053690128e-01 3.230681071395317128e-01
-8.356399943187101664e-01 5.403523264166289024e-03 2.754631377572568443e-02
-8.573889096619566330e-02 -1.166560829600377519e-01 4.933454738058874051e-02
-8.712499922418112108e-01 -4.663225765031910747e-02 2.587656168169860660e-02
-1.015788742703738617e-01 -5.079535444683994649e-01 -8.894888739650858023e-01
2.296768515151560164e-01 -5.597573664499602003e-02 3.597022169315633455e-01
4.264160725392217577e-01 -5.349724164233834456e-01 -4.969255548460192462e-01
8.916165208036103129e-01 5.348697657689932550e-01 -1.105612932105850960e-01
-3.502333462949867166e-02 2.613133440631856819e-01 4.830361450224721770e-02
-1.315416774179807569e-02 -1.261241692757867905e-01 -9.572925428629150968e-01
3.521957597873741630e-01 8.730651255193415672e-01 3.134859910338911870e-01
-4.750484985641310609e-01 -8.293226795637680393e-01 -2.654525782619174268e-01
7.105958123496561862e-01 7.477415786009026233e-01 -5.987690139670988343e-02
-2.622594091004259997e-01 4.615842779526755507e-02 -8.954116206916555576e-02
8.000555675475629069e-01 4.915048335862295392e-01 3.737776295768998613e-01
-4.222766735332046384e-01 -8.327812337671011145e-01 -9.490345582778453304e-02
-4.752471734370904421e-01 -4.941887093815503645e-02 -5.746037790367763964e-01
1.112683610143861829e-01 -2.647907006808332409e-02 2.407204568127715993e-01
4.891228742964175424e-01 -4.392980294655455253e-01 -3.437778067023428696e-01
4.541520214844208675e-02 -5.393566183852523954e-01 -5.373980626637936409e-02
-3.724439085239873437e-01 1.229849369804342646e-01 -2.787516512100115390e-02
5.431806690316962616e-01 6.413420386652434191e-01 6.306600688634272922e-01
-4.959668109537591907e-02 -3.510105409255117048e-01 1.603680739409593103e-01
-4.120731144657664435e-01 -7.421359125366183696e-01 -5.780625990746804943e-01
8.508350577628573941e-01 4.617335454612216394e-01 2.739495505059315050e-01
3.584796726885483564e-02 2.766071690533174476e-01 -1.825021515561823515e-01
-4.881294412096087720e-01 -4.567893154314208171e-01 -7.397316225640457876e-01
6.582544344301959338e-01 7.944295934752364508e-01 1.053222237989312748e-01
-7.705748330217796482e-01 -6.849895325543019498e-01 4.680333316911463454e-02
-7.861063127956863239e-02 -4.402948749248984939e-01 2.075013137754658510e-01
4.886774147858625184e-01 5.221159448765519961e-01 7.398372356462910027e-01
3.303860751275851659e-01 -5.895388026752151900e-01 -4.179035378085168007e-01
7.560088164731856297e-01 8.218841586604735960e-02 2.086301079206430986e-01
-6.375340658797177262e-01 -7.800658951948258313e-01 -1.233445697406427427e-01
-1.803104474827036674e-01 -5.782629250269128995e-01 2.700686572724337875e-01
1.226757996065787615e-01 2.949938824255218112e-02 -5.623254133630954665e-02
5.744332772123816877e-01 -4.050864985926462269e-01 -5.722337284669398727e-01
-2.252286068628399085e-01 -4.952555196327270148e-01 4.945479012491132975e-01
-4.944410105833740854e-02 -2.183905475030023524e-01 1.630029549277381973e-01
1.646188588306623513e-01 -2.675452505288101190e-01 -8.142023105660776972e-02
-3.758150800068214559e-01 1.796323765217668345e-01 3.628919350795100501e-02
-5.786829268590015785e-01 2.108950727298360833e-02 -2.753337483067471725e-01
2.551155727907054027e-01 -6.498074731350975131e-02 4.817471220445450064e-01
-1.003803676272653628e-01 6.706647149053869550e-02 -2.286359128314724987e-01
9.320353663516238729e-01 4.143296269722275271e-01 -5.521171723971464440e-02
-1.707061139571182939e-01 3.874297269778201880e-01 1.081586537873292508e-01
1.629917781199659854e-01 -1.090087293619433906e-01 6.283045581159734105e-01
1.868390608736377467e-01 1.457984585218546555e-02 3.772057562329246549e-02
-2.146342945058097584e-01 -7.517454510831105274e-01 -6.394823858660624305e-01
1.095127934141463220e-02 -5.747102819910441390e-02 8.735380477712637592e-01
2.329192822757675529e-01 -3.528295997618716151e-02 6.960637944273430078e-01
-7.071319904659248978e-01 -4.669074993060073342e-01 -5.170523650262162096e-01
8.120461966953064215e-01 4.686669351432207753e-01 -4.519093193201836334e-01
-4.870677857918688514e-02 -1.845506796745314537e-01 1.719711872562559030e-01
5.928894537370802409e-01 7.778318244483677368e-01 3.934877104489251654e-01
2.672206529126852290e-02 -3.959637127576575572e-02 -1.152610310706503327e-01
-2.609453472059787282e-01 6.616204750211550634e-01 3.964513500136271906e-01
7.496247790812726741e-02 -2.663865833382114134e-01 -9.767709473289970523e-01
-2.780243928276334570e-02 -2.712913903342511479e-01 3.458356036567145630e-01
8.637702094309932521e-01 2.881668839374808000e-01 -4.996821350724416355e-01
7.923354690708579728e-02 -7.342584455273258870e-01 -5.596201712027999431e-01
2.091405725196869014e-01 -3.818360329634266220e-02 2.887710601830481005e-01
-3.532640911461777666e-02 -5.307655689047465764e-01 5.319027514960127795e-02
9.227075252166466734e-02 1.001210911379257634e-01 -5.805571493364439922e-02
1.474541059382077357e-01 9.479234961067214971e-02 -9.146364924928839235e-01
-1.244318502747630006e-01 4.159490480071557084e-01 8.708074348943631304e-02
7.423974118961308433e-01 -5.856127961610725630e-02 -1.071040817662193174e-02
-1.132353196932731482e-01 1.412901256665154148e-01 -3.423778939063436555e-01
-3.571484837891125697e-01 1.760714945803728004e-01 3.821293247039665025e-02
-3.429042368702191479e-01 5.962826035231973965e-01 7.084448261736805419e-01
3.016945367283459245e-02 4.163746041835414968e-01 -1.010741862117456730e-01
9.717532763116919561e-03 -7.505597492382077851e-01 -2.839880980272104227e-01
8.739532671610542591e-01 3.042298080319981706e-03 -2.227902176132629530e-01
3.544604163983847700e-01 -3.465471725743900916e-02 2.171238551638866032e-01
3.188789084011386388e-01 4.058305771787613092e-01 8.719546515402776254e-01
-4.418767240303107802e-02 -9.751701307407746599e-02 1.749206719539528887e-01
-6.412934738799814793e-01 -6.741005294639881296e-01 -4.504759223999938444e-01
3.583065300271303100e-01 -3.388940888817396080e-02 2.291630090711788970e-01
4.153140336425712592e-02 3.434383307466914448e-01 -1.750800180756245661e-01
1.646835201929210402e-01 6.242251905427367298e-01 -2.163866996197135462e-01
4.054030685193518724e-01 -5.401047043063842562e-02 1.539926968779780914e-01
-7.652945135069244564e-02 -5.457108096893181770e-01 1.107368714329491910e-01
-2.340395543206602313e-01 1.094108353467827671e-01 -4.577861356537717419e-01
-5.492084050250435334e-01 4.657984260132349563e-01 4.650378025013309768e-01
-8.110364031160076370e-02 1.250572063130875045e-01 -2.835183707800989494e-01
8.037657167678159409e-01 3.648526579328330022e-01 3.762736802271272607e-01
-4.783949934864127618e-02 -5.635145497559352901e-01 -8.598355194434816884e-01
-6.512087835822186199e-02 3.601386449677324020e-01 4.497772643334538301e-02
6.707695677431507741e-01 2.489990401558051514e-01 5.240549272212895460e-01
-5.411806835818746414e-02 -1.843111473669089839e-01 1.478924283786740568e-01
2.732568527621409560e-01 5.475667657334282179e-01 -5.046681067166051138e-01
5.254999063722329278e-02 1.975141429354057010e-01 -3.666292050591187651e-02
-5.824272421185195947e-01 4.006087438924043620e-01 3.546219153227299081e-01
1.984947920139068234e-01 -9.287258226463872279e-02 4.769525650711760045e-01
-1.481390772565009117e-01 3.937564129818739156e-01 9.810539057752742931e-02
7.618705785896668914e-01 -1.114357452135388699e-02 -6.795631162896967892e-01
8.297643895341288989e-02 1.481930780955633686e-01 9.482421564116315649e-01
8.568847283501972167e-02 -5.777844089901142954e-01 -8.343515886230192802e-01
-5.405245703156930093e-02 1.502527325611945630e-01 -2.832490686287983395e-01
1.382399170433747382e-01 7.496275049503443588e-01 7.142674768438418420e-01
-6.434914026742855064e-01 5.509910160560452935e-02 -1.428921250186563352e-01
-6.971549064057926959e-01 -2.130837645181654985e-02 -2.346335207203640305e-01
3.805412240821598457e-01 -1.815690127891997907e-01 -4.373550895861715720e-02
-7.764703615213840171e-02 7.178310250142377891e-01 7.160009291203540682e-01
5.910707552614011956e-02 1.716400534253063048e-01 -9.328716374794748800e-02
-4.422191941589695419e-01 5.955335842052216638e-02 -2.433531739408012207e-01
-1.597993248277311540e-01 -5.956078961874069488e-01 -8.252448324286707493e-01
4.938178549990217547e-01 -1.658272605655724541e-01 -2.421251953870416293e-02
-7.703089360582536793e-01 2.026238904040062738e-01 5.698618240099473375e-01
2.965760798638665263e-01 -3.972476791899430537e-02 3.499574766161258621e-01
6.868420249407158895e-02 -9.667169608391067148e-02 3.007825585318257833e-01
-1.802639542587279597e-02 7.392038082187804005e-01 2.023045178652113085e-01
7.002502267612794595e-01 -2.015035563893297355e-01 -2.070093072306854742e-01
6.314019939172903217e-02 -2.795292080332408280e-01 -4.116846218234174182e-02
-4.324325779774768619e-01 -1.469590790238345657e-01 -7.270390127587360585e-01
-2.755161786735975116e-01 -7.190858173429892641e-01 1.584997142632009193e-01
-4.398611310006289576e-01 2.166596605723875371e-02 -4.501219876691411326e-01
9.074878742884905369e-01 2.215377556942408899e-01 -4.128932267653903088e-01
-1.935821058154497398e-01 6.141698117390814726e-02 -2.474438362221882404e-01
-7.880876005325709865e-01 -3.287403256365263871e-01 6.045494998611192772e-01
1.094918439670388988e-01 -6.642753768535677450e-01 -7.164741145662096855e-01
-7.548692895111529522e-01 -4.303868454355551099e-01 -4.573059069249585384e-01
-2.961006044449954744e-01 -7.064696737848674690e-01 2.045814586283796754e-01
-4.986808838211641004e-01 -5.324002324437444589e-01 5.812778670069926878e-01
-1.197003975505851608e-01 1.043112629834975769e-01 -2.886534143416789600e-01
-3.933637294862826761e-02 7.918511296850658798e-01 4.038931720311533802e-01
6.502272620964807404e-01 -2.221030997167575474e-02 -8.033099099920891772e-01
-3.972417053607352200e-02 -2.581397891256793919e-02 1.635866572728363610e-01
4.651588720065801819e-01 -6.590016990296855559e-02 1.363522473652355460e-01
-3.075277765441135069e-01 5.814350696020990222e-02 -1.473349095809947107e-01
-1.983015397491518506e-01 1.184769338242573980e-02 -9.458779062512917557e-02
4.486498376537494809e-02 8.737121441994676052e-02 -1.380183227600950691e-01
1.843001705267789114e-01 -6.379275261874979286e-01 -2.904800266063078951e-01
6.990086486126349807e-02 1.395432382542558664e-02 1.866027418592741127e-01
7.099856647226537865e-01 9.070233609874794878e-02 -7.499263957834045868e-01
-7.615023553197908246e-02 -1.289697498889132987e-01 2.123118253140039366e-02
-2.210442398164243483e-01 5.894592492008354778e-02 -2.442357268753432842e-01
1.207328834680866832e-02 7.270704055563349533e-01 7.350255597453505541e-01
2.323344377607379774e-01 -2.809430381962534778e-02 3.106415618282861932e-02
2.220070228160962444e-01 -1.060899265150698489e-02 1.965502380673722904e-01
8.759642750159741809e-01 4.627229200420594490e-01 -3.325792849351220104e-01
3.374730219816174381e-01 3.827834574155055541e-02 6.877257058034413895e-01
-3.081267200314982135e-01 7.591533815186495004e-02 -4.285482025520926941e-01
-5.332641496110218648e-01 1.393983662997650974e-01 -3.375994841649312961e-02
-1.833486542607017100e-01 7.264555976353355149e-01 5.518350831296874315e-01
2.281244752930620956e-01 6.355382205849133825e-01 -3.001144899811041267e-01
-8.157308597330396038e-01 -5.073655337006314214e-01 3.958330796305135624e-01
4.896572919649460065e-01 -2.018178181624893652e-01 -8.840507545356639518e-01
-3.534364800259344186e-01 -9.049089808167104163e-03 -6.632837188604029377e-01
3.636046875831184799e-01 7.789853753873442199e-02 7.120679156277727184e-01
1.760927155657233002e-04 7.311472397925232736e-01 7.252655358815852660e-01
6.443623603003705291e-01 -2.374717798890043363e-01 -7.193781693566828617e-01
9.713957103158560313e-02 2.115776037483028255e-02 1.783821689304792013e-01
-3.863139270389552293e-01 -5.339928299777102483e-01 -7.789082862330828361e-01
-2.615148123889162735e-01 -3.875142788046102016e-01 -8.842152949494620495e-01
-6.345520095663348403e-01 1.286447606079175743e-01 -1.443100194802517111e-02
-3.064642471773403321e-01 3.939700482730089381e-02 9.752466912640365138e-01
3.640548592254024274e-01 -8.913938876482868645e-03 5.282378776812484134e-01
3.528795452359644036e-02 3.939304154099598776e-02 -1.373617833008194400e-01
-1.423575220014524356e-01 2.909982000197855467e-01 9.136095243188629977e-02
-1.252215010753128799e-01 -2.978678298584890981e-03 -1.390389574765096281e-01
-2.780647864823013182e-01 -3.002625142877732300e-01 7.944932197967191634e-01
-3.839233491558403238e-02 2.482120289563977122e-01 -4.265538742696088903e-01
1.792407572488542988e-01 2.364088164679810714e-02 4.582614353857829281e-02
-1.036340520681486438e-01 -1.301971248676907777e-01 -9.296081468020538363e-01
1.622244644896429222e-01 -1.429387014486827555e-02 2.278799825780514210e-01
3.230577478887383669e-01 -5.799151643999682637e-01 -6.741041274109370596e-01
-4.237871149265673432e-01 6.069973853568357003e-02 -2.432872320786038101e-01
-2.028345585996401967e-01 2.687347868419622324e-02 -6.740241910649284393e-03
-8.224860947014966950e-01 -1.591236317873254424e-01 6.329891180732457601e-01
2.535620577192296277e-01 7.929419600234302035e-01 6.283549001183447169e-01
-1.890611730568643178e-01 6.941247310862839193e-01 6.766925303215278742e-01
2.541661752828974774e-01 7.580481333278527023e-01 6.838940850504355851e-01
1.706782680083249459e-01 -1.125123711162584195e-01 5.719694515120546940e-01
-1.526667455697247600e-01 5.985176185503908730e-01 1.845221733713596490e-01
2.290681757865906942e-01 -1.036800704922806321e-01 -9.764372126481061231e-01
7.507630498336889113e-01 -1.835689726367883967e-02 4.802608122839056859e-02
8.278059178222925418e-02 1.117249482643054709e-01 5.763372756626166521e-02
-1.777175751905895051e-01 -3.912050288575255608e-01 6.140517651671062449e-01
-6.029830660718544788e-01 3.570522996110492286e-01 7.190610641067850528e-01
-7.163292689237724109e-02 1.386512258998921221e-01 -2.902417622075036951e-01
1.715621578983778373e-01 -3.890817360030821570e-01 -9.389578518430750087e-01
7.966251329670588632e-02 5.211691348102198695e-01 -1.683884768215367367e-01
2.473494028142994017e-01 1.077362139741590563e-01 8.417043226135005884e-01
5.626681401248019576e-02 -1.254683658150978764e-01 7.677620122554114079e-01
1.248154236237714321e-01 3.989881825504274643e-02 1.403573235714101197e-01
-2.313584685325967560e-01 4.847424540855598679e-02 -7.216956810413392986e-01
4.037265087916483974e-01 -6.901570704816217816e-02 1.120139432966369974e-01
6.891157685405377431e-02 -1.717454024309410243e-01 4.290616351053077593e-01
3.208533072556810639e-01 -3.579467155401200307e-02 4.834795699240378442e-01
3.712203325855041869e-01 -2.462814042142122059e-03 -9.437298989773664770e-01
-6.644625757600696181e-01 -1.004387279737954386e-01 -4.077527637866485422e-01
-3.189262182111132077e-02 -1.675863595496498437e-01 -1.607436696306556445e-02
8.226382159323277765e-01 -9.575168850131152154e-02 -2.799170301766356617e-01
-3.345348611563099539e-02 -1.554624784700825713e-01 -2.527213087355051693e-02
-1.142708493479237808e-01 -5.342517969464463667e-02 -5.904156830304577858e-02
-9.416088352277321993e-01 -1.482160546356662001e-01 1.727002417029608883e-01
4.275484348112232880e-01 3.944363821825165317e-01 -7.411814235179426946e-01
4.273088995111877231e-01 7.386088618222507174e-01 6.265064679724260399e-01
5.620989842073454215e-03 -9.973194412236062456e-02 2.387880235712608601e-01
1.897038318855173988e-01 6.216915679344460210e-01 -2.638957211074436371e-01
1.480926292890493712e-01 5.248189395708584559e-01 -3.490187321883571614e-01
2.300701152198272523e-02 2.871531150500591378e-01 -6.300131122519151416e-01
-8.012990203579161141e-01 -2.454735474512461935e-01 -3.426119580681778465e-01
3.389258522216465064e-02 5.889963916415638101e-01 8.811544070514080174e-01
4.508184174277523049e-01 -6.914146782319751001e-03 3.638629212279157477e-01
9.284032033603910605e-01 4.350610426881028059e-01 -7.522233914379129749e-02
2.244865544199006746e-01 -4.098970834714400074e-02 3.028348270340228132e-01
-6.070905152335454025e-02 -2.945505986373438412e-01 6.134580184201969821e-01
5.062820890896932990e-01 6.938575708703537126e-01 -3.674658932451692062e-01
-9.230237943275378942e-01 -1.920377682143935560e-01 4.103473727783967240e-01
4.387557160489314323e-01 -3.983711191810104107e-02 2.132673547268354453e-01
-2.396889783730495049e-01 2.061935817160276130e-01 9.956200295408658141e-01
-1.427753796514531215e-01 1.421076036064276293e-01 -3.859920556053339502e-01
8.796555959178013750e-02 9.247233277040368959e-02 8.405423688538002369e-02
-1.524619758090723920e-01 7.250710057761681204e-01 3.737836185522287469e-01
4.575718009340545844e-02 3.073554861166177821e-01 9.776433887327886652e-01
2.231213177915878851e-02 3.226475379754485950e-01 -3.968486120938239381e-01
-2.699481358880874080e-02 1.639788061092014859e-01 -2.615897193425624767e-01
6.589330407332558148e-02 -7.086232266027363558e-01 -6.561899308321585966e-01
-3.131986018969805663e-01 5.886979197070246750e-01 7.573154123703889073e-01
-1.024370561749799596e-01 -4.164365672310205713e-01 3.583755539764929554e-01
-3.756848852048445542e-01 5.839249517600044598e-02 -3.127263500275543895e-01
-1.430413816627440771e-01 6.354718208379914191e-02 -7.914151544826878437e-01
7.047804548932517892e-03 -2.171714955416425563e-01 -2.201233193162686549e-02
-7.364978234059539330e-01 1.500746535171376406e-01 1.155359108657851436e-01
1.613544888058460539e-02 2.421403095410282202e-01 -2.426269134338208400e-01
3.263729741119982680e-02 9.512353978160739687e-02 1.168175394035295134e-01
-2.734955455768562915e-01 5.137577460241186250e-02 -9.174962848390005865e-02
6.568707992684022501e-02 3.970934931249269217e-01 -3.419348951296460881e-01
-3.764286246657927992e-01 -1.236379454899474012e-01 9.168745361380831183e-01
-2.646739703455608383e-01 -6.823246658784604124e-01 2.169308223466145102e-01
3.607525502735354356e-02 -8.024923142536377618e-02 2.543846231330491592e-01
2.754022603786535420e-02 -2.217372614907339445e-01 -3.585217437680764813e-02
3.894338215989192054e-01 -5.263057748554327286e-01 -3.664436408102483833e-01
1.778755126997031213e-02 -2.075132699579100570e-01 6.691558791197250722e-01
-2.689361577170626405e-01 3.904044560918138590e-02 -6.906294387703336701e-01
-4.353631774457144415e-02 -6.492758286239251886e-01 -3.552645619116706621e-02
2.723008327411587937e-01 -1.835218888883043131e-01 -6.272248246537055760e-02
3.330518853910836019e-01 4.603954505704612732e-01 8.558528797191455872e-01
-4.723852769920227068e-01 -3.757737126375730319e-01 -7.623028892594595485e-01
6.238813618900770352e-01 6.454007190465006483e-01 -4.106527160530649145e-01
-8.742845035527800901e-01 -1.619002646018745939e-01 -1.244512568048435630e-01
6.012940381311445565e-02 -7.295374974724860850e-01 -6.045125382057644492e-01
3.348630198304247130e-01 -1.844948650380920097e-01 -5.254376357375696582e-02
2.624375652037200246e-01 -1.304470713129875226e-01 -3.880874648629244889e-02
-1.508202061510663938e-01 -6.959559477331498378e-01 4.572650356355009715e-02
4.854864112842531831e-01 -6.386746156407674402e-02 1.416990674656717908e-01
-2.131271729594518827e-01 4.581911433095830349e-02 7.680557793907904877e-03
-9.293153769715117862e-02 -4.547237148404312257e-01 2.388450696394409378e-01
