1.476531614259751074e-02 1.156571295441136960e-01 -1.271782398343712824e-02
-1.741301985408774955e-01 -1.165590305661880766e-01 2.870843538991644794e-01
7.124353073586381369e-02 2.118159056718867117e-01 -3.792134928528904103e-01
1.057939623225531978e-01 2.525856406601997145e-02 5.712640104285254122e-02
1.099210077956137149e-01 -6.634835013154705141e-02 3.105423275084463475e-01
4.647121437050062698e-02 3.518092690488994201e-01 3.213206044345046641e-01
-1.229293978992465480e-01 7.686426317403340092e-02 -3.287171469684623260e-01
4.823489288753339266e-01 3.616732458022002272e-01 -4.401893990326478101e-01
-1.139504871892315779e-01 -8.473675670719345021e-01 -2.349754643403186294e-01
1.714431496817957756e-01 -9.031942540133508501e-01 3.593003778552540384e-01
-7.332488286624296026e-02 -8.185683742698006415e-02 1.803044691338403366e-02
4.029038984605470275e-01 5.872192268145802752e-01 -4.584480662708219634e-01
5.184744643123699870e-01 -1.316504678410950480e-01 5.690980065325276227e-01
-2.450111182286091871e-01 3.501208663989702902e-02 2.311785163140283039e-01
-1.069915673394122579e-01 1.737256048971086084e-02 -4.217337239933841714e-02
-3.631714721606767449e-01 7.493837614144016612e-01 2.124208872311089402e-01
-5.509822661587141512e-01 3.374081904710916069e-01 3.046557806418107028e-01
6.403950133660151200e-01 2.945426966826053539e-01 -3.852436448025307048e-01
-2.564890735180158296e-02 -8.611722644046063690e-01 4.199324234817858326e-01
9.646165869525241687e-02 -9.588782187683134173e-02 -5.167459335906017526e-02
-2.668897841588269149e-01 -1.537733563780117885e-01 3.643317233954530554e-01
8.578265969206388952e-01 1.138150798880167708e-01 4.052438798180238999e-01
5.443332014134132785e-02 3.998751650130369928e-01 3.423402738881792806e-01
-1.574534901583364288e-01 -5.418005051970149061e-02 1.834644653365479217e-01
3.609291858539140363e-01 -3.290666021542329456e-01 -3.026465525151149638e-01
2.863255181264370841e-01 5.104207189020418811e-01 -4.984307801567983698e-01
8.818683048696003279e-01 4.657108278861938899e-01 -4.853549570898704757e-02
-5.564164963400849984e-02 -9.746816572985970983e-02 -1.613593933079696119e-02
-1.011451711872567681e-02 1.063077278319710661e-01 -1.549240304338075636e-01
8.017652518542933704e-01 -4.849612680215195648e-02 -2.675022035653232266e-01
-1.120197295125866382e-01 9.877910715277472553e-01 -1.689534687429399828e-01
3.327366073484233633e-01 -9.215753346371907684e-01 2.033504732471193843e-01
5.922816477917522970e-01 -7.852291434142620874e-01 1.572575498989855491e-01
1.111039234798735231e-01 -4.897570064740103257e-02 -1.787268584929465817e-02
-3.998135439023035032e-01 9.095406903662596187e-01 -1.215410079333842236e-01
5.331730234447324968e-01 7.831079593209404610e-01 -2.568535460802363612e-01
2.690536463249465493e-01 -2.076578366729526504e-01 -2.601845795593386579e-01
-2.741999316851083668e-01 2.735449689715810026e-02 2.593579181727382887e-01
-2.155241390278340996e-02 9.229378200000835086e-01 -3.537652452521841129e-01
-2.298470270707352603e-01 -9.509714357351169989e-01 -4.295880374627884107e-02
-3.519864642697985158e-01 -7.092579339718012577e-01 4.369700929796520583e-01
3.860516803130554786e-01 -8.941374246312325802e-01 3.385340201490761453e-02
-9.851612374998502952e-01 -1.134278126453626689e-01 -1.603964066901579777e-01
-1.825497411016801727e-02 3.045148246886622556e-01 2.717765315740574006e-01
6.323743279663747163e-01 -6.628796907521596893e-01 -9.544598611546663280e-02
1.180497015096686059e-01 -3.592267194170002675e-03 -1.121280848306678742e-02
1.113497281526036886e-01 1.204404890211201729e-01 2.182596645668057334e-01
2.174501016974186851e-01 1.579278467650598733e-02 4.034715399438179584e-01
7.939248637863386415e-01 5.982016064578922210e-01 1.249669529452385464e-01
-8.645131255142263216e-01 2.715278263598047692e-01 -3.841431306361614562e-01
7.662857268072478245e-01 -1.458284867729153734e-03 4.918330144379222668e-01
4.607524903327432642e-02 1.115516395853605597e-01 2.252723154790649968e-02
-5.023835474994194916e-01 -5.042237648638199232e-01 4.379233503541119510e-01
2.035198478220192064e-01 4.197482584912712311e-01 -4.992633979604821359e-01
3.834139911257469779e-01 3.854477297167126504e-01 -4.636561917878313510e-01
3.748254907264395586e-01 6.927660465587542893e-01 -4.346029873422785350e-01
4.476996965300244491e-01 8.039636918924105702e-01 2.273865549781426409e-01
-7.456904691118881184e-03 1.762710824531601439e-01 1.392263384741463106e-01
3.001104016370622074e-01 -1.181525285203103084e-02 -2.769090218600032682e-01
-5.546865056791381310e-01 1.225437723254163835e-01 3.391463124024945985e-01
8.464697614360691125e-01 8.677285438840603993e-02 -2.500409853584727449e-01
7.972543540214326319e-01 4.928349763391716709e-01 -2.138263759922306995e-01
-4.341952452998724676e-01 -6.448022221541843679e-01 -3.588453187227170771e-01
-3.924527518093464118e-01 4.771033560308650667e-01 3.038929793407163515e-01
6.827120826611909887e-03 1.774493208248005549e-01 1.480393134197791616e-01
-2.029102217335261027e-01 4.901478924518490321e-02 1.818428660917262019e-01
7.283217818530381971e-01 4.393765278961845322e-01 -3.148568740947422229e-01
-1.296616789500432687e-01 7.613584322100348523e-01 -5.041792561505659132e-01
5.983979741976854783e-01 -6.132852405272778418e-01 -1.708674236111570877e-01
1.563694119104245273e-01 -6.762027031906807650e-01 5.447665369994764140e-01
1.958728837877816709e-01 -9.200138698655627723e-01 -7.791261439798510824e-02
8.912015940684059334e-01 4.521973951660203661e-01 -3.333438312832187611e-02
1.528416979945004806e-01 3.868336129156440747e-03 -1.105617106476292771e-01
9.085490233161913620e-02 -2.753546934016387060e-01 -2.428630106455712256e-01
-1.037137321325461992e-01 -1.568994052794701610e-01 3.187884254658001626e-01
-3.934894667948345970e-01 -6.905163373282581230e-01 4.283749908290125363e-01
-5.642475900884326157e-01 -1.874098112423168982e-01 4.016117073815407834e-01
-1.091386856917177517e-01 6.088255515563542608e-02 -2.789511771557406927e-01
-9.609989539774379530e-01 1.439070694575558806e-01 -2.503391634753465156e-01
6.793243737742614419e-02 9.575015593356729637e-02 1.396659272652504662e-02
8.875370378519847891e-01 2.557839738835098187e-01 3.212028488847593066e-01
1.701292227600147422e-01 -1.247251779036484959e-01 -1.635053495173524052e-01
6.620137659779734562e-01 -6.694441883979186381e-01 -4.918796019023589233e-02
-8.247034723113766397e-02 1.011421612623083777e-01 2.706878676647661228e-02
-4.196441835068786541e-01 -8.030556403040507440e-01 -2.270733819248532404e-01
2.032964573473717007e-01 -9.589688107986454879e-01 2.026231488370560663e-01
3.658046095214206317e-01 -5.110107419065278433e-01 -2.967733759156708229e-01
-9.494749530720638653e-01 -3.103797533977421530e-01 -8.256989577231140659e-03
-2.884910811405681508e-01 3.437108277661271027e-01 -5.715328418410692279e-01
9.543584211029673137e-01 -2.030422746445284254e-01 -4.060264644702380084e-03
3.383433936227286942e-01 -4.511679338304580011e-01 5.856514069423011115e-01
8.955479268244473379e-02 4.587977471530154117e-01 -5.280334666027199919e-01
5.301079960188344042e-01 2.935872053118015468e-01 4.915404715791774626e-01
-1.236092400514814810e-01 -1.492897070831191719e-01 -2.594097291186487908e-01
3.538371704741528068e-01 5.141732634150391473e-02 -3.306393981820039962e-01
-3.229293652808574722e-01 3.675811764730494979e-01 3.060889912407667723e-01
-3.245213166873797683e-01 -1.574725708364748122e-01 3.827033438558911649e-01
3.873524468106818164e-01 -6.312691888810904040e-01 -2.591203446145043388e-01
-4.816413593612189348e-01 -7.641425606028033890e-01 3.224118408882662989e-01
1.834732245744042645e-01 1.106164993343018293e-01 3.394196234015230407e-01
8.460491325566172893e-01 -1.223470646187117816e-01 4.357045011330802908e-01
3.172813012780446029e-01 1.707608638119277322e-01 -3.790079634189985058e-01
-6.570645750170485133e-01 -6.324117712416269521e-01 -2.677670222365559072e-01
6.024276568325042103e-01 1.775547635384260858e-01 -3.855634168421312458e-01
-6.159057295805078214e-01 -7.488010791917396602e-01 1.914889881631915702e-01
-6.819698700724391438e-01 3.019009045638394451e-01 -5.249515278497114412e-01
7.851176927072046896e-02 -8.433013254114273272e-01 4.422955869057402789e-01
-4.975244525832291098e-02 1.311274363117014841e-01 -3.120148173847327455e-01
6.232653746316533239e-01 -1.984130622248201359e-01 -3.115930359798240179e-01
9.007604182463757603e-01 -1.905281170404340974e-01 -1.276682432284720337e-01
-7.030751524561031918e-01 6.090448742827472839e-02 -5.221399608070316223e-01
-9.015035171671224035e-01 -1.196213239543948564e-01 -3.484702754877315733e-01
1.153046680681955871e-01 1.225395506679433089e-01 2.280739120298444222e-01
2.764813456048431650e-01 3.930989940317331649e-02 4.508698554650044654e-01
-2.761144030823970419e-01 -9.538986469288339431e-02 -4.308793187027386007e-01
-1.701126682623156083e-01 4.089105478967022811e-01 3.067049291826654533e-01
2.072204390278026970e-02 2.383272514885481363e-01 -4.207293205862926988e-01
-5.338693159727376791e-01 -1.128467054428077682e-01 -5.240330125601407874e-01
3.134897315865228795e-01 8.285930387101607675e-01 2.483715026407407878e-01
3.258397761961755457e-01 1.946496758305069630e-01 -3.940146319052097446e-01
-9.644878930117037341e-02 -2.068501199726223982e-01 -2.662021445463114699e-01
-5.662480506233507072e-01 -1.375078995606510666e-02 -5.418173588526837836e-01
-1.178214558901114345e-01 -4.909638070713717162e-01 -3.728535949878981071e-01
-2.848698383279798518e-01 -1.018727198339534762e-01 -4.366354524563973438e-01
4.160560923504392355e-02 -6.990999687729596568e-01 -3.111319334525431968e-01
-1.262785357366036643e-01 7.233174851069541778e-02 6.759468300440348021e-02
1.642568104069811463e-01 5.627475531369451334e-01 3.849341583599635297e-01
1.061861446131493469e-01 1.733049721511600166e-02 1.376134199755993104e-01
4.376320965345430469e-01 6.976071745840214389e-01 3.335497802006637258e-01
5.950783361496830848e-01 -9.520851255351457654e-02 5.590259066040438318e-01
8.569945628411996807e-01 3.791442406753608441e-01 -1.924378148048158377e-01
-9.253255914687957828e-02 2.647090930609325432e-01 2.331272195155597582e-01
2.702903456992692410e-01 1.414619661168543263e-01 -3.456961000755887636e-01
-4.399375998019694478e-01 5.960269152214010546e-01 2.654694213948852188e-01
3.389530760040686541e-01 2.210190582577538643e-01 -4.092666520452272749e-01
5.357094997204233655e-01 -6.167860088761059623e-02 -3.435054992546129893e-01
9.848718231778218479e-01 -1.060185453359776819e-01 1.630110060562193763e-01
1.038652547085012062e-01 4.085943377643617980e-02 4.028789741352276771e-02
-7.469908119848123196e-01 3.231554604200433944e-01 2.344363411782196815e-01
6.916268260129831980e-02 -2.274010642688079897e-01 4.598967111727267909e-01
4.240060885903456089e-01 5.465921383718944648e-01 4.164891117845025970e-01
-3.553135157233366370e-01 6.024303652157911859e-01 2.858283237270365373e-01
-1.118052271544027754e-01 -1.781073040809640351e-01 -2.625645224119960153e-01
-5.158495136212511989e-01 8.124569436209910789e-01 -2.944299264603988942e-01
-8.282093832011474532e-01 1.319766149101926911e-01 2.364727317838021814e-01
-2.184445342342046514e-01 9.569265529391335345e-01 -2.322678017206293299e-01
1.355792725397245713e-01 7.181269497197927398e-01 3.359075791037301473e-01
-4.044704531984682355e-02 -6.419621764187222190e-01 -3.419547889601711743e-01
6.701133306459737538e-02 -6.467989227946033259e-02 1.132142438284712005e-01
-6.159841071504237320e-01 -4.584309552092422635e-01 -4.126108213690075077e-01
1.432188416572910961e-01 8.286259560330705431e-01 2.654471223000954838e-01
5.743607077853040144e-01 -6.489297865273677690e-01 4.424533580605425342e-01
-8.426628993060664152e-02 -7.294001652550767545e-02 -2.784405932259315444e-02
5.144319261581631331e-01 8.394540825850065335e-01 1.068538732126186053e-01
-4.498530533067443549e-01 -1.637018415821439588e-01 4.032058861977872999e-01
-6.460182168804341485e-01 5.634604776253046010e-01 -4.540222243632171528e-01
7.200278367236155885e-01 -5.202564913201487284e-01 -1.394851066871430345e-01
-6.882608885368424190e-01 -7.253191973686473615e-01 -3.231706726985629496e-02
6.495436617849905669e-01 3.337049448266547758e-02 5.332471022120640614e-01
-1.057972058843427571e-01 -3.698826676439422867e-01 5.042521967402451288e-01
-8.111436186562679396e-01 -5.503072429366859808e-01 1.251659210736620342e-01
-2.744618049223794820e-01 9.560081203592714350e-02 -4.889511597722863701e-01
-1.388080374383958981e-01 -8.729074210265579115e-02 2.135691838103917495e-01
6.633838602498000059e-01 7.584739473659183329e-01 -4.732405270278570541e-04
-1.659366176910861967e-01 -3.475091628225352447e-01 -3.730168602206175299e-01
-4.368497683665838460e-01 4.616937924678665151e-01 -5.729345187826223595e-01
-5.583899324476554460e-02 9.659186549923647058e-02 -2.341500446311620409e-01
-6.864607775299295944e-02 -1.082779881715537906e-01 2.005603126639732559e-01
-4.814297243484547129e-02 9.075483193660795200e-02 -9.065255008854952723e-02
-2.828132617612440503e-01 4.351161653116280004e-01 3.108647799034492953e-01
-2.328021342286592799e-01 -4.408719968045161086e-01 -4.058219494452462994e-01
6.600758210131790760e-01 -6.053637830545177678e-01 -1.263457364364309332e-01
5.599137095912178896e-01 3.527619438967306564e-01 4.734414300293451339e-01
1.072525085157112756e-01 5.259598159793433397e-02 1.484932403090072350e-01
-5.863130396301934333e-01 7.307381912479504749e-01 7.770309965076632741e-02
-6.831298954303135496e-01 3.731337675935614828e-01 -5.101774598824688756e-01
7.273416567384557441e-01 5.627436184709471156e-01 -2.561606082595048184e-01
-4.677580232168462304e-01 5.669336365572046343e-01 2.675015637054796724e-01
3.839426157303347797e-01 2.454792089488966877e-01 -4.223811432396045173e-01
-1.864906781790342527e-01 -9.968352909306041690e-03 1.812639165381131068e-01
2.660615839730312016e-01 -1.926910972324782367e-01 5.322593572716105559e-01
1.791021640145479821e-01 9.248971590109626023e-03 -1.608507994742169322e-01
-7.035510474869852704e-01 6.980497675649545153e-01 -1.301719680737939699e-01
-2.854823287869926451e-01 2.096281485313724047e-01 2.700706847588474346e-01
9.784772847538696083e-02 3.609848708286429453e-01 3.470298774886804161e-01
6.206767483278922137e-01 5.784562759725206664e-05 -3.498381536556198212e-01
-1.183910656256054045e-01 2.996077291668111653e-01 2.588644450081773463e-01
1.992099826447367786e-02 1.258944351288902863e-01 3.868916699580888380e-02
5.471161696012597636e-02 -3.584554143469522169e-01 -2.950713800118702768e-01
3.855373315897694386e-01 -9.029415796452922027e-01 7.841407001132347232e-02
-8.260640154236779109e-01 5.370712733190677879e-01 -5.725222523596987939e-02
-7.526067609176680107e-02 6.496065798609147734e-02 -1.254473694035585507e-01
3.406315586466665546e-01 -6.872005609269511428e-01 -2.480888570326078846e-01
-7.526254336045031801e-01 -5.758306268172278530e-01 2.093791778040837437e-01
9.420947318763002176e-01 7.902015262396927531e-02 -1.251648980712680437e-01
-4.078928830441093112e-01 -4.647935969570086701e-01 -4.354462456360091438e-01
-9.539221181807462369e-01 -2.856505469212791692e-01 -1.265259387902457067e-01
2.018026833350068105e-01 -1.504550478844060291e-01 -2.024945025661768205e-01
2.825812701831805218e-01 -8.556646685333581248e-02 4.985948476246464534e-01
-2.943188760696341388e-01 -3.361812629216049536e-02 2.993662552249028996e-01
-3.702552833387909859e-01 -4.554310613357275828e-01 -4.341214136025263737e-01
-6.870698161332258191e-01 6.081028303508680954e-01 -3.809246470193418665e-01
3.776310842722219729e-01 -4.353348151095780549e-01 5.852658174093242627e-01
-9.255132901384088839e-01 -3.178683483164383428e-01 9.044742873348705914e-02
3.994773204061734528e-01 3.640808701253038515e-02 -3.421887998025072708e-01
8.732688531789681852e-01 -3.078538958334627873e-01 -1.051211996247493757e-01
9.437076596686081453e-01 1.852479309983606215e-01 2.594458448101030767e-01
-1.181947669644422827e-01 3.949336043679092800e-03 1.326328258761397955e-02
2.720038673304625010e-01 7.319788670560851696e-01 -4.549137313764367030e-01
7.467032887991937873e-01 -3.800312660765624018e-01 -2.013141199556787164e-01
-8.079764014504420278e-01 -4.658193179649710580e-01 -2.709578255318515483e-01
-8.792101073965735702e-01 -4.682871580471286155e-01 4.398151797130656765e-02
-2.827502817415458169e-01 -4.663327579646073806e-01 -4.165211781459352003e-01
1.162151137227765141e-01 1.219166956845245120e-01 2.294833269316624014e-01
-2.024203731856345778e-01 6.805277953765054288e-01 2.951637183434661638e-01
4.344902491609802242e-01 -7.088336504033234675e-01 4.747571598703155260e-01
-2.885195500542159786e-01 4.692814389826351906e-01 -5.803148092358221266e-01
-1.074496589166749547e-02 1.535939843875523958e-01 9.590543250919680851e-02
-2.811003280648067260e-01 -1.840819138064949123e-01 3.890707750377566110e-01
-2.888344867698169893e-01 4.318131116280488069e-01 3.105732477035656469e-01
1.319501484234263389e-01 4.930873272114244532e-02 2.449699461737412931e-01
-1.928203644912236669e-01 1.239514158181700271e-01 1.839077713060678909e-01
-1.845425547249402928e-02 1.506278204763609740e-01 8.809293435286776053e-02
1.560734221284812151e-01 -5.164009661504274235e-02 -1.116946150134339871e-01
2.286688981432876133e-01 -3.960756867197932629e-01 5.770256040384568186e-01
-2.861963895378565881e-01 7.075073703721315166e-01 -5.193891417079140593e-01
-3.860980195115353009e-02 2.555340072328712853e-01 -4.573148963564587222e-01
-6.581452364108228981e-01 -1.577689272347661265e-01 -5.016157085867406495e-01
-2.233864168473495559e-02 -1.502385326282299760e-01 3.165797910668255444e-01
-6.457465994632969331e-01 -4.969605983085790823e-01 3.627744476455576073e-01
-9.029851424382290270e-02 2.152412573789463379e-01 1.891466111336539135e-01
8.489990687136291792e-01 5.362934695907793925e-01 7.216494816493526643e-02
7.194747841338487993e-01 -2.117977434286013594e-01 5.196141989472088385e-01
1.082268941479089530e-01 3.053337734251974633e-01 -4.588165633708593538e-01
9.812835231474048570e-02 -1.963005166009627322e-01 4.490250823076525899e-01
5.409728543871227674e-02 -1.490721172144773843e-01 -1.020515693405022878e-01
6.772667606526729944e-01 3.051693159523854448e-01 4.613258301364214220e-01
2.165142504564853687e-01 1.174168454222734512e-02 -2.120521210922122202e-01
-3.549607303942126091e-01 5.608053116105318203e-01 -5.647353966212487197e-01
-4.507179234550935665e-02 1.707737746023127168e-01 1.253890532432194727e-01
5.551008108755784987e-01 6.291744585683292090e-01 3.445821718788036336e-01
2.196742153139387699e-01 -9.339141511991491118e-01 2.792786847808660378e-01
-2.141750725101015662e-01 5.909247288355059524e-01 3.143549512583247441e-01
3.542845711929494823e-01 2.953519588367098936e-01 4.613176753905310346e-01
1.553156025306392796e-01 -2.049394409432928610e-01 -2.061454581781630158e-01
5.747310577950387467e-01 -3.046730510410712300e-01 -3.001243501072474174e-01
-3.957920558183322668e-01 -8.609692638104324280e-02 3.669377916703108755e-01
5.716948417913418901e-01 -7.667757095578248139e-01 -1.369123628240592055e-02
7.449561333620409453e-02 -4.680742474160354827e-01 -3.265740644111697066e-01
-1.717009153679288080e-01 -5.088939795833227198e-01 5.271744674151463972e-01
1.996752365070595947e-01 -9.664117813962511683e-01 9.464849208957404336e-02
2.928561755541702130e-02 1.733133998888453653e-01 1.579100398186896181e-01
-3.922107120204360031e-02 1.259379068631016341e-01 3.402095912176666265e-02
2.639847701019856774e-01 -4.005633996985663581e-02 4.685017173540637070e-01
-1.399904418487924948e-02 -1.203437298796197208e-01 2.481094885301524389e-01
9.470105734657336960e-01 -3.513715454929003390e-02 -1.026613975850533267e-01
-1.437253260232723984e-01 9.003438676241044547e-01 1.504042647039237346e-01
-9.202798791856079408e-01 -3.416095470842454573e-01 8.459645546216928991e-02
8.116254101707895963e-01 5.708676678264107407e-01 1.355615463477046478e-01
1.739426168229200320e-01 -2.180492409752571303e-03 -1.465452198795491878e-01
8.430093302262976762e-02 -3.850089104059132294e-01 5.481582777679639973e-01
-4.206227239436302612e-01 -4.761832424911810469e-01 -4.327873343547865570e-01
-2.665846373248966228e-01 6.733702716477426575e-01 -5.383002118259326840e-01
6.366504736104233730e-02 -1.209303060589080325e-01 -5.697238736946241139e-02
9.046315289988902109e-01 3.960914109933332261e-01 1.711746268427245532e-01
-1.214642498285580796e-01 1.489220446526263175e-01 -4.083043101816830056e-01
1.226104122866292570e-02 -1.040642813640178244e-01 3.351221791065422256e-02
2.412201368073783533e-02 -7.445231271994475764e-01 -2.941013687804078791e-01
-5.615676041393947715e-01 6.529490425010857357e-02 -5.536245449318849543e-01
-3.370460831745657471e-01 -1.526404105954818624e-01 3.830096022740195338e-01
-8.554441686414104851e-01 -3.234613993411677435e-01 2.206513732175450493e-01
8.393700135447380584e-01 -3.168115077305643790e-01 -1.456147823289414556e-01
-2.622678168615215702e-02 1.406407235721016946e-01 6.574144573839225958e-02
-1.036296163788994890e-01 8.597358073758590291e-02 -3.092785712025230005e-01
1.746312601360607009e-01 1.404868861967311089e-01 -3.021538189384128104e-01
-5.506090796779739005e-01 4.042439685881956124e-01 2.910326671112821173e-01
-2.274201443350578472e-02 -9.587154353727633804e-01 -6.562712538604636991e-02
1.155916473892094343e-01 -8.468574863078389553e-03 2.344418144382473534e-01
-1.171423997212822227e-01 4.788410000358417906e-01 3.258940381608263492e-01
-2.010319084524748723e-01 -5.277994313475126327e-03 1.980759940470503133e-01
8.272600215564063220e-01 5.642932890569929416e-01 9.243661156057345063e-02
4.760907612193224780e-01 8.475253531385068539e-01 1.347371038318840031e-01
1.406726766287681452e-01 1.510126843498896809e-01 2.869639653043170036e-01
-1.936251035419899735e-01 -2.912456646049588205e-01 -3.771337922862481040e-01
-8.102446411447097874e-02 8.222240395612795405e-02 -1.727218460772495315e-02
-7.286074864020996023e-01 6.227613871353786523e-01 -3.027345014241277221e-01
-4.611323665838784058e-01 -5.407911934337125137e-01 4.487200616640112383e-01
-8.090933941256602813e-01 3.542913253785217043e-01 1.693836444532666463e-01
-4.568083280845565419e-02 -1.701298713298070309e-01 3.436811225879970455e-01
-4.000169961041001865e-01 1.868592192823890497e-01 3.102366399611615200e-01
-1.501893103044781366e-02 -1.336269273448401906e-01 2.842764598869740866e-01
-4.690066885883736325e-01 6.190296536869824839e-01 -5.172500933816949198e-01
-1.816609090906770585e-01 -1.834704399422796006e-01 3.667049681536680983e-01
1.306991002500642596e-01 -3.605961945791603257e-02 -5.710661796498706783e-02
-9.060244136570849705e-01 3.282742940649659991e-01 -2.808969067252922169e-01
4.238327105090564650e-01 5.465116081093681633e-01 4.165267940759447840e-01
-3.741353907923799516e-01 1.444648729391459774e-01 3.031377521384792106e-01
-4.020222246680182215e-02 -4.911251557412616431e-01 5.484438879025164137e-01
2.147712881655369221e-01 -4.689358612332341636e-01 5.810997435011877599e-01
-9.373371652058710701e-01 -2.770655206098856516e-01 8.718194172678447873e-02
8.266578719570678857e-02 5.923032857676452378e-01 -5.379990000668675165e-01
-2.280067479744924686e-01 4.288697303234821900e-01 -5.747667194115932965e-01
-1.022357716565809177e-01 2.109119185748885295e-01 -4.507853593656035440e-01
5.122069211079277595e-01 -5.234323214802646396e-01 5.423919990870936791e-01
4.728182630147376719e-01 2.771526222273223428e-01 4.921655364994556581e-01
-1.071685903945525237e-01 1.031855135277047475e-02 -1.699522067133778236e-01
8.906380147457816365e-01 2.458862284696136935e-01 3.217974729571502768e-01
-3.645111001960515962e-01 4.629501705329691630e-01 3.078524084489634438e-01
4.768938522763842558e-01 3.072813291190771845e-01 -4.327373779087840266e-01
-9.447199290897300150e-01 -2.877189867208985730e-01 -1.672686409864349300e-01
1.223504330111023775e-01 3.438382976370829569e-02 -5.787709529110234702e-02
8.400299627058480101e-02 -9.854313406909157580e-01 9.086793840029465386e-02
-2.412061147459217680e-01 2.734932267955837992e-01 2.713748076405334553e-01
-9.976182165961260395e-01 -1.736721226801261203e-02 -9.807495074585861894e-02
-5.102887811712994437e-02 -7.227605761252123839e-01 -3.154283955401548378e-01
3.463346407366224011e-01 -5.268614507311217832e-01 -2.972523488388555957e-01
3.358125469197079105e-01 1.999452786041590047e-01 4.630721331678134267e-01
-7.464809828653092838e-01 -3.032220606851380174e-01 -4.216914448308989871e-01
6.825388130797982456e-01 -4.257864640565452996e-01 -2.234682653552365617e-01
9.503091651684063557e-01 -2.767687195638247055e-01 9.751957303630452711e-02
5.110533864996437414e-02 7.173765064072766817e-01 3.265676326033213894e-01
8.258398045115439290e-02 -7.141409529211775742e-02 1.987508220474848430e-02
1.048854163069881662e-01 -5.227938910937872385e-02 -5.159107996023269520e-03
-6.505141017873998788e-01 -6.486662981465597388e-01 2.739273652328819142e-01
-1.194266253355419144e-03 3.667268251196552087e-01 3.118269268561631447e-01
6.163656030046380518e-01 2.104641557285089060e-01 -3.866826637265792788e-01
7.350367637211953353e-02 -9.653655588416498734e-01 2.495042009337260225e-01
1.888326527335525973e-01 -1.461827865298793994e-02 -1.647331794301617747e-01
-6.101278159149768898e-01 7.814525631214063184e-01 -1.440607196316276428e-01
5.278608925272568891e-02 1.188811314214719417e-01 7.169073185217539335e-02
-3.704736034854472781e-01 8.358640909820951315e-01 1.250197379887979521e-01
7.717425504138051284e-01 -5.426093177596212624e-02 -2.854921897633368455e-01
6.298065330428087583e-01 7.850456159112380039e-01 1.603148495665004947e-02
1.052406614899286108e-01 2.309948647633535204e-02 7.128718095657193832e-02
-1.552322430965637212e-01 -1.935253366207421305e-02 -3.004179716360138586e-01
-6.906550951424481610e-01 -4.179115059970091584e-01 3.525446393655247701e-01
1.269574598842692359e-01 -7.472347833492285485e-01 5.119886264763262584e-01
3.872928941642765355e-01 2.987880369411969328e-01 -4.409602094324210908e-01
-5.605307062584271582e-01 -6.494837682571584780e-01 -3.152610727527507817e-01
-5.382130145268684274e-01 1.829203379578652755e-01 3.296117340338467483e-01
1.177465244301647979e-01 4.097530180526187671e-02 1.991534521333808705e-01
-1.671878238740486244e-01 1.108973208387109138e-01 -4.160890587463825785e-01
1.875987081734253603e-01 -2.711181031429599556e-02 -1.598753382565977765e-01
-5.011466725705457925e-01 1.858180105474971366e-01 -5.694627500075777338e-01
9.992476633980089396e-02 5.309208148463807897e-02 7.475671263096671237e-02
-4.413805043373642545e-01 5.319320863321891357e-02 -5.429619145554965831e-01
4.961443535505365432e-01 2.481860276401804399e-01 -4.174636922071756073e-01
8.099026353286843394e-01 -2.623950020756526391e-01 -2.011724181190310823e-01
-1.132415506666741983e-01 -7.709462580675231769e-02 -1.888551579502249500e-01
-8.776394938169349014e-02 -8.566796155832946680e-02 -1.080921395052824724e-01
1.315122684191249447e-01 9.087829413010227730e-01 1.778288855408924063e-01
-2.489098271468326642e-02 1.448657527437083037e-01 7.528426146277746034e-02
5.069238046292587896e-01 -8.340372578602325282e-01 5.347754707367466387e-02
1.014708845688648137e-01 1.780775409993812231e-01 -3.325487856793140629e-01
-3.999542905884364563e-01 -9.135788610791577558e-01 2.942959594050848990e-02
-1.032550932107278024e-01 9.870196432411735277e-01 -1.809758505582019783e-01
-5.264202540733071700e-01 6.791175076794269128e-01 1.811102917258210210e-01
1.653662093351994655e-01 1.163210747323843441e-01 3.139298770150463769e-01
-2.431290518808788270e-01 6.706217562142759991e-01 -5.417139123315716231e-01
1.115211811054938329e-01 1.689880781867177939e-01 -3.202525409044185700e-01
-7.893452990170699568e-01 4.124392796556871632e-01 -4.117398207671287280e-01
5.647615387909707962e-01 7.938402572764639009e-01 -1.986341191436340747e-01
8.908119783083655596e-01 -3.930766614496468692e-01 1.702145768165510067e-02
-1.875621686878586603e-01 -6.282068996542877759e-03 1.803424826239592160e-01
5.409971923358892348e-02 1.295865081031088162e-01 1.053149324029747508e-01
-1.216539011190629349e-01 -4.908910726126679003e-01 -3.738657197772747298e-01
-8.023164905103892242e-01 4.181878148606615331e-01 1.380077539228237171e-01
1.464210433893606000e-01 -3.304340663653406174e-01 -2.767281672989763686e-01
8.831888965026986060e-01 -3.793210177900587232e-01 2.822707966929260959e-01
-6.502953339706406544e-01 -7.424933430258319200e-01 1.343635216858258818e-01
5.480001627576209788e-01 7.783403007878890723e-01 1.923555065275271980e-01
-2.466601645644524859e-02 1.322884721361430593e-01 -2.864182702163320382e-01
6.404821309928198092e-01 2.028649716305458151e-01 -3.782340631423770083e-01
-1.435864754158638623e-01 2.604102242265955713e-02 -3.090911134481462152e-01
-5.512775358525753289e-01 2.233668509302045441e-02 -5.479477017602409905e-01
-4.361396758127005779e-01 -1.835817662838997166e-01 -4.962537292455241889e-01
8.620109191246492220e-01 5.045851009200691406e-01 1.129987465304122668e-01
-8.706731446680014697e-02 -3.425009738075288634e-01 4.943816074194500310e-01
9.242873323069014102e-01 -3.334842564839200496e-01 4.857475830973210368e-02
3.676779679980832771e-01 -1.236229084109226189e-01 5.467410063483327809e-01
4.326943567914028344e-01 -3.569867823117622158e-02 5.442988334727738575e-01
-1.442970161526847539e-01 6.982075798721204540e-01 3.007962736353963495e-01
-4.405766528966207907e-01 2.889700120888152868e-01 -5.782729289075871915e-01
4.038977712296416001e-01 -8.372121190191238460e-01 3.504990412561146962e-01
-6.312160114527729515e-01 -3.348304252128404546e-01 3.949718076531753552e-01
4.799821406495412557e-01 2.705258077595792399e-01 4.943581211207599968e-01
1.384453352738468646e-01 1.273280143562503623e-02 -8.284228968444246055e-02
-2.982832908300431796e-01 -1.137036411448458378e-01 3.482588943190068620e-01
-3.817090480059802671e-01 -5.881756101385622326e-01 4.690992729529263050e-01
4.383840542907742055e-01 9.043999969007811002e-01 -8.393711456714765540e-02
1.453840125273441752e-01 5.573828257955020238e-01 -5.284074878254838570e-01
8.876988548447256600e-01 1.830347042252959411e-01 -2.040588042611433672e-01
1.645090269537630989e-01 7.004496401077751067e-01 -4.984288941551951457e-01
-2.415953192735293409e-01 -3.639357135552583888e-01 -4.090316877956990949e-01
4.213109625786552459e-01 2.373643367089212364e-01 4.898575436628364033e-01
-5.902708865675058147e-01 3.875518665566411725e-02 -5.476879073228587691e-01
1.586514745544445326e-01 -3.653245470709010068e-01 -2.911620835705151511e-01
-9.699250410531804478e-01 1.842467579324568450e-01 -1.926705234879819428e-01
-3.438668086525229484e-01 -2.319084225458415416e-01 4.236533498011669785e-01
-4.254267614370881856e-01 -8.907361817599404041e-01 1.576507616514919163e-01
-4.361063423745684120e-01 -7.776008203777304839e-01 -2.497378179185464897e-01
-7.500745189824807868e-01 6.455658163366441160e-01 -1.718836726888522126e-01
3.771271064604515555e-01 -9.046448183517368236e-01 6.512216325764823288e-02
-7.605323406194158808e-02 -8.288692411614644318e-01 -2.501168182013380759e-01
-4.757306902648055225e-01 6.496063692036456727e-01 -4.983007586813537060e-01
1.400663231098934342e-02 1.082639535839131778e-01 -9.093956467414859857e-02
1.976987740649245040e-01 6.452631321260681174e-01 -5.070103005594601697e-01
-2.821710445122430078e-01 3.187583635257457693e-01 2.932716543989116742e-01
-7.832955682860692770e-02 6.175809759087896866e-02 -1.531621716470465688e-01
-1.397915948466704472e-01 3.191074243536965588e-02 7.733366256834851848e-02
-4.164131352455288093e-01 6.939780073855240927e-02 -5.405447074971737598e-01
-2.108574746398886590e-01 -7.349794644790630382e-01 4.729091618542882736e-01
-4.827709265926061200e-01 7.927561772957448794e-01 -3.642480987702996220e-01
1.015141710443627499e-01 9.901482727478297940e-01 -1.487683833798854154e-02
-1.174632884960199602e-01 1.074433817847000455e-01 8.775309245465386099e-02
-8.757517607864367948e-02 -1.851886395637729055e-01 -2.395981073203059253e-01
-1.217878851023501408e-01 -7.559409114368011162e-03 -2.197891516591716776e-01
5.900647063878591281e-01 2.912213409781428952e-01 -4.035349874822178329e-01
1.372972940542536158e-01 -2.217318701700415895e-01 -2.111092912649941700e-01
5.047949845202591712e-01 -7.806794525691690412e-01 -7.439553206579893607e-02
7.249384161343156441e-01 -6.641480091333490376e-01 1.086801360211862300e-01
1.742143147044245277e-01 -1.549305914381390037e-01 -1.846303985310001339e-01
3.388703476337790593e-02 -1.372283774110605592e-01 -7.449182243437300899e-02
-2.155853500414001700e-01 8.760078256324346224e-01 -3.943271876104116336e-01
-5.089407261115986847e-01 5.715573450354287655e-01 2.515842581961552082e-01
4.803064169083136048e-01 -2.113885361007667718e-01 -3.179080190050843080e-01
-5.091438837073766210e-01 3.210545702161842763e-01 3.120248884969519243e-01
-3.270078114252286672e-01 -6.320431325104575171e-01 4.769251597110195640e-01
9.277064703028332637e-01 8.907582046573314649e-02 3.234228937608970567e-01
-8.098612963500256834e-01 -1.181490276729318389e-01 -4.389689043162374182e-01
5.363037585517154149e-01 -7.313227411152509738e-01 3.907624087211942765e-01
-3.373107172446455637e-01 -9.020396953180120914e-02 3.502287945426552640e-01
-3.969559329998445518e-01 -1.277595045587269773e-01 3.840475735359016873e-01
1.566675571962122260e-01 -8.619141547498895273e-01 4.170694969901129201e-01
9.642926647203751978e-02 -9.810545857549648474e-01 5.728272254637727101e-02
-7.995326263644766396e-01 -3.285002310778045720e-01 2.830469051879662135e-01
1.007333651001304439e-02 -2.482532581845606490e-01 -2.316307723795658080e-01
1.727247565983815918e-03 -1.422529644263493542e-01 -8.855731869818593560e-02
-1.626005026899220440e-01 9.829683039223143792e-01 -1.413183595155449446e-01
-9.840039744175832492e-01 -1.505638095735305770e-01 -1.337042127539170462e-02
-9.979413871903451694e-02 -4.767273986661446639e-02 -2.258166469245685357e-02
-7.397617275912686807e-01 -5.214534403604064172e-01 2.692261523866190109e-01
1.088002120216760571e-02 1.804256514762783425e-01 1.552371075311032300e-01
6.277119935819631680e-01 5.404286667843020975e-02 -3.585946556625314585e-01
1.866675675001456744e-02 -1.192575546408448234e-01 -2.693637725562060201e-02
3.850588133917213773e-01 4.586572301428134546e-01 -4.727506029107984009e-01
3.935267369182413044e-01 -1.381249421534311850e-01 -3.055979613645113946e-01
-5.804307758673151740e-01 2.614181559352481976e-01 3.138368252987377427e-01
9.054141406128815572e-02 9.999674979902369032e-02 1.390831695028874049e-01
1.255071819599846150e-01 2.811623791189217236e-01 3.321923815938352398e-01
1.441900199870064514e-01 3.625530618437389219e-02 2.802122331716910830e-01
-2.390124731404333625e-01 -4.747624813672839117e-02 -4.072510464173229594e-01
3.158405945905063406e-01 3.829623740139203036e-01 4.403088737314457823e-01
2.464175404264661307e-01 -4.636667941680664984e-01 -3.098924688001195027e-01
4.546504959333782514e-01 5.117274751230669466e-02 -3.604396724262490248e-01
-3.573719876232642756e-01 -4.848996012822198165e-01 4.861294818095399650e-01
6.526176545580677502e-01 3.177310384419040901e-02 -3.488912853606458420e-01
-7.883070060542132218e-01 -5.232481088414201453e-01 2.027785652733979926e-01
2.296109326209852253e-01 9.672533926944920646e-01 -1.684194458411993611e-01
2.720331025556893892e-02 2.038673597113595526e-01 -3.796437682372471034e-01
-2.089431840385897188e-01 -2.142269178609126357e-01 3.987171599750002349e-01
-2.892517909704760970e-01 3.062050176221443598e-01 -5.645829983565532340e-01
9.626820456009669291e-01 -1.961087773272811030e-01 2.228186285027188365e-02
7.701166892849482526e-01 4.334475851221910592e-01 -2.779525455905417219e-01
-4.802189676219875691e-01 -4.371352403703100409e-01 -4.450976567627860092e-01
-1.272318708579587843e-01 -6.675296246732076444e-02 -2.247105035977579601e-01
-3.334344388009935489e-01 -8.666475947839286098e-01 3.065961344897671359e-01
3.525951659455623388e-01 -4.777078423195879608e-01 -3.022887117238409194e-01
9.843304552516566330e-01 -1.169841580247079488e-01 5.979793800515704333e-02
8.913397090257536570e-01 -3.646092264630155233e-01 -2.097414430721778605e-02
7.086169029308616585e-01 6.669271183486860100e-01 1.761095308889872313e-01
-6.482564244959971855e-01 -5.409916239950942618e-01 3.446059117587183529e-01
1.084014468288880123e-01 5.092853095551989062e-01 3.756353991993720554e-01
9.410304106773073607e-02 -1.606493570291143147e-01 -1.362294761138529431e-01
-7.390256826771899323e-01 2.462188213331086561e-01 2.647558852222572923e-01
-1.612133838196946611e-01 -4.715073496198990965e-01 5.247320213562388647e-01
6.602270964489163063e-01 -4.988312786041037006e-01 4.791697476786345167e-01
8.317211570381396468e-01 -4.170979695341658910e-02 -2.460931662154407507e-01
4.189073322567907209e-01 5.665964087847698005e-01 4.087422017588694945e-01
-1.247372618644800313e-01 -1.415958136179990279e-01 -2.564236573862813673e-01
2.541089303353180617e-01 -9.080479844534863343e-01 -6.704808944192283682e-02
2.311917438800737412e-01 7.300293037275138452e-01 3.347559557824231202e-01
-2.379969649608860427e-01 -3.529744449462543510e-01 -4.071073212390290408e-01
4.420589647525122179e-01 -4.358578839402421634e-01 -2.973251293005261808e-01
9.071130151158268706e-01 -6.059570657952483008e-02 3.684774425753029603e-01
-3.640961121038631121e-01 -1.205157228907608319e-01 3.735864312139254850e-01
3.896318316952629424e-01 -2.834179773918507617e-01 5.812462012713793813e-01
-7.547154106179833066e-01 4.054581382294945163e-02 -4.968008498550172125e-01
-1.387000218727856560e-01 -2.399190414864946774e-01 -3.228695415970677107e-01
2.491649323993162246e-01 6.724428939982923792e-01 -4.863098675034052132e-01
2.803234024247139994e-02 1.291629061491046948e-01 -2.350282227630061671e-01
1.413289227333466291e-01 -6.007936939521798386e-02 3.543680077895602909e-01
8.349215262387608139e-01 3.814672756152711619e-01 3.144648148592585901e-01
-7.483223995584209476e-01 6.369415664785980091e-01 -2.215934224452497936e-01
1.199562778473586694e-01 -3.180120235636040849e-01 -2.696603451835404841e-01
2.412810111878425090e-01 7.688313344322209586e-01 3.099593688002463820e-01
-5.447375420151695513e-01 -2.545753869968803151e-01 4.171585210655433529e-01
4.054579349850070957e-01 -1.998821640016017753e-01 -3.066467300911642213e-01
9.023199620628741258e-01 -3.624339882954176750e-01 2.471812607657949135e-01
4.352123888695621362e-02 -8.216777055835067234e-02 1.587244330956568694e-01
1.148885377849474948e-01 1.709684660422269853e-02 1.995083893920597817e-01
-9.594426712683254976e-01 1.788075905315368586e-01 -2.386570333396817734e-01
2.219567822878450725e-01 3.004134751988438712e-01 3.993626365252826993e-01
1.933339331212627910e-01 7.784077945124101561e-01 -4.532737067461445890e-01
8.544091094719225010e-02 -1.345341735690114560e-01 3.750544537709571968e-01
-5.325237127338195986e-01 -1.477331334030419219e-01 -5.171176169549556167e-01
-2.179817485358936935e-02 1.025747119427299348e-01 -9.166080630214203107e-02
-8.332749209295596815e-01 7.363073171622593061e-02 -4.449247603353188585e-01
-4.401775957340753886e-01 4.262564480300373715e-01 -5.768220302488769047e-01
-4.850726120040043110e-01 -1.591078000188018704e-01 4.023845115357702618e-01
-2.209220076454253834e-01 1.149543076401871727e-01 2.069776300749744113e-01
-8.652413584487245179e-01 -5.152207166923481602e-02 -4.047331476698891040e-01
-4.785527268546295454e-02 2.433334610464280567e-01 2.151141760593485996e-01
2.652245164304137259e-02 -1.038120964099540633e-01 2.243869224879392610e-02
-6.528612743861934575e-01 -5.113255606436484246e-01 -3.679205598366779850e-01
-6.931049150248587143e-01 -6.608317915082779770e-01 2.040957155957920655e-01
-2.909760733547908096e-01 6.444033500081072785e-02 -4.868561940417627243e-01
7.111011048498356857e-01 4.364926686158973612e-01 -3.296457065051237034e-01
-1.773408703848898815e-01 7.243441809036872854e-03 1.568898821888969897e-01
5.030240187613482794e-01 -6.974637564675643941e-02 -3.396613831192198396e-01
9.368159926619784583e-02 1.621059910126126935e-01 2.242195304158783042e-01
-7.212309699197390345e-02 1.276387656122890679e-01 6.416817205380574707e-02
3.535726840440418517e-01 5.619110317333131377e-01 -4.789496675875265508e-01
-4.656525100076321089e-02 9.289378042144347258e-02 -8.091707225445481100e-02
9.098781258692766050e-02 7.320905890724245524e-02 -2.275330658494897559e-02
-1.159293443792893952e-01 7.635086811701212728e-01 -5.031579897642854959e-01
7.568908469537634076e-01 2.859564316429001885e-01 4.297230953549384114e-01
-1.416446305743073765e-02 1.383728938551810617e-01 5.987924145406080950e-02
1.132351920533671008e-01 -3.184722655708279414e-03 2.173079826151485261e-01
1.755139534672357782e-02 1.159807621122665444e-01 -8.260305797305318026e-03
1.279277760457781798e-01 3.542485724216602461e-01 3.591766913774646075e-01
-7.663609511256308515e-01 4.495178442258886409e-01 1.559710063446725636e-01
7.749774347730703505e-01 6.129653997859912939e-01 1.444438461731301637e-01
-1.665057568221322837e-01 5.826204422442321333e-03 -3.350405773499287032e-01
7.727155313870308351e-02 -6.044615372980417095e-02 7.158982650606246501e-02
1.158927311788751219e-01 1.693333405282372028e-01 2.619492814390221302e-01
-4.313393442899966512e-01 8.192491837934482435e-01 -3.671951534211382873e-01
-7.234884728714341406e-01 -6.041939815364764099e-01 -2.307977504169412830e-01
5.544123710510099334e-01 8.391603129741512790e-01 7.637822129315781881e-03
6.803136145389997447e-01 -6.521123380119232538e-01 3.293107550466902178e-01
2.946341156976466785e-02 -1.233492924283380449e-01 -4.131246707175977029e-02
4.205025001617441194e-01 -2.102188926768328303e-01 -3.096284400488016342e-01
9.770603029555811891e-02 -5.088118538884933706e-02 2.545025795597369855e-01
1.299204902194099343e-01 -5.992499700295078613e-01 5.656372719108935243e-01
9.854514195762185957e-02 5.600852081529449078e-02 5.874945032295034869e-02
-5.195766958817456260e-02 1.078286995719219821e-01 -2.612208823538839098e-01
2.812894167422875236e-01 2.233405793767069270e-01 -4.038191841150040040e-01
-1.634233492794588960e-01 4.705121796778255483e-01 3.198912661496905452e-01
7.490557830901422437e-03 -4.159112170957339760e-01 5.417412130508628687e-01
-1.893094071225347175e-01 5.087400504869837858e-01 -5.742880033477817392e-01
2.162158859846519121e-01 -7.099022966397370293e-01 -2.717155828404190232e-01
-4.979741883416589909e-02 3.184466417600749222e-01 -5.029578715867724092e-01
8.559555132048896064e-01 4.985483007741789430e-01 -8.592781907272172004e-02
5.069785634894008464e-01 2.949460988144045892e-01 -4.250559409933524213e-01
-9.578984797498379944e-01 -6.776383278636036178e-02 9.934350008683695554e-02
1.689060962022067847e-01 2.726095251816172960e-01 -4.305930920752871760e-01
-4.555560704556930324e-02 9.004280701827127587e-02 -1.441951098116860119e-01
-9.113318092213629207e-01 -1.413486534937118989e-02 -3.558531384311035550e-01
8.700688798431458482e-01 2.246414547096575731e-01 3.575451113028073613e-01
-1.292015921689428637e-01 2.865826183177770381e-01 2.518751490846687369e-01
-1.709655347777996048e-01 -3.732049723517485429e-01 -3.797656576344695667e-01
-9.515316889701675995e-01 2.871602426405464037e-01 -1.219855798893426241e-01
4.333187560877675981e-01 8.928059831162084015e-01 6.378490184991188194e-02
-1.890837563020861256e-01 8.459377524378278168e-02 1.671317639613456307e-01
-7.190202250607971579e-02 9.088746055599060680e-01 -3.734944677186454176e-01
-4.792857152979451141e-01 -8.370719521437458566e-01 2.217873178052683081e-01
2.501533468630599000e-01 3.287965820292892971e-01 4.163742658577093692e-01
-5.877422241652281720e-02 7.716586269245613305e-01 -4.974696265560514252e-01
-9.124791412530744994e-01 1.464627925487668181e-01 -3.497500893509593589e-01
1.129709420139796416e-01 1.659948689969757696e-01 2.555608841023273015e-01
3.018596930697228786e-01 -3.757349646843097246e-01 5.831927122884522641e-01
-3.419355911292020767e-01 -6.810744388503596758e-01 -3.491848544230179430e-01
7.367778082539540030e-01 -1.572390966963110870e-01 -2.817995340024479489e-01
-7.966005569120918062e-02 -1.140654401275051494e-01 -1.411977822944159855e-01
1.705950194750972815e-01 -3.303250977673158340e-01 -2.783776158340147688e-01
5.709207888158942534e-01 -3.335878739836932172e-01 -2.950611576817261383e-01
2.007590086023859632e-02 5.778190435332900554e-01 3.546909619183017948e-01
-6.045040125886832483e-01 -6.045938286455723176e-01 3.472322922276884216e-01
-2.632075067667903334e-01 8.353620540175813458e-01 1.809194769374977974e-01
4.477278024699337111e-01 -8.412657675215304831e-01 3.014791219282525470e-01
-6.618441279709893488e-01 -7.448692167499010308e-01 8.810918667867871645e-02
1.818709185087305780e-01 -6.018902993736886531e-01 -3.116673067783692908e-01
-1.281075123107714223e-02 9.692551595573803969e-01 6.151498475558946077e-02
3.161089861260781009e-02 1.095329820560865808e-01 -3.352623760501097228e-02
6.032701370726181733e-02 -2.382689206269958948e-01 -2.129464393352777374e-01
-2.071618275792972141e-01 5.396820973168940661e-02 1.866373391577004215e-01
5.401056348067015955e-01 8.502260648633793716e-01 -2.833107161852960187e-02
-1.591773285644884350e-01 9.963368322110130459e-02 -3.989254533635480660e-01
-5.773505568282719658e-01 -3.400778498097662972e-01 4.165681422545721158e-01
-1.466171391779779731e-01 -4.933353257348094822e-01 5.303269591108299430e-01
-2.014405332152479633e-01 9.631227509822209987e-01 -2.225252556096241063e-01
-1.056816922429168887e-01 6.374150329052523378e-02 -2.758157561400113034e-01
-1.459682426274008238e-01 9.860636940424836183e-01 -1.363382642602342099e-01
8.284711762279779457e-01 -4.293341629821734173e-01 3.458265244130823701e-01
9.789760520217303252e-01 -1.414568257058373968e-01 1.711078732494351884e-01
-6.829710057394992040e-01 -4.832607959968907019e-01 -3.685779297253635733e-01
4.607434689697072483e-01 -1.842298191892607351e-01 5.741822992216308874e-01
-1.038270451612061385e-01 2.798102779984853461e-01 2.449973573120790005e-01
1.647330790551244095e-01 -4.876125385979218629e-01 -3.180089405032600069e-01
-7.274414978731338355e-01 -6.889245764403594263e-01 2.669923134683181362e-02
-2.999591542625837937e-01 1.745307719008874492e-01 2.709576520668662281e-01
9.775377991270542410e-02 4.855934105075082052e-01 -5.317013230651732592e-01
-9.310599502738730049e-01 -3.228054005418702910e-01 6.796743380934351653e-02
-2.411062743378397932e-01 2.350803971566630679e-01 2.582463695312114393e-01
1.505887917385837493e-01 4.210467207806275342e-02 -1.405893706431369239e-01
6.537943234239642631e-01 -7.286583407808839841e-01 7.480437408385104403e-02
2.336877630864361843e-01 -4.721553138520825921e-02 -2.121716608553584349e-01
-1.166861252141915967e-02 6.449021161453293294e-01 -5.435265286899104709e-01
3.166113414677164117e-01 5.417821765558326064e-01 4.137796965642605573e-01
-1.795279591288335419e-01 -4.579829365724296525e-02 -3.335874008029952598e-01
1.061967671649682865e-01 9.922386967660330459e-01 -3.120286469754134095e-02
2.162195920628425805e-01 6.390640603440091161e-02 -2.491141807485711124e-01
3.638269589726176312e-01 -8.477796250023107438e-01 3.616601714556299529e-01
8.592108255227402791e-02 3.171354784395963855e-01 -4.699403197374341645e-01
1.526518119053073101e-02 -1.032137158556190037e-01 3.563089560561511632e-02
-8.799983933752318910e-01 -2.985839590393240539e-01 -2.997493472606383436e-01
-1.056658858240988458e-01 -2.197793078921547738e-02 -6.574359247967208331e-02
5.474721617608474533e-01 -1.705140816588060770e-01 5.710611338081610366e-01
1.090039168234781530e-01 -1.395258802293264933e-01 -1.214489479266189914e-01
8.421593616473305177e-01 -6.580425092375805085e-02 4.409445206701469999e-01
-1.695169912600058733e-03 -1.064093330460966769e-01 2.041253243941553164e-01
7.126406068907797930e-01 -2.319690871785689001e-01 5.213573714802310910e-01
2.464164339233792245e-01 6.614099227150839200e-01 -4.904282844125150143e-01
-1.615947090278546938e-01 5.373119852062198387e-02 1.223457963092388079e-01
1.979734610007272966e-01 7.534407670432489990e-02 3.617641529873268369e-01
8.884185850948080054e-02 -9.666968724080430286e-01 2.414585854793906694e-01
-8.427503746601946455e-01 1.696690944142653923e-01 2.130098840074530209e-01
