-9.229090790971408720e-02 -2.736979170829210717e-01 8.583646275418897742e-02
-2.706211308923882619e-01 1.547689092616984508e-01 -2.738049773985488100e-01
3.300052074885102549e-01 1.123095821404166555e-02 4.941061386262021737e-01
6.223584669846659451e-02 -1.970628431859008378e-01 -8.477909901321764585e-02
-3.982144178433495996e-01 6.909798780543160435e-01 -5.352464341828424566e-01
-2.197680541816047217e-01 -1.429449043602352698e-01 -3.722082841988189061e-01
1.515944257644634974e-01 -2.442770289030248565e-01 -9.557387803095717116e-01
-5.159952780879001333e-01 3.645111668226274082e-01 2.986205792644719414e-01
-3.551852838342624552e-01 2.717822899495971889e-01 5.937911001091902147e-02
-3.501392306289920486e-01 3.731739616059389641e-01 -7.601555115071421120e-01
-3.086713398920078524e-02 2.480419183408897818e-02 2.377019058502957971e-01
-1.072326237947626576e-01 -2.751194389743651381e-01 -1.594433608051503970e-01
-2.190352411194720628e-01 -4.903572470544897421e-01 -4.566437771672189894e-01
2.141208542039514939e-01 -7.169440509740918066e-02 -2.231352124069462262e-01
-5.389852557199051875e-01 7.139621926944559327e-01 4.437474542108702652e-02
9.419439336877737101e-02 -1.402925967775711102e-01 -1.596004730657309412e-01
1.673680397020867530e-02 7.791214382033759822e-01 5.434147376836425680e-01
-1.480914690148159817e-02 1.122806997105436216e-01 -2.198483692597607841e-01
-9.715297026301314420e-02 2.153543634712185850e-01 -1.137626281744882201e-01
-1.202351864297309947e-01 -3.035388381242140055e-01 -1.395843894453840106e-01
-1.790869742539469567e-01 -7.272946756745556351e-01 -8.728669344010782372e-02
2.142405887064573189e-01 -1.033142833331920779e-01 2.478683689435395854e-01
-3.764529564775520032e-01 8.209597015122774843e-01 4.458332999951668540e-01
-5.500171941590870084e-01 5.750706187194367658e-01 3.087565992109647661e-01
-2.458177887009741491e-01 -2.950809543269833357e-01 -6.895982559580283722e-01
1.205849411673047406e-01 3.372903030623592979e-01 -8.704732472035436874e-02
2.752378340902297826e-01 1.319806865475613988e-01 7.832006415632087881e-01
3.836734287843286961e-01 -6.994759699968904343e-01 5.097216825242690819e-01
4.596091663114106329e-01 -4.106436814463895746e-02 -5.856938453430903246e-01
-1.203603357150410252e-01 -1.429043102411470811e-01 -2.692111234410854981e-01
-5.231919851219386519e-01 4.245336497909074636e-01 1.830490755826675864e-01
4.900943978615973640e-01 -7.406232914808444923e-01 1.856663234888265013e-01
-1.312738006190516671e-01 -7.892013572101032048e-01 -1.816446252008160067e-01
1.836703051861559299e-01 6.982448608232610932e-01 2.698968254128614186e-01
3.481289241365124743e-01 -1.764044881557334798e-01 2.965949564698527885e-01
-5.499038861688477359e-02 1.942353560302710336e-01 1.529853160184595773e-01
4.789203240285422325e-01 -7.381853367840555125e-01 2.386881270522056286e-01
1.034095274923755997e-01 8.829784983265045462e-01 2.903052974429777555e-02
-3.437941691971418967e-01 9.252361174718808368e-01 -2.167778938667342670e-01
-5.363217900086931778e-01 4.325528048368562639e-01 4.369957711170943115e-01
3.294438311752465598e-01 4.034530694760961045e-01 -5.070812093555416844e-01
2.808378815901806935e-01 5.478126672918537388e-01 -5.268611306439265896e-01
2.200426932872018293e-01 4.705359491066180011e-01 3.483330888522181423e-01
4.954839675479372763e-01 -4.386224689664912635e-01 -5.974149011567825296e-01
1.295212791166934774e-01 8.136658552774336250e-01 -4.024050389078231427e-01
3.326748734765985205e-01 -7.681522825389300313e-02 4.056574922641394965e-01
-4.422723658681116388e-01 2.684875501001482978e-01 2.351547064773971130e-01
1.511600916385495152e-01 -1.385415016798888536e-03 2.808094139600421091e-01
-4.101464153848112804e-01 2.505631553859443139e-01 2.050490818410786453e-01
3.192814668658569555e-02 -1.233110322745636644e-01 -1.926172769870929946e-01
3.495546738083833982e-01 2.869353411601408554e-01 -4.782584545025375666e-01
1.736376515261541242e-01 4.491037843856616751e-01 6.620326599913038679e-02
-2.797962772735270928e-02 7.102975576710754968e-01 -7.121535724269240086e-01
2.063275625869936958e-01 3.994121058830819582e-01 -1.770444904884626025e-01
2.340987337590136053e-01 -3.138489964782614217e-01 -9.127071032715539101e-01
-4.007962971763654458e-01 2.518786207256024645e-01 8.153875337633255116e-01
-2.478083913843293906e-01 -3.600662838115433750e-01 -5.446474463158684776e-01
8.589932512305732681e-02 -9.105049346524469733e-01 3.191423604324508667e-01
-3.109487608451534935e-01 -2.183305914869640707e-01 8.215354327746678953e-01
4.567602280179087204e-01 -3.912138154999428852e-01 5.221160347668130086e-01
-1.608191824307211026e-01 -7.846657019200372618e-01 7.512380513996835818e-02
1.993577391294571177e-01 -1.960664309078840317e-01 6.667614597745243066e-02
4.687432653745999822e-01 -1.971178058936279287e-01 -6.936214321215519174e-01
1.626521753514428292e-01 4.062358644859673240e-02 3.004650910159784027e-01
-4.435002989698436093e-01 1.362011699245690814e-02 6.362707950883367269e-01
4.503272671793334125e-01 -3.064770098040904278e-01 3.481934563464177401e-01
-1.581562870072225346e-01 -3.640427911922519133e-01 4.961479145953028025e-02
-2.108972073768966005e-01 2.265011711009216888e-01 -9.872579697728726955e-02
-2.968688616391021440e-01 -1.299176689422807396e-01 -6.979999128144240839e-01
-2.780266167563628099e-01 -1.904115515057858421e-01 -7.000773247356333329e-01
-3.433536050006346096e-01 2.673050164224682890e-01 5.195500721534702937e-02
1.237850743054356301e-01 8.668342169003561137e-01 -5.683190166191546405e-02
3.098115147232630498e-02 -7.029129505597879746e-01 6.812893968851179149e-01
-2.037499934519784450e-01 -7.732078150047518028e-02 -3.465270687973127650e-01
1.641091102633520857e-02 -1.987476788483286960e-01 -1.198343869206106166e-01
2.095864256185103747e-01 5.336469477673624340e-01 -3.105911127231250971e-02
-1.377349097589895821e-01 1.339384351923729732e-01 9.858933856802313267e-01
-3.758788368893112297e-01 -2.261793680455589373e-01 5.749969426660151983e-01
1.812146109152705520e-01 -6.053815183480439066e-02 -2.223996019575996685e-01
3.612302291386228492e-01 -8.593459330866605184e-01 -3.028183256807179813e-01
-2.805661643992621856e-01 2.234624947013744492e-02 -8.292926927142649784e-01
2.277432392180563925e-01 1.937582478539840933e-02 -2.729665232563789901e-01
5.332393525938670109e-01 -3.907144125175676663e-01 -4.516932295789281016e-01
-2.034879576942535406e-01 -6.878236227357883426e-01 4.181021130863807334e-01
-4.790306070897153989e-01 4.815025737278961215e-01 6.332917884355220295e-01
-1.246720456610436040e-01 7.781100375010006898e-02 2.247065344144949239e-01
4.288341946643613456e-01 7.440108074743569111e-02 -6.342397143060691800e-01
2.094296098652408122e-01 4.683170973957633265e-01 2.834017216587344512e-01
1.903315127792520323e-01 4.439028289094290036e-01 2.092155640285707774e-01
-1.666311212165701161e-01 5.185810168412972043e-01 8.511209425604698842e-01
-2.247584595651458059e-02 -7.502896122835869264e-01 -5.274907902952237215e-01
1.539665235834346002e-01 5.645406470110637676e-01 6.420595357271732251e-01
-4.393303560672572328e-01 8.567312128354667156e-01 2.335028036161469200e-01
1.084999499643263671e-01 -8.450324365666035675e-02 2.228601037920737993e-01
-9.916013985998359259e-02 2.592753852741307413e-03 2.407807397318159348e-01
-2.248803073773167904e-01 -4.010299116566490296e-01 1.871714424665077425e-01
-1.380551201933883643e-01 2.628678218536115163e-02 2.426772570722348088e-01
2.803052669140257414e-01 -9.661451488310435209e-02 -2.304855584044029904e-01
1.054518175021550846e-01 3.499141020404675229e-01 4.617617565583861244e-02
-1.742802320895495138e-02 1.529610201838806915e-01 -1.972775988340303155e-01
-1.741645966447712690e-01 -1.783797001223402234e-01 -3.125262443964861858e-01
-1.549194758220522050e-01 -5.194546457774110726e-01 7.706437273514005204e-01
2.311583164771280063e-01 1.527993888933710555e-02 3.429527882498783486e-01
-5.534889364778108334e-01 5.625360708394226972e-01 1.228526134998674801e-01
-4.658318456943217473e-02 9.484137207644793843e-02 2.222273646693796179e-01
-5.053470205873494825e-01 2.725569278856962430e-01 5.554464626828174989e-01
1.454311526989207626e-01 -9.418520078790303396e-01 2.139377006952775939e-01
2.818229620563744153e-01 1.126656212657936723e-01 7.813610086578079983e-01
4.158746191864736708e-01 -2.180525613163647458e-01 4.296420046592617781e-01
-2.306422172780005775e-01 -6.339463194443406557e-01 4.558860538731709378e-01
-6.189928467203387880e-02 1.305975558873815612e-01 9.924926894170311709e-01
4.140342933118758562e-01 -2.461620131486534635e-01 -1.520734914465939613e-01
2.764849851953821713e-01 5.646948884900376830e-01 -4.066980862630434901e-01
-3.231722233887986129e-02 -9.652406195322688065e-02 -2.313577401157871638e-01
-1.207067548903252574e-01 -3.247273393624157123e-01 -8.188532903738476865e-02
-1.110181114344986342e-01 3.786358686520238659e-02 9.958387871742241382e-01
1.354388115741263499e-01 -9.039347566366718878e-01 -3.210259194826126650e-01
4.022238891920743020e-01 -5.405434911854474223e-01 6.112252701154265999e-01
-4.380229718126926186e-01 7.764324815144344472e-01 4.244535330497168912e-01
1.872468825039631107e-02 -5.422928960137357590e-01 8.266253959145277719e-01
-2.539171656080658757e-01 -3.953946286897400131e-01 2.597025020844244136e-01
2.160047966984530721e-01 -9.245285683900387186e-01 -2.515183426284240964e-01
-1.917555212686854194e-01 2.255710717285269173e-01 5.675293718675078480e-02
3.166506190457804015e-01 4.465323568661796472e-01 -4.946867145838184654e-01
-7.968377258415854092e-02 -8.744401570013878855e-01 6.716905906816977856e-02
2.804745273831838470e-01 2.874222933275776271e-01 -3.382566172485117484e-01
7.571098841275714086e-02 -1.377438621301380062e-02 -2.326587228097215521e-01
4.047960727889905463e-01 -8.597382800996300478e-01 1.535819841212686665e-01
7.929853297277590640e-02 -3.155581875092672989e-02 -9.981332641331986943e-01
-2.805991698850848759e-01 4.361101630356695180e-02 -8.354964195912351066e-01
-1.621806440526191717e-01 -8.217106490990128131e-02 2.572021497710718640e-01
3.643059087470159607e-01 5.097808299808948007e-02 -3.956912085706312809e-01
-4.395201734212570432e-01 1.652041422515858338e-01 3.714541801416958444e-01
-4.409299272327843466e-01 8.515391273117425275e-01 2.459633449532415417e-01
5.009069404361164990e-01 -3.474472219102986426e-01 -1.747764974819342176e-01
2.559960677508394400e-01 2.687815648638281485e-01 4.596399194118375164e-01
3.862045674729738254e-01 -5.469924936623977302e-02 -8.290473485498344175e-01
-1.729579488453378000e-01 -1.792139918482581751e-01 -3.109294655886633563e-01
3.684677143890061624e-01 -1.750022730460622511e-01 3.432580301295865000e-01
2.513157248970365742e-01 1.269945369389024470e-01 -9.273171499045261834e-01
4.374055486125666969e-01 -7.140784928641512597e-01 3.956621952462528458e-01
1.753624359872811567e-01 7.501359685641256769e-01 1.649756810294949472e-01
2.419352896537534381e-01 1.559423108812415526e-01 4.025220088282636666e-01
3.087568994388859567e-01 -1.804161927437757107e-01 -1.437636599870676934e-01
-1.324177780828894313e-01 3.291244589833279832e-01 9.431968097770909720e-01
-2.985728520267166841e-01 -1.386417475073855321e-01 -6.765079663551588629e-01
-1.255364622580815714e-01 2.293714332064006323e-01 -6.921771915832171385e-02
2.198364260638477063e-01 -7.217160005804597045e-01 -6.383375372593077524e-01
-4.647061205733352685e-01 2.023936670883329236e-01 7.012936398547301442e-01
4.467409213481093322e-01 -4.872684352374573868e-01 5.478566838011038609e-01
-1.119195273222655246e-01 -2.561589883153067015e-01 1.388610007297994831e-01
2.307447824277049087e-01 -5.079195060415066937e-02 3.035342180340773188e-01
2.152400325638156517e-02 2.793874613874516299e-01 6.204010708637847094e-02
3.154851113555948161e-01 1.782497711207534918e-01 -3.778418455103004781e-01
2.824959559162812939e-01 2.716139793877400677e-01 -8.460686486772071024e-01
1.368461068353488130e-01 3.434258617948671710e-01 1.763506516126717161e-01
8.469800421211286234e-02 8.599546216646828389e-01 -3.717032505730585301e-01
-1.374033840807702966e-01 -1.171442755607538938e-01 -2.884935380127889859e-01
-2.043690101564092920e-01 -6.724978714593442541e-01 4.634100448552632701e-01
3.811123254235336266e-01 -1.117709901254290150e-01 6.345742863365262387e-01
1.734329209367015470e-02 -1.559273883276631259e-02 2.388280552648605615e-01
2.261445472726375250e-01 -3.322924559302989356e-02 -2.501625672880444240e-01
2.158924725458847282e-01 5.044531907334938170e-01 -1.040945869253642603e-01
1.283990408011201068e-01 2.014301140232225562e-01 -2.204271942487377733e-01
4.899050820781905013e-01 -7.842489648770345489e-01 -1.482305486030654346e-02
-3.313533088608809907e-01 -3.501967590283530107e-01 4.830961835640708579e-01
-3.594245431566681637e-01 2.803552052083399526e-01 8.548882225532176138e-01
-6.794058226845302306e-02 7.184598527892033237e-01 6.760174117067955235e-01
-5.510425926529995966e-01 5.488831691548272662e-01 1.034017250164468299e-01
3.091544307043212793e-03 -1.998720738664938323e-01 1.154293021891186627e-01
-1.872491333959833415e-01 -6.510895843899331403e-01 5.615014704261024336e-01
3.413420011179872371e-01 -7.074396223540005413e-02 4.312077592516742053e-01
4.082173106676160734e-01 -7.550535960248290213e-01 3.969288101318619311e-01
3.017934992956323170e-01 6.458707754670822698e-02 -3.345451453376717676e-01
5.235996897186175753e-02 -7.891005575447522791e-01 5.711903638028895669e-01
-3.776571995691438977e-01 1.220757547200332638e-01 -6.164024403806002139e-01
1.498344784384419703e-01 8.188227984057551145e-01 7.312327984728340946e-02
-5.221013435987028641e-03 -8.057318861148684563e-01 5.164987250828686483e-01
2.729700017865370198e-01 1.764388901423916828e-02 -2.963377402075625389e-01
-1.866006745401066480e-01 -7.432557479140209367e-01 1.253531913563092348e-01
4.446435874806827782e-01 -5.854807856723559523e-01 5.045586946276900964e-01
-1.738378403519147408e-01 2.153561384735281081e-01 -1.157864327311852737e-01
-4.475234796659987024e-01 4.592191676725125848e-01 -5.606196273591323997e-01
-4.087003222859528218e-01 6.077112128520294476e-01 -5.839988265392851430e-01
-1.829834183381695567e-01 -4.275421952064993869e-01 -1.500194502572249969e-02
-1.662414952368298504e-01 -2.664614022294660711e-01 -8.456657160948191088e-01
9.922549772261847478e-02 8.123228655496417261e-01 -4.710242500325004245e-01
-4.199195944321165164e-01 5.207915041926915872e-02 4.418288020059298327e-01
1.288234184499066903e-01 2.531589601716316765e-02 2.783320657775289475e-01
2.394261027837064626e-01 -6.121064385035783761e-01 -7.420895097737433277e-01
-8.391298394180522757e-02 1.752404211256954891e-01 -1.731544858738444381e-01
-4.830350090495996174e-01 5.693650008954963537e-01 -4.329697434039817550e-01
1.728348622821041514e-01 -1.929291029025423099e-01 -4.137786658283728464e-02
-5.914180255323051028e-02 -8.461149273059546116e-01 -2.493403491287897733e-01
1.249687240658439030e-01 3.621166924032412360e-01 -3.793969555409734684e-02
1.330042824712478200e-01 3.528205080409681504e-01 -8.397645308332529757e-02
4.455108497536605094e-01 1.340394384215825782e-02 -6.149918661580758839e-01
6.984070497163161195e-02 -8.404939905076884710e-01 4.868454899682181369e-01
-2.524534866196271113e-03 8.566861897147131089e-01 4.236344913017649483e-01
4.418248400289034317e-01 -3.185823119240120405e-01 4.251359115453405557e-02
-1.470671691481295895e-01 -3.633257731519358158e-01 -6.527821089075042105e-02
1.838550186814171816e-01 -2.342468152926404940e-03 2.986937667725561019e-01
2.091009565924184244e-01 -2.323867320616050391e-01 9.083029424290967047e-01
3.112496102722110969e-01 5.473943790218515487e-02 7.497213816920968998e-01
4.259313798424826381e-01 -2.755896455688331415e-01 -1.028648427181210884e-01
-2.063451691929811815e-01 -4.722981762423070773e-01 4.333077348071602553e-02
1.872856909915091017e-01 3.777366745191472197e-01 -1.590317175761118973e-01
5.530262926890648911e-01 -5.166556108028497185e-01 -1.905409223032714927e-01
-4.747532748621833831e-01 1.675544873785427824e-01 6.495354097593287745e-01
1.992424829209288872e-01 -6.155209374285222079e-01 7.440604854790022760e-01
-2.756196474151962894e-01 4.475240501083467271e-01 -8.159108628955755727e-01
2.597419940789004733e-01 3.347037908824427865e-01 5.307407672956564459e-01
1.372471426755229040e-01 6.222412819191910360e-01 6.002812003450274103e-01
-2.791487260013411076e-01 2.392518464247993804e-01 6.111712300663654091e-02
1.545571105164200987e-01 -2.994101189229698701e-01 9.218577129436760220e-01
9.244324425727915018e-02 6.296554143138175519e-01 6.591269982424882157e-01
-5.227759238423532739e-01 5.294357321085775281e-01 -2.046951140809785130e-01
2.187275142657488791e-01 5.235904185751222295e-01 4.513634398742248921e-01
-1.230957730969763214e-01 9.285169269105219003e-01 3.480489319708895968e-01
3.831208644754339199e-01 -6.480395707825592488e-01 -6.167315271158534395e-01
-1.731133208415537028e-01 -7.677461417646556097e-01 1.539637001322542165e-01
2.591704210468229186e-01 3.429072054314849516e-01 5.541286677205465860e-01
8.099055363753293602e-02 -8.940370040151604525e-02 -2.026305201828932645e-01
-5.257222736790461148e-01 3.579688429380559755e-01 4.467311945137435458e-01
2.803701324032034092e-01 5.032959617538423913e-01 -3.457569846783837830e-01
-2.340530074257657356e-01 -4.041141829542040376e-01 -5.672059752547610190e-01
3.750391733281028261e-01 -2.987077977671105389e-01 7.242723649691955590e-01
-6.138833697789791016e-02 2.497080570107876873e-01 7.530269466057412306e-04
-4.123843826836882664e-01 1.474518824394310812e-01 3.414077687685817541e-01
5.991541791852766918e-02 -8.042483246414441900e-02 2.187188571363229694e-01
2.651045217316214675e-01 1.345599361411332628e-01 -3.199216488563990102e-01
1.765554723098489709e-01 1.983547228900911785e-01 8.833339391033571131e-01
-2.746151016371952136e-01 -2.180959181884339071e-01 -5.176003729639063744e-01
3.615704165958554261e-01 3.062237548894224948e-01 -5.657803073759002377e-01
-1.612032362026774024e-01 -3.819483331143911364e-01 -9.739632153486099675e-02
6.544683939905848735e-02 -1.918308565325273773e-01 9.643128252176919046e-02
-2.816344441823513955e-01 2.517146483049439998e-01 -5.670385773480934172e-02
-4.304070999589560409e-01 2.941460900315996940e-01 -5.483339744249882131e-01
4.297475419426801668e-01 3.967806901278169568e-02 -5.313081754641163501e-01
4.320834072396683156e-01 -5.480339061076313634e-01 5.535954650673072797e-01
-3.912199719842650997e-02 -7.688467122607435533e-02 -2.401644059107085616e-01
3.540654600530362406e-01 -2.239707697873803138e-01 2.014889150082294633e-01
1.342192640367304290e-01 -9.478486428117216533e-01 -1.442144967456639448e-01
-5.271221870209326088e-01 4.114490187447613079e-01 5.017120642073116255e-01
-3.127556170598165819e-01 4.529679927650476223e-02 3.103691000298051672e-01
-5.070442722021610837e-01 4.682603136807467203e-01 -1.977025602964374296e-01
4.097015221128292306e-01 -5.284881327109138827e-01 6.053738313989257547e-01
-1.926020775052770528e-01 -4.344281643842942131e-01 -1.729002115999912492e-01
1.682813886992352154e-02 9.511842801375091083e-01 -7.149762782330193467e-02
1.384120804882053024e-01 3.899913806809605088e-01 3.855277112454433275e-02
1.726809838485058035e-01 6.374567510526867320e-01 4.835188413881982838e-01
-1.726716284927422851e-01 -7.054550704971257469e-01 -2.280238253731279030e-01
-4.950073994857686621e-01 2.693922195539018571e-01 3.899993229584488574e-01
-4.544785751290046361e-01 6.649342618525827531e-01 -4.521804357098466176e-01
4.967904491719158933e-01 -7.074911782959281137e-01 2.240637085430868813e-01
2.309885246545734239e-01 4.464505331435683066e-01 5.659760959273821834e-01
4.077586077078782650e-02 9.374937726677219363e-01 -5.512283721832084149e-02
-4.557171820683170727e-01 3.649754674920898667e-01 -2.271109450626427606e-01
-2.403974679998142350e-01 -9.391083340507387633e-02 -3.924765898418039467e-01
-1.577628896949674897e-01 -8.100041704148558397e-02 -3.066651627579173867e-01
-1.370925746269009426e-01 2.357096807805576233e-01 -3.208460217932445745e-04
4.848944540126711722e-01 -3.234552866688512052e-01 -1.672170027896244526e-01
-1.362269009120036511e-01 -2.989394658718589337e-01 -1.838088836418462213e-01
4.425063543361441171e-02 -6.466818726253081850e-01 7.425516155076985481e-01
2.505211960224984491e-01 6.212169671111964497e-01 -2.849071280072366097e-01
-5.207478549177643190e-01 7.551508183834889643e-01 -4.564090193764384906e-02
-1.266265557640998962e-01 9.505122198877773432e-01 -3.188674121246132254e-01
-2.262938260719922212e-01 -1.749319152089485740e-01 2.852345908727889068e-01
1.457424619755413320e-01 -1.781948800644868880e-01 1.134913922181066820e-01
7.926659778857055028e-02 -8.628267287192771251e-01 4.434387250093996258e-01
-2.186675415905376674e-01 -4.063682469612190373e-01 1.673006425229431049e-01
9.993741534676554850e-02 7.651750751150790952e-01 -5.630254542828307951e-01
-2.892316851625432172e-01 -3.035450880105881044e-01 3.483684347001714809e-01
2.728531272434961408e-01 5.746130109260110252e-01 -3.960739259627745756e-01
2.068236869026821301e-01 5.973183205333768564e-01 3.239009282602137718e-01
4.352646898193496261e-01 -6.591847782651092391e-01 -5.385088520852028271e-01
-4.681517356671369839e-02 -3.964041232122128000e-01 -8.620183347354553050e-01
9.125401877473522660e-02 -5.011998626072498020e-01 -8.396587965173771817e-01
-5.551212211124548768e-01 5.700409515702622443e-01 2.083691907186291103e-01
6.747988098769755472e-02 -1.847107984461003605e-01 1.106217799872831337e-01
-3.612269181513756977e-01 2.958240429654315773e-02 3.655354993268037922e-01
1.146923959877423072e-01 -1.016447363459761638e-01 2.112171253425032258e-01
1.134445854853412955e-01 8.675236653879589976e-01 6.865352585513538608e-02
4.871725460358179993e-01 -1.581026220733190435e-01 -5.857691068159331937e-01
-2.027533340123817418e-01 -4.701489589293179061e-01 2.287525139135350785e-02
-2.006654555126353989e-01 2.901068274969005323e-01 -9.104877196515336335e-01
-2.827097375794460077e-02 6.538252527433111028e-02 2.331368030659785318e-01
-1.726439799530419539e-01 -3.767445882960465120e-01 -1.733361263115779372e-01
-1.042811641046116067e-01 1.786593939178366952e-01 -1.695216386099866746e-01
-5.225009698205428377e-01 5.104141131436655821e-01 -1.628713044663026022e-01
2.033011493782062307e-02 -3.293304056546798586e-01 9.402875141207330811e-01
2.883153518755589007e-01 3.024901065802837463e-02 4.204393892185114279e-01
2.000819447813625973e-01 2.467120427212718403e-02 -2.633446728144728799e-01
-1.101633421561494519e-01 -1.459001926585401787e-01 -2.601361272461221730e-01
-1.000009566356484525e-01 3.312046082434512428e-02 2.366782059367091851e-01
-2.545323696334348962e-01 2.050530291026392282e-02 -3.654770317935966961e-01
3.142065126296992861e-01 -9.111402675777563465e-01 1.881981236282629921e-01
-8.266293676069727536e-02 6.214547820779638965e-01 7.745173237138236466e-01
-1.276726600155686231e-01 1.847042813489221114e-01 -1.636100857127830988e-01
5.228043991213147113e-01 -5.130253132977888875e-01 2.199847023136062563e-01
-2.730361607689215653e-01 9.640844374482318013e-01 -1.877384216228801528e-01
2.718911435329087189e-01 -2.139231002547929972e-01 3.764136369423520811e-02
-2.656556961595181732e-01 -2.284654094414599046e-01 3.184027883288679805e-01
-1.823691442300349463e-01 2.537010465218557387e-02 -3.024598753375179472e-01
-3.170970826470656534e-01 -8.427445228579784342e-02 3.646724082064568551e-01
-2.480604698453947876e-01 -3.591187034084951657e-01 -5.435962816350815574e-01
-9.683920625810707450e-02 9.203505162813250262e-01 3.570695824873315605e-01
-4.466875629253169895e-03 2.672057917237806168e-01 5.129138974105151155e-02
-2.451370940197569737e-01 -3.141184959647441710e-01 -4.448719793980352999e-01
5.120433819803994480e-01 -3.522731721096555302e-01 -5.680793249397028122e-01
-1.424399318159754735e-01 -3.534218344155784508e-01 8.235108107100271024e-03
-1.731316729238625840e-01 -2.535152655077633765e-01 2.069925160261479047e-01
-4.188588201962583080e-01 2.506822250985102918e-01 -4.607313088729570461e-01
-4.632137607109046984e-01 6.463948148867121324e-01 5.452095694727268071e-01
4.564767786546463091e-01 -3.218426467283237447e-01 3.240229757035691938e-01
4.573214495492061715e-01 -4.615950067557806485e-02 -6.478727549444075473e-01
2.630626609374250302e-01 3.180958366073790566e-01 5.306316953921567103e-01
1.101648284219606533e-01 -8.554800525577319625e-01 -4.309363855514132258e-01
2.232573110280748063e-01 5.296130388348293527e-01 -1.142897082876839637e-01
-9.982774211298342526e-02 -2.400014290091674329e-01 -9.103854188320841256e-01
-1.658554331510757596e-01 -3.774523923793532409e-02 -3.087573044474803408e-01
-4.304237582685439545e-01 3.431517297413613221e-01 7.613667955496157269e-01
4.767214667592539756e-02 -4.608348194464049752e-01 8.793584928819697666e-01
-6.006246012690784342e-02 -3.480428773661270458e-02 2.358417917285393350e-01
4.100932104099869191e-01 -8.168039542821059484e-01 -3.224266611071415212e-01
-4.652538865037265103e-01 1.417874815351190809e-01 4.724748419019174084e-01
-4.094205014680351029e-01 7.921580919945370169e-01 4.478118197033926218e-01
3.129704662103563462e-01 -4.712051249376240925e-02 7.947101295786482833e-01
-2.707056359385622835e-01 -7.002874084954281708e-02 -4.303632211389982198e-01
-4.192172519323435487e-01 -7.882193032242700015e-02 6.307926368936843664e-01
-4.770153019569086106e-01 1.432889000100834032e-01 5.506743518687611250e-01
-1.397180779922907179e-01 -2.205275596272355809e-01 -2.559274048872440810e-01
2.209586828429426220e-01 4.500392690345653701e-01 6.134964710519121844e-01
-2.591124648408821285e-01 -3.014443691285904892e-02 3.025165609534437028e-01
-3.611070240548249211e-01 2.303067149484172571e-01 -2.865468293761330165e-01
2.626161896759360292e-01 -3.011194494975891200e-01 -9.047408909861854864e-01
1.957901052393243024e-01 6.457635794461369372e-01 3.177727425508531378e-01
-2.035275245843159164e-01 -3.972280707045385273e-01 -6.905195938018222623e-01
-3.494586872980404713e-01 -1.161674431247811112e-01 4.167858952464093547e-01
3.685411877003133552e-01 -7.613042798695641988e-02 6.569733080387388791e-01
-2.303748944091750794e-01 5.545778941602423906e-01 8.149947909150997427e-01
2.773579584736164394e-01 -1.999789952905323132e-01 1.350378039212967729e-01
4.954718802779526921e-01 -6.566438891298620462e-01 3.017246390482874463e-01
-2.366754760414608860e-01 2.746815073936442753e-02 -3.436767716538474682e-01
8.652027397791474395e-02 6.214179131313508631e-01 -7.567082990051792191e-01
-3.098940033734314259e-01 7.309598999750335085e-03 3.264280990387997128e-01
2.151802769578683161e-01 4.304976566954167305e-01 3.276298889805583925e-01
-1.492799146473363370e-01 -3.242412074371445740e-01 1.037169848562494862e-01
5.439776364667157083e-01 -4.416769220279258001e-01 -2.504546417983875561e-01
1.157303160415462107e-01 8.705448381303211303e-01 2.221897629699252572e-02
4.241519672404503449e-01 -1.031149591490679446e-01 -7.763797602782814833e-01
5.192112463141337342e-01 -4.854983797717655758e-01 2.124547478184046212e-01
6.165305983977240750e-02 1.401180188188020648e-01 2.432242770276205335e-01
2.032805954789859981e-01 4.875155594200755171e-01 -6.830452286832945641e-02
-2.156070407187970772e-01 -5.441582431725281443e-01 1.055901386303487524e-02
1.295126244532258941e-01 -2.983446058080393981e-01 9.313513482738681182e-01
-6.570129790568213224e-02 2.801922108726566663e-01 9.597986878988985504e-01
-3.154742852529868746e-01 -8.502529482166978209e-03 3.378012242323779613e-01
3.125292533728077915e-01 -8.204103652406096181e-01 -4.490041943485983400e-01
-2.342075062945364328e-01 9.107944760658015504e-01 -3.915924984130485509e-01
-3.766768756843684174e-01 9.291815401595212576e-01 -9.025456045136143191e-02
2.041386090166582012e-01 1.770246496592314256e-01 3.533942353911498357e-01
-1.046516319013936769e-01 -8.521412501419436403e-01 1.045078462285813498e-01
6.211499460901637182e-02 -7.675957673246051050e-01 6.051521360324991772e-01
4.694094291221946325e-01 -7.586385075500736708e-01 -3.087410332690151415e-01
3.010754588622259198e-01 -7.402697431611807710e-01 -5.801405349770903941e-01
-4.454755124199031302e-01 3.300666144082145537e-01 -3.482751556022570805e-01
-1.733291765447946345e-02 9.677899006400149107e-01 -3.701863831280524653e-02
-4.574488025490106025e-01 3.735341527018520846e-01 -1.332730083587286285e-01
-4.006567109500556723e-01 9.178726595353845497e-01 5.799742386017059381e-02
1.751784671738173260e-01 -8.122528408484075424e-02 -2.080372382403899434e-01
3.167005488835748506e-01 4.397483384410011409e-01 -4.780915046102855448e-01
-2.633267211253659257e-01 -4.900608330834559934e-01 6.502448344724158780e-01
4.574747741791833078e-01 -3.525987760945594185e-01 4.943354576736002093e-01
-2.491528284744670974e-01 -1.963161554668447495e-01 3.036053675175531263e-01
-1.007826149808088885e-02 -7.708574196107000065e-02 -2.296071710034526259e-01
4.801110760780861741e-01 -1.583099997900280775e-01 -6.377347949179746900e-01
-2.044434729977999687e-01 -4.478966567268154453e-01 -2.336636200032089772e-01
8.420496456028656040e-02 1.837566911620935606e-01 -2.069547142533174344e-01
3.879883387218646673e-01 -1.763389253047754901e-01 3.981610412361732410e-01
2.786041657280886596e-01 1.261015442951837762e-02 -2.978034281871951849e-01
2.208780623762496842e-01 -1.374675622084526039e-01 -1.639315897279307599e-01
-2.672424702948156261e-01 1.195358576424454672e-01 -8.659998873286611776e-01
2.544734820964674182e-01 1.884095653998899278e-01 -3.132222545187231533e-01
2.971292965154788135e-01 -2.029560995178871785e-01 1.544613642131648645e-01
-2.287789041743463481e-01 -3.732097549182131213e-01 -6.482446047526979616e-01
5.151001727075046333e-01 -4.230325064436033511e-01 5.992612593014415810e-03
-5.467055471179211867e-01 6.406839364285995542e-01 -3.954347767668676961e-02
-2.794781723937768136e-01 -3.841313089702045880e-01 7.436183902523633149e-01
1.865968080868912748e-01 -4.760053126718636340e-01 -8.519082939161458645e-01
1.053819040750488163e-02 2.147852351024189255e-01 -1.514052405395366896e-01
4.632732042109324877e-01 -1.163170427420528175e-01 -6.827595562763859594e-01
-1.743584324982708766e-01 9.977346766377458431e-01 -2.120630680886829208e-03
5.509490075665880726e-02 4.126593313613642899e-01 -9.129239641075626022e-01
-2.514429132106414944e-01 -5.067505483311378622e-01 2.271459573023147938e-01
-4.063531579896953461e-01 2.447290944086389919e-01 -6.244370513652123256e-01
2.968288232909711000e-01 3.324882097519260560e-02 -9.112599490227750731e-01
3.207673566371675444e-01 3.701306517532444995e-01 -4.326814309239464529e-01
2.391570207792857727e-01 4.031086440029794660e-01 6.048196295880898798e-01
2.598013410154301761e-01 1.640417795449002070e-01 4.351574409581694391e-01
3.221105873870892533e-01 -4.520116039302038424e-01 7.567211648429876814e-01
-2.263985673510411911e-01 7.312617028469653446e-02 2.476496295355239408e-01
1.531121597278593538e-01 1.800787372195657154e-01 2.984552641300685094e-01
-2.796092551658733161e-01 -6.413979954388331073e-02 3.249289008209803042e-01
-1.011671597323864635e-01 -6.419098700200367436e-01 -5.881683081685182835e-01
-2.623421870588858451e-01 1.116003544091366678e-01 2.378534226321004641e-01
-2.371149275745971785e-01 1.626196540419823644e-01 -2.364833857160422992e-01
4.383382772897306268e-01 -4.599125395313594655e-01 -6.920076734686326780e-01
-4.160820337412593495e-01 8.908470439067126545e-01 -1.344013255527322648e-01
2.788656894911414191e-02 1.904788850919509891e-01 1.996595848202253332e-01
2.480986236374879694e-01 2.914873895802535531e-01 4.422463448723319979e-01
9.771988912593367049e-02 4.435085650557568093e-01 -8.839330992452667513e-01
-8.222609078543819533e-03 -2.195723848857877858e-01 8.738009298645385559e-02
-2.603127887002777974e-01 -5.783546052993954190e-01 3.711439347519125964e-01
1.418112441399030921e-01 2.546789995117063610e-01 2.609265402530911437e-01
3.339227330690852646e-01 -9.186173154911990713e-01 8.129106853274470357e-02
3.831287966951185120e-01 -1.303611899287586695e-01 -8.392460207751584189e-01
1.749485543058313664e-01 1.624968146773918543e-01 -9.611541120640086922e-01
-2.907470741925585189e-01 -3.685938904738924604e-01 3.527465301170979450e-01
-4.048497823037303101e-01 -7.688546247529289002e-02 5.145547617762784576e-01
-5.378590788733617067e-01 7.169016211482280854e-01 1.184834918401650172e-01
4.733491227083496677e-01 -3.974673602218556367e-01 4.461633700288863968e-01
-3.833090958872858445e-01 -9.929174118267485027e-02 7.656917992013146934e-01
5.278863391062161847e-01 -5.616509982757303954e-01 2.058813775692590053e-01
-2.323976531558674119e-01 9.530156423578731717e-01 2.708134706033801797e-01
1.711834147984942489e-01 7.960279188442580534e-01 -1.951252536288004130e-02
-3.217669101096267137e-01 3.670731190361950502e-02 3.222489653589099001e-01
5.724758694746568538e-02 -1.838335536694067907e-01 -1.156506975576487434e-01
6.317504869870679829e-02 8.337517414845407870e-01 3.739431704027381675e-01
-1.608658947054329436e-01 2.779245697612950372e-01 9.548801766170996741e-01
2.604542530558855429e-01 -7.937061433449624781e-01 5.191568240005453028e-01
-1.910816678865759899e-01 -1.803212995925478068e-01 9.400942128899310024e-01
-2.005012836729661019e-01 -6.426973891606744260e-01 -1.478877540654488787e-01
2.235663182113744318e-01 -9.090235202363665667e-01 3.090202359488944950e-01
4.525384245960165641e-01 -2.718340454477258250e-01 -1.855867092380364680e-01
5.263890527121308643e-02 8.932451773199923117e-01 2.236840129855926507e-01
-2.506575534179456555e-01 -1.994414722096940762e-01 -4.330201666973385599e-01
-2.076099701343943338e-01 -1.445200834241106014e-01 -3.563143190121545456e-01
-2.528135768181534182e-01 -1.935763753196324266e-01 -4.366237532093161233e-01
-5.039469787324996064e-01 5.232957899774612898e-01 5.545247254583467456e-01
-9.388281850783723737e-02 8.082372115482318042e-01 5.697493886626857629e-01
-3.428540852148679874e-01 5.871754618733838749e-01 -6.854088206773032432e-01
1.265791326015401896e-01 7.835107360801579768e-01 3.301092840767537728e-01
-2.224342260836415230e-01 4.403752412882658840e-01 8.808951246144192115e-01
-4.187763840897882894e-01 5.941037512092023354e-01 6.564662374941101497e-01
-1.723644327090480266e-01 -4.114558183075919251e-01 -7.350380697552645337e-01
-2.036080796769728640e-01 2.284076688959614521e-01 -8.658912832304660467e-02
-1.570995548497002847e-01 -9.414220639167299870e-03 -2.975745340725495791e-01
1.028129426830802773e-01 2.635583229756959245e-01 9.127698880570447315e-01
-1.749124117406471723e-01 -7.121020537514539672e-01 4.582726663046571836e-01
5.707816437378402698e-03 2.477255279424521450e-01 1.194449752772509254e-01
-2.696418577979758924e-01 -1.108654572800827492e-01 -7.878024313870174433e-01
4.589267499562927899e-01 -3.258765890966073275e-01 3.381609383032108118e-01
4.053634103263510126e-03 9.210250893988084497e-01 -3.178754115980584882e-01
-3.745874264890821648e-01 1.450381740566275279e-01 -4.724623669026064010e-01
-4.959217297722995355e-01 3.008563458560680193e-01 3.340885224314190660e-01
-8.957194243045991933e-02 -3.174891761836737963e-02 2.399091909573583814e-01
4.134746153860981432e-01 -2.010895563167581779e-01 4.780518340671314204e-01
-5.479833652774426245e-01 4.979307793016725103e-01 2.231132847331448732e-01
-2.082064528188948827e-01 2.979568158543350886e-01 -9.045488914244738110e-01
4.300326341099253852e-02 -1.676552403214151277e-01 -1.469865186740192120e-01
-2.972873714122135080e-01 -4.195446404902412607e-01 3.863876421114509352e-01
3.908211014163998076e-01 1.497411045707754962e-01 -7.313903593026752636e-01
2.623782791442632045e-01 6.295783969725239626e-02 -3.046944792397487389e-01
-3.111280488782139364e-01 1.086342090786822645e-01 -3.710535148930376725e-01
1.195140405161466413e-01 3.569888795982526508e-01 -3.452771810630533844e-02
5.120324900897810227e-01 -6.154229742664578673e-01 -4.188039572329613769e-01
2.965351690933121787e-01 -8.833293334431304711e-01 3.116520982961077380e-01
-1.084600628460606897e-01 2.046282908665491285e-01 -1.324872844951251738e-01
-2.937067335238152110e-01 5.316609988820438781e-01 -7.638548958434930869e-01
-5.461224049365688282e-01 5.216131508815349260e-01 3.697497124987584316e-01
-4.378429372597135161e-01 3.956568142706751168e-01 -5.846391774246921802e-01
1.327582558746656649e-01 3.399338111140863261e-01 -9.215034870112132070e-01
3.577994335718063246e-01 3.993077495778857983e-02 -3.814825257412125525e-01
-2.129859653864264457e-01 -5.794344855910973369e-01 -4.197440720590466662e-02
1.439325528402088661e-01 -1.965586620058298872e-01 -2.707847532274378077e-02
3.564930133033044624e-01 -3.481798785421854059e-01 7.476693696605271056e-01
1.776466010793094630e-01 3.157050182973228925e-01 2.819527520131787646e-01
-1.317122035086882303e-01 6.400583379525902616e-01 7.645484083232242378e-01
-2.014792863359571307e-02 -2.169315833788290626e-01 -1.249043655529677305e-01
-4.975389178969732429e-01 2.568480392884546770e-01 5.974747420390361663e-01
-1.677843737625502171e-03 -4.974278839854839179e-02 -2.346398844373918102e-01
4.540426683578513423e-02 -9.097428782017750182e-01 -2.312489823848914716e-01
1.184787491491500894e-01 8.502109433985525211e-01 -3.059405292004324095e-01
1.841133016441891812e-01 4.323445795650903700e-01 1.964971204868347643e-01
-1.186901456063497486e-02 3.262582995327873436e-01 9.354287325107671913e-01
-1.973965265858809159e-01 -3.828758267786149250e-01 -2.592261478294176635e-01
2.077189722694634533e-01 2.796309966223046173e-01 -2.500507882653624780e-01
6.351599051647272010e-02 -7.255496662930307483e-01 -6.231231756255106724e-01
-1.739465978761552678e-01 -5.104577000998367781e-02 -3.166775239995393010e-01
-6.657047059215306928e-02 -7.445848572565223755e-02 -9.731548135598836469e-01
-1.503059610532078705e-01 -5.922524683455363537e-01 -5.673160303132950277e-01
-2.292496797142612175e-01 -4.419096971410944041e-01 -4.389498833464944849e-01
-1.057393870596027158e-01 -8.171661225299532427e-01 -1.943821311406944696e-01
4.361581576438580132e-01 -4.751538811992678801e-01 -6.867872910160520705e-01
2.024791348527943124e-01 3.587134001248957760e-01 7.592994759838066487e-01
-5.839749107007957685e-02 -5.632639288527221400e-01 -7.268014214475967405e-01
4.170166712117733265e-01 6.701984244995384810e-02 -7.180681852746746419e-01
2.416392679391892728e-01 4.162876441865460686e-01 4.986218720073454791e-01
3.566908678570432922e-01 1.032985128395747104e-01 -8.281539023800692512e-01
1.739822063263184171e-01 -8.904620402850316196e-01 3.819848660259955730e-01
1.469705175848393663e-01 7.556793401145117661e-02 2.971952777031691695e-01
-2.727640334372610775e-01 -3.233894297044243582e-01 3.158899821819042275e-01
3.067676802567200767e-01 1.392491528838583348e-01 5.556417554958085203e-01
5.448019358391796574e-02 3.030437332265819572e-01 5.590974757818486379e-02
-1.999075704718221991e-01 6.223066346805502386e-02 9.723116440813793782e-01
-1.209643303732827746e-01 9.667118612323952753e-01 -2.590425104609989648e-01
1.753638602462847251e-01 6.880014802171030563e-01 3.588637400768428520e-01
-1.189848502451873180e-01 -7.283478138912084787e-02 -2.803374173710463935e-01
3.311329878378417302e-01 -1.353650544192570304e-01 3.307894592682959489e-01
-4.601821245326153109e-01 3.714498843806314232e-01 -4.550808608023102497e-01
-4.725612799807583642e-01 3.829060671784247916e-01 9.320578719058343620e-03
3.926028631323140172e-01 -5.533114320659973662e-02 -3.646914802977269110e-01
-1.166996332787189200e-01 -5.404739944320782197e-01 7.801085980972553013e-01
6.841050155252660983e-03 1.334641764669514119e-01 -2.115864591179575094e-01
8.915875682176166439e-02 7.982545096204197721e-01 -5.158572883130559950e-01
1.055322943298211691e-01 5.525415762271298492e-01 -8.062949414296851636e-01
1.892924006303390305e-01 -9.586800385672374913e-01 -6.002773751201043867e-02
-3.302550023224304909e-01 2.505728111515627687e-01 -1.752341063509804120e-01
9.458186024614526066e-02 -2.020879275458820623e-01 -3.585447845671257960e-02
5.115931598241579836e-01 -2.795760984681182615e-01 -3.994181907311973867e-01
4.312918296608880264e-01 -1.440603304858171368e-02 -4.747069915997875755e-01
1.791782756450317204e-01 -2.798666893027853056e-02 2.835001724785105037e-01
1.127781321126617407e-02 2.372973282903479142e-01 -1.232523074332640689e-01
5.514547660016967390e-01 -5.311576605537449147e-01 -9.241958502020913846e-02
-1.623900710185276763e-01 2.219791991667509068e-01 6.790047067981111462e-02
4.099074038189556290e-01 -2.793132036879764080e-01 6.451280660639650000e-01
-2.366183214923369416e-01 -3.194362785574845209e-01 -6.900111873646422866e-01
-4.754579697011939721e-01 3.110304596552484480e-01 2.414601789077462923e-01
2.562806583880296047e-03 -2.199996692005073418e-01 -9.087831046967818904e-02
2.675650947939048341e-03 -2.137370144237229763e-01 8.986832863613491984e-02
-3.651979197803021382e-01 3.308316760886614860e-01 -7.431655454364495261e-01
-3.821801543004927915e-01 -1.238270096079842515e-02 4.186789019511630849e-01
-3.606267542020694661e-01 1.359487832553237796e-01 -4.394008398280596084e-01
-3.661488833886319405e-01 2.613668494636612327e-01 -2.243349904634028280e-01
2.046830054091425821e-01 7.263303410939740967e-01 -3.937971290200743546e-01
-3.540451982761915750e-01 2.077232873815409164e-01 -3.141955474421870842e-01
-1.929676944191086319e-01 5.703371526907080602e-01 -8.045373880513091436e-01
3.962937264767648071e-01 -3.004749140403800145e-01 6.826991796663455236e-01
-4.603814606364370898e-01 9.044146993604561258e-02 6.476027289925588848e-01
-2.494790480623199080e-01 -1.124229976656506910e-02 -3.754028810052100207e-01
3.819632498128563425e-01 -5.073718049527010665e-01 6.593095242742041950e-01
-4.044059841972118541e-01 7.358956952228585813e-01 5.353854810915800178e-01
-1.562791943925648797e-01 2.348031937061835495e-01 -1.689326080322302651e-02
2.063842011291138479e-01 3.575028150419843342e-01 7.534886042667165995e-01
-1.032426194003280978e-01 1.111941032752032481e-02 -2.669112722914246394e-01
3.848527143549943519e-01 -7.079076307223459985e-02 -3.416265997733963222e-01
-3.432656467263858757e-02 2.562697942649568850e-01 3.716363925870750512e-02
2.995298519795290895e-02 2.893340802205918161e-01 3.053859864483008529e-02
4.445023104444955631e-01 -3.124634269463239522e-01 -2.748968308461560012e-02
-2.084023845180959789e-01 -9.734680533270216596e-02 2.796716749492076382e-01
-5.477948353799505510e-01 5.804782074935778136e-01 -1.320768529107829194e-02
1.357652634979460149e-01 -1.547704118170495635e-01 1.559925629221493859e-01
2.924074274445627175e-01 -2.143538532069905467e-01 1.017024847671259974e-01
3.625159215498744980e-01 -1.514317896266066388e-01 -2.359609757538898289e-01
2.064159554803067786e-01 5.668027328773058704e-01 1.074681872175204111e-01
-2.006944907390388610e-01 -3.320392820232200837e-01 -3.021520145552977210e-01
-5.381655385141653758e-01 6.035230911488227434e-01 3.691263042519727922e-01
-1.156524168530653207e-01 -8.242266535423137253e-01 2.750088928296894886e-01
-7.140101795646842942e-02 2.360849164557798918e-01 6.933051740380737071e-02
1.249758169380615772e-03 -2.315684754823730818e-01 3.771188124202298070e-02
6.824109372984393448e-03 2.005170399814711346e-01 9.711165752992055866e-01
5.104434674966082941e-01 -3.921207631426157358e-01 -5.699895675217904190e-01
-1.374794269365112453e-01 -3.861272748208183225e-01 -7.999284586147723530e-01
-5.136177333792771998e-02 -2.450947494735874754e-01 -1.144804369478178013e-01
-3.048862648209899051e-01 2.293538024840636458e-01 1.132377083740155749e-01
-3.723190244009989547e-01 2.449726259424141739e-01 1.576936511804075403e-01
2.349420878568609927e-01 1.854214847637813690e-01 3.969875079624047842e-01
1.048137293044095197e-01 -1.410422142403041368e-01 -9.841292840640147865e-01
-3.237566882469964380e-01 -2.819721393606480220e-01 7.542992027113664122e-01
2.421167875935690272e-01 3.249206197928247164e-01 4.307344999789771700e-01
1.019295681703262235e-01 7.739492836428667477e-01 -5.449945040765430404e-01
2.248228948150816364e-01 -3.902388350251546206e-02 -2.466055276004379126e-01
-2.128125304292288467e-01 -5.322716561610059127e-01 -3.378787306558628245e-01
5.563979155386246378e-02 2.740442227525906604e-01 -1.030020141844201625e-01
4.923235113803535734e-01 -4.437787190893090483e-01 3.727036332016833153e-01
1.907028693968560451e-01 3.553805982085660453e-01 -8.830364502367237245e-01
2.003885247648073409e-01 -8.842395280502730603e-01 3.875893540967627060e-01
-2.555111674942003308e-01 -1.199714623346732484e-01 3.126378676530059408e-01
1.438883451650114775e-01 7.515100257230029612e-01 3.474614338069039743e-01
5.189364469311245065e-01 -3.062098420880122740e-01 -5.074088313540781048e-01
-2.950451605874536698e-01 6.846519621949027634e-01 6.854803824994570860e-01
4.716600519617885068e-01 -3.588911389682093445e-01 1.949797531249413407e-01
2.693546098766387842e-01 -1.151191884261872772e-01 2.779201833143055689e-01
-1.628358328368090802e-01 -7.582466626611052973e-01 -9.840860271304877060e-02
3.459358720962434353e-01 -5.485362584897022359e-02 -8.767325158044784184e-01
-4.358794569427950072e-01 4.152430383873176312e-01 7.326188432025370068e-01
4.997347571394456511e-01 -2.071957469143700659e-01 -5.066807788295554227e-01
7.039261150629949615e-02 9.973339173117917733e-02 2.562852593833983561e-01
-1.884669956876407204e-01 -3.188858259137093976e-01 1.793459102632387336e-01
1.715968227609380448e-01 -6.513523239274441323e-01 -7.208942251335543894e-01
3.823952269599142917e-01 -1.775739657222570322e-01 -2.244475651293155460e-01
1.159196912666978774e-01 -1.826692065587030567e-01 -8.837043607230236908e-02
6.526377767372390504e-02 -1.777903437392346075e-01 -1.212343876856274150e-01
-6.173309876851934552e-02 1.726235971163387894e-01 1.724007334933701230e-01
3.525661758553226832e-01 -6.046723546641357555e-02 4.748815636541359742e-01
5.337968718607324359e-01 -5.540265345377048956e-01 1.582361048015944183e-01
3.193265612379976859e-01 -8.277903995103838009e-01 4.084044320701180064e-01
-4.457163248595554794e-01 7.670225186504030512e-01 -3.553196414559172678e-01
8.401781935828423961e-03 6.821031718305627933e-01 -7.318909244864518771e-01
8.388217454720497956e-02 -3.996699900284496065e-01 9.061853052435042688e-01
3.559373164507969589e-01 1.294780831287249412e-01 -4.201350565584650587e-01
-2.028435460217410391e-01 9.943545393121646647e-01 -6.880591021107811123e-02
1.891174373513556939e-01 3.728486046660536291e-01 2.719447795902693588e-01
-4.421941094683378148e-01 3.131781143221202823e-01 -4.672482600036017564e-01
-4.666324453418750351e-01 3.060254264952325665e-01 7.050344129081315137e-01
-4.588070570298347084e-02 8.083418687799952262e-02 -9.908815786198420517e-01
-3.236599550144896309e-01 -2.245979490734202264e-02 8.832041932982263033e-01
5.079364891514361879e-01 -2.830086532608663830e-01 -5.710567819054920280e-01
1.821628957392575077e-01 4.637462277118130638e-01 1.092482760965012706e-02
1.124334400268033191e-01 -2.065217965947779843e-02 -2.317920595839034759e-01
-3.851982017090479493e-01 3.155322642540366873e-01 -7.073544514918478354e-01
3.971666936793958880e-01 -2.377017082507148771e-01 2.854683932368574650e-01
-5.109026387938082892e-02 -1.462228338741528022e-01 1.942195425233947392e-01
-3.973081377662449620e-01 8.598713330113141318e-01 -2.913813965286928265e-01
3.173230963559677681e-02 -7.611029718553696810e-01 -5.565972770331275576e-01
2.905095305731689725e-01 4.910734510162756417e-01 -3.852970947800269386e-01
1.202492667743036703e-01 -9.389529884501445212e-01 -1.846336028765203086e-01
-1.065618557219413232e-01 -1.478898067785959503e-01 -2.566114506842282483e-01
-4.700181850678105122e-01 5.316674683605427942e-01 -4.851497038801467765e-01
-2.118797341600706652e-01 -4.631962496140276109e-01 -2.754882169506196465e-01
1.188094431551472985e-01 -2.013559767410922907e-01 1.825138259252260045e-02
-8.285738933367234327e-02 9.882039754352157646e-01 -5.525143972554633770e-02
-1.721531096132931926e-01 8.435878056142664949e-01 5.277248741875804061e-01
-3.494166995341473347e-01 -1.830820846419987380e-01 4.415983257234062931e-01
1.795057424419048420e-01 1.101192110113487395e-02 3.014811099143717699e-01
4.783256774763465224e-01 -6.617881533229389435e-01 -4.536886024708094989e-01
