3.367020648902903646e-01 7.934420540411539491e-02 -5.417540284500868553e-02
2.840102778752722767e-01 1.186533053780879782e-01 -4.164075297136001219e-01
2.175416817744497411e-01 -3.575181971597644059e-01 1.749637541103367944e-01
1.701775544392281903e-01 -2.991246892451199790e-01 1.855028251422881358e-01
5.331435171551741625e-01 2.109432976103632618e-01 5.867354218263058918e-01
-5.529369868805623645e-01 4.601892096281894884e-01 -7.292467356095205799e-01
-6.077059497534602617e-01 3.313707028210279293e-01 -1.266050208669256827e-01
-8.717588017318089744e-01 1.618584360301314196e-01 -1.273705020476765537e-01
-2.430278685418544304e-01 2.403024090139449231e-01 -1.641648958734522601e-01
3.917510157699363726e-01 9.205142890407502776e-02 -3.385783547878112310e-01
1.098454275395292778e-01 -7.640312342790749056e-02 3.478930481238911021e-01
7.070286852410720968e-01 -7.534830454260520172e-02 -1.170687498057778470e-01
-1.444202389075873727e-01 -4.481401488720168080e-01 6.059691567142905244e-02
1.246090664211240429e-01 -7.684906000051852093e-01 5.958828397879851746e-01
5.582044494214235542e-01 -3.194653497383906620e-03 -2.084110244060618233e-01
5.565573367434385466e-01 -4.766333008937544413e-01 7.250389092158370241e-01
2.557703009217220380e-01 -5.677027793526889105e-02 7.583477427836113893e-01
8.592152914733194313e-01 1.614993313393166957e-02 -1.201711858457934767e-01
3.522601238076127350e-01 3.827544617309850405e-01 1.989612405318423038e-01
5.532628022766589160e-01 7.739537813153806178e-01 -2.821147180691804812e-01
-1.045405033584446974e-01 5.246356523293914664e-01 -1.810085125035328091e-01
-3.055383094251549192e-01 -9.233116521440476454e-02 6.437794069266592617e-03
-1.725044056018250893e-01 -1.196249673274502462e-01 4.015217827087396718e-01
7.883832249000023440e-01 6.527504950309562237e-02 6.169225682866430471e-01
-8.223749581553684296e-01 -5.856133127164460106e-01 9.271617300524828686e-02
-5.542049327351574739e-01 -3.768019863984273243e-01 -4.107574890810720691e-01
6.476344465266353767e-01 1.667947925683753441e-01 6.248591636961023932e-01
-3.478848858296562652e-01 -1.015005331204482109e-01 3.818428898015116535e-01
-4.058503999387010758e-02 7.347950924868093536e-02 -6.328906479582979694e-01
-4.402919428931090784e-01 -5.530157718762841734e-02 2.841695080461741352e-01
4.530729390321238670e-01 4.742644803605609027e-01 2.381122484980146281e-01
-3.507877027472059428e-01 -2.611103340111285975e-01 6.832471741466249471e-01
1.867411329197337100e-01 -5.202862607556895114e-01 2.002381516935268224e-01
4.431583078162897316e-01 7.474030251314030260e-02 -3.160994465284810984e-01
-7.438920633094673329e-01 8.470776665851338649e-02 9.590466861481185268e-02
4.917188005048410415e-02 -6.734484433975437279e-01 7.789366074019503650e-01
3.714001357953455179e-02 -7.946899339230915071e-01 4.500448964742856384e-01
1.990755164625303275e-01 -3.607920714271926621e-01 1.765147478088792687e-01
-3.459418077386819945e-01 -2.464573887135312336e-01 -3.654182792040481798e-01
-2.176244216467402848e-01 -3.434580854967042574e-01 7.933277320641116681e-01
6.179866222655359120e-01 -2.938669641490354936e-02 -1.820440582486562153e-01
-1.481287029939322986e-01 -6.465864340265107257e-01 1.204011739105831785e-01
7.897787193648121429e-01 4.708764626009326881e-01 -4.122847341843466351e-01
-9.332116964854371144e-01 -8.882478732587685555e-02 -4.090472275784798328e-01
-7.323906372492970940e-01 -5.357989001267329243e-01 4.447762576906133525e-01
-7.482878226570147673e-01 -3.795227750317736182e-01 -3.932763627316661070e-01
2.830246055947168160e-01 3.294467979503327149e-01 -7.600175393061079365e-01
9.914316302976085016e-01 1.744463030320852759e-01 2.495018077074294405e-01
-3.303306157877419769e-01 -1.307976203880308885e-01 -5.589450391399132245e-01
7.672563430764174353e-01 -3.529564103745885806e-01 2.744476782389108638e-01
5.105351248170098000e-02 4.483799198699997546e-01 -8.603740820142781187e-01
-6.148305783503906774e-01 -2.070883688954930080e-01 4.873015164469736149e-01
-2.376887171335986815e-01 -1.629944594136944203e-01 1.523941371850526527e-01
5.058688161471591727e-01 -2.532918152419207924e-01 7.315098369429666458e-02
-3.854752140348222667e-01 -1.424746879965680946e-01 -5.935810471613113259e-01
-2.619448907958590311e-01 7.151206778176725232e-01 -6.265578352630125636e-01
6.277334064657268398e-01 4.554970815876570600e-01 -5.870145747502593103e-01
-7.968428174669502928e-01 3.444423524563243189e-01 -4.258512698266236352e-01
1.315250566712725389e-01 -4.096127596443541186e-01 1.747167844125617764e-01
9.479344042519723956e-01 -1.081450242774289472e-01 2.546383299546971513e-01
4.405822440701049336e-01 7.832566754562892974e-01 -4.833360383973863139e-01
6.117770271547943173e-01 2.694347214431367377e-01 -5.398038301134581163e-01
-2.031373731434940877e-01 -8.078766150298730686e-01 3.207620742449866502e-01
2.843362310919042568e-01 1.214831772763324963e-01 -2.590946704002657364e-01
2.048635915564811782e-01 -7.248339713511483540e-01 3.921240314154077478e-01
-1.980312551921590281e-01 -7.466876888896620823e-01 1.945905092329389130e-01
-1.644953313340095924e-01 -3.704404044792192208e-01 5.459370212153941831e-02
-5.336239759855893744e-02 -8.017108186694100747e-01 3.867668465332027572e-01
1.087935867613764873e-01 -7.486995672608044439e-01 3.668811747947863799e-01
-4.762599961521892244e-01 5.365463621193958949e-02 1.020149020301548831e-01
8.981178374445109719e-03 -6.706234974916533975e-01 2.165984959176922020e-01
-2.779779486203512451e-01 1.428462084781444985e-01 -8.212171359041205987e-01
4.782232946314141087e-02 -3.252912173670209905e-01 1.809530815745860610e-01
8.622362341343164926e-02 6.253161805401554751e-01 -8.068655641737895179e-01
1.333248798936380597e-01 -7.747562615638793337e-01 5.317144476662994945e-01
3.525035890012361284e-01 -6.857556012563219283e-02 7.496242573673510268e-02
3.505490666781663767e-01 -3.846942237439261031e-02 6.308882478803605476e-02
-2.932993164473852166e-01 -1.036674441712936018e-01 -6.043278796422364013e-02
-7.000039513956796133e-02 2.234180760791699139e-01 -8.264558278541755953e-01
5.333262322189692428e-01 1.605402272499104610e-01 -4.788184122415324873e-01
2.457604347685116153e-01 2.034291730339621296e-01 -8.352539173780335058e-02
-8.514322445673470907e-02 1.053373693653367055e-01 -3.209445779600997861e-01
-6.934374611362161822e-01 -3.153385130279128257e-01 -4.785227503000961113e-01
2.708172547349567139e-01 3.163222051937677470e-01 -7.588022412036696807e-01
-2.864568303710098296e-01 3.067680143537624415e-01 -8.716148712349579553e-01
7.995264450521154531e-01 6.229163253794286481e-01 -1.932918632667225689e-01
-3.438831699839895936e-03 6.620065522935657532e-01 -7.893305621278196016e-01
-6.305276822372035683e-02 7.394654431943706308e-02 -3.913701247951246187e-01
-7.811195197337055252e-01 -2.529570454336950713e-01 -4.928756321052767952e-01
1.222640279199457697e-01 3.701118660037880925e-01 -9.934159721030141887e-02
-3.078577199898827055e-01 9.032748874316623433e-02 -1.135781926996344698e-01
7.532224021431944971e-02 -1.434782726598110847e-01 2.925593257200417852e-01
-8.347542922457459325e-01 -5.168730193990968003e-01 2.780594699696030681e-01
8.349195001348792555e-01 5.777371777110448248e-01 -2.089741336183644216e-01
1.906587676523769370e-01 7.502131327930798843e-01 -6.788004687181118380e-01
4.497088351954534602e-01 4.079689870216259839e-01 -7.042435227653466301e-01
5.401154013745403798e-02 4.572288951474015595e-01 -1.210524671191878510e-01
-1.082876752361973671e-01 -2.521235108190142959e-01 1.733549841759944865e-01
9.364850805627146224e-01 -1.338196708771028087e-01 2.609529479305716104e-01
7.270496010500641093e-01 1.254184753694454202e-01 6.246428253793980812e-01
1.459591448490673293e-01 -8.547610867256066891e-02 7.394289810894136838e-01
-1.932235835769852139e-01 2.169157502505638935e-01 -1.895777564937742299e-01
-6.091690602641757213e-01 -5.265991551327243725e-01 5.834094356477989018e-01
-9.381378976374339651e-02 6.596957172770074873e-01 -2.443169057414083523e-01
3.480049280019374969e-01 1.825941689801199308e-01 -5.923946028567228517e-01
-5.113018045429430503e-01 1.943539974272356086e-01 -1.756110050579981138e-02
-4.901046618267678734e-01 -7.810908849757033368e-01 3.834943944510665892e-01
3.374612205303794688e-01 2.552168615369364013e-01 2.966257944608035046e-01
3.300426135806596162e-01 -5.930818285670083068e-01 7.763396360778266336e-01
-1.017528368926729626e-01 3.839283973523575227e-02 -6.160597587247380602e-01
-7.980244651648791265e-01 -2.309511250266895743e-01 -4.980887222726607666e-01
-2.410489968050744114e-01 -1.358893465390154098e-01 2.364976011239482978e-01
-2.958094417232821072e-01 -1.797069772469459814e-01 -3.366348417511860758e-01
3.815614912413630710e-01 5.433971121118833653e-02 -1.443537365687015406e-01
-5.914107001961521615e-01 -7.238963499433093141e-01 1.030883534463793577e-01
-1.607936173253285139e-01 -3.787330768827836258e-01 8.249790274968237247e-01
-3.200648570435335460e-01 -1.031836525882982858e-01 3.650801030810096326e-01
1.001008248297258381e-02 -2.581165768769527746e-01 2.095051502957339939e-01
-1.089780768088998431e-01 7.768370503326120780e-01 -4.527502805850600054e-01
2.392034301535068130e-01 8.104078696082201994e-01 -3.030480925514217327e-01
-6.057736290255141126e-02 -5.115276926393268475e-01 1.168073717320586152e-01
2.977989862247963360e-01 8.253598188099942057e-01 -4.302645388110469815e-01
-6.415560459335395427e-01 -4.700259602938883785e-01 -3.170101746710813906e-01
-2.370133035485726125e-01 7.180949033425031436e-01 -6.454314478468059502e-01
-2.617976268197351186e-01 -2.488098300876431246e-01 -5.568682456234418099e-02
-5.140663150728863595e-01 7.818725153805139438e-02 9.689515698922146480e-02
8.047302398192044404e-01 4.986838553927864237e-01 2.228655066790292683e-01
-5.230921143655542505e-01 -3.297229243508661423e-01 6.298346704602150181e-01
6.239335721299995585e-01 -1.032267329494581248e-01 -9.054995455101844115e-02
-3.461889259501493288e-01 -2.531688590989795706e-01 6.788418574123283866e-01
7.335700419831535646e-01 -4.117652908045921212e-01 3.503231850890289878e-01
6.883049308096145236e-01 3.805876409546815053e-01 4.246172352676425010e-01
2.427682193436112197e-03 8.259110980524245194e-02 -4.528641479788836910e-01
2.343148291698077604e-02 7.382493816595934177e-01 -7.112504616203870755e-01
6.164166311454513658e-02 -6.370640014714158417e-01 2.157010842426536623e-01
1.673418374449136548e-01 5.404951129051520191e-03 4.205283023034184220e-01
-2.869779276628884324e-01 -8.203574498630113176e-02 -1.185765558804576930e-01
-3.936860872961674973e-01 4.946998183509588864e-01 -8.090815423833951359e-01
4.188700949814737062e-01 -3.047271556969287087e-01 8.556665362195060576e-01
-6.594106143422757693e-01 4.871428836860918210e-01 -4.973704769103059475e-01
-2.608633373102028918e-01 -1.753164692102232580e-01 4.388928430787805701e-02
-4.307989665720542982e-01 -6.177714569385467369e-02 2.951373419573374846e-01
-7.386685619458577268e-02 7.887664896937461867e-01 -4.660750757649154696e-01
7.591967475384707731e-01 1.284214862070290897e-01 -3.184438622405690866e-01
8.189414650760966641e-01 -1.048715209894555134e-01 6.227348301754093152e-01
-6.082821499391533049e-01 1.208833667433081016e-01 7.880332015444690974e-02
-5.026721214627852818e-01 -7.442461213245833429e-01 4.874334457792063313e-01
6.809636794206217481e-01 2.334760729601260132e-01 5.653733773518342387e-01
-2.695717525944894555e-01 7.271857454001013910e-01 -5.420162647021204982e-01
2.537617833661449107e-01 -4.051943433005773532e-01 1.776796187855065323e-01
5.514703584878997145e-01 6.186732222161082095e-01 1.213793582654245640e-01
2.736464262570068029e-01 -1.446776113896206528e-01 1.647460900901036585e-01
5.653399888640450177e-01 7.650757203360744052e-01 -2.154663676231714786e-01
-4.007186962504264982e-01 1.881150328619237699e-01 -8.372823162615958825e-01
4.626682620017692482e-01 -5.238713447557598046e-01 2.688204735918650057e-01
-9.156027023028161516e-01 -1.215942129062212327e-03 1.102678361823677261e-02
-7.515101700796178452e-01 -5.931366240699048609e-01 3.625397389468712483e-01
-4.288472708353150420e-01 -1.900960574922219426e-01 -5.626165439261345824e-01
-6.309435466830671801e-01 -6.792238414972919802e-01 4.386649337263198722e-01
-2.511571336343876304e-01 -7.024509583553971703e-01 1.131783196797260110e-01
-2.187426507741731252e-01 -6.698747244152454539e-02 -4.689451816147247598e-01
3.483970120837610596e-01 8.214397527886336814e-01 -3.927148954941083736e-01
-5.757514744829050901e-01 -1.032199133042038530e-01 3.875093292614454343e-01
3.985170754300401130e-01 -5.818013329576319226e-01 7.481434151578174596e-01
-9.186273875614927586e-01 -4.468111942899463118e-01 6.480608142082518175e-02
3.245963267547501835e-02 -4.332074253505979189e-01 1.541410101061954085e-01
2.871967248857986155e-01 2.144181744312793070e-01 8.339811417144149530e-02
3.056556053319757493e-02 3.506315992788320290e-01 -8.538557917369071770e-01
-4.028252936304309584e-01 -3.758078737486348353e-01 -2.941225372214227307e-01
4.876271317948256967e-01 -3.934099088659667731e-02 -1.102752257324712826e-01
2.684242764781624713e-01 -5.334340585367951526e-01 2.223372904057171473e-01
4.662116881452384454e-01 5.685576777551043515e-01 1.493647621547754267e-01
3.732029979299588129e-01 -2.473083579868762261e-01 1.176734611740318237e-01
1.686375590217086273e-01 1.400826072368717423e-01 -6.057760710158914819e-01
-8.174961421080596813e-02 3.062707062673442060e-01 -1.879580382126925242e-01
-3.686811597355871273e-01 1.247488884315664653e-01 -8.168557825479675349e-01
2.894027316594182109e-01 1.463794450237182743e-01 3.611297209670887853e-01
-2.029494630620779505e-01 -1.425313965045586218e-01 2.744347893497454116e-01
-5.751936967375411713e-01 -4.844439454841186210e-01 6.202381915648140787e-01
5.676559168767455477e-01 3.206967998205496606e-01 4.811768296685786650e-01
-4.290619655911850350e-01 -4.876489153433025137e-01 -2.080604811828789258e-01
-2.632099742382485452e-01 -1.182184474945731541e-02 -6.834772988084909517e-01
-6.810890114830771003e-01 4.519997233398450609e-01 -3.589316113646843776e-01
1.644797893667921396e-01 4.847013206437274513e-01 -8.322972789063156629e-01
-2.310095916791506387e-01 6.422142932433576590e-01 -2.867977121478477165e-01
3.889483757192291891e-01 4.894141788405934751e-02 -1.458728968487617572e-01
-5.211347567569454275e-01 5.529359166951376414e-01 -6.581980988465400140e-01
4.295730903931513911e-01 5.673896544199682479e-01 -7.082359463526444188e-01
2.989440886281239940e-01 2.053021845540711765e-01 1.661245361028624856e-01
2.680296417209833693e-01 6.147545895123543991e-01 -2.681464360173799535e-02
-3.380056519817177252e-01 -6.159612971295163053e-01 -2.157267680182139644e-02
1.905941391004874197e-01 -4.565106724664932947e-01 1.843393577998863608e-01
5.139152096435797845e-02 2.132674609860483461e-01 -2.392993385338275103e-01
2.725741844151439719e-01 5.234751423188045427e-01 2.811849516281169845e-02
-2.567489204122159752e-01 7.612516532101537559e-02 -1.734945252262038440e-01
2.715204688457505955e-01 1.581815986737375723e-01 -1.160666522548553237e-01
-3.436953257215529800e-01 6.114450508975970422e-01 -3.069219231504189960e-01
-9.191046511171668820e-01 1.266887068195163557e-01 -1.949642548972852218e-01
3.052776728227919456e-01 -4.734896029961273289e-02 7.656835141543677503e-01
-7.240093753469380999e-01 -9.030393627078403540e-02 3.036142890303395458e-01
-7.025299537910393299e-01 -3.110070909184683291e-02 2.492746462810548069e-01
2.706518829054697650e-01 3.575067375099539868e-01 -7.772072504283003003e-01
-1.124797472312882851e-01 1.084450953684366198e-01 -7.475453001284809718e-01
-6.449110944040107318e-01 2.661190559900001446e-02 1.940986400626607544e-01
-2.831350662265296192e-01 -1.219539112307917172e-01 4.728736001137210376e-01
-3.024213863895787169e-01 -4.356228661894274712e-01 -1.085578055441780015e-01
1.223006644626978973e-02 1.422631393335282990e-01 -3.238468275138383090e-01
-8.912550441293817793e-02 7.535217317423120731e-02 -3.593620062983331476e-01
1.298079694372504317e-03 8.832683435631301372e-02 -6.227999692997855385e-01
-1.069986735746095985e-01 -2.833756698120329931e-01 1.483933436817465867e-01
-4.081644304843205506e-01 -2.604770565882306710e-01 -4.487843744238192434e-01
-3.580708150372395870e-01 9.111304247671063103e-03 3.794512013721616176e-03
-9.780860016755625885e-01 -4.144427018988953298e-02 -2.359702106241968467e-01
-5.716129706029043911e-01 1.577231368248365739e-01 3.344980968427974793e-02
6.450106213358288709e-01 -4.461685817337338045e-02 -1.629054894575105994e-01
2.072966895854142788e-01 -4.990449213355337976e-01 1.970170985627849869e-01
7.746252724110073151e-01 -2.726949103771747138e-02 6.569439824255289828e-01
3.697779248946537201e-01 4.563304406870886121e-01 -7.532557630991086883e-01
2.757463961111517037e-01 6.920720646175018698e-02 2.169289341119030323e-01
-5.423792547178647033e-02 -7.500225193312054506e-01 2.711805354988828798e-01
-6.156382011865387804e-01 -4.987356901705932155e-01 -2.812576551514472389e-01
7.145695533486200457e-01 -4.049120823147506765e-01 5.982799014064229537e-01
3.012976309238625805e-01 3.964652650867481753e-01 -7.758354252870219847e-01
6.568384214407225752e-01 4.976002445114785511e-01 -5.568518468143420774e-01
3.140190257366518578e-01 4.272984656035864748e-01 1.151553090754478259e-01
2.641521657435949022e-01 1.084019778184467792e-01 3.963826280373711763e-01
-2.708407973832070437e-01 3.784796360555048311e-01 -8.747326329482960627e-01
7.309002490606125724e-01 6.766437172173493941e-01 -2.529227536630529460e-01
-6.673976913471081351e-01 4.793804199904745933e-01 -4.318213644905798954e-01
-6.379239744952783786e-01 -6.806198194528886303e-01 1.709086842085379490e-02
2.416772217522825950e-01 1.383274768743525396e-01 -2.662681726317939201e-01
-5.185471261942831145e-01 2.182818353132593703e-01 -3.404710412256915092e-02
3.736083196987590171e-01 8.340751847843248801e-02 -2.665001353665382156e-01
4.450535772198306317e-01 7.062928102334106173e-01 -3.226046861933664495e-02
-3.826880312864094358e-01 -1.293238279127286727e-01 4.784502855800537024e-01
4.949764762013712516e-01 -2.933721162710472008e-01 1.015354718888402119e-01
-2.295736112252587391e-01 -4.652794124727515496e-02 -2.970906941368570142e-01
3.825287676779466350e-01 2.884441538261950377e-01 3.576525075406372656e-01
4.249611258756094689e-01 6.501266124512650180e-01 -6.709681060353036575e-01
-2.835257507387345388e-01 7.000771583009387511e-01 -4.099556601952366042e-01
-2.038337218046045174e-01 -4.939053895292478402e-01 1.590833864250931068e-02
-9.816839069391161132e-01 -8.465620358279847546e-02 -2.409690151247656509e-01
-1.700045994698551333e-02 2.912516741690398536e-01 -1.914872578259552982e-01
1.430969426369257669e-01 6.638686440926180321e-01 -1.362696727610197556e-01
-3.058009316882900896e-01 -1.877622927301484668e-01 6.246308807656686390e-01
5.691689653465794446e-02 4.614077225044319608e-01 -1.194634674620735082e-01
-6.176619148068113185e-01 -3.830306985200392367e-01 -4.167336046841720321e-01
-2.447491801303501580e-02 -8.571195541396046946e-02 5.651895203346859464e-01
-5.281031225994238243e-01 2.539122976566166034e-01 -5.916061390330977499e-02
-9.808271792057658978e-01 -1.934372191335926305e-01 -2.119907650269617361e-01
-1.360166075011523812e-01 -1.533346499229332749e-01 6.622043342115475628e-01
-2.703119733352293275e-01 -1.327544755880085414e-01 -2.991124804392116254e-01
6.134483136159721850e-01 6.330303150886531505e-01 1.026535385132633788e-01
1.945200163713429742e-01 8.262202871642591040e-01 -4.807231454205119769e-01
3.039974006528130546e-01 7.798723550376307490e-01 -5.914786814996885189e-01
5.014004456583728286e-01 -5.929907324315770722e-01 6.221945353343462104e-01
-4.751158108509787037e-01 -7.894724365616970774e-01 2.964273574097547881e-01
7.548785084929916511e-01 1.036404505246163801e-02 -1.976297644277562326e-01
-6.427242857731813030e-01 -3.353695526997843013e-01 -4.672958877630394858e-01
-4.873330661003238418e-01 -4.175418953502250119e-01 -3.293382631676989858e-01
3.546330811581495102e-01 -1.283439946945514817e-02 7.496537227143010851e-01
-7.065643433445468746e-01 3.598853737890195803e-01 -2.135954432125641289e-01
-3.493626400813515942e-01 -4.171690588026964464e-01 -1.828588300250603149e-01
3.933809731015263655e-01 -5.684176118635489439e-02 1.525437675949668781e-02
4.307303206532537287e-01 -4.959703852410326519e-01 7.984009675282521812e-01
-1.877815499269193111e-01 4.319060361346890309e-01 -8.774747718962168097e-01
-4.936053523401015553e-02 3.913418663135395104e-01 -8.741300423156247446e-01
-2.605316779363243684e-01 -2.621352720159753069e-01 -5.800969354845396386e-02
2.420918466028224858e-01 -5.691218453190613480e-02 2.169004931198422192e-01
-6.583045016611726030e-01 3.632250304451913880e-01 -1.812234248209005916e-01
2.972803206689468916e-02 -2.159976229696495553e-01 2.400823963266173477e-01
6.603949023675265151e-01 5.519107413285198049e-01 2.191735677227553691e-01
4.741771241491625766e-01 -4.939919150369134204e-01 7.745578387942776422e-01
-4.409423901330594697e-01 3.905628048500001115e-01 -1.577523775537048867e-01
-7.079934353820893644e-01 -2.606590743420320391e-02 -6.704328474971646967e-01
-2.810049611004462600e-01 -1.174892973552190469e-05 -1.448288010944225601e-01
-3.209207606897965803e-01 -2.264689953653095389e-01 -3.296077873516184420e-01
-2.440630932650586782e-01 -2.674836394606546208e-01 -1.799739486048048537e-02
2.764520190178808567e-01 2.636012214311223567e-01 6.683267209856799673e-02
3.696949117228757187e-01 -6.179456975724536560e-01 3.310663103584059463e-01
-7.093730565039938485e-01 -6.703414029242166228e-01 2.967039844420136796e-01
7.045972110056628601e-01 -3.857925010862597315e-01 6.387612625214857953e-01
7.449727440770360642e-01 -4.089972830681496974e-01 3.794543368649893056e-01
9.873891784404998928e-01 1.986077087468363644e-01 -9.024109741245261995e-03
1.697700812392397840e-01 -7.834157180178175084e-02 2.853643804487392965e-01
-5.924445214157663120e-01 4.755073987050492113e-01 -6.741818889313786478e-01
3.827995857949271219e-01 -5.638074087039385285e-01 2.761411297393507880e-01
-3.420334493799763453e-02 8.854524570891585122e-02 -3.909323920188094159e-01
1.689543221831372732e-01 6.018278098035131363e-01 -8.404727761157074206e-02
-2.568228671741978331e-01 -1.238134546578802536e-01 2.598949188637688090e-01
-5.495090493808338916e-01 5.500956190111639943e-01 -6.194007461349159138e-01
-3.013060765154718101e-01 -3.430917288575845159e-02 -8.998695232157767621e-02
5.627102931221952264e-01 -5.366494052894545119e-02 7.697174954457638441e-01
-2.150924068448204773e-01 3.583005918966533088e-01 -1.699303178793079849e-01
-2.422914120752807654e-01 -2.772928669742578678e-01 -1.942483593248480606e-02
-2.313145475455894717e-01 -3.796884396339217371e-01 -2.514252706427624190e-02
-2.554557557153335767e-01 4.766315399316783386e-01 -8.595796943678430946e-01
5.540400879657436661e-02 1.151046338000679820e-01 -3.946797509651980285e-01
-3.077299764507942514e-01 -4.440742912964669442e-02 -6.433248768648407168e-02
4.970644693710963846e-01 -1.230138395990073297e-01 -2.217343158556019100e-02
3.834515216552113470e-01 -6.197329426463390467e-01 3.426100920927464544e-01
-9.275260549441091684e-02 7.089830766132186879e-01 -2.925617291496827033e-01
8.711291591171766990e-01 1.136207332268398262e-01 -1.971310095230117410e-01
-6.436839022789904163e-01 -6.323481031046203071e-01 -8.209005986679525357e-02
-7.646536468316144086e-01 6.767721660538073003e-02 -6.566160594488870128e-01
4.647644783630417997e-01 -6.335599892117530496e-01 5.037859755208274892e-01
4.915864524571830763e-01 -4.867542150000851997e-01 7.681862392709533083e-01
2.011733621709583530e-01 2.471395413519120177e-02 3.752023078536959599e-01
1.415346021780150287e-01 6.262248979982318886e-01 -1.129528095497399909e-01
7.311369381982116833e-01 -4.289654510336026183e-01 4.258840069001160189e-01
-2.728266413629961695e-01 -1.187989922762393014e-01 -2.163378374630793854e-01
7.884948036721385334e-01 3.131158079929782789e-01 -4.094451647473011380e-01
1.226743221273247364e-01 2.727699416430491852e-01 -1.548901063562916347e-01
-7.543062825884696565e-01 -1.387470703602630140e-01 3.282389263150921610e-01
-1.632585174826893804e-01 3.825106611317862226e-01 -8.809478990020838118e-01
4.444126017255004002e-01 -1.022622358610113663e-01 -1.579384258347929938e-03
9.781486507891844484e-01 3.302100056467449640e-02 9.512209068212090779e-02
-7.292746840013966114e-01 3.819486932143712488e-01 -5.775891451246366604e-01
7.439311079597188403e-01 -3.116412047029767374e-01 1.758367887725229006e-01
1.024346383341079858e-01 1.151804596498067074e-01 -4.210731775760770401e-01
-2.691261724786789267e-01 -1.816970427438287794e-01 -1.457366638996033040e-02
1.557907752736843177e-01 7.077050811912043438e-01 -1.671326076799480864e-01
4.727711654551491338e-01 7.563609828069315366e-01 -5.142255220356827250e-01
5.177242057072217740e-01 4.197331972188289573e-02 -2.741602469415224674e-01
4.524644268398734792e-01 4.196670649480903070e-01 2.948639947445631515e-01
-8.350587825382190799e-01 2.932142959060008436e-01 -4.048011267340134167e-01
-4.483855552707182168e-01 -7.388820229486707525e-02 -6.920634473893637617e-01
3.016675032854913563e-01 5.590822987639170183e-01 3.432396071040522828e-02
-2.223437318916590688e-01 -4.866780864677713869e-01 8.129895850341467556e-01
7.153847003589253184e-01 -2.260116331255595523e-01 5.428153771135823397e-02
-8.754180477144809513e-01 -5.063235271413205618e-01 1.599262160216510797e-01
-5.377421660005604620e-01 -5.007754704393184708e-01 6.466606690272195257e-01
-1.576896470534494207e-02 7.170100544819891786e-01 -2.627743511969277135e-01
6.929653922120861953e-01 6.783689392426195397e-01 -3.595617687040550958e-01
6.933262059485948425e-01 3.655814007502913854e-02 -2.566064000473338713e-01
-1.362957708665465213e-03 -7.746527628160636558e-01 3.460756171065860753e-01
4.172818931177261215e-01 2.914558312601418510e-01 4.088125032403881476e-01
-1.846916190683161874e-01 -1.197162660933334538e-01 3.974760515258705107e-01
1.035308388899920523e-01 2.671824180405933391e-01 -1.710423755619916164e-01
8.698199847688634773e-03 3.858290004078069879e-01 -1.502541331582901429e-01
1.773456193203060416e-01 -1.837948991376533725e-01 2.166751923346831310e-01
5.345285743329365458e-01 4.864050660021748129e-01 2.791039659737297729e-01
-9.128405773334269391e-01 -2.482197351827182541e-01 -3.563501715040381379e-01
5.271968178813383199e-01 1.701107008733710457e-01 6.249355992294922668e-01
-2.613854446786026409e-01 -1.195061782304750464e-01 -3.518377055548199683e-01
-6.250712819048295787e-02 -1.070033262962250403e-01 6.076309076022115008e-01
3.478163276145664895e-01 3.972365868109001830e-01 1.814596679290532977e-01
3.146556510882033697e-01 -6.675643753356038657e-01 3.694289199501181731e-01
-3.040526189014499357e-03 5.486984868677097227e-01 -1.541425025749286470e-01
-6.451209172636905853e-01 1.835659510137481187e-01 1.254985580389232809e-02
8.625966156261950513e-01 -4.532484582342659329e-02 5.699318698667797944e-01
4.815427162238387071e-01 1.152604628509470014e-01 -4.205399201068446557e-01
2.753303760504099973e-01 2.563134353991298187e-01 6.021681157547125601e-02
3.847180883874702917e-01 1.363058067234513837e-01 -4.844351022300530940e-01
3.562278971484072465e-01 7.805420490566229719e-02 -1.629237209505085826e-01
-1.106527674756735274e-01 -7.847128421261763132e-01 6.288021467504625317e-01
-2.300649459051648180e-02 -1.511253882517763214e-01 3.139846716044019659e-01
-8.848062844791572124e-01 1.517402845090513319e-01 -4.770761377447246265e-01
7.362931651996438287e-01 4.871956331357037429e-01 -4.758948337282932206e-01
3.243294978377778137e-01 3.117099892845490161e-02 7.317732759061319758e-02
-4.285081941028399122e-01 6.240289729103974947e-01 -3.918631804167576060e-01
1.703124749280982286e-01 -7.447344301014479084e-01 6.366049360788083034e-01
-4.923222538903302969e-01 2.188917407006677474e-01 -4.273878160499691714e-02
4.189663865689780553e-01 -2.846656313742433331e-01 1.149814627373888232e-01
5.788790075581849992e-01 6.997134795894599524e-01 -4.963591222308076922e-01
-4.832249971800969823e-01 2.115810500334172617e-01 -4.090603519199988852e-02
3.363460477550320737e-01 7.123590303355876729e-01 -6.681088204446565815e-01
8.998572041247450137e-01 1.853053119053698072e-01 -2.082398235869004355e-01
-6.743507117598100953e-01 2.791998790815334863e-01 -9.359541325571071879e-02
-4.575863926636719037e-01 6.120082964782590507e-01 -4.000839192629754848e-01
-2.419231478302397154e-01 -2.017480871287276323e-01 5.717279873794319650e-02
3.303988348407898568e-01 1.506788540537234433e-01 -5.381455266118415626e-01
-2.934714395786267027e-01 -1.083121017098563205e-01 2.343324768438368733e-01
-1.331975785141759627e-01 -1.133752603853740715e-01 4.401543719503708818e-01
-7.511441466102933839e-01 -5.015332796343426880e-01 4.369656813324965250e-01
4.439898737928334449e-01 4.629438329803884505e-02 -2.347272259492667601e-01
1.872302202931275805e-01 1.195878569264135632e-01 -4.717333713021819586e-01
-5.224794292270305840e-02 -9.687826776364294457e-02 4.621791263800845706e-01
3.339846569094253037e-01 1.875814669846380123e-01 4.333820796768427797e-01
-6.058549661182827117e-01 -2.079978798861628064e-01 -5.888768651631086648e-01
-2.148336378283550452e-01 -3.138860853057782729e-01 1.336961834339883345e-02
-2.889508928742507421e-01 2.644461914007851470e-03 -1.290415328252069727e-01
-1.643039966124047457e-01 2.171938494622144000e-01 -2.017631559608490666e-01
-2.005664650096877499e-01 -5.672858935693607663e-01 8.045876688197649562e-01
8.874779434260379740e-02 6.558506401916641693e-01 -1.590441095770152302e-01
1.875753587224026908e-01 -5.478194895105764628e-01 8.478279527404547489e-01
-7.735450252604518517e-02 6.620030651905062236e-01 -2.391825306644751736e-01
-9.180741640555324379e-01 -7.204172335151345918e-02 -4.431912150760827229e-01
-9.925817631808801778e-02 -1.341899545534362970e-01 3.515738783122178690e-01
-1.948242765534754228e-01 1.271571678920348225e-01 -2.184191494449251036e-01
-8.689803859552883702e-01 -1.948999435970225902e-01 2.451319107024823030e-01
2.436760271427690361e-01 1.970065931473579182e-02 2.623049450583885278e-01
-4.369475921805645591e-01 3.268223257527801962e-01 -1.223267165020916480e-01
2.860028487429022714e-01 1.416062924102663989e-01 3.475954549764331269e-01
-9.184189662371890217e-02 7.575435024225971592e-01 -6.516310392393391826e-01
8.817312196461591922e-01 1.021476765213783500e-01 5.125584092009759507e-01
9.286805894183246535e-01 2.736259381332252216e-01 -1.932859090097250043e-01
-5.545130282786543408e-01 1.261419939407552523e-02 2.069945141216495699e-01
1.646839653674303239e-01 -2.764501515634523732e-01 8.688367394246749864e-01
-1.232776096967735519e-01 -1.984224445405348980e-01 7.334580417284369824e-01
6.180455832267481853e-01 1.181218843975143373e-01 -3.881263092812259341e-01
7.516679070093927884e-01 -1.158627654320896171e-02 6.699516779734902006e-01
-1.523173062989034710e-01 -4.484230380451885711e-01 5.433935938659222725e-02
-3.224665416930708739e-01 -8.901512121842763969e-02 1.611494864293704643e-01
1.376780875306465590e-01 -7.044557704169627232e-01 3.124051893858376672e-01
2.485338471866906374e-01 -8.271099514861748880e-02 1.997863988635592003e-01
9.788304299949261711e-02 1.240590724875938605e-01 -6.222599750033966925e-01
-2.611950749511733338e-01 4.416719150024691065e-01 -8.676078639117007496e-01
1.780045465999901266e-01 -2.897199248033004992e-01 1.858304735865685675e-01
3.298384732104011619e-01 2.764274258816204477e-01 -7.057127302347759867e-01
5.015078732588269528e-01 -6.115150728331564256e-01 5.017885701783768582e-01
5.023593145999319942e-01 1.500868766039604729e-01 -4.759561272789045172e-01
-5.004297809721838242e-01 -2.775615935829370828e-01 -5.000691813182953638e-01
-3.100655781010217549e-01 -1.126623282578758795e-01 4.233966752219296414e-01
-7.230757049078215815e-01 -2.340505161001298073e-01 4.274578231113797533e-01
8.372420014931698518e-01 1.692899511118169109e-01 -2.794821217120728729e-01
-5.156432492284670349e-02 1.135459097091866126e-01 -3.342120021646353689e-01
-5.905031150097447279e-01 -8.066438437275626205e-02 3.510801866538338367e-01
5.016562588496824571e-01 2.254057313889238356e-01 5.613667542347869910e-01
3.674321004738347884e-01 5.308116595545875338e-01 1.105752196866360559e-01
-6.573793643438253786e-01 -5.951776516570134179e-01 -1.415533902082844186e-01
3.069519537359248207e-01 1.086004066483251540e-01 5.617896085347878765e-01
-3.294682903655954398e-01 -6.097589466594496160e-03 -3.985323908787181957e-02
4.121189535452226549e-01 1.833857580806192711e-01 5.577825504267959200e-01
-4.817517780121060023e-01 -4.499608480142432976e-01 -2.890097651916845312e-01
-5.995818279425145780e-01 3.764599188255953743e-01 -1.688024789055332653e-01
2.718175284437606143e-01 2.518210253484765571e-01 4.689323893679794852e-02
-9.731209697455109886e-01 -1.188870309833983153e-02 -1.956770217523457478e-01
-4.829384325100199993e-01 -4.152092914666871692e-02 2.768518163037890778e-01
-1.388141776057071342e-01 1.758990036125647471e-01 -2.308539656520123273e-01
2.736564624163711490e-01 6.326160565667572622e-02 2.195121954416142107e-01
4.516770293789757473e-01 -3.975307202617017199e-01 8.315497871769601534e-01
-6.563973900157263897e-01 4.705788960304482793e-01 -5.751676272569493653e-01
-1.687375702870628214e-01 -5.425187571843291812e-01 5.662680074544035325e-02
-9.143714289381840166e-01 -4.330083023123847408e-01 -9.910956468732283475e-02
-8.704662258578591549e-01 -7.525415961585456281e-02 -5.142049791410701065e-01
-1.225270179466309561e-01 -1.786088653172731577e-01 7.098815784339337354e-01
5.310038654570820027e-01 2.968999496844186292e-01 -6.099875480191450094e-01
5.493256083777493526e-01 -3.948107522260060342e-01 1.762369058705149649e-01
2.710438112730719218e-01 2.209187235846232222e-01 1.754238286854337137e-02
-4.107360607132664598e-01 6.604125339691603314e-01 -5.393539712778653294e-01
-6.735992025537245187e-01 1.350494977135521801e-01 6.132115034231762352e-02
-3.768744286554439604e-01 -7.449347428291410722e-01 1.220042910563943206e-01
-1.258632605115151126e-01 7.257200968529426977e-01 -6.990701076211293108e-01
-5.564747748963655427e-01 5.668063547963582138e-01 -5.435708313419858051e-01
5.657555626522620118e-01 4.268695126855100996e-01 -6.333529089563781911e-01
-2.658944385819730916e-01 -1.647827044006559549e-01 6.062738379954876189e-01
6.648872470217954689e-01 6.576445360450868804e-01 4.053975359808851403e-02
-1.786054594095790871e-01 -6.398853429978069718e-01 9.832766293915491673e-02
-7.947466398399111176e-01 -6.067624162807229160e-01 2.098683609268343075e-01
-3.832894002968886271e-01 4.274236447847383769e-01 -1.777493813185032356e-01
7.598555356703734498e-01 6.385126983548811141e-01 -1.832327589589344621e-02
5.861859441838102036e-01 -2.966357029571717319e-01 9.763648580495387641e-02
-4.235588979987180147e-02 -5.522744144466865679e-01 1.339303627961721810e-01
2.770014476074571519e-01 -1.172983442193474279e-01 1.643575287110123906e-01
4.698860233516263252e-01 3.192599988326861871e-01 4.292271252068792231e-01
-1.906799693518834715e-01 -2.748490419299820520e-01 7.300868138525494488e-02
-2.554901931225535550e-01 -9.787370736282129113e-02 -2.910270786150598310e-01
-6.935925608368803674e-01 3.002057118538146163e-01 -6.928542241601346463e-01
-5.061519275398286277e-01 -1.183881250565841647e-01 4.299776200405215354e-01
-6.628623207495969449e-01 -9.071539210549288412e-02 3.378451689348574982e-01
7.639389347081677606e-01 5.616676432691128928e-01 1.559611397919733466e-01
7.113112433493058440e-01 3.469823899789838406e-01 4.542594298029043465e-01
-1.370010504223369285e-01 -2.147204553542660654e-01 1.939210290251859592e-01
3.487961256054478154e-01 -3.748313769897580663e-03 4.351584381876558855e-02
9.984280707722702208e-02 2.405719427787811338e-01 -1.968288239068631540e-01
-3.500590230389308832e-01 -4.699696896331989615e-01 -1.452586430431526965e-01
4.604169842790462042e-01 2.603090364445249105e-01 4.956673053606778789e-01
8.456216943282925114e-02 1.152923285255679497e-01 -6.087579548733172974e-01
-1.273252895977190248e-02 -2.140128290804335642e-01 7.960184183263276925e-01
-6.078529088911083234e-01 -4.308920863215773278e-01 -3.618551487348571349e-01
-4.118613845983795652e-01 5.682005036222808059e-01 -7.440952718790734277e-01
-8.589078898801942863e-01 -3.917926317047406015e-01 -2.862041063758765103e-01
-3.191529913688373465e-01 -4.652506764346129309e-01 -1.132735087737055807e-01
4.680529680239071955e-02 3.943044637791781049e-01 -1.339136200152993561e-01
-2.768921131466278718e-01 -1.325092201054915153e-01 1.245874984391483753e-01
7.187281058165544412e-01 -9.265180979761698798e-02 -9.369542301408156915e-02
-3.165703776664268165e-01 -3.987740888381700044e-01 -1.472571427363836283e-01
-8.029248565717225228e-01 3.637529737037194927e-02 -6.168812660154073813e-01
-9.102309146684527397e-01 -4.611850208303602816e-01 8.180951962098731434e-02
-9.871176052400086887e-01 -2.010441298705175350e-01 -8.227093125097963144e-02
-1.900087792594693306e-02 2.822779944158549381e-01 -1.963195372401269623e-01
-5.392019949110704591e-02 1.020348715520923849e-01 -3.493886831078927835e-01
-1.002683969078378562e-01 -6.128154226722845044e-01 1.269511355955892096e-01
-2.951359607361616066e-01 -1.057820079159373372e-01 2.985760028066824501e-01
-2.848249733686532004e-01 -6.290801714089300223e-01 7.481950129853733866e-01
-3.000770821212688233e-01 1.227396206943197170e-02 -7.291732223982020367e-01
-8.737227530838284073e-01 -4.697551179554636941e-02 -5.186530099344622835e-01
4.687046994698318425e-01 1.631481240548993961e-01 -5.088309931584521495e-01
-6.181055463573716935e-01 -4.777023989443071050e-01 -3.073586666211524099e-01
-1.028118788515518800e-01 -5.017763357532698532e-01 9.176163103725094861e-02
-2.190535509622965338e-01 2.936045060925659977e-01 -1.695008521692513426e-01
2.611701892650330481e-01 -4.582454015778663625e-01 8.687509252610323696e-01
2.988545783230900921e-01 2.251309704571163306e-01 -6.741025441171019095e-01
3.176603415951131243e-02 3.728389421846329821e-01 -1.459632851713592860e-01
3.230192976533624583e-01 -1.862344590745391992e-01 1.307554687965896134e-01
-2.266160881031095697e-01 6.055166650317039823e-01 -2.534399707426601145e-01
2.685681461389534674e-01 5.924236092057864195e-03 2.014049092361777649e-01
1.021906848185487882e-01 1.690668612238541424e-01 -7.064955046906485903e-01
-2.701361765498682677e-01 -1.340332156500147476e-01 -3.355886343763081481e-01
6.000210372609782877e-02 -4.905795416949582793e-02 5.445540479434078929e-01
3.091243073037084899e-01 1.248089410449054887e-01 -4.608775968003074319e-01
-6.748126488706710502e-01 7.088247129551203396e-02 1.350618073331469882e-01
-4.871811525053819092e-01 -4.052244584826707879e-02 2.766993343668847083e-01
-1.952476079458867197e-01 6.430321247597111656e-01 -7.779099601848066259e-01
-4.494740490964686530e-01 -1.622383461361945889e-01 -6.061719171807550266e-01
9.313785369993898833e-01 -1.204564867314029120e-01 1.869532516137790423e-01
8.623523163830004723e-02 -7.102314639371376526e-01 7.345667370357983339e-01
-1.062724039957016892e-01 -6.728646743606570002e-01 1.621017481184219289e-01
9.885683728136700210e-02 1.525038247834376581e-01 -6.830109564914551568e-01
9.645798821771228715e-01 1.161544071342992673e-01 3.651668321326866917e-01
4.283599313693781108e-01 -4.413823402681891772e-01 8.264571993138901673e-01
2.400500997128952527e-02 3.415240010336964560e-01 -8.530308037179664682e-01
6.349723107784920328e-01 -2.135122892165144393e-01 2.400761389907898197e-02
1.359582490182485379e-02 7.690479083970213070e-01 -3.229986458399735083e-01
-2.969497074586517349e-01 2.044151296206507262e-01 -1.361461597276214519e-01
8.424603182818566349e-01 -1.474072696272390737e-01 5.189508256543914899e-02
7.434047007097638327e-01 6.728636160933902932e-01 -1.914108951951806747e-01
2.349072719422301281e-01 2.291609880763292861e-01 -7.101281578419690321e-01
-2.058459005912755824e-01 -1.193706501170294226e-01 3.879964668751392232e-01
6.967362545661696105e-01 6.339315177259245981e-01 6.990262236295873011e-02
-6.365399649366696444e-01 2.217000364950709179e-01 -2.537729213301662470e-02
3.654236689341561900e-02 -6.827353866306523633e-01 2.394818927049552071e-01
4.701950418020366951e-01 -5.207745436690497387e-01 2.688241183834625403e-01
-3.683131263652062448e-01 -6.752145273455800734e-01 6.778446456651077145e-01
-9.211773931937150550e-02 7.707918089336226464e-01 -4.066408072327821199e-01
1.734872911186056965e-01 -2.374448758800518089e-02 6.666347377407400021e-01
1.839294351899163071e-01 3.469576715584657411e-01 -5.461430019312862177e-02
4.506905042258023408e-02 5.083810184743039473e-01 -8.551285562752658498e-01
-7.467948232388551544e-01 1.324386102031870904e-01 -6.766020376656655122e-01
-7.474785641350764065e-01 3.961158909723898613e-01 -4.901752466821975296e-01
-8.003634240420046120e-02 -5.096529867874410868e-01 8.493321751109527140e-01
4.679195821564525182e-01 6.756130042652466194e-01 1.984377992973769891e-02
4.538648871455256417e-01 -3.342156739179759639e-01 1.318251411281009255e-01
-2.446281526363749959e-01 -4.859867543361708758e-02 -2.537883847038084340e-01
5.447217383195324114e-01 -3.752718078852362305e-01 1.589979969355843903e-01
-1.230541975927945675e-01 7.743029607832222494e-01 -5.666901438828247928e-01
8.915017261574174068e-01 -2.242291324481735237e-01 3.596410810714587569e-01
2.188121954218349430e-01 6.583437503508928756e-01 -7.577281177803312229e-01
3.103385444359489931e-01 1.094725171320661272e-01 -2.878455811863185887e-01
-8.558257489390074246e-01 -5.222224508106773078e-01 -5.696136627832106003e-02
-4.400933041885933816e-01 -5.280741391683237973e-01 7.067487426323059152e-01
4.628286972891813011e-01 -3.126901847722160510e-01 8.423753878297866038e-01
-2.291614037468927279e-01 -5.876803747843550862e-01 3.348217167909951775e-02
6.887796062617936865e-01 -4.454297543087544775e-01 5.812442664102958068e-01
8.637004228491756974e-01 5.454001343289250903e-01 1.621385148108938148e-02
-6.889624877262594538e-01 8.875329822265254354e-02 1.110620426239263270e-01
5.099472596041924044e-01 -6.552146367831340745e-02 7.856160160583833818e-01
1.449571383282317605e-01 2.129460296149197074e-01 -2.021610813941415452e-01
6.355668389264511609e-01 7.197494294652377889e-01 -1.030175737001678971e-01
-3.246058241328714233e-01 -7.296765616030856938e-01 6.470882748134177964e-01
4.719887832226885016e-01 5.788263744153476775e-01 1.413081919678022547e-01
8.145609565042679634e-01 -7.598482811966680850e-02 -6.100702157632848649e-02
-7.280926574082252634e-01 -1.857625794280966525e-01 -5.725918384223189772e-01
6.936159195395484867e-01 3.343597681938795946e-02 -2.526732093527103151e-01
1.114437492662466028e-01 1.540945732903319654e-01 -3.124847711944208628e-01
-8.523418374983938728e-01 -1.831614380367607986e-01 -4.824783780003432665e-01
2.750786479780960581e-01 -7.247250237190612232e-01 5.666907835039913799e-01
-2.705197343256399156e-01 -4.800375009174412400e-01 -5.235786997520541081e-02
-3.710558436447950470e-01 4.834258864922318377e-01 -2.083011793868319306e-01
-2.824148958608466708e-01 -1.729996237290960803e-01 6.127283099335161243e-01
6.033686193094865979e-01 -5.414398837511779083e-01 5.019760460587727735e-01
-4.009917295167036433e-01 -1.589136640571324199e-01 5.335880377623476445e-01
1.432590444308539102e-01 -2.508844554077883648e-01 2.034600118149282877e-01
8.868361955989050305e-01 3.677480074213990147e-01 -2.793800071831386567e-01
2.684629170662353737e-01 7.307837330251831798e-01 -1.369003488817131242e-01
3.649893133275151913e-02 -7.583581566164565579e-01 6.694045087132789451e-01
3.859170716008250568e-01 5.441896284097625935e-01 1.157074574730565797e-01
-2.454632441776164742e-01 -7.613297049251899207e-02 -2.918894400733524352e-01
-2.945271756068015834e-01 -4.511953794606345103e-03 -1.164666703454475954e-01
-3.195061485493291831e-02 -8.612322270381823908e-02 5.366435365243681366e-01
7.229936851495731842e-01 -2.268302742174403419e-01 5.845495170970396032e-02
4.698082014859667477e-01 4.416253325157191711e-01 2.867317348954183664e-01
7.654592685086644144e-01 -3.751447519334880076e-01 5.296350477268944035e-01
-8.846251623873939429e-02 7.554092592514567439e-01 -3.637679578913501910e-01
-1.293004665364031955e-02 -2.231109037681049956e-01 2.332213116785942231e-01
1.610395484132168265e-01 6.042243324627153411e-01 -8.029685325507913696e-01
4.003427405867811539e-01 -2.857965368558921804e-01 1.210578408935208544e-01
-9.577807798316089194e-01 -3.005742204047643154e-02 -6.356326632698616752e-02
-1.455804966805384904e-01 -8.037792567043265946e-01 3.343373179511867632e-01
-5.434109915741316410e-01 -6.215110022431491466e-02 3.287710047581339223e-01
-1.580040845898540436e-01 -1.359739263283590294e-01 6.071337879358263967e-01
-9.789490389596413600e-01 -8.914401182798761814e-02 -2.618911575137605197e-01
1.052568780626012418e-01 -2.216879849989386031e-01 2.251069126047108293e-01
-5.833499408072001513e-01 -6.813902876988288115e-01 -7.268327973388646369e-03
-3.071926123907862682e-01 -4.209799310102688152e-02 -6.786963101648019192e-02
-2.683015036351750204e-01 -1.178502958905948417e-01 4.502717089460439026e-01
1.031767874715750211e-01 1.355507467083771622e-01 -3.547179602895076389e-01
7.923356081371958626e-02 1.649727438238412225e-01 -2.969878853149234277e-01
-2.251483407634861933e-01 1.170489072953667664e-01 -1.962652246032119685e-01
-5.224329236533187260e-01 2.979335908726410756e-02 -7.593216536047912024e-01
-6.850759645889032967e-01 3.794905751042159520e-02 1.723866078410072056e-01
-9.542964337173699407e-01 -3.307770734471524587e-01 -1.567523175345864050e-01
-3.403835740929219145e-01 -6.157627265187989307e-01 -2.330088341710422062e-02
-8.301899385272125675e-01 -8.392763969149059922e-02 2.098751476700648488e-01
-9.363749774701694006e-01 4.824093833596201941e-04 -3.728256311938191181e-02
-3.159573382282528931e-01 1.158420633868523786e-01 -8.102625221871140315e-01
-7.209920880690082745e-01 -1.380738453991304238e-01 -6.070968480165344072e-01
3.113382778221970293e-01 -3.885308014228403550e-01 1.707237538715635772e-01
2.697714666696153785e-01 1.155176034164835108e-01 4.047065793804308087e-01
-7.927109217760285320e-01 -5.360620502087028866e-02 -6.017983070260936040e-01
2.448091189232864395e-01 1.430315282082724182e-01 -2.412041010707212940e-01
2.732648992215307437e-01 -1.743013764912632602e-01 8.407721923207636117e-01
4.049481504977948954e-02 1.092961422395169885e-01 -4.018758564788267318e-01
-9.697816431195019349e-02 -1.223090165135159307e-01 3.852685707820774352e-01
-4.357699002977218905e-01 -4.868821339056767644e-02 2.622380783473660659e-01
-5.285825152357634948e-01 -5.062228676491006274e-01 6.524976688971728667e-01
-8.602775629039998151e-01 -1.087899396676126340e-01 1.966023676850314761e-01
-1.767937028046562553e-01 -2.509479748522057130e-01 1.127544992221610476e-01
6.711991455922969863e-01 1.844810857240714586e-01 6.062653098918807659e-01
-1.145398082411319268e-01 -1.073765658336154338e-01 5.080316682850252175e-01
-5.551270201499141077e-01 -4.674728296819848777e-02 3.029461995050565237e-01
-8.781828549761977465e-02 -2.464089175445273172e-01 1.902433764383612003e-01
-5.272280879600712566e-01 4.170582009045014082e-01 -1.864685074291972389e-01
8.267198537358556587e-01 4.208531700524482666e-01 -3.712990224927478211e-01
2.688107069266738591e-01 9.539645169824918780e-02 2.810112949428676399e-01
-4.701956057940067102e-01 -5.246414260010485719e-01 -1.995610090336065179e-01
3.150891417642238679e-01 -6.829477872442418773e-01 6.610471708596082907e-01
-3.871103722742846309e-01 7.194431472433912567e-02 -1.094115863177356346e-02
3.806332840951106578e-01 1.727037637632457268e-01 -5.608495512827803564e-01
1.161352943573227547e-01 2.707494377562473797e-01 -1.607573087926581767e-01
6.587664643101692752e-01 7.265534503271500189e-01 -2.140318584587526662e-01
9.942030483888070203e-01 1.185036967013532450e-01 7.260791778836753196e-02
-1.606438258955103157e-02 -9.170697565570606891e-02 4.401273479408003286e-01
-6.240937025452394232e-02 -4.897065928681658131e-01 1.137475898859158091e-01
1.663106396881184057e-01 5.257023217238077084e-01 -5.858959752639795321e-02
-1.873751177679072177e-01 2.766459627308553645e-02 -2.943480326205367703e-01
