3.293555467084581245e-01 1.414709009941146067e-01 2.199832937497857854e-01
-1.314931131300240141e-01 8.741565921120316718e-01 -4.413945998766163892e-01
2.105005202667771524e-01 -9.979115871153332318e-02 6.237956145220733273e-01
4.312038746622886415e-02 -2.338454464853636020e-02 -6.164750681782349417e-01
9.238441308080027614e-01 -4.085243920574598286e-01 -1.500052517681630393e-01
1.077570099530218879e-02 5.488507097171562155e-01 -8.114584130961908226e-01
1.029690840017745967e-01 1.310906412045563796e-01 2.726368022375658118e-02
9.212148484589044450e-02 -5.783963852684964602e-01 -1.526275565381159660e-01
1.765858427209123782e-01 2.054445665243063712e-01 8.044070457616754599e-02
3.437592414460814427e-01 2.226755509640496455e-01 1.662866850228603977e-01
-1.757218396159968554e-01 4.355521629120966826e-02 6.461267523824646419e-01
-3.987702345682105354e-01 9.726528495479380698e-02 6.732298162431635813e-01
7.259960211470686819e-02 -1.263739317785627647e-01 -1.782471233803443189e-01
-1.242583842600810534e-01 -2.347437992576035803e-01 -7.187864245096442506e-02
-2.112793667380385154e-01 7.301436379501893281e-01 -6.648979709589241116e-01
9.051530663320822567e-02 -1.758425313321403671e-01 -2.436157089589971736e-01
9.640390829046029397e-01 3.240721470530428389e-02 -3.424455634241725943e-01
-3.509120698644970782e-01 -2.400881216221093795e-01 -1.837027453257166765e-01
-3.700550898545988399e-01 -2.449253836607981905e-01 -1.887138402248205726e-01
3.112162004688814321e-01 6.909477588957120275e-01 -8.410046138181045960e-02
5.395090490220149082e-01 -7.504924247937941884e-01 -7.410685393551860733e-02
-5.754505321113237981e-01 3.640077380933288143e-01 -6.091732087382585314e-01
-6.086666994435805389e-01 4.950763946070487753e-01 -5.680143595025021197e-01
8.041822825509744588e-01 -1.063636509429184557e-01 3.420804453859470629e-01
-5.371052958961837209e-01 -8.333347150714411067e-04 7.149858715822982047e-01
-1.985046468453286472e-01 5.289294725388568597e-02 -6.006130544518717418e-01
-2.456601583165233249e-01 -6.464681717707421171e-01 -2.759162277313716594e-03
-6.866442962925797255e-01 -5.573521890151352798e-01 4.680122354020099240e-01
1.652047932683973763e-01 4.183229266781426370e-01 8.333902459591023548e-02
2.342095980256264087e-01 2.691784099210043843e-02 3.636065401435923383e-01
9.564280968220711943e-01 -1.387062064153297691e-01 1.284316154044103098e-01
-5.480288875111275805e-03 3.500066105083676771e-02 2.227696404085850179e-01
3.717665031845051593e-01 7.692345254633836671e-01 -2.838227481630751226e-01
2.099665220651540654e-01 1.559292649569040401e-01 1.088974134058257048e-01
1.732241518249578727e-01 -7.874242563406469442e-01 6.334517943092410341e-01
3.699425820812502486e-01 6.253381390729459421e-02 3.473477473340163546e-01
1.510344947485425804e-01 2.125041864821256288e-01 -8.231643572772462392e-01
-3.263586690712728250e-02 -8.348906738105996150e-02 7.065844728490731086e-01
-6.054795871720093647e-02 1.059849999600333964e-01 2.603800865867357262e-01
-3.013038406602180572e-02 -2.327459477914404773e-01 -6.689975939567241459e-02
-2.065768824568193496e-01 -3.889334580934471902e-02 -3.964646866858582142e-01
-3.435471277373746135e-01 -5.817597905426724614e-02 -3.909183317281301195e-01
1.534204439012437637e-01 -2.422844066986157563e-01 -3.575606018091933569e-01
-1.977357277190986973e-01 -5.096251686060819519e-02 -3.417676997329901489e-01
1.044526537965480457e-02 4.627670201725697097e-01 1.215781849011198928e-01
3.073967574793200486e-01 7.731573507191887851e-01 -2.106343585768874205e-01
5.931428376258734286e-02 1.287013933609800279e-02 -7.152528490795220795e-02
5.010376915312287904e-01 -4.346833876286105292e-01 6.547639738589504654e-01
-2.733595634994201995e-01 8.428514214361901846e-01 -4.712849759494595614e-01
-1.265040053041942836e-01 -4.234677023016376884e-02 -3.646770792882524925e-01
1.863408301455374561e-01 6.384388546883465465e-02 1.525556998973402190e-01
-3.863723687168762327e-02 -2.460344895280968114e-01 -7.130860298866742442e-02
-5.236336364358329387e-01 7.400548817142768021e-01 -4.485934890139273157e-01
4.607370127092270257e-04 4.025175331637922266e-02 -8.051718599962646994e-02
-3.844854716236294490e-01 -2.454168327558765295e-01 -1.939168206446642839e-01
3.328259968022329596e-01 -8.694700212728392330e-01 4.049265118816131603e-01
1.642119835951335871e-01 3.515682636743923395e-02 1.921705021784649303e-01
2.634314687216047779e-01 7.768867185850413248e-01 -1.810338484318306240e-01
-4.650781113077241680e-02 7.652902608963178810e-02 2.192044109503137050e-01
2.802312124294699114e-01 3.557110473719323762e-01 -8.397369275785667719e-01
8.981428922408514204e-01 2.851348491317430844e-01 -1.686488365398139677e-01
-1.599718300661707171e-01 2.526102102523850590e-01 3.429509942284297841e-01
-3.358349859483619748e-01 2.487909306569949519e-01 5.321689912694711477e-01
-9.838997648201882607e-01 1.835407221387179988e-01 -4.089353973930492242e-03
-7.940453186900541249e-01 -4.279904384960191432e-01 4.458333817482398875e-01
1.527914865843169601e-01 -2.026615991271858708e-01 -4.179679213817114047e-01
-7.734526130710540626e-01 -4.885488457578717192e-01 2.521297626728082886e-01
-4.057452255579468980e-01 -7.086392259342541022e-01 1.326865328900304064e-01
-6.330867733631637684e-01 -5.888627640329704427e-01 1.627550480278747158e-01
-7.350995813532488210e-01 -5.009334018506313990e-01 1.593108275209547398e-01
-1.003707554759194903e-01 -5.032745579974559069e-01 -9.393659707424015237e-02
-3.921516961975095028e-01 -6.536728160567187307e-02 -3.890736596219387389e-01
-3.049742202230526500e-01 4.480577841796760247e-02 -5.549305730674136683e-01
4.147115733686065897e-01 3.102103363413372117e-01 -8.165500923649805509e-01
-8.308546481167791153e-01 3.385419978749639180e-01 -3.597265422028474990e-01
3.805816650333379014e-01 7.270339768606296459e-03 4.326083097959582124e-01
-2.957970917440874148e-01 -5.105228211737111721e-01 8.023807178492051717e-01
-2.525903719651872437e-01 -8.242928877881692262e-01 2.348578263628708085e-01
-2.671739449280358669e-01 -4.868757247466544702e-01 -7.490486885032755782e-02
-8.884379878868249314e-01 4.741817330786812779e-01 1.899137563587195363e-02
4.650602993180567024e-01 6.300607738210333153e-01 -9.717154970032419736e-02
9.685832987055202625e-02 -2.178915902568388796e-02 4.750904856367534762e-02
-3.554937423511633221e-01 -6.888177811718224630e-01 7.601100645905115027e-02
-1.865158539009663385e-01 -7.025560118930788134e-01 7.182489645093167452e-01
-3.480432775704194182e-01 7.840688001450681899e-01 -5.369526884549610246e-01
-1.167436463798934426e-01 -6.298908055925156457e-02 -5.010538881733297284e-02
-8.322867692008103502e-01 -8.137649554570951238e-02 5.538776198872661372e-01
-8.380887766250609550e-02 -1.726658058850490812e-02 -1.642159527159749999e-01
4.708176063096319863e-01 5.525225070429857777e-01 -1.943140150233782504e-02
4.779889890592828872e-01 6.298984179997475508e-01 -1.055808572522354549e-01
3.573899907173856416e-01 -8.783595027703507974e-01 1.926958274146554906e-01
-9.826942491172264704e-01 1.601878910195777550e-01 -2.079237047006098418e-02
-4.804735688703053453e-01 8.157904728615040790e-01 -1.539469286690587357e-01
1.202615118089829654e-01 1.915353230226199410e-01 5.436315675037571571e-02
2.027267101609744604e-01 5.191035136956359541e-02 2.246650198973950963e-01
6.893153614558862607e-02 -7.308792292172971994e-02 -1.147912420267370448e-01
-3.056709047835763915e-01 -7.016901584770152134e-02 -3.563199372529178843e-01
6.962289909400510846e-01 5.557228746363154226e-01 -4.096144175604623516e-01
-6.623922521989545897e-01 -6.022429666911101043e-01 3.988286980218776479e-01
-6.497041624494222234e-02 6.262129977144900717e-02 6.740728938925326374e-02
7.925553242642445761e-01 -4.551652484880184257e-01 3.909968117089797635e-01
-1.430468300148747367e-02 -5.025891470604314515e-01 -1.222061836688353303e-01
-4.670042905589530946e-01 5.290108053328487769e-02 7.009987707396916345e-01
-9.861492721724205435e-01 1.958879947968168445e-01 3.218437846514276418e-02
-6.783417855183535017e-02 -1.521147033556612960e-01 -2.309259916813856048e-02
-9.786308255207847029e-02 -1.154666285186088798e-01 -2.522961105670880680e-02
-8.937322217195895480e-01 4.259052647475628506e-01 1.395319851198765226e-01
7.202986774432614814e-01 5.032331408326365940e-01 -1.719581559950766336e-01
1.035797589633300451e-02 -4.045656673245711654e-01 -1.373145984890839777e-01
1.976417928030129931e-02 -6.405436443817072445e-02 -2.401631410533701660e-01
-9.734136349107613828e-01 1.767019085368005671e-01 -6.435771410073502785e-02
-2.196336464649603915e-01 4.256587538449924657e-01 -7.848518119655825132e-01
-2.180228385980073347e-01 -3.058622964151995194e-01 -1.051146027495006019e-01
-1.029104747025077066e-01 -1.842753275959458856e-02 -8.065578230522248149e-02
1.306454102951375429e-01 6.355415293730498627e-01 -7.703444900688501962e-01
-8.693367795348587723e-01 4.791086840406679759e-01 -1.838137129759549737e-01
2.449012948080064866e-01 -5.223738847494503457e-01 7.639752691870594914e-01
-1.133031193008203347e-01 -2.854617505017965906e-02 -4.651503636436853384e-01
3.019120194584908046e-02 -2.296413666439874879e-01 -1.013199767656472738e-01
1.229443838169229780e-01 -3.312696545275261532e-03 4.933729535846935743e-01
-1.467312073479536128e-01 4.136661048907394438e-03 -5.387280963080354201e-01
1.410577119217965580e-01 -8.658444968244749518e-01 5.192800279182946399e-01
-8.874492678329339024e-02 2.213788079833602651e-01 2.085818492283220416e-01
-4.892472081343595125e-01 -7.318355660362148019e-01 3.148976419516840153e-01
1.908022942019957091e-01 7.045676862075239688e-01 -4.639455248739453308e-02
-2.089860786103598100e-01 -1.310504266482185876e-01 -1.503375764156574534e-01
-3.121538832155557053e-01 1.371046876099519807e-01 -6.484642121769331746e-01
-1.557923723202515598e-01 -1.523018177731056133e-01 -8.126796911213714225e-02
-3.827787047645774265e-01 4.922647045926989429e-01 3.457192807024027092e-01
-8.175990334307653429e-01 -4.289958816856779822e-01 2.200967639847007107e-01
1.359512491464153483e-01 -7.970570366690683806e-02 -6.050492839406588219e-01
3.832440593475199692e-02 -3.858816906743049446e-01 -1.533012471417094236e-01
5.109201793593867169e-01 -1.197409347919016903e-01 -6.811451228922887902e-01
1.989971402442003989e-01 8.297282480079598566e-01 -2.629006305324372295e-01
8.563794917204821111e-01 3.078042494272673624e-01 -8.025886380042965285e-02
3.785483186453387772e-01 -8.093131613403710123e-01 -1.468926072223362619e-02
2.744626129139393078e-01 6.109075781109013503e-01 -7.589126491553161991e-01
-6.589797204539554754e-01 -5.855701121342442583e-01 2.030034437878507625e-01
-9.304307339275593725e-01 1.255645578642373417e-01 3.633990388222118062e-01
-4.487289108043579500e-02 6.377540715123272697e-02 -2.068439544370814787e-02
-4.974136556906553208e-01 -6.065986719352832734e-01 6.118493259113038513e-02
7.337596287052235156e-02 5.167293202949958114e-02 -3.076514525284319151e-02
-4.531452850829284507e-02 9.637906460535990150e-02 3.013110204528375233e-02
1.568191292378810081e-02 -1.298382760389404922e-02 1.465408027844254391e-01
-5.476037028861668876e-01 -3.361296344835630889e-01 7.552245590320707525e-01
1.911896018588990775e-01 4.974584316203761736e-02 2.055070973007520063e-01
7.469390950807135166e-02 -2.878841462611787111e-02 9.964622309664147859e-02
5.316548958395364566e-02 3.228043612654704630e-02 3.201705326584189937e-01
4.794608369606856955e-03 -7.352995184421330654e-02 -3.198779703948941289e-01
5.287283012749339761e-01 -6.486340743009139098e-01 -2.335853270868909481e-01
4.849761269078850523e-02 -2.527200990288285681e-02 -1.216836593697738916e-01
1.219270699469005431e-01 1.080400771796869233e-02 1.613509890783608736e-01
5.592868667265773475e-01 -8.003830053509388698e-01 9.028601828986229649e-02
4.769804642720189003e-01 -1.326862140679553881e-01 5.599834741411479078e-01
1.524465556182491022e-01 -1.726723007427990175e-01 -4.719913527213288051e-01
-6.601011390934156953e-02 -4.829079359143945149e-02 -3.273964911365226382e-01
2.107138352727975228e-01 4.424902454821089126e-02 2.722288985239731951e-01
2.440557384669571686e-02 -4.690719490378295053e-02 -5.581917640479028275e-01
5.699565491846221299e-01 1.526259314411333376e-02 3.993639434366273444e-01
-9.501277972059682941e-01 2.427011301407895338e-01 2.362608738692145716e-01
5.910123066145156479e-01 -2.405853235972351678e-01 -5.961559642026410533e-01
2.711940408880144093e-01 -6.755846539930372430e-01 -1.714404036982908053e-01
7.138692294816851858e-01 5.361974945954380845e-01 -2.538102188189476083e-01
-3.899315160555080206e-01 -9.766102969455491001e-02 -3.441431221569155041e-01
-8.449501152317115404e-02 -4.643707674444521455e-02 -3.554248384550073303e-01
1.299573218132953067e-01 1.641027667711400517e-01 5.148753337131647956e-02
5.242139725141209405e-01 5.252930484843445491e-01 -6.972305834697763993e-01
8.844703887277526391e-03 -4.947752445469965482e-02 -2.223031633829242182e-01
-7.968389344575333988e-01 -2.564032049263224033e-01 5.738997844452293773e-01
-3.553049161276749732e-03 8.883560911099233626e-02 -2.220582145003476005e-02
-5.330541295072468433e-01 -3.366535879153358946e-01 -1.506413866316916594e-01
1.502003912496629665e-02 -8.082438226480495036e-01 6.300120035259386686e-01
8.198937546918125818e-01 -3.982337899446002916e-01 -3.531053141687315322e-01
-7.137900632400275350e-03 -4.861285286891241925e-02 -2.432935006595176308e-01
-4.880457675909992132e-01 -1.600282746572808529e-02 -4.446525230426420228e-01
-1.741373945518746580e-01 4.482291714197547128e-01 -7.975138743263598951e-01
2.854361490380697974e-01 -2.757778911002735089e-01 -4.959424662092501435e-01
9.733960365748656196e-02 2.293474899511860690e-02 3.031625520483280378e-01
-1.162854583589719160e-01 3.295434771916229688e-01 2.303116361627852438e-01
-1.241793103995186970e-01 2.293972437829834010e-01 2.910439585025206277e-01
7.222928250549903728e-01 3.799992953578714694e-01 -6.132067383131381000e-01
-8.269872458807476789e-01 4.792184565553866959e-01 -2.988676859274768671e-01
1.392474082007209291e-01 1.318092527154808569e-01 5.197019645223007606e-02
7.759765383258021565e-02 -1.916311001041711426e-01 -1.691517741988911583e-01
-2.181638619924723688e-01 -1.964243437367945433e-01 -1.238963430603331611e-01
9.329669702105793938e-01 -1.037827877542567001e-01 1.672047182515648545e-01
8.373913537553106384e-03 5.293139704571344639e-01 -8.172911543136893719e-01
-3.877061507177512745e-01 -4.057186085817054977e-01 -1.078685393657290853e-01
5.601491267090839832e-02 -5.097161999777554547e-02 -1.357917997670651522e-01
-8.777423390974284367e-02 6.107112541223835844e-01 1.209626507762973091e-01
-1.205271511850622007e-01 7.976211420893301041e-01 -6.124452209310511375e-01
-5.992959066156338110e-01 1.114556878764797788e-02 6.920846468662033013e-01
6.843972460857027373e-01 -5.538527879133301468e-01 -2.925700882871881681e-01
-2.812362910593092513e-01 -4.915530718284139011e-01 -7.239871676172757176e-02
1.643797718229640381e-01 1.013029201679795099e-01 7.988772625418090467e-02
-6.450295511338881571e-01 6.605887963200112178e-01 -4.094025500941904094e-01
3.465930844177432801e-01 -8.755148185632814772e-02 -6.930757765978271534e-01
7.507345569886011427e-01 2.320495503025481465e-01 1.352455006985913699e-01
-3.682778577798496988e-02 -1.053552974389853347e-01 1.802608232539186159e-02
2.396046767019361368e-01 -5.016012322015429153e-02 -6.921384968119100867e-01
-5.416193921076725148e-01 6.570846643840613233e-01 1.813633672228514848e-01
6.178803035108813152e-02 -5.926558663623147927e-02 -1.292431109102588627e-01
4.596859229266108682e-01 1.044396275366087645e-01 -7.828477225308414500e-01
-6.494820543277248781e-01 3.618059448564219238e-01 -5.536747079311921116e-01
-8.977006080141958222e-02 -1.669685389160164846e-01 -3.856286267819067359e-02
3.798360250136220695e-01 5.630196931710613334e-02 3.595622962329357297e-01
2.399613934845923335e-01 1.382220206267579521e-01 -8.050507905821826515e-01
3.718755242555522034e-01 -3.691078487681922482e-01 -4.670547197261449290e-01
-5.032940905137393006e-01 5.201158257943462315e-01 -6.394005289136641679e-01
3.385978719080443011e-01 -6.876330443359383038e-01 6.593193400071198917e-01
3.397988251405941740e-01 -4.075411627185127617e-01 7.341972154119711380e-01
-3.241965892017162898e-01 -1.583850161157291658e-01 -2.345337584209106763e-01
5.831462328537521111e-01 6.371135116936104126e-01 -4.841054653466872471e-01
6.197923129842453083e-01 -5.958457885347167027e-01 -2.733863680350538949e-01
-7.810437764400680605e-01 -3.304590124028257137e-01 5.622676039748462085e-01
4.593468079109133684e-01 -2.272444396224090057e-01 -6.106364910939393598e-01
2.401583241036719385e-01 -1.370943582011364958e-01 -6.097833316632009781e-01
-3.487054312760032304e-01 6.116789989446076437e-01 2.294593639387632611e-01
2.393488038862558176e-02 8.110041365048703543e-01 -1.071681366264433527e-01
8.265862917278440358e-01 4.027055008591261531e-01 -3.769549342380736356e-01
7.851072131682675925e-01 4.579983324508937748e-01 -3.901044529045123443e-01
-3.751315513763949644e-02 -6.385695201341902438e-02 5.178393691580893826e-02
8.277834337579106361e-01 -2.468710815625332622e-01 3.646768446055353441e-01
1.363961560184159261e-01 2.252221496993834504e-01 6.737255342328410390e-02
-2.164496062484999248e-02 8.073585109990367714e-01 -8.334974971077221961e-02
8.075451242211599823e-01 2.888121852446726701e-01 2.493756364243365081e-02
3.410558940819987117e-01 -2.382175753988024225e-01 -5.675451252387967438e-01
-8.864527430919955098e-01 3.045905084196616208e-01 3.152272218432596862e-01
3.793056167991794569e-01 -9.634266972154923239e-03 4.569074069858027887e-01
1.532799730169679409e-01 1.088031816206278535e-01 6.515288538016103526e-02
-6.499709538101612338e-01 3.563210137742920947e-01 4.702586824171474111e-01
-9.456287725737133609e-01 1.594000527247076415e-01 -1.521076109180835578e-01
-2.018902817734055943e-01 1.345447522609136415e-01 5.583094749057956330e-01
6.052699967528496483e-01 -3.143583093643682047e-01 -5.416963011742448320e-01
1.063720337428115670e-01 6.634508470638982545e-03 1.811964872302433416e-01
-5.659378683265580551e-02 8.544213552493189479e-01 -1.645525521222727106e-01
-4.270843108620409612e-01 3.421412184438840653e-01 -6.931482661016260538e-01
-7.255396029862283269e-01 2.403973871632437143e-01 -4.731987262844176700e-01
-2.661717924455740958e-01 -6.274092046832109304e-01 -9.420529222414184695e-03
-2.542359045196375122e-01 7.472410265300085674e-01 6.359063315402525840e-02
-6.120621560551605667e-01 2.637056833220414662e-02 -4.414239057182122172e-01
-1.249180601336353225e-01 5.918049866746936255e-02 5.938626621076685819e-01
4.729494317206549003e-01 3.169986852662253773e-01 1.426309137641200986e-01
7.313818784042087906e-02 -8.374066920408303194e-02 -7.637458702685719081e-02
-4.419657421813859982e-02 3.726511780126404161e-01 1.557369837948101854e-01
4.267792327855563506e-01 5.909317801083488475e-03 -7.514714383698287703e-01
1.371320772111937480e-01 -4.786078150251790730e-01 -2.159224092301415820e-01
7.035193250803041254e-01 5.306532562581529611e-01 -2.029451991152191603e-01
-7.421507671453386745e-01 -6.316403022600239336e-02 6.357063843181209872e-01
-7.581991571200888402e-02 -1.260994030785452247e-01 -1.345425847335945946e-02
-2.858282400367513909e-01 -1.117073778730039574e-01 -2.650981556314884746e-01
-1.664933787385501074e-01 -2.929485143142918635e-01 8.307291107691477938e-01
9.257491018123290005e-02 3.177199615067174410e-01 8.542439551541529397e-02
5.279986317740037460e-02 -3.390395800665045867e-01 -1.597266588413028265e-01
-7.639763051133455773e-01 5.523388793367045579e-02 -3.634071913821407818e-01
7.797252290791812923e-01 -1.797381964405632415e-01 -5.459758992163807889e-01
5.576733132014268790e-01 5.233786143991954187e-01 -6.733053959603301220e-01
-1.142621773346342851e-01 2.101673307012547898e-01 2.848299727884522348e-01
7.519872640087357230e-01 -1.379515962744603808e-01 -5.858278937155453336e-01
-7.640869911373824319e-01 5.869330439212653294e-01 1.091275451375854633e-01
2.103791884320747319e-01 -1.470719686489998894e-02 4.844565297617001720e-01
1.621544493631341122e-01 2.782897639819252589e-02 2.842297363246076847e-01
-4.622418929654016351e-01 -2.734421115247540057e-01 -1.941841591965830782e-01
3.728655377050726222e-02 2.074227057260043805e-01 5.684967615106031186e-02
8.782225712208321378e-01 -5.294132485543718847e-01 6.142455820769655156e-02
-3.287495006914758350e-02 2.803262289844788979e-01 1.330985342337569488e-01
7.465533478638977094e-01 4.258266021133310097e-01 -7.535889108149423921e-02
-4.349912671839938766e-02 5.258274884101622054e-02 1.732646940149522308e-01
-4.248364902386205649e-02 7.195177817623530370e-01 2.715940131327834392e-02
-2.451682523464383257e-01 -6.434431687688610957e-01 -4.935310500292850594e-03
-1.736641694356546028e-01 1.997069420515435734e-01 4.341396350876097765e-01
9.299178484791426058e-01 1.863566886116226340e-01 -7.950671108889607874e-02
6.281830134148062017e-01 -6.079631090649910696e-01 5.041732001816674469e-01
-3.511489936702714143e-01 8.608825003805922194e-01 -2.507875335209706624e-01
4.259303442915355342e-01 6.275507466658030165e-01 -6.778697761027872026e-01
-2.420682732636194878e-01 -8.490676212621716124e-01 3.684172215812357432e-01
-5.091830400156923675e-01 6.033605456288745339e-01 2.557878086256579753e-01
9.494039180952326684e-02 2.545002115678388077e-01 -8.285855542356633796e-01
4.447014790085988545e-01 -2.039528886308823730e-02 4.626032513202801844e-01
-1.679223933594045648e-01 4.510050474297318535e-01 2.405181467082475877e-01
1.111619915639176365e-01 -1.261912565628807992e-01 -4.962089927303875991e-01
-1.747719094104978332e-01 -9.942397117619206082e-02 -1.315315237738634291e-01
-1.464433077217902335e-01 2.234530635651851560e-01 3.491482192387465044e-01
3.593489773974632429e-01 -4.441752543628710304e-01 -3.975016086277331495e-01
-6.545420231847418613e-01 6.807647869476374236e-01 6.227662777328128035e-02
-9.157425387216351631e-02 -2.313289319972793578e-01 8.078228518020731386e-01
-1.429184105225901058e-01 -5.061114243623667658e-02 -1.711914389885103860e-01
-3.314468680302072590e-02 -1.845145089518521464e-01 -3.831539634650764359e-02
2.500636842894304879e-01 8.201882693743604014e-01 -4.608422648207761152e-01
5.520251484167688627e-01 -7.893899325631427155e-01 3.364854843406300811e-02
-4.505212755798709279e-01 -5.431925067862238832e-01 7.312007598310859002e-01
2.736113738877600787e-01 -3.764526953311111424e-01 -3.936806735905989951e-01
1.096322175041944402e-01 3.529682795638789793e-03 1.548191038311534651e-01
-2.702305204010670425e-01 2.372919005768242273e-01 -7.269519087481675079e-01
-4.412224426395091603e-01 -1.164969087903083705e-01 -3.326417044602236750e-01
3.182492322762964232e-01 -8.539929212509971279e-01 4.623703823012514369e-01
9.457764958044717618e-02 -7.976662448561061547e-01 6.376323749079185754e-01
2.862250267276195692e-01 2.579020314878835429e-02 3.868654012200894443e-01
8.290931920996563731e-01 3.964751514095414264e-01 -1.995522847728176119e-01
5.423215463749363474e-01 -3.364695333638578201e-01 -5.320665542796916281e-01
9.962949024006417797e-02 -8.969850250202417510e-03 1.170595987272409905e-01
3.132042278855669271e-02 5.165389245781842886e-02 -5.971674886629160101e-02
2.084001126472995180e-01 -2.326973933191087418e-01 -4.645472515184591589e-01
6.908711239924667513e-01 -5.454193125617926574e-01 4.756149797356913900e-01
2.314306913296437507e-01 -2.642818926333273533e-02 5.044405289124863634e-01
-4.176720154163082038e-02 1.816372066329088319e-01 1.023353307680635454e-01
5.888608444626758365e-01 3.457807961906336769e-02 -7.288721138952234391e-01
1.742795078848577983e-01 5.858495834915845163e-02 1.357450497676529477e-01
4.071306726156423972e-01 6.053122981295258054e-01 -7.091002252536254824e-01
3.384393453969278265e-01 -3.619952005432330311e-01 7.286607635523995041e-01
-2.165814663401642581e-01 7.203067270379232001e-01 8.524948368082056749e-02
-1.581018023229844027e-01 -1.363649542477352039e-01 -8.621554501975300933e-02
-1.761388966852733551e-01 -3.628149972574660764e-01 -9.464372160974517112e-02
-5.685114687324359373e-02 8.308634267982683008e-01 -1.115790717813634897e-01
-5.766274377602386148e-01 7.672440631088239815e-01 -2.855850546104248822e-01
3.892444920784122742e-01 3.425463119899240239e-01 1.193673177593613799e-01
-5.508295236617348767e-01 -6.621018402744539566e-01 5.145850439757476691e-01
-6.993598584132989515e-01 4.639113064803278008e-01 3.485576503127124082e-01
-7.911134624348495903e-01 5.500329401116375028e-01 1.371282168294080395e-01
3.336289302649543820e-01 4.187706255938636879e-01 8.238388851880013020e-02
-2.005917732734434633e-01 2.550075103801474063e-01 4.052707148778590396e-01
-1.746441323536060686e-01 1.199404219672606103e-01 5.526938678410138195e-01
-8.286288670801912337e-01 4.338750854879820373e-01 2.607541121395555161e-01
8.018635576292209022e-01 3.800154327545489097e-01 -9.030885794023851831e-02
5.281726643904269825e-01 -6.043658809909084884e-01 -2.855814041569837980e-01
8.222184178976184032e-01 -1.762291602661759937e-01 3.526331564177919708e-01
4.184210984817500478e-02 3.865413383174123169e-02 3.837772568217818203e-01
-5.721180816328084312e-02 -3.868913231540697106e-01 -1.071941236686686505e-01
6.353335543088872717e-02 -9.345557944177962373e-02 -1.715744875606248221e-01
3.391532293380543073e-01 -4.424659498636733801e-01 -3.878965667525318128e-01
4.788335373647110704e-01 -1.793247411098904120e-01 5.915871353560349100e-01
-8.519022411110497295e-01 -1.299995248619631172e-01 5.286543446730218587e-01
4.648271225640261683e-02 -1.273650905724130200e-01 -3.780120552465428968e-02
-5.526194683709205746e-01 2.756458347492025118e-01 5.530954413178077456e-01
4.766405884452338398e-02 -5.171715523038474815e-01 -1.488277661150755049e-01
-2.025801435489547331e-01 -3.128854521893721374e-01 -1.003410501114799791e-01
-2.216947766564041633e-01 -4.773383764364508286e-02 -3.705274355150116605e-01
-1.782667537969046534e-01 -4.281788341601076159e-02 -3.706979149716008726e-01
4.798074859165765149e-01 -5.888080026643125464e-01 -3.029464060134713366e-01
4.228260200546730685e-01 -5.481725499421800096e-01 6.821855638478266926e-01
-3.532739095257666495e-01 -2.437157928160798848e-01 8.148610508678703068e-01
6.562084091215447668e-02 -2.334662632184409947e-01 -1.509614800479617824e-01
-2.708402419766456348e-01 -2.644323529988728549e-01 -1.339415344674672048e-01
1.045801007478691508e-01 4.472413826793101427e-02 5.007490504473945982e-03
3.105285355266276248e-01 -1.845247740009262061e-01 -6.018608118743553614e-01
-8.436117441262140637e-02 1.533901531156077747e-01 2.533287212478044781e-01
-2.019130117556148796e-01 2.459973367232604763e-02 -5.554467866177505986e-01
-2.096047136588913007e-01 -6.600958699902785554e-02 -2.887418458065494908e-01
-2.574910381758227507e-01 4.280237598440965185e-01 3.251900528110914790e-01
9.790381258240758999e-01 -5.015918819945429374e-02 2.369435846648689989e-02
9.735977094384477837e-02 8.512985734476364863e-01 -4.873636238934866971e-01
2.750672110410675719e-01 1.100837390652620457e-01 2.097650967558496171e-01
-1.696876945407732040e-01 7.620932248513812013e-01 -6.450570042942153082e-01
9.573352834328315887e-04 7.534086192764456458e-01 -6.789131815850564244e-01
-2.737040711526868564e-01 8.143233142871318941e-01 -3.813239477256104293e-02
6.326491308228823218e-01 5.157133575234001954e-01 -6.072321009133088143e-01
-8.542555234308226719e-01 -2.509117860278916590e-01 -2.442617010204910580e-02
-1.292100140456732419e-03 1.046367388145007238e-02 1.753997042924844152e-01
-4.032311928313376814e-01 -4.737217903872418256e-01 -7.232743907112493265e-02
-8.985320542999068738e-02 -1.338477276890269810e-02 -1.359458881469560454e-01
3.454110129712176930e-02 -3.291288760509893940e-01 -1.423817968266469502e-01
2.341917945826764436e-01 4.278332834812209606e-02 3.088949078911643609e-01
4.060590016223429577e-02 -6.210667845904119938e-02 -1.894530127395080699e-01
-3.151831971668807575e-01 2.138329774173365339e-01 5.532986091270062357e-01
1.819186571889833126e-01 2.207091274597557107e-02 3.587197464924938295e-01
-3.281068434973235526e-01 7.871591759910902264e-02 6.738579836557019309e-01
-6.635785139697025770e-02 3.757352634304159111e-02 -2.441730699213739975e-02
8.976924352871298862e-02 6.698155900983530087e-01 1.766729786678460090e-02
1.140410218033811457e-01 -4.234361413615204961e-02 5.851856967694633038e-01
-6.570629925502696755e-01 -2.820938224805161765e-01 -1.651370191865542958e-01
-2.986960022492485614e-02 -1.122875283062829965e-01 7.294314372283335901e-01
6.089189930710185994e-01 -7.567528896043345110e-01 5.823106859889224697e-03
-5.623771628786409238e-01 -3.956736824858462231e-01 -1.011198752929172578e-01
-8.200126486924039781e-01 3.382495803285265334e-01 3.726346163285835789e-01
2.601497620535476174e-01 3.000951601652386280e-01 1.046564137632177982e-01
9.616689250640202413e-01 -3.587111258884294607e-01 -1.687189743945164550e-02
-4.512202751626782637e-01 5.720133699921581272e-01 -6.536171459974817743e-01
-4.998650119981494500e-02 8.471808793452489939e-02 2.296261121069330946e-01
-3.030298731234587484e-01 -6.293347036147446394e-01 2.455464972309855110e-03
-7.707733382092122332e-01 -2.948604688202454138e-01 -7.998262301517181094e-02
5.389879636889172848e-02 -2.233220581892679177e-03 1.811041434610795586e-01
5.796063410704722571e-03 2.406177065054583286e-01 8.779756287102293000e-02
3.038779013260551887e-01 1.561060255227369464e-01 1.878183711173004034e-01
1.300627646665732939e-01 -2.710398887237680521e-01 -2.779092653556697878e-01
5.851337629822777470e-02 -1.583629090306248322e-01 -9.572147390623507446e-02
9.428077638798409987e-02 2.483792674471615308e-02 3.329396139348599348e-01
-6.580199666940542702e-01 -2.108848862344226138e-01 -2.255439536981845572e-01
-5.233812970222956329e-01 4.003729996941212121e-01 4.539925366616288094e-01
-6.619728450446780987e-02 5.473145020171037156e-02 3.731254256844149936e-02
2.042707666831096447e-01 -8.527569125124637717e-01 7.095918757429107993e-02
-7.443848762979692057e-02 -3.308999873283917370e-02 2.960374944469865155e-02
1.026086509402466401e-01 -1.352251267185818409e-02 6.037490931504606306e-02
8.149917294756205133e-02 -2.474484479640966239e-02 1.002079435701933446e-01
-6.602626272603549784e-02 5.460581411289701370e-02 3.364119292420317958e-02
1.152287956183229017e-01 1.809713270225691770e-02 4.065642554039397005e-01
1.003513910247480351e-01 7.730233807465942963e-02 6.708464763449589058e-03
9.649784971515219523e-01 -2.063720041340467298e-02 4.863302588044698949e-02
-7.282220391836814744e-02 -7.833443176381119089e-02 1.230874446295089804e-02
6.706574544660954817e-01 2.355970881221738575e-02 3.541880956723399976e-01
4.037059011584858137e-01 7.645119019599867505e-01 -3.557493763424693922e-01
8.747254096126229062e-01 3.057216163251037511e-01 -1.253888701712775056e-01
-9.760666414615633002e-01 5.079961463207912503e-02 2.684046947752872225e-01
-1.485282389451387519e-01 8.588034081143709475e-01 -1.516901468989743929e-01
1.704310303689920633e-02 1.358046796081508953e-02 -1.088511807223635636e-01
1.563126346991204341e-01 7.604897022573359200e-01 -6.515029554940460210e-01
-4.830997328170229949e-02 6.966014715909661648e-02 4.820067891693745610e-01
-3.238728597070618109e-01 -6.387286527608169173e-01 1.606685046052283572e-02
2.110607580895285385e-01 1.782877783828100138e-01 1.037316386102736104e-01
-3.498571191724564877e-01 -5.133361811806204100e-01 7.868053414929410128e-01
1.313914795630431176e-01 9.860902188626521903e-02 4.221568534970734227e-02
-6.573821253414078303e-01 2.072268487281833660e-01 -5.177103415555832644e-01
-8.526411761339200424e-02 1.226873234621645020e-01 3.932646195444000070e-01
-2.296851847611697944e-02 7.273147905349916509e-02 3.425729695601734126e-01
9.125288456539440984e-01 2.649348976188724003e-01 -3.046163056514755718e-01
3.383508724708607085e-01 -9.958958364921455253e-02 5.792287465514330824e-01
1.455339194583014917e-01 5.326694292821179122e-01 6.558470733138309361e-02
-1.620836177043416260e-01 5.510842435172800396e-02 -6.182811633440363774e-01
1.393624273665318991e-01 -6.862963540506838989e-01 7.283035522023458830e-01
8.346027226825646350e-01 -5.613586754432564607e-01 2.077705024959505264e-01
-7.113714804153912219e-01 -1.217790595287051442e-01 -2.751495193732298450e-01
1.780293126554793881e-01 -2.101892519563366632e-02 5.105095371347478928e-01
-7.079636027660204944e-02 1.286052174779117319e-01 1.988786841537037164e-01
-3.339479827731255124e-02 -1.826252395662000816e-01 -3.708196787025437591e-02
2.601472562552656700e-02 -4.440773127656254780e-03 1.679262433116274211e-01
3.460734772104339663e-01 -5.982874775362709840e-01 -2.650416312832558630e-01
3.680410895685204964e-01 -8.654054609209113069e-01 1.320648358556038293e-01
3.128676885444219846e-01 2.882708718614812038e-01 1.241056248908704723e-01
9.892721761103712153e-01 -6.563074030615229093e-02 -2.556626949308057339e-01
6.646013076676346443e-02 -8.107772396965167161e-01 3.652164302109876803e-02
-2.643425804432086301e-01 -6.397455281575830099e-01 -1.769899184422613373e-03
7.842668924208177905e-02 4.180403788794950781e-01 9.859982056591527766e-02
3.815757054395560455e-01 3.537450164896708826e-01 1.130852667219922614e-01
7.654308298047304837e-02 -6.739558847002387332e-02 -3.290070365190865542e-02
7.317698634144457204e-01 -6.266609397076244869e-01 -1.418031935193804216e-01
1.318581449245856685e-01 2.235665304768273340e-02 8.959627117788261652e-02
5.022696881207096009e-01 6.900304580334534199e-01 -2.440011306432581795e-01
-4.715758145339872254e-01 5.225164496183292151e-01 -6.589249558644807436e-01
2.900199435176189500e-01 -1.239915318207738121e-01 -6.476662962661487999e-01
-6.391258117131658201e-02 -4.862548656243860512e-02 -4.141079885029931851e-01
3.403952579942734480e-01 -2.952732429892382382e-02 4.899079179983570898e-01
1.434833880678587359e-01 3.890362935664151700e-01 8.661265318608835084e-02
1.199166793855668267e-01 -6.545619618084737024e-01 -1.263314646615828762e-01
5.146623956512794140e-02 -1.620373967394435899e-01 7.391683447964677578e-01
-1.810837843401459646e-02 1.087184436791258264e-03 1.406853397479913281e-01
-7.714513909276577742e-03 3.387653582432720994e-02 2.159626095180134375e-01
-2.448835111034205481e-01 -7.649746790710365563e-01 1.115841112333502000e-01
1.422730326934427969e-01 -2.196076797743291564e-01 -3.642719672560711386e-01
-8.649085107025410446e-01 4.749107817790765851e-01 -2.066106047627984943e-01
8.701846200032765655e-01 -1.205992525540162674e-01 2.736297337102364668e-01
-1.409346622593745102e-01 7.809704397986728663e-01 -7.344976681481636335e-03
9.760373327397846299e-02 6.503792910102028368e-02 8.066059255805200037e-05
9.764346426377618071e-01 -1.099749504133540751e-01 6.244369591296970723e-02
-1.472140651232206054e-01 -6.516673372438495926e-02 -1.248854676896395122e-01
-2.858614278134015141e-01 1.301893430982041869e-02 7.113712849315646514e-01
-9.737666308743085641e-02 -1.971001395777235987e-02 -1.464054181506818930e-01
-7.720100500952546962e-01 6.041770824386963890e-01 4.766395025535570540e-02
7.778390455573994666e-01 3.603456135569080843e-01 -2.538389386312724441e-02
1.395378565296920281e-01 -6.052926479268001536e-01 -1.640071507991117949e-01
2.149113028790708424e-01 1.915639847252424977e-01 1.036177929520101654e-01
9.932794352795344395e-01 -8.690673544221651226e-02 -1.722273401796234685e-02
-8.646349274782784144e-01 -3.304810990966572382e-01 1.190600070106215547e-01
4.599533699064553005e-01 7.127864771215253192e-01 -2.406282626642440026e-01
9.727329679503383675e-01 7.929359083185923140e-02 -2.832268925200877585e-01
-5.599316120510525741e-01 4.858133336208539377e-01 3.744627861260347856e-01
-2.491054743007589389e-01 -7.210383789239936947e-01 6.100488954929543517e-02
-7.338763655604322311e-01 -2.440331993207311700e-01 6.438150940568420078e-01
9.089671091411381798e-02 -2.543763304013593393e-02 -9.876949615157311693e-03
5.194016447923102131e-01 1.885053331152501399e-01 2.420242346553866108e-01
2.652079901285853691e-01 3.431400000872414369e-01 9.741466332652325144e-02
-5.942301766874557023e-01 -6.339532225513164199e-02 -3.736403592409064944e-01
-1.804057009806672440e-01 -2.817344153916218064e-01 -9.471587423942977313e-02
-7.129052147182138310e-02 -6.124144834388049047e-02 2.225205090168074634e-02
-2.955702731469184164e-01 -2.904805706290815581e-01 -1.356226445308905404e-01
-4.989353960675801392e-01 1.432638860492653765e-01 -5.772598676789839622e-01
-5.843460791474823779e-01 -5.646093505766739407e-01 6.150378474344410096e-01
5.848188438096668662e-01 -8.181133056931998160e-02 4.755405570793191927e-01
1.061608838853223408e-01 -7.909057842922063708e-01 -2.037067065986729580e-03
2.810839497588124014e-01 -6.672302077550570365e-01 -1.822599785757512691e-01
-5.797401321908178806e-01 1.939577855412709662e-01 -5.627033376970013157e-01
9.850365064349808630e-01 6.029305493321274190e-02 -2.048331694908812339e-01
-3.790891460720462458e-01 -4.121752927522875365e-01 -1.043481053753239213e-01
-1.263307720338535667e-01 -3.950650933276229210e-02 -1.774895409648263589e-01
-2.803441709279994587e-01 -5.807208926223467182e-01 -3.332283647425521994e-02
2.681967447671466109e-01 8.136847996333224087e-01 -4.631592383304381499e-01
8.679350461883271473e-02 -1.539556711484859619e-01 -3.057296049731839105e-01
-9.814131317736270177e-02 -8.811235963318299058e-01 2.825275535524010007e-01
2.016967883955931851e-01 -8.761821438411380170e-01 1.277499250677715525e-01
8.352031862555978625e-01 -4.416944442917807856e-01 -2.874943402989996732e-01
1.328020073389156452e-02 -5.383224048399203321e-01 -1.272998538101771104e-01
1.233863441575080711e-01 1.951596767686999689e-01 5.639562500505255344e-02
1.430986654248062873e-01 2.239600381151989755e-02 3.394093953110716155e-01
-1.183086738572093448e-02 7.619333988876403341e-01 -2.654717020175612410e-02
4.040939672659750181e-01 -8.381331544068650885e-01 4.249707165611975035e-01
-3.861200687861933711e-01 2.821946784436680788e-01 5.256008228477696553e-01
-5.187565917286320882e-01 6.047570950699321379e-01 2.531313961376012167e-01
-2.249027906107423369e-01 -5.735941952763624618e-01 -4.796229596462803224e-02
1.539371327810923062e-01 -9.035164165524336433e-01 2.409146244600999243e-01
-3.353966763356017733e-01 3.178510869401229288e-01 4.697232313604025600e-01
-6.293287476149220239e-02 3.531767637265245674e-02 8.575347279058645467e-02
-8.071674305433796937e-01 -2.934150994901627008e-01 5.448542468492337809e-01
-9.459078642611035148e-01 3.688886272744446547e-03 3.649510639642656873e-01
-7.994959420411031081e-02 -3.786108786067057808e-02 -2.597480345444082572e-01
8.536560324697115010e-02 -3.718724725408154019e-02 4.430530219562846261e-02
2.277221083862690787e-01 1.567647077799851629e-01 -8.111221970397447523e-01
1.372723470614263808e-01 -3.428662795631542415e-01 -2.573679255719358849e-01
9.861139986021472126e-01 -8.294129714975087553e-02 -2.668321423717711638e-01
8.843593613321266977e-02 -8.579583959675727775e-03 1.432179789898188060e-01
5.529801882673919255e-01 5.400710559335627353e-02 3.667472744306390364e-01
8.357595018433756906e-02 -9.955276047060603560e-04 1.759512100854251360e-01
1.320127343126746011e-01 2.514525880312681178e-02 8.204522681211637303e-02
-5.132664877684485205e-01 -1.234256383694599529e-01 -3.304702841415852466e-01
1.254641604681275280e-01 2.758375525924412069e-02 5.530081060791253167e-02
-3.521487074949301022e-01 5.790918614783528984e-01 2.600944192892631346e-01
-2.798448068151897505e-01 -6.235945965219902298e-01 -8.114195244029037690e-03
4.678673817602916896e-01 1.447632823855241058e-01 2.757599141519703756e-01
-2.165782413069889389e-01 7.128874600897097125e-01 9.296582759233455728e-02
-1.361954315637182999e-01 8.311289117385006753e-02 5.690207083637864871e-01
6.189562528347180015e-01 -1.308028131656733262e-01 4.916285137864904176e-01
4.288813944864675910e-03 3.457989984249737470e-02 2.388399635789337228e-01
3.401490891341782397e-01 -8.135828514221750130e-01 5.262058265522766565e-01
-7.265246074634668094e-02 1.245228433071693952e-01 2.899792664015859445e-01
3.016484075989766533e-01 1.120222158317439320e-01 2.323290386694481513e-01
-7.245352690741885260e-01 6.119914276266457120e-01 -3.460061087420485126e-01
4.427230834380773555e-02 -5.597237679938689148e-01 -1.356980031906316608e-01
-7.619324138509617761e-01 5.981167876175993436e-01 -2.882592865705954632e-01
7.206822118318614301e-01 4.622530403968737045e-01 -9.610352748971744130e-02
-5.483911477828581349e-01 -6.352970238279110893e-01 5.675510488145434351e-01
7.311877540545497212e-02 -1.721280552330093361e-01 -1.504221486205608860e-01
7.057307567919222091e-01 9.360149390454901297e-02 2.803619925216455089e-01
3.839175861907304643e-01 3.283874832066672189e-01 1.252945601449581281e-01
-5.192207912659406732e-01 7.257355253731281319e-01 -4.758863407133079870e-01
6.308807601227847117e-01 1.713687405628932237e-01 -7.330491712433813145e-01
-1.623422008544842532e-01 -5.796236836738404702e-02 -2.165387197597856417e-01
4.795209830890486691e-01 3.145274967291272206e-01 1.445725069147644481e-01
-1.688797389263609755e-02 6.590250653177592843e-02 -4.387848225660886947e-02
1.130130630956976273e-01 8.960613745812714623e-03 1.804790796496817673e-01
-1.382316823716472354e-01 -3.272269079601695663e-01 8.344368097950423113e-01
2.548540738696935745e-02 5.048411831998932398e-01 1.089371430389705769e-01
8.174973847898481250e-01 9.283070864354746321e-02 1.995737773831312012e-01
-7.192903993774339699e-02 -1.414959185808276620e-01 -1.917491566789703353e-02
-6.374407634118680610e-01 -5.428152833038755176e-01 5.765978424749693687e-01
1.993407780999595924e-01 -3.871634804145870912e-01 -3.119852227003302447e-01
-3.951055436353295702e-01 7.858824267668221841e-01 -4.990677536964823746e-01
-9.412852869270045275e-01 -1.931803349647481793e-01 2.806879225651026655e-01
9.637808629909174751e-01 9.766040867439244877e-02 -3.116869907713994414e-01
-1.374140354036209807e-02 -2.669958232542356535e-01 -8.968117739979110381e-02
3.989535454596143116e-01 4.825463083853389623e-01 4.871923663142420369e-02
-9.659391531869890302e-02 2.242869356766303834e-01 2.265144491079626732e-01
-2.201220334014075131e-01 -1.420885560150318139e-01 7.888627833084482788e-01
-9.634736569920930860e-01 -1.285348943212028250e-01 2.414670984357376871e-01
-1.839961721109154014e-01 -5.253385995359213106e-02 -3.185669951318398363e-01
-6.795136987397473183e-01 3.595129888336260904e-01 4.559412723070975781e-01
5.013123971053995431e-01 -3.299765954402643087e-01 6.437506019321220796e-01
4.011304832025390510e-02 3.650010996170149208e-02 3.202677960424307191e-01
8.244097212797961705e-01 -2.976352431520447317e-02 -5.652750589684210070e-01
-1.146647441768466058e-01 2.514508606547931069e-01 2.540082615912045982e-01
6.278578314514705605e-01 1.615527114649245935e-02 3.790330155763904640e-01
3.598592588089363220e-01 3.301930290692338676e-01 1.200280841611004179e-01
3.340133104845219858e-01 -7.416833200005997773e-01 6.177516729564560549e-01
-7.832703621979933417e-02 6.150126581830548701e-03 2.170985887322499780e-02
-6.735735404413154548e-01 -3.415000590182270535e-01 -1.050782021208725159e-01
1.393770134392574855e-01 -6.948253953434800900e-01 7.227302427166281129e-01
-4.095614080721609040e-01 3.539808885791375648e-01 4.731094511137808878e-01
-1.529836360368242998e-01 3.153994185156053787e-01 2.850783784225973672e-01
4.682805529686911439e-01 -4.005258335684447890e-01 -4.732995889681066437e-01
2.346335788469088371e-02 2.585749104300695544e-02 5.032879870837000391e-01
-9.267710322612786322e-02 -2.649673102930981405e-02 -1.060601311811757222e-02
-3.479096210836373770e-01 -4.245024925689516032e-02 -4.176420138100201407e-01
-1.730096895699369253e-01 -6.456007410468141139e-02 -2.137119168888417797e-01
-2.133153097530203490e-02 3.155180284429932591e-01 1.319820911553198362e-01
-7.702813810675049888e-01 2.653218327135809518e-01 4.742901385764058397e-01
-7.221901198312760672e-02 -5.134006489998587108e-01 8.227891228518320332e-01
2.002489477588855205e-01 1.810482842714748741e-01 9.565813788672883344e-02
-3.388546412534401003e-02 7.815455929184338124e-02 4.001453692931677963e-01
5.504695261753393964e-01 -1.761684023699144341e-01 -6.435442852628608934e-01
2.709312371032555622e-01 -8.405945680726475411e-01 5.202036899847958251e-01
5.364825582484583633e-01 6.566549541596200523e-01 -2.097242056274057909e-01
4.542300737327359950e-01 -1.926700509607112699e-01 -6.351336495272568161e-01
9.304760526394951770e-01 1.732718731193417516e-01 -3.744854247987412510e-01
6.624485410421043774e-02 -3.782629125632597233e-02 -9.737093395821273811e-02
-1.170646111335659489e-01 -1.209316334173192869e-01 -4.418809298536352514e-02
-5.814023380181887468e-01 -2.547345935590311639e-01 -2.088940464400158847e-01
1.545384193898439729e-01 1.241196650277819197e-01 6.495927287430158792e-02
1.684006613805200669e-01 1.533822310244886133e-01 -8.037602866654527389e-01
-2.759544891388925891e-01 -1.094469952010747454e-01 -2.596434021297379657e-01
-4.330357997760958533e-01 -6.136826078273198704e-01 3.564540360277866637e-02
-3.589583999184835228e-02 2.603049045722301003e-01 -8.071872581316138495e-01
8.331110643779205960e-01 2.463105545818918551e-01 -5.390097109114891927e-01
-1.996269066415463575e-02 -2.182661859481753175e-01 -6.205898748643530471e-02
-6.306699301791798273e-01 -5.232234129077818485e-01 6.054255935536908551e-01
-6.642034012773667673e-01 -6.050071704390365124e-01 3.157747662887182560e-01
5.958108025998538615e-01 -3.269331684465512367e-01 5.855960220937798111e-01
8.194861530228509938e-01 3.745804465293768315e-01 -1.164961811086771964e-01
-8.839999131350496642e-01 -1.913685326800827757e-01 4.628554721485872436e-01
2.624565641397096361e-01 -1.302246732062982693e-01 -6.293102821337943631e-01
-8.173728849114025863e-01 5.210029460221162756e-01 -2.740668596502311982e-01
-7.276568213777968863e-02 5.398016445600966051e-01 1.454960178389825276e-01
-8.584427803506974319e-01 -2.832632416030883560e-01 4.614659953671052528e-01
-5.174572835107400515e-01 -2.579790395374794154e-01 -2.105751845041440862e-01
-8.896449789504109473e-01 -2.338926991918291176e-01 2.174768992608243010e-02
3.776602522256611305e-01 -1.240321660850736835e-01 5.900388112625243320e-01
-1.410840817573107420e-01 -5.358728798202748445e-02 -1.402489326500762357e-01
-1.757389375442598711e-01 5.794577929200304123e-01 1.811602700610826788e-01
-7.130540076441586050e-01 -4.911025644384963695e-01 1.013237737641487918e-01
-8.929330095677509571e-02 4.526539813692350700e-01 1.803719752824704259e-01
-3.553670422281007824e-02 8.851046741468990842e-01 -3.523363505452202227e-01
6.983783177152898258e-02 -9.459387102061732333e-02 -1.294329275364024257e-01
-4.001059757295111208e-01 6.438374427490783924e-01 2.077740344659186333e-01
-9.126890920175010358e-01 -1.373535051708861254e-01 -4.291287308217386909e-02
-5.465608491784114120e-01 4.261340080527207808e-01 -6.282411952109406839e-01
-2.334805915614523164e-01 1.823150977478059098e-01 5.283232746043864392e-01
2.016405204770430407e-02 3.634011796637581088e-02 2.736766507903832801e-01
3.921229997298760102e-03 -6.551924302428200342e-01 7.652097848940305758e-01
6.715450057959638785e-01 5.037356359574917120e-01 -9.886748791264013403e-02
-7.727643498811666289e-02 4.174783982062851839e-01 1.780817931028015055e-01
-1.210963959404698226e-01 -2.267829546199346194e-02 -4.812446357486458992e-01
8.817071202006000752e-02 -1.560823064290411608e-02 -2.822844263317645166e-02
1.640299083641086897e-01 -1.561773225820354827e-01 -5.174327843369619373e-01
6.316019876840051062e-02 -1.047307112269021262e-01 -4.572997273188077472e-01
-1.418932865098730400e-01 -2.224669449298876875e-02 6.945840419349864625e-01
-2.989518711222717839e-01 -3.731922744270688708e-01 -1.105282687577120587e-01
7.775497618443202863e-02 -1.406820111187571387e-01 -3.040684023705404471e-01
-2.447274090979353889e-01 7.275437763536050095e-01 8.489310773021657708e-02
6.295918754620931368e-02 6.262547382467059665e-02 -7.231962355809880005e-01
8.552668785011845465e-01 -5.315026112978843420e-01 -1.012016209064942190e-01
6.325833100972692025e-01 1.103914988380111720e-02 -7.048535087318470449e-01
-2.558969304116932575e-01 -4.933540063288060495e-01 8.155176189061578151e-01
