1.720289771840409210e-01 -6.024599607128685586e-01 2.579265656047930455e-01
1.698886399234083855e-01 -9.160534463471983191e-01 -5.972899003821558611e-02
2.092583803152583966e-02 -1.539853302939271085e-01 -6.965893803718741228e-01
8.477071294828736336e-02 7.838746469179866949e-01 5.964045754066323868e-01
-1.428720601224513914e-02 7.216185440666245121e-02 -1.005956813399085104e-01
-2.158940711960652681e-01 2.446988663056434143e-01 -1.747608827689444977e-01
-6.991802098518092035e-02 -2.735391832378200605e-02 -5.068969443458157809e-01
-5.679342537936073881e-02 3.637188931276974513e-02 -2.183370364268032160e-01
-1.208040645709377746e-03 2.672512939255897169e-01 -4.030644155438649068e-01
-3.061874849911602487e-03 -1.283087120782166468e-01 4.721178016877235484e-01
1.054331496837645175e-03 3.803770391711104679e-03 -5.388049541856348296e-02
-1.813985305187609531e-01 -1.402904057122108432e-03 -2.202549211865828527e-01
-1.212731965181307846e-02 -4.849126957675708310e-02 -6.076751149749791692e-01
-8.022959451768904016e-01 -4.885809894212284621e-01 3.628765269525663917e-01
-1.239448454624442475e-01 1.697533812367104863e-02 -1.327283443810403918e-01
-2.561490471019713944e-01 1.635796276926059500e-01 7.987557820702423372e-01
4.908575676919459813e-02 -6.535356838428649229e-02 2.662968309922789656e-01
8.414804790837744630e-02 -6.026538439706852213e-01 3.157538890952957256e-01
3.255698092839443003e-01 1.236114408607282278e-01 3.701003270701057613e-01
8.934669322203504516e-01 3.652395916204482784e-01 -3.395796339346405235e-01
-1.897081663156915676e-01 -5.781929296134380447e-01 -6.379177952262070628e-01
-6.707936153164503201e-01 -5.747708507886464258e-01 -2.578171238569725299e-01
6.208522115181037276e-02 2.274410296092097689e-02 8.294049852104194709e-02
2.291492243409778695e-01 5.526206465152985192e-01 -5.284347616432150119e-01
6.031712600093385168e-01 6.199508445658920008e-01 3.444111053608366335e-01
-1.450524281177004715e-01 -1.861539538766241175e-01 -5.888857464160009991e-01
8.589594288710569181e-01 -1.582169286787851736e-01 -7.592570293073597210e-02
1.568332031328835072e-02 3.729822709545897036e-02 -4.258694479869408467e-02
1.450932727795138932e-01 -6.877118846078935643e-01 2.400855698293865581e-01
-5.022857019173952720e-02 6.533693035226760537e-02 -3.153883072383646402e-01
-5.855188769109656022e-01 6.578985553756906413e-01 1.124784631380859601e-01
1.958728412271689701e-01 -9.292074591291408225e-01 -2.620180121002141371e-01
3.223159653138890079e-01 -2.536346007913641842e-01 -8.089054507143035311e-01
-9.019543251546438545e-02 1.893577455131451870e-01 -1.799786705301600898e-01
-4.338466780975450687e-01 -4.620920413444654096e-01 -5.014868866460440167e-01
-6.606842227315191662e-01 5.677724665716008534e-01 5.212063985017957313e-01
8.585826810833615541e-01 5.137595742565110868e-01 -8.343140511110035129e-02
3.535730657640309693e-01 4.602594369258634077e-01 5.626025021742392385e-01
-5.111018624982669595e-02 2.974389941886999844e-03 -8.884366594373420412e-02
3.515440687025787603e-01 -7.017113826610367200e-01 8.693970606494268172e-02
7.529596697311615738e-01 -5.043169182386241234e-01 -3.337607842535029734e-01
3.794989184942152982e-01 9.190739200475604997e-01 2.523232326611754006e-01
-3.472597712904123002e-01 -6.812683302268685015e-01 -5.113545389611459102e-01
2.132443052184027077e-01 -3.543287985578979504e-01 2.309614602273474815e-01
5.502768581240629481e-02 3.343522685123785365e-01 7.107765039860723943e-01
1.607568590834170807e-01 -7.108488473575418076e-02 1.114733405857978726e-01
-6.438331876419721711e-01 6.219611536072366942e-01 1.687773246488660783e-01
3.715952368634559133e-02 -9.673924495621540887e-01 -1.668645239277451731e-01
-3.812103029267505105e-02 -5.331765347025176904e-01 -7.097869944614064730e-01
-5.142458165515179092e-01 -4.877661389063226438e-01 -4.407694515686795822e-01
-5.348662568766453518e-01 3.750883118752911249e-01 -1.123142143940927540e-01
-3.928499210611550302e-02 7.637904773356664345e-02 -4.729715856668859075e-02
-2.516119494001893830e-01 8.023956216161604038e-01 5.838420277542395453e-01
-8.573806649098359989e-01 2.269466964248995910e-01 1.336012722664353947e-01
1.023566177094937385e-01 2.786195462118356558e-01 -5.508643980099898751e-01
-5.197196770079013373e-01 3.584296760724292041e-01 7.648904952147759229e-01
3.769768461740906629e-01 6.969741175685685297e-01 5.054101566827596814e-01
-5.701920376424858272e-01 -4.876585321388027250e-01 5.736842618279607287e-01
1.938876116792572490e-01 2.992774031724022565e-01 6.157723843550935161e-01
-8.288669677611230913e-02 1.132630939280394877e-02 -9.067467724265830531e-02
-1.695347969360122206e-02 7.743125160970534826e-02 -8.075736800709581997e-02
7.135820938040875472e-01 2.469509166283843093e-01 2.473953019688769905e-01
-3.259554229339789444e-01 2.623427687157299792e-01 -1.724390310311522956e-01
-7.049417818179255502e-01 4.551927821473870650e-01 5.775235085192176321e-01
-3.771710265284831942e-02 1.052424626682425673e-01 -1.142561036411621350e-01
1.276049293317818023e-01 -1.118149076138847398e-01 1.185451405099636341e-01
-2.143201244919683002e-01 5.588621317110249037e-02 -1.604173854482701111e-01
1.348735061542191971e-01 -5.443629655954037583e-01 2.954337206954339434e-01
2.458693105187425565e-01 6.217433748036051977e-01 6.126303342599666024e-01
-1.017163648596264985e-01 -2.808640414282008169e-01 5.537041471196744169e-01
-3.704836787267790088e-02 -3.482916616753210966e-03 -4.767839648729358532e-02
6.237013253691960912e-01 7.424282065717207058e-01 2.177837562043084541e-01
-2.698062752647858442e-01 7.871029790694964445e-01 -8.969148646266121572e-02
1.212939871061510105e-01 1.935094018477294051e-02 1.793074764756797390e-01
-6.515932840842574014e-02 1.712204150926422558e-02 -4.543971191064116733e-02
-7.970432948086346725e-01 -4.478913508653518671e-01 -1.221335691929255340e-01
-5.718701519579175718e-01 -1.240278231961531169e-01 -2.937219017879060812e-01
-1.914170504685263447e-04 5.581210411601714855e-02 -6.727669053629044271e-02
5.939884927811294180e-01 -3.985385900148170069e-01 7.132596039466329585e-02
8.244409982376265100e-01 7.666771509240384586e-02 8.526965185254765933e-02
5.363221121837384864e-01 8.799925818947609280e-01 1.823892802704789665e-02
-7.017062825620679067e-02 4.816965219892279521e-02 -4.125374766272662391e-02
-4.139210070464079405e-01 2.250301939581021149e-01 -1.703124583553662919e-01
-2.239573019084543093e-01 7.694291832865621794e-01 -1.402145646213981411e-01
9.560162265024901851e-02 -1.520822943024239572e-02 5.988095126104336224e-02
-3.432051575605709615e-01 -4.378788021250270557e-01 -5.603806431307698510e-01
2.491351535631679270e-01 -4.820824817706634846e-01 -7.727131339677033584e-01
-2.999780865112662218e-02 2.464450887139064961e-02 8.380003943483838383e-03
1.076258878956631443e-01 -3.884628738278400606e-02 7.049185270500016309e-02
1.400091591607353358e-01 -3.664447861813897589e-01 2.804708939184408223e-01
-8.545549805279261113e-01 2.643198088338868934e-01 1.661483337461612531e-01
1.987240263631979420e-01 -1.854402016593245939e-01 1.645381794006426091e-01
-2.254880120932234444e-02 6.232021197403109225e-01 -3.489899102135468056e-01
2.429697560695908420e-01 8.657535671285330192e-01 4.533183389535164198e-01
-2.269646611258346880e-02 -1.833654418818274866e-03 -6.242750775423334259e-02
-2.640366404953351509e-01 6.215269666049466624e-01 -1.925119171062988077e-01
4.466514258912379631e-01 -1.652602284409580569e-01 1.780259490941723810e-01
-4.866494348356323330e-01 5.542265278488740510e-01 -7.718884850808573062e-02
-1.154478346171492475e-01 1.309150667315528600e-02 -1.343042828622179330e-01
4.083229070194182020e-01 -5.171198223596017440e-01 -7.365527879354019092e-01
1.598296584239382312e-01 -7.652401687494498894e-01 1.777624242544076361e-01
-4.645526689724318592e-01 -2.623970652667339531e-01 -4.254098363289062767e-01
3.043086280758884321e-01 -3.148461900569323735e-01 -8.048464668248875853e-01
-6.140348935508757044e-01 -2.475935094740736586e-01 -3.228793623351467468e-01
6.566657314643332688e-01 -4.946117695231840028e-02 1.696895575301447523e-01
5.513483736015193371e-01 2.228291263131424171e-01 3.505858263101496730e-01
8.627413962186180063e-01 -2.878533177377098351e-01 -2.367810860472838175e-01
4.220952371868912090e-02 -7.662692179097978229e-02 1.825279851470767434e-01
-3.543761845995146431e-01 -1.439340791752921622e-01 -3.998558234216150198e-01
-8.690909470492346189e-01 -4.477991723632601118e-01 1.368986727832243455e-01
-4.080005925438758604e-05 -2.467675956127762804e-02 3.639548183640441137e-02
6.969921101282763876e-02 -2.449648917767331679e-02 3.081540850896299921e-01
-5.945378801700925697e-01 -6.908772348257270490e-01 -2.739795851311738750e-01
8.715235630154085159e-03 -3.309181539482840967e-02 5.329912097370733681e-01
2.046974791297004048e-01 -9.256705345471289981e-01 -1.722950245989101070e-01
6.758039712681397360e-01 5.875027632311307091e-01 -4.543392171195471674e-01
1.797757130113533108e-01 5.706839789563603743e-02 3.285896249212696407e-01
6.239437606959976623e-01 3.060442142149615297e-01 -6.694091995712935228e-01
4.174361454864086718e-01 -3.660373057153821774e-01 1.602122183650201703e-01
9.019335286160790055e-01 3.515395190605097864e-01 -5.287638483538631418e-02
-2.843479827279408734e-01 -9.721687580010515695e-02 -3.790703309775499963e-01
-1.484203259434828392e-01 2.666294385913575010e-02 -1.391388522695980179e-01
-2.898816230135146110e-01 -2.780530653212214265e-01 -5.437356930171974856e-01
-2.856974297453416800e-01 2.371176584044576152e-01 -1.703230531086921962e-01
-9.092929544333729075e-02 4.132165027374810617e-01 -3.157392424833849742e-01
-4.243327911404527059e-02 1.688211110113859714e-01 -2.566300432082885274e-01
3.574249013240426986e-01 -5.120707503420041107e-01 1.679667516648827852e-01
-8.009188858546236744e-01 -2.021473263713510493e-01 -1.382910451954040276e-01
1.774966621044729298e-01 -1.800573372791882121e-01 1.633409003940187731e-01
5.191512293605047290e-01 7.735380090125013597e-01 3.249743491395818418e-01
-1.200602650228689977e-01 -5.889694718807648721e-01 4.504469526606937890e-01
-7.454941019209491149e-01 4.710541155034750349e-01 1.530699054968179540e-01
-2.686405312505789067e-01 5.929398928713491834e-01 7.406818816608476963e-01
6.370128517407392943e-01 7.328430780426566926e-01 2.080225907077182246e-01
-3.379708780185765316e-02 3.958559482054567757e-01 -3.697236031847260240e-01
8.429656074015723366e-01 5.490065656189111465e-01 -1.735065364970513890e-01
-3.049716033360069800e-01 -7.677243234932662475e-01 3.673575391263076972e-01
-5.178096227623207870e-01 2.917517146602731648e-01 -1.399465250294148477e-01
-6.733996239352161295e-01 1.379694310493909948e-01 -1.271852050903280740e-01
-4.323700470380588690e-01 -8.263515508777241614e-01 2.587933585610585063e-01
5.521726769017488295e-02 -1.562477891102481697e-01 2.633240625693008541e-01
1.100755696064359065e-02 -5.180487581318089785e-02 -6.339590458180248689e-01
-6.732627961606062195e-02 -2.765699024973499592e-02 -5.117374319821094142e-01
-5.816550441117888104e-01 3.521843360807484502e-01 -9.656293433468982057e-02
8.954671022417162729e-02 4.496017366068499888e-02 4.805167166481252305e-01
1.071420071457679229e-01 3.225295116357900227e-01 -5.403706315721966691e-01
9.501692522841626021e-02 3.254891298608860728e-01 -5.268206318699490964e-01
6.099652375359794487e-02 -3.335909801007556075e-01 -7.573462731543988413e-01
4.374068363380518298e-01 -7.948470111464414067e-01 -1.447555508817107150e-01
-9.231192923126542438e-02 -9.653116507266100710e-01 -2.843353918827114940e-02
-5.966841924892417326e-02 5.873039258144406582e-02 -3.684311054705058375e-02
5.279556388028058128e-02 9.501321634779674730e-01 -7.769619696387056185e-02
-1.355653091507588448e-01 6.284542754870706682e-01 -2.720562876035894084e-01
-1.284803735113076439e-01 -4.359722402013745807e-02 6.828034073252760017e-01
1.647333157677496537e-02 3.475920046225570714e-01 -4.284038379609128033e-01
9.499686179093666527e-02 4.268600496998444793e-01 7.039816707566227683e-01
-4.727756965427837854e-01 -8.839906366665990500e-01 -5.441842268110374387e-02
-2.686138490246729391e-02 -4.075668970343588639e-03 -5.571948236501704510e-02
1.626999142855316549e-01 2.794532677350077265e-01 6.273436539369180442e-01
-9.325920917995707271e-02 -7.448520346482220278e-01 -5.986340865276776890e-01
-2.373775036737404698e-01 1.693848474161834539e-01 -1.538568789912655166e-01
-7.996064685460499977e-01 3.076216364900892786e-01 8.413994555710573031e-02
-3.689468026236046305e-01 -8.646851696957653655e-01 -3.134758040405775659e-01
-1.781906932728650680e-02 -9.927670912647082457e-03 5.932487067983936990e-01
4.198893863254448133e-01 -8.244300769220361813e-01 -2.283353682970401810e-01
4.009013402761757439e-02 6.718865068665106355e-01 6.767214014238788211e-01
3.516061915654950659e-02 -5.713385837438575421e-02 1.524472661448030564e-01
5.233941076802838266e-01 -6.923013745357293747e-01 -8.374913352477643402e-02
-1.869840066882725305e-01 -7.268965238666778850e-02 -4.090155375912540858e-01
-8.841908329369890795e-02 -3.482349021540599443e-01 -6.932097307159114097e-01
-9.186793136671290994e-02 8.139416894119601287e-03 -1.289199763121178788e-01
7.235764292528216179e-01 3.229913032323808997e-01 -6.071596109287022980e-01
-6.004944011076741167e-02 1.719456299267455371e-02 -1.636675901207240158e-01
4.025614564268286122e-01 -5.560699417785385235e-01 1.299445342449782048e-01
2.934233460789087977e-01 -1.599098384507708914e-01 1.668564830992919079e-01
-5.201627653883625912e-01 -1.967144095767845990e-01 -3.588533397488868348e-01
-8.382763163015476415e-01 1.341019151210157967e-01 2.984647408377544275e-02
-2.265666106256685949e-02 4.688179040843761664e-02 -1.467997308944296326e-03
1.721902551744626531e-01 7.819704247332723845e-01 5.669719737388387859e-01
5.950003735746267619e-02 1.159632897144816377e-01 6.047797893708785066e-01
1.090576654246135091e-01 -3.542852444166182807e-02 7.126050524777788331e-02
9.288094703512198569e-01 1.131152381180937222e-01 -3.902260859815005478e-01
-1.872524586121557255e-01 5.108624871974960513e-01 7.724289939675413885e-01
3.902076307173880099e-01 -2.762093502112659693e-01 1.707636439883956636e-01
-4.793716317597443988e-01 -8.775511783776409613e-01 4.562906668390013382e-02
-1.132995577318300501e-01 2.567957215308369276e-03 -2.317448824318437683e-01
-7.796372004402223332e-01 4.256503478449125133e-01 1.716498553703343644e-01
3.581061175915641881e-01 8.063982683265703555e-01 -3.474037934559996987e-01
6.595173458934933119e-01 1.562382507179464475e-01 -7.056407533655837394e-01
-5.060721614035714744e-01 -1.696878147434746908e-01 7.406192240516297209e-01
-3.172748918933881446e-01 -1.494429481666584014e-01 -4.244284730662064020e-01
5.681296436151114237e-01 -6.895420121675561731e-01 -1.629791723534643744e-01
6.443612300715155783e-01 2.825210947635599101e-01 3.139308134991530275e-01
-2.963474533738835390e-02 7.485255595476497659e-02 -1.778447862491411013e-01
2.910566336124582598e-01 -2.884982382686735458e-01 -8.061509751396832568e-01
1.527176594679985865e-02 -3.357275722021687003e-01 4.035316876842476308e-01
-1.180132611917807245e-01 8.024196645697914132e-01 -1.854100391890754762e-01
3.156911243011250034e-01 -4.721830053484865064e-01 -7.725358473653066715e-01
2.333340277281763520e-01 -5.990258080811103891e-01 -7.266686970592878270e-01
9.312301187596705443e-01 2.931159959067231036e-01 -2.339600731131647737e-01
3.906092794885443475e-01 -3.208207295162840422e-01 1.700310509515151336e-01
-3.002815316150572178e-01 7.728233197459436488e-01 -7.830545718939659061e-02
-1.833236119404209330e-01 -1.947748950692136313e-02 -2.722869296209294854e-01
2.606418366026448385e-01 7.034765231605292213e-01 -4.407344160330127214e-01
-3.145047121919489902e-02 1.272410831970992584e-01 -3.159518526162718444e-01
1.150400585376171875e-01 -3.953919188969862164e-02 7.656711397613388814e-02
-4.612059511329567041e-01 -3.976207091950151318e-02 -2.797697382460932469e-01
-1.633113622912799046e-01 2.954891012345481904e-01 -2.146692741487800093e-01
9.190299579751383119e-01 8.414133414334466765e-02 -4.258974747672321093e-01
2.516948662645821511e-01 -4.189830471435966874e-01 -7.883805353300299412e-01
-4.003735760885638456e-02 3.590241647991619656e-03 -8.904811857099405314e-02
1.059173995709163096e-01 1.748753392620652075e-02 1.896849362129151284e-01
-4.912801622847679656e-02 -2.544071839539184532e-02 -5.380571349817144799e-01
-7.978694732968477643e-01 4.377839325219192168e-01 3.511872476439155122e-01
1.651404888450233588e-01 -1.050213323491502454e-01 1.229595472975092141e-01
-8.507618489317632093e-01 3.270555444935385192e-01 2.743967672888897313e-01
7.190591819776226412e-02 1.755136222884389266e-02 1.243195167894627501e-01
-2.154704229087417086e-02 -9.317510392122356766e-01 -3.766692748760909759e-01
3.110212725676426287e-03 7.989617408521312858e-02 -5.113405648762585631e-01
-7.717481164042199193e-01 -1.438966081807156738e-01 -1.584264932897042621e-01
1.227417117805274238e-01 -2.721466669077904910e-01 2.531324934285762440e-01
2.148681155308108659e-01 1.714454372185340511e-02 2.119510109516030139e-01
-1.642262608223141185e-01 -5.978730536458142231e-01 4.678086044333876203e-01
-3.065066974765114916e-01 -9.365818594555523902e-01 -1.918886213097843185e-01
-2.507247495875690804e-02 7.450824276211436004e-02 -4.873065575191238424e-02
-1.888821684004691193e-01 -4.110419489850022368e-01 5.716101370344468524e-01
-9.941870038739406001e-02 5.239412518163385178e-03 -3.352264666742619803e-01
4.687729003687298723e-01 1.044274266422614145e-01 -7.678096851429444536e-01
-2.330474862880545575e-02 8.701191596085072755e-02 -1.088279144987505109e-01
4.988675412824782746e-02 -6.275555593198826887e-02 3.409909613356761349e-01
-7.459505228764106571e-03 2.149865202290422439e-01 -3.910060472263082731e-01
-8.609014514098876081e-01 -4.118808666098446314e-01 3.207623045561412423e-01
-5.328948299508947661e-01 4.404079798746715624e-01 -9.308885473323312565e-02
-4.464841188620627399e-01 3.664044206945569204e-01 7.864887153641515471e-01
4.119633190728179684e-01 1.435709038491915501e-01 3.596852811146751816e-01
3.064077472799981439e-01 -5.041510286509223379e-03 2.207350292827900129e-01
2.582284938207902170e-01 3.904566048288614089e-01 6.083676572218920109e-01
-3.500241280316908066e-01 -2.097343642483400980e-02 -2.737562796327798198e-01
1.031965811694043056e-01 -3.100863658046580651e-02 6.585422681899352759e-02
-9.171268488423061083e-01 2.239332463007227131e-02 3.946398754665143005e-01
8.341370530144126549e-01 5.644427241150402619e-01 -1.750393608733074591e-01
-3.529945642537820061e-01 6.522921224719554489e-01 -1.225668906168172201e-01
-2.064971244217773602e-02 2.614062888356363246e-01 -3.652869829977866134e-01
8.108140967873855853e-02 -1.114283139601273120e-01 1.302260988545539677e-01
3.791647155386850265e-01 -6.692484461140159047e-01 8.875122741031186979e-02
-3.318222297409872401e-01 -5.489601965135707529e-01 -5.651418061972005580e-01
-1.500981714839840220e-01 2.889660831350021608e-01 -2.182121230138922563e-01
4.423771370501690114e-01 5.146056145774923207e-01 5.055623450919581874e-01
-7.146114515816490709e-01 5.102360493023895271e-01 1.405666155241034332e-01
-8.317560165584535481e-01 -2.625541207783333997e-01 5.063470089134456398e-01
-1.409775573842021734e-01 3.339512275337527814e-01 -2.476521046845711616e-01
-8.485643401818794285e-01 1.463579480010776361e-02 5.547204711437008218e-01
-4.501466158337646406e-01 8.150414943471089302e-01 1.920873845226456766e-01
8.812754229090002944e-01 -1.470746295492671440e-01 -4.731168319222655017e-01
3.123030827836453249e-01 1.273746799976448463e-01 3.803686635629022206e-01
-8.533114010367812696e-01 7.720271543514513335e-02 5.424657486811386153e-01
3.601947579359935508e-02 -6.624989250035505373e-02 1.245469258669984342e-01
-5.254412056966301092e-01 -1.470572165392511621e-01 -3.282452608560313401e-01
1.678500701917188809e-01 5.870718181278728603e-02 3.514428222574394467e-01
5.619825353347893820e-02 -1.236393160486090881e-01 2.091735873732835649e-01
-2.240212688670421004e-01 6.911104433061442398e-01 -1.902580674557328155e-01
-9.299469645087657943e-01 2.269933866048919752e-02 2.322216432952860510e-01
-7.533558777767665471e-02 4.363187309868219455e-01 -3.331549717019975376e-01
8.544120415269494673e-02 -4.683875598670008689e-01 -7.570011405029289930e-01
4.612870593360953175e-01 -1.657370418922403735e-02 2.329076117512911270e-01
3.464579834015191206e-02 -5.088396495428776367e-02 5.508399785358193690e-02
-1.463084950064728329e-01 8.241754074251224083e-01 -1.458595120067125717e-01
8.805958887941982283e-02 -9.133758182771498091e-03 5.318229374023582950e-02
5.992200748833534374e-02 -5.482414308492424837e-01 3.475107388505710992e-01
1.876705080260688552e-01 -9.193170144362576846e-01 -9.664369909411185677e-02
4.658020321245952555e-01 6.245213463332878190e-01 -5.158577492663288799e-01
-7.980814884467820614e-01 -5.860122059489369928e-01 1.414871544418095373e-01
1.847661390871263229e-02 2.425374679117623389e-01 -4.425477691280074177e-01
-4.314755739037197113e-01 -2.076102613157409238e-01 -4.125348794755134829e-01
7.505646729610958579e-01 7.669542548660651660e-02 1.599558900946479179e-01
-2.343495150988050557e-01 1.725456105964725262e-01 -1.537453373551781743e-01
-2.795900783412155755e-01 -3.077522130028013114e-01 -5.652265516009941093e-01
8.374499492311032744e-02 1.427697156923701458e-02 7.684578644115654111e-02
-8.681614989454991549e-02 -7.306673441356029489e-03 -4.341214116057235950e-01
6.660640550498546641e-01 -1.672844602963786398e-01 -7.267284042866092308e-01
4.123021209235943618e-01 -8.306430629865294568e-01 -2.940711030421505057e-01
-7.479499349862035740e-02 -1.604026042318548173e-01 5.728301700681874831e-01
3.753764006404476938e-01 2.673364606903455565e-01 -7.097269113943271979e-01
7.366115712077137001e-02 1.474457017850226009e-02 1.420825489189747326e-01
-2.551851558104017981e-01 7.035557004086849531e-02 -1.738660167045106841e-01
2.555540875557636982e-01 1.457234039323010988e-01 -7.178928021044018726e-01
1.394731612280240562e-01 1.229887315256949533e-02 1.532789867194651601e-01
8.294057702589922032e-01 -1.750332506871349891e-01 -3.627709540911382841e-02
-4.777678839109044673e-01 -7.892415471975340324e-01 2.980242420258512603e-01
-3.248245651927832434e-01 -9.497591026591949148e-02 7.551712189621174742e-01
9.031072535230971754e-01 1.229019687041583569e-01 -3.068694954465154418e-02
2.775148868155067894e-01 -5.013577709527418103e-01 2.120585549914941470e-01
1.401948598340828911e-01 1.833806509659446221e-02 1.774700677757408418e-01
6.570150329945266543e-02 -1.870268330461287085e-02 2.837490233832057340e-02
-4.825282575860305734e-01 -8.549639432506662695e-01 -1.773604745839676144e-01
-7.907535690050649935e-01 1.486205963186441707e-02 -8.488514302425366476e-02
-8.693933682396470797e-02 1.644129966323529951e-02 -3.333901339921208629e-01
-4.948142471074436499e-01 1.738587801550328105e-01 -1.746237473492042724e-01
-1.042581302578932667e-01 4.453090291489274488e-01 -3.096475392157431727e-01
-2.022239769671252130e-01 -1.173891975697563123e-01 -4.674314142446012732e-01
5.373721745682595238e-04 4.898996402176940268e-02 1.603347513429572487e-03
1.417145820987290861e-01 4.493359721677558927e-02 3.534197719046774933e-01
-1.054594669460100637e-01 5.284183005290975510e-01 -3.109558011717272197e-01
-2.654951860089995175e-01 2.931233461766633575e-01 -1.833332660057128694e-01
-2.668585265683680596e-01 1.687543805772961647e-01 -1.603031587308415273e-01
1.650787933275971522e-02 2.161265673113875463e-02 -4.560261513760779928e-02
-3.800596390991362594e-01 -4.924842162807479551e-01 5.939006812166977012e-01
6.019516568384386535e-01 -3.086571434728622165e-01 1.002810452409998304e-01
-2.791363400684803223e-02 1.216840258610309977e-01 -3.531349588612163193e-01
6.318873116245717070e-02 6.151559455160029444e-01 6.920937906088563407e-01
7.533589495199103370e-01 6.598795235523520208e-01 5.657469738768343415e-02
6.907101774503019431e-01 2.106049800318851029e-01 2.552085783490816162e-01
-6.726068188608892440e-01 -5.369098943306087612e-01 4.760561342581680067e-01
5.054899913934005617e-01 -1.657830865844434898e-01 1.723898648249730936e-01
8.319693377875232720e-02 1.082588609221665950e-03 2.334390514467309663e-01
-4.595553278153953203e-01 -3.684375305969983527e-01 6.642095416420372711e-01
-4.115359113164560600e-01 -9.129009633084845809e-01 -5.689121699635760893e-02
-1.227654103654713530e-01 9.724856061351390135e-01 1.689311089321113291e-01
-1.690103956940144370e-01 -3.870574626060657719e-01 5.692458603654386717e-01
-3.755488755412892954e-01 7.945712096733914542e-01 1.905620360472750491e-02
6.604904441160636130e-01 -9.948692448854869197e-02 1.475992770256080999e-01
-6.581840129630883718e-01 -6.531176154478161022e-01 -2.166630671449313317e-01
-1.554698225172203296e-02 2.979766324847006598e-02 2.172799145865785680e-02
2.453959371968448544e-01 2.972320785769202445e-01 -6.536610004812244412e-01
3.844367050043830947e-01 4.885887336662975144e-02 -7.795563129837043137e-01
-3.854106918883863919e-01 -4.942438564614412555e-01 5.933441419987596221e-01
1.469973626502219521e-01 -1.844866858163101142e-01 1.732026378902980779e-01
1.199025268910410003e-01 -2.381207252612315903e-02 8.266703848367473739e-02
6.939327676713615001e-02 -2.800821965439244110e-01 3.188777311958318483e-01
-3.851230664724862862e-01 5.296133903208641858e-01 -1.467494984433160565e-01
-1.965600525242112984e-01 3.993527674256918680e-01 -2.370345120669176686e-01
-6.879408774061493426e-02 2.973682920370460114e-02 -3.809828558879805871e-01
1.533608148626565415e-02 -7.102561268245064507e-01 3.063866306898134773e-01
-5.428447520976020096e-02 -2.968804898057119113e-01 4.958585668023214876e-01
7.191263251643832399e-01 6.644703627176218319e-01 1.400480799933917775e-01
-6.253002937780812731e-01 6.173487895742343357e-01 5.077241431786172488e-01
-7.205431103495230083e-01 5.566832288882395119e-01 2.694004806716849276e-01
-1.146818535610016065e-01 9.741450188665342624e-01 1.623883470688727571e-01
-2.095576983930764157e-03 1.532387201299114654e-01 -4.295401557723492192e-01
3.629142945729390418e-02 -1.992683103611267159e-01 -7.221022225708618736e-01
6.563632949635695990e-01 -7.078890355960239245e-02 -7.379603226236085556e-01
-2.586343870090807573e-01 5.315642311053565550e-01 7.668122232033467434e-01
4.139183173776737196e-02 -8.724611418528573914e-01 1.326248168130773897e-01
-4.623914236789555265e-01 -8.031877136331105893e-01 -3.090808553821710603e-01
-2.959854338858007583e-02 -9.741361727684343386e-01 -1.750832416826990090e-01
-1.540958825231973361e-01 9.496645492355825224e-01 8.621791226270743291e-02
-7.256018285959058289e-01 -5.201631395858862250e-01 -2.079935076227704127e-01
3.395060595190519948e-01 9.354772007093827835e-01 -1.186039891310117500e-01
-1.646016451645525569e-01 -7.622877507428603427e-02 -4.425941088158114600e-01
-1.527612209401278398e-01 -2.566068733525758271e-03 -2.206770805519473189e-01
-5.185938620829978751e-02 2.310078028617852577e-03 -8.232486985223196052e-02
2.971635024800893810e-01 9.090981114002557595e-01 -1.964143790060016159e-01
-7.567256793455460206e-01 -5.484013546602466427e-01 3.659918384444168504e-01
-2.198980545431572509e-01 -1.664996278224982751e-01 -5.098216324152397005e-01
-2.631748564352370257e-01 1.290609638632358447e-01 7.950110158780010483e-01
-5.419027522112312978e-02 1.200768126973589950e-02 -3.295256506414725312e-02
-3.432480013449769607e-01 1.472739470904931292e-01 8.081790411388508621e-01
2.381907725087982763e-01 -6.570270906607729167e-01 -6.926174773032133247e-01
2.481074309280121432e-02 -4.942207899071975052e-02 7.609511664338490522e-02
6.644788368589420180e-02 -8.919505978581447891e-01 -4.589008981283738131e-01
9.343680378349826787e-01 2.666902743102656514e-01 -1.659604471778127477e-01
-7.798619045526977711e-01 -5.449016109973612437e-02 -1.218252499402777411e-01
-1.959620182529022425e-01 -7.417398271371394847e-01 3.756969089716647447e-01
4.828818436473491377e-02 -1.081427038626483345e-01 2.312345271028280191e-01
1.304484863458619803e-01 8.350980639743038614e-01 -2.813928444446790467e-01
3.853892056801905275e-01 5.467724447948524996e-02 -7.782817133497126338e-01
3.224055763859760559e-01 -5.689809304789813504e-01 1.740940392878883025e-01
2.285635000925865801e-01 2.556867025208092725e-01 5.667531369820839604e-01
-4.871599517204603935e-01 2.193383081607412632e-01 -1.637896537278851483e-01
-8.524287259674445671e-01 -4.043936294871432469e-01 3.553393280288064671e-01
3.251607981618825222e-02 9.790518846269217687e-03 -1.848783021993862311e-02
6.960312382483796467e-02 -1.813512453250701924e-03 4.337466870498171145e-01
-7.830839740643980029e-01 -3.749141679750071787e-02 6.318703459112516851e-01
-5.282552535748828992e-01 -1.338358152292503656e-01 -3.192723038431194427e-01
-9.361875372964385822e-02 8.702283816733157040e-02 -7.451789414872223016e-02
2.170399077234466401e-01 8.981863903843410879e-02 3.758666365455688996e-01
-2.403731959594330725e-01 2.866661542545242414e-01 -1.859356024630571813e-01
5.493287437128940853e-01 -6.772127003040369353e-02 -7.809924614856440517e-01
-1.574677138407010735e-01 -6.981055218683100971e-01 -6.046723669050865224e-01
-1.251478812251591577e-01 7.362053607161651858e-02 7.288142595734662388e-01
-7.608384711855826765e-01 -6.244232029973195708e-01 -1.121717182578213338e-02
-2.703920167512812237e-02 1.251147547927755066e-01 -3.539183805380254344e-01
-6.968834394610495808e-02 1.523109943393622101e-01 -1.535388556012657058e-01
2.185335262429543013e-01 7.214786766498969550e-01 5.853440360924895280e-01
3.640555886298124655e-01 -7.800255040714139110e-01 -6.607941624022114352e-03
-5.370423875287483328e-02 2.608331524820018798e-03 -6.197311614718807593e-02
-5.567962423156468388e-01 -7.212066217772720167e-01 3.507382625646895957e-01
5.696107241719953196e-01 -7.831075883314182751e-02 1.897416718348581555e-01
-1.754156379523144627e-01 1.189520352512020290e-01 -1.251032126671791922e-01
2.132321395361394881e-02 -1.503425271167507793e-01 3.917055358058829651e-01
7.066713298567406376e-01 -2.737292905978742086e-01 4.581512868516444958e-02
3.500479554891147704e-02 -4.541766365424402402e-02 4.201646905484561489e-02
4.219073387676286480e-02 -7.855932748263579068e-02 1.492069229653887052e-01
-2.390480518347734909e-02 6.935913825478419448e-02 -3.779178939484087452e-02
-5.105751487786176490e-01 -8.626779325325079073e-01 3.349650655103299235e-02
2.240316179812769093e-01 7.488519008308315295e-01 -3.937784786164243989e-01
5.084294121147248102e-02 -1.017523357353926350e-01 1.813475891753398572e-01
-3.231365791140508592e-02 1.426372555858117534e-03 -3.332900694759579480e-03
8.172149094041634143e-01 4.349952498064154072e-01 1.220204847836208334e-01
7.956707111669630850e-02 -8.654515215739631839e-02 9.548993309524680950e-02
3.137694889871276566e-02 1.474612531129950999e-01 6.525508533118279386e-01
-2.477745005121874400e-01 2.425041170327303375e-01 -1.718205428967844728e-01
-1.976647400649402253e-01 7.196102237167512072e-01 -1.924872392989176728e-01
-4.242526917577919832e-02 2.383031814809924986e-01 -3.114472112289604078e-01
-4.947699571414084785e-01 4.344301182047780041e-01 -1.148960345700045793e-01
7.868000288714794843e-01 -3.182511296186377181e-01 -7.253296361112615553e-02
-9.288652700199999390e-02 -4.190692365802533570e-01 -6.984720096238182796e-01
2.830815890971917215e-01 2.345251883924882041e-01 -6.961156998022957065e-01
8.619803575638934623e-01 -2.912875803938642649e-01 -3.795291591394830966e-01
-2.135703730401128098e-01 7.886237545636649582e-01 -1.315777353125585636e-01
4.101858177206583189e-01 2.450732909464654607e-01 -7.229596865960664642e-01
-3.488747518681020732e-02 1.118568743604613086e-01 -1.701320427240604893e-01
4.430871028777622067e-01 -3.322873346075849166e-01 1.556738588580278693e-01
-8.719492384120729467e-01 -3.481975376494114705e-01 1.901406191376706382e-03
-3.601271297711664682e-02 1.681298547198565863e-01 -2.862719531148716912e-01
6.492934921881474697e-01 -2.545249143028894268e-01 -7.213152737685111227e-01
-4.850067595614848681e-01 5.124464499774471216e-02 -2.229371358520083057e-01
-3.555352015192231926e-03 3.865321289292536489e-01 -4.030468740858450527e-01
-4.894246690240363629e-01 -7.121132936167974270e-01 -3.768078279903966932e-01
4.701647306343223129e-03 -1.827483324329554626e-01 4.266822458798715800e-01
-4.352474933619744357e-01 -8.641326125510508938e-01 1.736884596703464068e-01
4.692252622407422358e-02 -1.087698380890300409e-01 2.510495365769209175e-01
-1.874958722183961771e-02 9.902437205563502376e-01 2.383689089755344770e-01
5.556643644616057753e-02 1.640687443644443244e-01 6.425793568331884531e-01
3.618926249598536926e-01 1.050625077453330586e-01 3.373661759949807548e-01
6.360527792738680519e-01 6.826099516550437896e-01 2.638085031136917502e-01
-1.915055333764268952e-01 3.997618418942194274e-01 -2.398937846308444588e-01
-2.022609252529057045e-01 -1.544223055691000546e-02 -2.572341806824254284e-01
1.792312677080712680e-01 1.339144163418737321e-01 4.918723728104518189e-01
1.116816830151783346e-01 -1.759275990329716155e-01 1.850300386790962315e-01
2.264105727077751484e-01 7.401416716688625774e-01 -4.019171493204301560e-01
-4.287623568674703289e-02 -4.738224171177629063e-01 4.440332295143937236e-01
4.594695993521027977e-01 -5.604237502962126083e-01 9.115455024096479064e-02
7.174064247236917602e-01 -6.442250853088005158e-02 1.285258147985493260e-01
-7.136666728690423123e-02 3.374419789540789721e-02 -3.158150384460925997e-01
-6.447952397607921160e-01 5.024557373993688847e-01 2.806382661187955749e-02
5.022430823003374428e-02 -9.667141197330793301e-02 1.664634165685196232e-01
-2.666501946785913013e-01 6.454025944365937573e-02 -1.822214280893233729e-01
4.872579372057728175e-01 5.365972240077018229e-01 -5.776707894587048697e-01
1.918737061699599122e-01 6.693594457326460523e-01 6.226056991120167972e-01
4.569223861350123900e-02 -8.441143629635797230e-02 2.419614791065021753e-01
-2.471227057267850191e-01 3.438206844998917822e-01 -2.007330105745868953e-01
-4.701324356774805868e-01 3.074857702634423151e-01 -1.499748053091878308e-01
-3.953067605981639976e-01 -3.417750172726785607e-02 7.812875972211934528e-01
1.000436260634048058e-01 2.494366008338435442e-02 4.072814160240365577e-01
-2.257929606571951534e-02 -7.718196215150208150e-02 5.484034866730016500e-01
-3.416827673686200773e-01 -2.822959649726142217e-02 -2.808787485633876257e-01
-1.405267852426304587e-01 -6.913334189767428306e-01 3.973885661612005515e-01
2.513957679087383545e-01 9.628640873109998166e-01 -7.062988966026831350e-02
-3.636877387947211049e-01 -6.254706691979015909e-02 -3.139641824843728557e-01
1.060713988474283886e-01 4.414280931460456969e-02 4.433776206308484014e-01
7.167950626994696872e-01 2.998795767649506949e-01 -6.227091745690667146e-01
4.503528921864440870e-01 -1.592839575957932796e-01 1.792078994464054720e-01
-6.943679748966735676e-01 8.358157896921093732e-02 -1.366766464425812067e-01
-4.437413279968759894e-01 -2.056750409683267555e-01 -4.047160424447701077e-01
4.403096545878953938e-01 5.576398924340314478e-01 -5.674412567769965277e-01
3.004333036059207984e-01 -1.535128310677039420e-01 1.678119559120658799e-01
-3.732901076648650340e-01 3.954198970371967659e-01 7.943791105166255750e-01
3.325212041720375100e-01 -9.016594787351557561e-02 1.835215237090823404e-01
1.615223441570965424e-01 1.800338497928905684e-02 1.878972740912257799e-01
-7.509730397602298879e-02 1.870105524481663617e-01 7.394574974098920839e-01
-6.310072675664819553e-01 6.626976902345769194e-01 3.791746970003738171e-01
6.675628953010454003e-01 -3.868680216226340618e-01 -6.573880775134886001e-01
8.233396657838328025e-02 5.336184537818055018e-01 7.046349111178480396e-01
-8.084530509005750654e-01 2.604244109335591140e-01 6.252298967598687862e-02
4.631638527656300325e-02 -8.386701283008761720e-01 1.750941178009076671e-01
-1.267855125710202480e-01 4.922468258241751160e-01 -2.962532204084369347e-01
-1.762274030006560910e-02 -1.253313096889592526e-02 3.986418659887590137e-03
-5.539962033576236733e-01 -5.447987737561370558e-01 5.373329951738203825e-01
5.097668244952811012e-01 2.163654035386149699e-01 3.694378409739413893e-01
5.284811006729087657e-01 8.230183309266554392e-01 -2.484181104523160988e-01
-5.302084420269337350e-01 3.201686284411270900e-01 -1.288369399085987910e-01
2.339338937810678254e-01 5.352436713347537012e-01 6.346264719837817481e-01
8.667763002153521272e-04 -4.291265476043188212e-03 -4.230804388671954158e-02
-8.111319742372372632e-01 -4.549130109918274600e-01 -8.942677570965852640e-02
7.755897287177397625e-03 3.976494077287480444e-02 6.003660558215307974e-01
-1.247452795993310437e-01 -7.600600826676716382e-02 -4.952171530481062067e-01
-4.417608300742598137e-02 -4.373563180025335506e-01 -7.194632588100118298e-01
1.704925466933237543e-01 5.660094103439160529e-01 -4.935389572824777638e-01
-1.928716736166198598e-01 -6.479307788628271836e-02 7.153808492060546032e-01
-3.678070948529427175e-01 -8.080465861477824641e-01 -3.956250998326552581e-01
3.607386805231726501e-01 -3.491207272468853096e-01 1.778643756123382547e-01
4.741511137055013925e-01 5.127625588396143019e-01 4.824086347529411012e-01
7.419502225223197911e-01 -1.686651019455700229e-01 -6.692579533887679233e-01
-5.210866372120518536e-02 2.671434354003945563e-02 -2.014990362175825278e-02
-4.296014003307629392e-01 7.907545364535106813e-01 8.376430275030276318e-02
-1.302476374637819533e-02 4.906753431750920241e-02 1.334278051705738047e-04
-2.198146473575184334e-01 -9.616219357741281337e-01 -2.988093201513539882e-02
-3.012427192938050835e-01 9.089046405890011116e-01 2.870164330672909103e-01
-4.480473683486858594e-01 4.077751822861427899e-01 7.755906787663748858e-01
-2.275778604648629466e-01 -5.914395275985052658e-01 -6.157079625178768501e-01
-5.890851276211692689e-01 -1.057217972901678543e-01 -2.760505149851397722e-01
-4.953778565106196907e-02 2.424831568532402615e-02 -4.650351079378585717e-01
1.985311088863756512e-01 1.082276238146452074e-01 4.304581589977159450e-01
2.665799186208352989e-01 -1.052188618346707460e-01 1.602288442498908949e-01
5.870849188723056278e-01 -6.233185956023825636e-01 -5.325810752263258063e-01
1.089441037737541862e-01 -5.198779648864513270e-01 3.168979566190607278e-01
-3.787885962671294071e-01 -8.979247222984126919e-01 1.249346255321490823e-01
3.417663636608169742e-01 -6.535251911962851601e-01 1.263017232549199786e-01
2.449146262657834333e-02 -1.933261432845736483e-01 3.763007739711534683e-01
-1.823533229892592977e-01 5.994139105303776527e-02 -1.368097712867697435e-01
5.227141132344910457e-02 -2.170996856627061336e-02 1.948390247643967677e-01
-8.469408799407568411e-01 -2.751493412761508717e-01 4.758177655948459539e-01
9.015937894548515796e-01 3.196492780677172019e-01 -3.363372118724491239e-02
3.382019504446313052e-01 -8.644393521743635178e-01 -3.414287903944646096e-01
2.056222534291268778e-01 -9.218083207249062605e-01 -1.440190048205576834e-01
6.453355380603738312e-02 -3.423007698394585074e-01 3.450855113179809863e-01
-2.990664380683801804e-01 -4.561966413359963557e-02 -3.031038076986470875e-01
6.102981225162007473e-01 -6.761758622272703301e-01 -3.088126893967337860e-01
3.483727086400730810e-01 -6.990542678124620490e-01 9.151495192591671546e-02
1.289631105666032007e-01 -1.484617485012904026e-01 1.492197346368996647e-01
2.273528394853512880e-01 -3.316374056328873828e-03 1.892717189720462823e-01
3.405795500642101736e-02 -1.286487254638771574e-02 -4.557340961772101198e-03
-7.490461212006594982e-01 5.199452727866603619e-01 3.321209881804984554e-01
-1.535013617938688901e-01 -3.714059567487746488e-02 -3.665461716615224796e-01
1.292571640229417118e-01 -8.485159804291193472e-03 1.025802381536164848e-01
-2.019606156589709711e-01 -9.096542959629614344e-01 1.522763384582156709e-01
-1.539706479090779401e-01 3.596231274370741138e-02 -1.323882158287308097e-01
-2.319403574856050976e-01 2.630912265471761491e-01 -1.795545238146789291e-01
4.096900127905278577e-01 8.654379685441054848e-03 2.480472633275030980e-01
-3.722231048444290535e-01 -7.879935155691433213e-01 -4.137595364246530738e-01
3.873254510405377965e-02 -6.982454773477214660e-02 1.552755268379814035e-01
-2.332297875990667624e-01 -8.338975796096503856e-01 -4.587086069088299745e-01
2.077520593465021215e-01 5.007120001760506645e-01 -5.445901667055615958e-01
3.513109774957802189e-01 -8.629305032233635098e-01 -2.059185350787924584e-01
-3.505433638277286046e-01 -7.065018752055862716e-01 -4.947741823467870503e-01
9.811819379048699816e-03 -3.163063800920411922e-02 2.692279318317195025e-02
7.567927799536199041e-02 2.878836391277470597e-01 -5.165811320345851110e-01
-1.395586994777793521e-01 6.333412576788158277e-02 -1.025500392167937036e-01
2.132021192581705360e-01 1.975485234852739636e-01 5.322422215604870610e-01
5.749632423332226017e-01 8.092550464585199776e-01 -2.259766077629759562e-01
1.036339793494022721e-01 -3.709999236716615776e-03 7.655005457211142006e-02
-1.839378645878144702e-01 -2.110572948024092288e-01 6.510427040609434446e-01
2.093150551411179436e-02 4.168089156638841303e-02 -1.469672859053435671e-02
7.200446445746438995e-02 -1.577114894584307966e-02 2.625432227227163517e-01
5.092502550272210993e-01 3.473137046886348722e-01 -6.803388124890169530e-01
3.092797812590587433e-02 -1.456766325404772744e-01 3.586782670916696114e-01
-1.814741353517906886e-01 4.569851658985210063e-01 -2.565921223330098200e-01
-2.196511928080415454e-01 8.607380035576306376e-01 -4.463614297013843157e-02
4.417490987852948359e-01 6.179145830100049586e-02 2.849699157423556395e-01
-3.780874761080414426e-01 -6.119190680353039230e-02 -3.103073684381463804e-01
-4.546508234562667838e-01 1.347095487082565490e-01 -1.899623366950986547e-01
8.239997888032075946e-02 7.976104858999411018e-02 5.422569464825764962e-01
2.262898725742023276e-01 -6.661093107655614576e-01 1.981745074443767574e-01
7.205988459638918986e-01 7.061726863134000221e-01 5.854736128935693340e-02
1.434630859545424075e-01 9.085948407769501856e-01 -1.872834408568762321e-01
-1.265209999044006328e-01 -7.944562248590427700e-01 -5.472160542455621890e-01
1.657373636195055011e-01 -1.960749437380140681e-01 1.755549989703399649e-01
2.495266244446857698e-02 -4.375370686618027666e-02 1.133951861057401062e-01
1.137293497347842686e-01 -1.394876410936908839e-01 1.458250898245550542e-01
5.441445901271191321e-01 -9.327484929190907326e-02 1.896653953392820890e-01
1.443475807949155462e-02 8.525658220670767617e-01 -2.125369437426894159e-01
1.918482183312954226e-01 6.430592850505091607e-02 3.372807577834535109e-01
1.680285094190272221e-01 -8.402358685010439254e-01 9.225462007445228707e-02
-7.357833590521375422e-01 5.384905752839699300e-01 3.463848127380465547e-01
-7.359546169580467589e-01 -4.115179841767587776e-01 5.239609883663808310e-01
-1.674304699995349532e-01 4.647090850024439002e-01 -2.663589063808518564e-01
-6.445670982987391495e-01 4.346017396695117108e-01 6.585517262691339413e-01
-1.255083504990617271e-01 -3.446355960039911293e-01 -6.726122199999643447e-01
7.095541445970321437e-01 -5.443034501568058126e-01 -4.258270089183962548e-01
-2.614216675428052694e-01 -9.380172045839930972e-02 -3.863406076962197511e-01
-7.091656986918156713e-01 -1.401695935130813364e-01 -2.145015690619638815e-01
9.871884246889867098e-02 -9.136742143762645041e-01 1.807998289114622070e-02
5.941532001601738111e-01 7.370022625374939018e-01 -3.397708129585399472e-01
1.698480737923693529e-01 6.703812838003422314e-01 -4.341686861442756729e-01
4.903699825402121348e-01 2.803090861068771242e-03 2.413111852504294941e-01
2.273902444311760029e-01 -4.639425770662333401e-03 1.877992121287787863e-01
-1.872982752187478950e-01 6.101334760970019699e-01 -2.436502929956945451e-01
-3.227489457684843965e-01 1.559527374554374457e-01 -1.726542611710568387e-01
-4.498145560795534514e-01 2.593912833323381850e-01 8.019868910020417907e-01
-2.256990259808517862e-01 -2.757060245151619626e-01 -5.854949024336847385e-01
1.231764932845826471e-01 1.628828758937130028e-02 1.542366781084746064e-01
-8.641148864322143464e-01 2.338494224506763863e-01 1.599013492510810708e-01
-2.545962985158718370e-02 2.657479886497059532e-02 1.307987410666196573e-02
-3.555808191726970297e-02 1.033436433843293173e-01 -2.387480504368462153e-01
8.690058434910219454e-01 -7.253759401999181067e-02 -5.266569434624227553e-01
-7.180750581034110736e-02 -7.097608447024673639e-01 -6.286051693235230609e-01
-1.319000325019679121e-01 3.319150776244296219e-01 -2.533424200965127548e-01
-4.909456631854925979e-01 -8.551793125959308295e-01 -1.588492019419323331e-01
-8.319864601010339145e-02 4.547391533994909335e-02 -5.404559383339314210e-02
-1.339122197563299144e-01 9.617353819663735370e-01 3.080385027748460680e-01
4.262984568851069939e-02 -3.601052223752531645e-01 3.728031637872709636e-01
8.127237461981111633e-01 -1.866799684032064977e-01 -5.844070623052400881e-01
3.053231805047227146e-02 7.760696334849724425e-03 -2.084681810236102203e-02
1.192843315754254507e-01 -5.092062100885352827e-01 -7.546997545969218457e-01
4.677250302566830775e-02 9.294223597048286573e-03 1.219198190888605426e-01
4.098341866270522882e-01 4.827884039108057967e-01 -6.131110636721568419e-01
-1.174103450167417045e-01 -1.853274983330353842e-02 -3.834762937818492756e-01
-7.049938908287194106e-02 4.476675849816393049e-02 6.798073736166013736e-01
9.060248475539931512e-01 3.989173209012348842e-01 -1.747066050774412904e-01
-2.107248589218241042e-01 2.756597532813885240e-02 -1.838456869070791699e-01
-5.295438385107515966e-01 2.002657976376233662e-01 -1.606037528998110475e-01
-4.959964169472121792e-02 1.156289940083674375e-02 -1.265326226286541955e-01
-1.818190031220232872e-01 1.538789497538627787e-02 -1.840344306931975815e-01
4.375465157341154251e-03 3.496549793987527854e-01 -4.127285604556855114e-01
-5.463330279834547332e-01 4.658444655688072089e-01 7.125309168119501324e-01
-2.133317492955532080e-01 -7.922426604509964498e-01 -5.119244654422808738e-01
-5.360688265463877666e-01 7.093550267169591583e-01 4.936718086450927467e-01
-4.895818236616395619e-02 1.276762014370433629e-01 -1.443559875906495205e-01
1.440016426986085070e-02 3.446185488686726583e-01 -4.258846247139678187e-01
-1.758833780836452365e-01 1.075267526311803751e-01 -1.237329692940775661e-01
-5.285856238079179592e-01 -7.183820259875280945e-01 -3.299934046302097079e-01
-3.523750444479504251e-01 8.806042285289052973e-01 3.233875123362968673e-01
4.986700797258643292e-02 2.019018047139218425e-02 1.707468759371201170e-02
4.715850601689463434e-02 -6.534073949475115162e-02 2.412488767289451275e-01
-4.962076960078930510e-01 -2.623501948113232118e-01 7.088395429649941848e-01
-6.890359449305305528e-02 -1.925621030422875607e-02 -4.964942870718057066e-01
4.720051821128640746e-01 8.899360521651568101e-01 -1.392830153519382663e-01
-9.316293281116715397e-01 -1.424792013661695389e-01 3.107060951990345266e-01
3.161957240313301165e-02 -5.691188359082898635e-02 8.343373861027610083e-02
6.104625805042281916e-01 -4.762202347696333771e-01 1.988033896329897271e-02
-7.339813277094209276e-01 7.715093917648702115e-02 6.819048733522191652e-01
1.509097435576749191e-01 2.262086951644002794e-02 2.016033733457460175e-01
1.378067321774748000e-01 9.999767248078580417e-01 1.518041406606753518e-01
8.271171167322535767e-02 -8.757526391535003923e-03 -6.731993618806125790e-01
-3.474690683122829138e-01 -9.179326802546010633e-01 8.227425253327244614e-02
4.552722405493359048e-01 -5.676448536755219765e-01 -6.900351590686353287e-01
1.530562191809107797e-01 -5.884421183841107711e-02 1.055974912716300534e-01
-1.527270583419369221e-01 -4.976259055525185659e-01 5.124520583549796449e-01
-3.155692571681115721e-01 9.032130719372446492e-01 2.688641273492003436e-01
6.886139702046341071e-01 -5.461456623362351825e-01 -4.791857335508410420e-01
4.738558530519697970e-02 -4.480082050311001152e-01 3.708743219105955502e-01
9.454688240192556936e-01 6.312207136138081598e-02 -2.950518339627737352e-01
-4.167531043436527999e-02 -2.970940462323470518e-02 -5.538331220520092968e-01
-2.118137809376159919e-01 8.297939961309267476e-01 5.625452204752660057e-01
-4.489129299161528364e-01 5.450094627505186473e-01 -1.056712570967813930e-01
7.706371974358043886e-01 6.175981593575904371e-01 7.956360598010334129e-02
