1.952486838629953758e-01 -8.632963069395166444e-01 3.019866453745928547e-01
5.931546708659275469e-01 -6.296325760107938097e-01 3.443528533339619835e-01
5.763958606544009600e-01 -6.808424241040712532e-01 3.484777830340534677e-01
-7.729988852278372180e-01 -2.373890228765928034e-01 -3.983243762527878262e-01
-6.242094560345800014e-01 2.389198984964344963e-01 -4.779681881292118240e-01
-2.437788884461986327e-01 8.953437829521166957e-01 -3.051788446158649748e-01
6.696276601005597406e-01 3.022604391781845423e-02 5.273668095925602151e-01
-8.123736210512416678e-01 -1.355402774750417705e-01 -4.369397036357201003e-01
-1.262312187030003585e-01 -9.411189713786093369e-01 7.811143388458585690e-02
7.696710369699316656e-01 4.427585295029470847e-01 4.744922392298100422e-01
-6.667123276842814583e-01 5.763100896185496813e-01 -4.246597164034647820e-01
6.438858077366121924e-01 -1.892440552356233208e-01 5.305868141181510067e-01
1.795254839368158606e-01 9.879368098770923146e-01 5.383397999857303384e-02
-8.187111711979189188e-01 -2.383153752984532026e-01 -4.703194223996279844e-01
6.267429574018876792e-01 -6.019176468057625407e-01 4.954452095876761830e-01
1.269551479687922035e-01 8.928135489368000943e-01 1.315467498889584808e-01
-6.988019476382059114e-01 4.745125155715334553e-01 -5.248365534940492294e-01
6.369945700588919291e-01 -4.818895808103508815e-01 5.546156598024803985e-01
-5.751207981157165916e-01 -6.818004335146288231e-01 -2.331360855848555180e-01
-8.294826334289359115e-01 -4.437156949931406191e-02 -4.665460545018528249e-01
7.768110197695570207e-01 -3.158784477740350649e-01 5.533839163794664895e-01
1.095931208586208294e-01 -7.995092136069291699e-01 1.304098669926628262e-01
6.241513598460988188e-01 3.968650571412465911e-01 4.998155807846982324e-01
3.203025195675868186e-01 7.434032475711496168e-01 1.790476740094244790e-01
4.151749966814212156e-01 -6.456430413076289510e-01 4.307901060639826585e-01
1.563649309317317881e-01 -8.491849455668863955e-01 2.779741396245298257e-01
-5.504871482971881447e-01 5.579391687335478744e-01 -5.157246683015783706e-01
6.558405842446461964e-01 -4.056915480349032599e-01 5.726107754428306773e-01
-6.653972893889287255e-01 -1.742979491659494562e-01 -4.331255756906764454e-01
8.335659819833520778e-01 -1.672798268210618292e-02 5.636494113162123787e-01
-7.246766393156751640e-01 -1.138559084296906082e-01 -4.083851622602179265e-01
3.240110402977784965e-01 9.391513612743764838e-01 1.611507078029810192e-01
-5.686466615878233988e-01 3.964120809614003482e-01 -4.364564935588796102e-01
6.458348204138941728e-01 -4.375703865207845045e-01 3.819676398183155519e-01
-2.242095783851486002e-01 9.383107924566779223e-01 -2.530123783042519947e-01
6.224410500154529124e-01 -4.260452049019557430e-01 3.863475614657817525e-01
-1.777469651602866796e-01 9.659471831533842368e-01 -1.331406533846636042e-01
7.192140076218530576e-01 -4.862660511910909533e-01 4.964776825333723775e-01
6.744660230009428270e-01 -2.339230775862413680e-01 5.859387000780805765e-01
-6.576521505716568239e-01 2.008184495819277660e-01 -4.405110691871735873e-01
4.385703554635609347e-01 -6.093541193350842100e-01 3.353028470515655446e-01
-6.206997327548692267e-01 -3.037572317165184721e-01 -4.460094226244433746e-01
-8.194485259910462283e-01 -1.393174097895379659e-01 -5.408433292469897458e-01
2.322765695150085657e-02 9.148227728181369534e-01 -1.558406236454848159e-01
-1.186633691679224584e-01 -8.733551453818461097e-01 -1.213245431918912043e-01
-2.260759435114313431e-01 -9.614301271249383607e-01 -4.676084366671834358e-02
-5.270511194780536091e-01 4.638184468418752870e-01 -4.471319438447109995e-01
8.474230310623607210e-01 6.358671423885614571e-02 5.113824935353481482e-01
5.599125497778704164e-01 -6.010934425909829626e-01 5.133159553622550497e-01
6.809696863444552051e-01 3.491925650065746956e-01 5.461970522332638689e-01
-5.110710642811765458e-01 7.628952328188879362e-01 -3.917714835287050001e-01
-2.268145581755536544e-01 -9.185002638610703096e-01 1.193799933078956016e-02
3.065610452343704440e-01 9.435320086153671237e-01 1.619417567253920442e-01
-4.060511974380972000e-01 -8.377186022356181150e-01 -1.119238216231793065e-01
-6.787812986408268134e-01 -1.050081303082325140e-01 -5.566901209045131971e-01
-6.529236092988609519e-01 -1.817051134229612785e-01 -5.154737971703251542e-01
7.659066502885321370e-02 9.869099954635579541e-01 -7.325359959800376020e-02
-6.575551480439475460e-01 1.113915688869205611e-01 -5.470040774940166939e-01
3.835167750098623235e-02 8.243199296008179022e-01 -3.052983170037073743e-02
-8.287798857728985794e-03 9.696642090051106333e-01 -1.481583333108843215e-01
5.332286833596682624e-02 -8.820714867164096695e-01 -1.414735819165954984e-03
8.447992466980466242e-01 1.577045116465760830e-02 4.951353285921976655e-01
-6.930457579822849601e-01 -3.125551457628688440e-02 -4.338393601942812094e-01
6.117218694266063350e-01 3.745411829548327964e-01 4.613833803313506232e-01
-1.838369248514613863e-01 -9.346971080516126573e-01 3.765802923606331731e-02
-1.099976363096807214e-01 -9.590343806859181752e-01 -8.076006824775930348e-02
4.330197478664052912e-01 7.356620755470673068e-01 3.516781316211926578e-01
5.766134340883443121e-01 -5.534538085251369255e-01 5.296227906754568115e-01
-3.875784004077975631e-01 -6.782709416741443675e-01 -2.278821377015567418e-01
2.167589247990824308e-01 -9.325772320950200811e-01 1.337819356405678950e-01
-1.080561265805440457e-01 8.858851188714755853e-01 -3.162660601656918508e-02
-3.789298685484333018e-01 -8.242266227784011967e-01 -8.780908124010575189e-02
-2.880460418019835100e-01 -7.627709622513293430e-01 -2.174916173330707636e-01
6.147341551206716437e-01 -4.763535831587104585e-01 5.532187985896460658e-01
5.004498770447388667e-01 -7.524714701562025265e-01 2.988942644256618042e-01
3.854258318548726137e-01 7.030565443237306589e-01 2.097255966547801886e-01
1.107623175367989654e-01 -8.622458687203954364e-01 2.476684390496547983e-01
6.824387782050425066e-01 -5.098144905050228104e-01 5.262121414725725588e-01
5.494861245969198116e-01 7.770577369088242925e-01 2.409410071995313762e-01
-8.096273253271015768e-01 2.239344853051394579e-01 -5.056375898007865466e-01
1.071162642488617811e-01 -9.800681479858225353e-01 1.177220442746715334e-01
-3.993285859558122208e-01 6.927541975054801737e-01 -2.559053597463766261e-01
8.387272067521831520e-01 -8.169027784504963308e-02 5.398490291640329897e-01
-1.845794485867028045e-01 -8.418839756653028195e-01 3.078525840569246858e-02
-6.780829637426434922e-03 8.238494043794623023e-01 -5.380071033760790156e-02
8.083386608165019638e-01 6.508180116146454475e-02 4.389228280488457479e-01
8.344758449566165304e-01 1.988658110725931849e-01 4.760111951543975484e-01
7.622879169058390803e-01 8.649128546413388519e-02 6.006279958766750360e-01
1.800582755982526872e-01 8.048730626990604486e-01 9.008999221396343793e-02
-5.407287425040262496e-01 -5.203312780576789809e-01 -4.223627282415586826e-01
-2.746658572411980748e-01 -7.608758193487645816e-01 -1.067865697995429713e-01
8.061763080326015407e-01 2.437943472429660863e-01 4.280610134312772819e-01
6.851998970071431216e-01 2.680636598823685768e-01 4.022911066938937297e-01
-5.270543229633379845e-01 -7.298265964576959863e-01 -3.704123185662395179e-01
-4.962074486086896496e-01 7.195241980520439284e-01 -2.791982210511237406e-01
7.661665053563433414e-01 -3.497043551661362937e-01 4.496108136967801872e-01
4.508415503694842008e-01 -8.183425353528219759e-01 3.528364782414957213e-01
-3.421612871813389245e-01 -7.179838089419438019e-01 -1.705107158149865298e-01
8.464846971537198783e-02 8.935252099729174002e-01 1.013163209155892724e-01
-3.774872856881041350e-01 -8.584560347837448813e-01 -9.333781075720681830e-02
-5.441393936643114104e-01 -4.943751906516771766e-01 -3.473071101075200229e-01
-7.453363914468664753e-01 5.029131515516181705e-02 -5.975734714171114792e-01
8.471406224202545632e-01 7.390043521370472102e-02 5.089378888102816800e-01
-7.045934037546359718e-01 8.389811680017912610e-02 -4.273167996358462895e-01
-3.346928866963213012e-01 -9.176566676442589054e-01 -1.714538015151642059e-01
6.593114036708486170e-01 -5.771470195591978936e-01 4.867772677976669460e-01
-1.017458146249969053e-01 8.068384096303485853e-01 -1.564792639723794343e-01
-3.333124443852587548e-01 -7.890793582892616786e-01 -2.754043336972030187e-01
-4.987507999117183344e-01 -8.110356533281243285e-01 -2.762368006277025057e-01
-3.383076958528967726e-01 -7.188790296936399260e-01 -1.732195791664036533e-01
6.583550659852506204e-01 6.588371497871345905e-01 3.817516665618772009e-01
5.906605105294113756e-01 -5.838941020101612311e-01 5.202027197396242864e-01
6.998091608815775189e-01 -5.176493978395234619e-01 4.301363452921983521e-01
5.563445947334259012e-01 5.661648047333668332e-01 4.467628872777762994e-01
2.988001313237766965e-01 8.952759575203320663e-01 2.294871449648082373e-01
-5.142670693506009583e-01 6.278498252449292716e-01 -3.007408622270167919e-01
-7.067934513689766440e-01 3.102907504942559735e-01 -4.031434255565885527e-01
-6.579113313981725941e-01 -8.866648626093241725e-02 -4.870616438039563900e-01
7.194588546799865481e-02 8.238656583359247332e-01 5.379822821360587433e-03
3.975882598256356149e-01 8.743564524102093172e-01 2.639067553840531710e-01
-4.255555053249071573e-01 -7.679272040772060492e-01 -1.261987087888375991e-01
-8.162525167229875978e-01 -1.043941802381141704e-01 -5.533449440314373025e-01
-7.243755853301010739e-02 -8.388273402338719542e-01 9.290714178507222809e-02
-3.539334738014866533e-01 -8.960926622532391361e-01 -9.718645423568753050e-02
4.929565333243697278e-01 6.458215829125385499e-01 2.316800489188520218e-01
-4.343238746575886489e-01 6.024426009331320664e-01 -3.475597422372297407e-01
-6.398542749394907636e-01 -4.354085798782890149e-01 -5.070947824385675373e-01
6.743070873092734674e-01 -1.595774751542226866e-01 5.782738717795296024e-01
7.917280018812765663e-01 -2.003533255176691563e-01 5.821577816328896704e-01
3.788926008610181695e-01 7.043314291598458121e-01 2.186001139763845136e-01
-7.298453589588638213e-01 9.002387378730733469e-02 -4.199266239375571419e-01
-8.267491503098547412e-01 -1.348384287734920306e-01 -5.275373554151762123e-01
7.845495856919098010e-01 4.051585193955005160e-01 4.254048427219622175e-01
-5.200914948265866755e-01 -5.406948750125294412e-01 -3.975720744348079094e-01
3.159270751758970208e-01 -8.975110809274829959e-01 2.052100496848487388e-01
6.920915069778592610e-01 2.461167301263699481e-01 4.063709773213776688e-01
1.985900469272684210e-01 8.212670944065797451e-01 1.499667619295463709e-02
-4.420558742802194185e-01 -6.252350192792093253e-01 -3.044675170682007992e-01
-7.654176492712946311e-01 -2.304005053511403167e-01 -5.623030025994675274e-01
5.529194298724758871e-01 5.666217556256610832e-01 4.437789176153384418e-01
-5.753974376145034597e-01 -7.352110145994568136e-01 -3.324998644045373264e-01
-7.072578351547698094e-01 -1.828205743837346409e-01 -5.708595100438226266e-01
1.913277133834636046e-01 8.847700129081621512e-01 1.765155672452376479e-01
6.634072418377946478e-01 2.913125968625674411e-01 4.081926145532207562e-01
-2.142668328259812738e-01 8.397432524744758986e-01 -3.123901204956334166e-01
-6.247106105900849249e-01 3.895010800135058626e-01 -5.578414983861714749e-01
-4.961727844791367081e-01 -6.148405872102568059e-01 -3.957438166600251161e-01
-6.635219843913071625e-01 7.932840933721995152e-04 -5.368141405833496416e-01
-7.895342861083666230e-01 -3.144186754188484367e-01 -5.100686462184165215e-01
-2.389258685551443606e-01 -7.775661132780281593e-01 -7.733401551570928678e-02
6.624704488753763165e-01 -2.811425091309932012e-01 4.252060738940017237e-01
6.280488518270815890e-01 -2.540183519405108670e-01 5.296875394187633423e-01
8.220608191870517611e-01 6.978546929856843661e-02 4.502103103667554618e-01
7.388111471937324204e-01 4.091079726506818837e-01 3.667860429224363283e-01
-6.536692335974880752e-01 -4.608982423837462705e-01 -3.157186785049482247e-01
8.249739525711059507e-01 -1.631525394665818696e-01 5.461838031724253195e-01
5.371450268951118989e-01 -6.527751047502083903e-01 3.081237014870017998e-01
-2.092066757574531644e-01 -7.824075743691906171e-01 -8.299360788078356810e-02
7.571091721742907454e-01 9.348205457321111245e-02 6.000683700817293076e-01
4.448440201093439295e-01 -6.462335939469849855e-01 4.593430318751570707e-01
6.542325080269341120e-01 -3.348807187863090951e-01 4.108359973304676616e-01
-5.569331676411755083e-01 7.202200917852095152e-01 -4.035835943428257022e-01
6.720829894473246968e-01 8.651006501516861347e-02 4.835300266914078215e-01
3.889587734752744108e-01 -7.187152861233324641e-01 4.265954173461645738e-01
2.068190178220761719e-02 -9.070231173516895007e-01 -2.642400091895331926e-02
-2.685299337087296845e-01 -9.072185139406627741e-01 -1.943290326735537810e-01
-7.793017598455330708e-01 -3.634522931873438445e-01 -4.921344945524804282e-01
1.293130593568345976e-01 9.518742580890406924e-01 -7.236600522060336604e-02
-1.169063050626572009e-01 -9.834225247558099348e-01 2.469753500508828706e-02
-6.274955520775375994e-01 -3.660229821644744308e-01 -3.705930589377608442e-01
-6.096329130776656502e-01 2.958391334552404328e-01 -5.205517331911374557e-01
-6.101632415383458907e-01 2.806103902978978049e-01 -5.053636510619941014e-01
-3.794184477136398614e-01 8.374674502528122177e-01 -3.674981448821790786e-01
2.864463661192189758e-01 -7.205497108396600181e-01 2.981544516778448228e-01
-3.364244576176316781e-01 7.543932343739997437e-01 -2.041744139871142505e-01
-7.066262916951098205e-01 3.753046285754125799e-01 -3.990815865424433007e-01
-4.930068560390483690e-01 7.066601589438962217e-01 -2.765650217050751314e-01
7.138968870183152182e-01 -3.545442629046751670e-01 4.086931595105910420e-01
-5.494191200161457900e-01 6.854812546262292194e-01 -3.157108605166418780e-01
1.324694153376189953e-01 -9.213339983848475301e-01 2.462386464666447283e-01
1.087858578366601159e-01 8.384679016094715998e-01 -5.159963774839645967e-02
-6.666464076334476241e-01 1.857181412386625652e-01 -5.721843658998275739e-01
-7.924390474686623387e-01 -2.843489536615260715e-01 -4.157812506448065326e-01
6.558225365044041411e-01 -3.176351481986122161e-01 5.785730156265327384e-01
-6.578121156742964271e-01 1.129775801801099072e-01 -4.681854509018112398e-01
5.051153961423582306e-01 6.753849171405521545e-01 4.040583087185133926e-01
4.508650162971175046e-01 8.697007562078735710e-01 2.311039136907411806e-01
6.544814004462100598e-01 -2.006236783843443061e-01 4.631674937481841670e-01
7.320620639284189934e-01 -3.105508276683716651e-01 4.172893947882677090e-01
-5.593153969686494031e-01 5.736822690582885631e-01 -5.152630945666702988e-01
5.898557630609102542e-01 5.210104223234076626e-01 3.071805961479490144e-01
-5.335062968681284490e-01 -7.833621369999117512e-01 -2.869999179163559289e-01
-8.353050894190039433e-01 3.245214892715835714e-02 -5.163442103731237243e-01
-5.344757250262469755e-02 9.568778565170686923e-01 -1.838164832873555310e-01
5.334510748563003890e-01 6.309070203940793098e-01 4.272283468074987156e-01
-5.197051758435682345e-01 5.897094808830992685e-01 -3.173792773675668810e-01
-3.071588965562169204e-01 -9.343311276492882733e-01 -1.106171449263204237e-01
4.180569983782204679e-01 -6.607766122644816997e-01 4.402048792833139212e-01
2.921711671347781980e-01 8.250857925452488306e-01 2.484060865950865615e-01
-4.636295603701026669e-01 -6.081437148644014412e-01 -2.745381400076126743e-01
-6.764108959462729054e-01 -5.189403059671882090e-02 -5.564261609407932241e-01
6.829582494449583097e-01 1.341428516169571594e-01 4.500014996941594791e-01
7.260205166911632979e-01 -2.061759830728669418e-01 6.029831140404156020e-01
5.613495100998183718e-01 -4.560026539558302838e-01 5.200391236717342158e-01
1.346338191078471080e-01 8.829629689727824804e-01 1.360317989103702330e-01
3.691932780250435364e-01 9.097708071337266000e-01 1.208291536094161511e-01
-7.970012199136288222e-01 -3.055873771259027816e-01 -4.282095060845242940e-01
-6.812285545229013195e-01 -2.970344569265644941e-01 -5.460912664611224931e-01
-1.584556875675606213e-01 9.435490902759092746e-01 -7.902126857711835872e-02
6.771671781552681679e-01 -2.037299675901348139e-01 5.856300779090288788e-01
4.737372281239119465e-01 -6.523549324024440210e-01 2.884813477208976185e-01
-4.910434224965615213e-01 -5.660109560206513235e-01 -3.316700335649072073e-01
-2.304609818517641129e-01 -9.483284692286791939e-01 -1.969456047842468860e-02
-6.568358818535471322e-01 -1.637749598776452320e-01 -5.222108039163275706e-01
-6.115980136370262610e-01 -4.217714522856401693e-01 -4.898384646652352292e-01
-5.657943781581973308e-01 -5.641086770056207289e-01 -4.492848402685150622e-01
2.031098953562217868e-01 9.451396385646918530e-01 1.525780501505560327e-01
3.020077168541007717e-02 9.483173415196555212e-01 5.555447986617140926e-02
-6.567900244505927576e-01 5.803242000176538073e-02 -5.273693254566745869e-01
-4.378816977149958545e-01 6.378607498791583064e-01 -4.475794512158479121e-01
-7.381539074321550320e-01 -3.714757051021634893e-01 -3.648073479767607319e-01
5.942521258760556924e-01 4.674568269380561247e-01 4.742726446719818800e-01
-4.125976598636915682e-01 -7.864710202762914548e-01 -3.193408359253875894e-01
7.994353794816856373e-01 -2.444772000560643116e-03 5.962783595419213212e-01
-5.828199892406267235e-01 3.523194595061185375e-01 -4.849934992080663920e-01
5.873065870008659095e-01 -6.052021538614866802e-01 5.103183371979806981e-01
-1.850129029779043477e-02 8.603405991651720264e-01 1.049487602905304663e-02
-2.998697255392449579e-01 -9.028334773459211204e-01 -2.055800210378153914e-01
-1.084301234048564849e-01 -9.816815656461688189e-01 -3.909541609326615264e-02
6.826432947207348167e-01 -1.156236602742059250e-01 5.810102010731826860e-01
-1.784253465233868186e-01 8.858226879611725835e-01 -2.846123113584252406e-01
2.975444192921217201e-01 -7.683913362330607733e-01 1.867975845468354268e-01
7.099266216707773580e-01 -2.785159039898060795e-01 4.153541946206024127e-01
8.070537204044612167e-01 -2.462868686292637443e-01 4.821110591720516036e-01
-7.797110819193812103e-01 3.226279895233702955e-01 -4.689801865979188467e-01
-3.779026192519229221e-01 -8.448065046852520910e-01 -2.734288948114678708e-01
1.095156108672376283e-01 8.332242792762277750e-01 -4.173782734885643497e-02
2.880590369407471929e-01 8.762110196623545955e-01 2.643762056678693184e-02
-4.241341029622865966e-01 -7.593480562169888648e-01 -1.283873587443330189e-01
-1.352771723601302323e-01 8.067248525180688024e-01 -2.183839549902603927e-01
-7.931496685501371324e-01 4.579493723208926531e-02 -5.836246199227353992e-01
3.283709973173778995e-01 -8.856952526063656128e-01 2.048442264029329551e-01
-4.410360682024205281e-01 -6.403267251286326456e-01 -3.335219210333649209e-01
-7.046813843554469159e-01 4.555072679989766726e-01 -4.048906243022932228e-01
-6.537481071050067483e-01 3.973575697496943837e-01 -3.841647100807209503e-01
-1.529299447472231011e-01 -8.195548785202139142e-01 -1.183097247847989530e-01
-7.470189855006517665e-02 -9.763499900221845884e-01 7.876779078135881518e-02
2.928884553689838910e-01 8.141973846707567519e-01 5.514673345645809688e-02
-3.877375858668565822e-01 -6.775687321000225527e-01 -2.313630769241753204e-01
-6.942981186204295607e-01 5.207182679445754303e-01 -4.238700026508369634e-01
-7.952381334808972246e-01 -1.971663852984713861e-01 -4.173243332400137784e-01
6.160548941162615755e-01 -5.760660199525863279e-01 3.545481731050969532e-01
-5.830777314771276032e-01 3.604350499730180624e-01 -4.507187405704740080e-01
-6.803660758895411220e-01 3.988773508470850881e-01 -3.879694542014403003e-01
-4.950568328237454074e-01 6.180782141980303290e-01 -3.029317268278078346e-01
8.068838454642131008e-01 -1.517531098593217775e-01 4.560591828027298900e-01
-6.521923377546148259e-01 3.393706972881201933e-01 -5.709734725094928187e-01
-6.893275285047479883e-01 4.640658130619146893e-01 -5.384344107846631422e-01
-7.119751932466399369e-01 4.740011690256127341e-01 -5.090434359818660770e-01
8.043937172773083510e-01 -2.757659925774236798e-01 5.112171088705494970e-01
8.278515280693699019e-01 -1.709433953502338677e-01 5.067479655814889350e-01
6.614322101035512436e-01 6.423333488096528709e-01 4.076638494829836756e-01
-1.122878434284206584e-01 8.038680116828581523e-01 -1.471924190062799120e-01
-2.186079641233607818e-01 -7.929703849955569428e-01 -4.316664481638542855e-02
7.566346029163661946e-01 2.343724688044373228e-01 5.791859590673270608e-01
-9.949918065408215606e-02 8.905595950171462105e-01 -2.375481759895313738e-01
1.951734105279641363e-01 9.278514180981893844e-01 -3.456750101373291806e-02
8.423319914083986504e-01 -4.652186305532044625e-02 4.998092471112175472e-01
3.769090069434633539e-01 8.452254709617997852e-01 2.883501810858113412e-01
4.287633454629249941e-01 -6.136547378185652768e-01 3.391055416236742337e-01
-6.131351887723248684e-01 4.001687527251461818e-01 -3.903783633043859669e-01
6.632254850743438679e-01 -3.734805236597320555e-01 5.783790960054668862e-01
-6.593902185985685005e-01 4.336545495357002622e-02 -4.836986598461087139e-01
1.817881069207347711e-01 9.796978866117119766e-01 5.797183102030690344e-03
7.886988525749293322e-01 3.920112672664958220e-01 4.858392185422536480e-01
3.539647885205461364e-01 9.004679456622864953e-01 8.957295559797853746e-02
-7.359808945623551313e-02 9.735670058293176554e-01 -3.853266541313143251e-02
2.147450944244111981e-01 9.699678784662191244e-01 1.175535768143102233e-01
-7.480489884708162451e-01 -4.753903952960173984e-01 -4.209709504130808577e-01
-8.620175483750056045e-02 -8.250022752128203241e-01 -5.693512378550629610e-02
-6.827907318348425125e-01 -4.904663761590211668e-01 -3.188216413789964343e-01
1.087836497343211417e-02 9.873710536904029000e-01 4.255742330994222340e-03
3.457895641923945940e-01 -7.485117161946605036e-01 2.116384087672668335e-01
-4.450498331635032168e-01 6.686882650889578450e-01 -4.563479170110211758e-01
-7.600840607376132541e-01 -5.582104496418462819e-02 -4.135973520615610632e-01
3.228134534284852752e-01 8.125599590940669747e-01 2.708381494176833604e-01
-1.001245300461765381e-01 8.194096528462537776e-01 -8.876482735045602979e-02
-2.865021960970837167e-01 -8.533424778517272324e-01 -2.312232801216428102e-02
-9.963871746185407052e-02 8.084576012134466749e-01 -1.641214857382010117e-01
-3.384569458628993721e-01 6.873755522476053814e-01 -3.388580048471769302e-01
8.034836637084805666e-01 1.246304120774403834e-01 4.313318626250677856e-01
-4.288714094396988141e-01 6.072508614999837517e-01 -4.129214611845625771e-01
7.277154262066029000e-01 2.996221459632561479e-01 3.829469165833924160e-01
4.796729346131295424e-01 7.327124761215196846e-01 1.730967013108218044e-01
8.930894403909775403e-02 -8.040638327329386881e-01 1.634353048711424672e-01
4.299344561274218157e-02 8.537798830381978510e-01 -1.158609166436686266e-01
7.235971555558052826e-01 -1.643526196659897132e-01 4.280396009130261192e-01
4.895897230656419130e-01 6.057036861483453549e-01 3.742026305231737626e-01
-5.833785252916506847e-01 -4.076124221482506083e-01 -4.292732061307968916e-01
-4.073495681651531641e-01 7.033499362271913302e-01 -2.486131484284195003e-01
-7.093217198071681828e-01 1.538779067540217704e-01 -5.933829845744327258e-01
6.657517302682115501e-01 -2.235590792793050452e-01 4.421404366630687366e-01
8.329723621018413349e-01 1.953459074871875811e-02 5.650011833704641218e-01
-5.161165448784683640e-01 4.941427567670976795e-01 -4.003516042617852877e-01
7.674614499189152950e-01 -1.799594760041862695e-01 4.319710959597261035e-01
-7.709431347184519945e-01 4.616336532330773956e-02 -5.937185811661738200e-01
-6.730388644074106752e-01 2.951753838014384290e-01 -4.061464035375695891e-01
-5.399119957825949667e-01 4.738943180694969448e-01 -3.913086165378426018e-01
-6.617181805481919810e-01 -4.950790071938964143e-01 -3.078009306505910536e-01
4.845877078539483351e-01 8.312966187765280512e-01 2.932832836877227733e-01
-7.431810875123099347e-01 -1.019453887569572170e-01 -5.876149693852871225e-01
4.633473818845626480e-01 6.708718532489007513e-01 2.132448957305092818e-01
-7.398382723690367646e-01 -7.912027029270678191e-02 -4.106542430996634740e-01
5.324950477010095273e-01 5.612713898051583383e-01 4.188004606667519725e-01
-3.216337956401554843e-01 7.743517760640895586e-01 -3.806070121557240671e-01
-2.421280023244546664e-01 -9.082539954311766861e-01 4.101749484078587998e-03
-7.757138226310756890e-01 2.965897602497840624e-01 -4.470278157275141551e-01
3.690759675448572752e-01 -7.069046052929031099e-01 2.474128306009610867e-01
-1.220931288829055217e-01 -8.070338402998822325e-01 -4.848270584431749186e-02
2.135856928203770377e-01 -9.130959792775719119e-01 1.132707009552914590e-01
5.227946992130964032e-01 5.463645017778915314e-01 3.545849283740468705e-01
-6.852674259378989108e-01 4.280867739385726956e-01 -3.880163905202925756e-01
-1.568569311638704777e-01 -8.924420656664461271e-01 6.826499045384028241e-02
-5.881116627100311245e-01 -6.370653210327678062e-01 -4.280034780698705466e-01
3.215303735350736880e-01 -9.010105576947232686e-01 2.845319346145829820e-01
-6.481771949408432487e-01 4.134251455760166727e-01 -3.803017936949507627e-01
3.835352101335633423e-01 -7.504565066526073247e-01 2.214335442129467257e-01
2.138404188266059824e-01 -9.259147386940281832e-01 2.669560600559338637e-01
5.448612441551994312e-01 5.112112941036408564e-01 3.782128836994607668e-01
6.513893962237109481e-01 3.518160734850197535e-01 5.264938658425970530e-01
-4.378684120088646159e-01 8.299420438272684386e-01 -3.427153342398693847e-01
7.279157870770183170e-01 2.513575730685573273e-01 5.759085716664997801e-01
-6.387526626925734696e-01 -4.759674483837341707e-01 -3.085828820643451986e-01
2.129394341706581373e-01 -9.405281314911709822e-01 2.426761987631141093e-01
2.370951743708879511e-01 -8.221251708591954532e-01 1.297106747703178631e-01
3.923617149217158984e-01 6.909710201649412742e-01 2.506680301670517474e-01
8.274791710312037751e-02 -8.845298371610565979e-01 2.303709193581127690e-01
-6.642628484754200535e-01 -1.460209693104427275e-01 -5.359013186658396766e-01
-3.068264727653808310e-01 -8.323539032126076043e-01 -4.072859504024727711e-02
-4.810351787703220916e-01 -8.284920814302203507e-01 -2.538453304537916511e-01
-5.456617059223525246e-01 -4.823833877271267445e-01 -3.777107107602944991e-01
-8.195328819354457117e-01 1.539318487484375164e-01 -4.835018702823282166e-01
-3.400221964791546037e-01 -9.191229621120732274e-01 -1.296655078731711597e-01
-4.279000364104017518e-01 -8.691135557059389560e-01 -2.063518481559070139e-01
-5.045011809899380140e-01 -6.595893790928033518e-01 -3.997785780830878655e-01
-2.736580484390337964e-01 -8.779108851477244180e-01 -1.314366133452895755e-02
-2.657190989493007360e-01 -9.486584175459310542e-01 -1.195860656802566063e-01
-1.875652666839036642e-02 -8.244635471229277979e-01 3.798445540093077152e-03
6.605878862587799549e-01 -1.100272610371878373e-01 4.949247060927086661e-01
7.016639545924534538e-01 -5.247762247683788184e-01 4.498178178754179135e-01
8.207147747030631990e-01 -2.053030876430491369e-01 5.279581387363838640e-01
-8.797800503695454855e-02 -9.140802913549607167e-01 -9.825249611638389724e-02
4.590696883370058434e-01 6.804535914512190864e-01 3.698928303107564819e-01
-6.700571591315559461e-01 4.397951403138881665e-01 -3.808595427384866006e-01
-1.123071548444019574e-01 8.646204395043508573e-01 -2.440876164878389987e-01
-6.177964207212243153e-01 -3.206029770264144929e-01 -4.275826991435327518e-01
-7.045983710397386579e-01 3.581352910221693997e-01 -3.988665809462317302e-01
5.520481675739401517e-01 5.077999544859992387e-01 3.565225508021828138e-01
7.331256937850352262e-01 9.174000917723197646e-02 4.237395706768268266e-01
-1.678860689683345231e-01 -9.390811043053396423e-01 4.750837281464633660e-02
5.525536519851227402e-01 5.830239527511908992e-01 2.719208302427210122e-01
-6.283289743520158455e-01 -3.422589323901374936e-01 -5.016642945916495178e-01
-6.043989516203169821e-01 -3.543794766420787501e-01 -4.275786376034841352e-01
2.238133126495948089e-01 8.392346622884068186e-01 4.619736356748944776e-03
-7.096100829841892610e-01 -5.201716595760292883e-01 -4.546119987633255310e-01
-7.272593522932024879e-01 -1.601831829404473939e-01 -5.790279425152116133e-01
-7.329739659752956271e-01 -4.867069556132629926e-01 -4.555151970739402811e-01
-6.770412436792573319e-01 -2.950038057729276186e-01 -5.443268884869314483e-01
3.649308006851688657e-01 9.201168772410398544e-01 1.842149461518065023e-01
-3.867514791946256025e-01 6.446987306443198174e-01 -3.368088751030117178e-01
8.182061147640615206e-02 9.961822339209526200e-01 2.363651214808435222e-02
5.994085340773320780e-01 6.167925306236592409e-01 4.541322729556585003e-01
7.089034192821174196e-01 5.816583527429450839e-01 4.096480941158747169e-01
7.492020731943325185e-01 -3.919173567836628513e-01 4.406268836412626233e-01
8.441365172926800220e-01 -2.331953425414149891e-02 5.006377723042129135e-01
1.575093982134699311e-01 -7.830321021803149373e-01 2.014282950421100171e-01
2.831626285208974081e-01 -7.515999304486248311e-01 2.032673200588236972e-01
-7.747048315297601073e-01 -6.783388082703413480e-02 -5.869095583843104702e-01
-5.845553242009422501e-01 -4.201995559122274626e-01 -3.772253770197774858e-01
-6.004886482034260675e-01 -6.843109418567199231e-01 -2.612181842858780634e-01
-5.678430181646446639e-01 6.528022538289647292e-01 -4.789634289158393177e-01
-6.441319549606233652e-01 1.986323336244061599e-01 -5.473677713416861268e-01
-1.478637882150727993e-02 -9.266645230688259627e-01 -4.665296607955675412e-02
-1.686540830854904305e-01 -8.220520469341000558e-01 -1.375444799347544655e-01
3.978894613060514618e-01 8.656684016423323857e-01 1.124870925101892627e-01
-1.519461546656951656e-01 -9.435909431148649107e-01 -1.167382405896994768e-01
-1.282834553575262215e-01 9.435240455084038524e-01 -2.285750368193668891e-01
1.216034991373032004e-01 9.016652345440148153e-01 -8.842674412641025883e-02
6.083476907019395030e-01 3.948232827595342109e-01 4.706463847098683595e-01
6.917706412242464742e-01 -4.623838972499518807e-01 3.979216378758544392e-01
-6.473334494568446784e-01 -5.904275737026980497e-01 -2.890581774975948814e-01
-1.994438357585964772e-01 -7.893638529603774767e-01 -1.224298123897702151e-01
5.143371180593447889e-01 -5.126139871934004555e-01 4.829303641963219595e-01
1.648891626791839093e-01 8.353914058901505957e-01 1.371938266265148865e-01
-5.252903275227019941e-01 -5.560527674783405372e-01 -4.143418686474723556e-01
2.047890011860723503e-01 7.973813068919368696e-01 1.111748208186659898e-01
-2.482691230324148707e-02 -9.329198958764470806e-01 -5.083242474124336635e-02
5.652527831057913010e-01 5.453560698233385073e-01 2.979177496740266218e-01
-7.079833047994884554e-01 -2.445747486718338193e-01 -3.843409651925186465e-01
6.474158251191356461e-01 -1.705402865207288343e-01 5.284399333591497383e-01
5.026081049131672085e-01 -5.594218267932231647e-01 3.476654331575155799e-01
5.118613542437578934e-01 5.756017441933348744e-01 3.914304729773756542e-01
-5.924916170696770124e-01 3.428418150888049021e-01 -5.124522682898013937e-01
-2.737363953082644907e-01 9.326188392164433960e-01 -2.025045926599571278e-01
2.443670122354492380e-01 8.805028942117094637e-01 -3.289489043296812357e-03
3.817747479753083595e-02 -9.584932084979136402e-01 8.642808506331539284e-03
-2.539148384598257646e-01 -7.634059895648185323e-01 -1.461587944739259626e-01
-6.463081081275535711e-01 -4.588888270607502373e-01 -5.041354745154891237e-01
-6.510525666792711386e-01 3.706264377725027037e-01 -5.687531905860195858e-01
7.144558751440079902e-01 4.450137811081609773e-01 5.225474189237825362e-01
5.960027842170687595e-01 7.357005223235445479e-01 2.850891621731181380e-01
-2.295364984153254739e-01 9.500052453676488540e-01 -1.707862020131715175e-01
8.208423114169833834e-01 2.672344962117205180e-01 4.564859354998410668e-01
-4.799157073319016420e-01 5.364105323450062413e-01 -4.236879813403581219e-01
4.076196610772469531e-01 8.952208904758639507e-01 2.160009661449378005e-01
-6.401766706674346663e-01 2.625924174543927681e-01 -5.576894209576087613e-01
6.892685082824449028e-01 -2.859177782007037982e-01 4.153176972105584452e-01
-3.730371607910291099e-01 6.557425706320808567e-01 -3.436747568026458644e-01
-2.425669874368283629e-01 9.407229143759401335e-01 -1.656131481286746976e-01
2.958567033424497339e-01 -8.728753862084475124e-01 3.341091176141398611e-01
-6.353298560602221867e-01 6.169232435175717733e-01 -3.928853069463076886e-01
1.439787527011563706e-01 8.753669699726610576e-01 -6.524841745239524926e-02
-6.774624937049685824e-01 4.446803601331503764e-01 -5.523552701882669114e-01
3.137583881780204309e-01 -9.055791962989166999e-01 2.197457701850277778e-01
9.691251990545694806e-02 8.838941527882101523e-01 1.081807397193979559e-01
-3.366682326736566422e-01 -7.204849836780664596e-01 -2.341651969807770073e-01
-6.974587091644229853e-01 -4.821832934257810344e-01 -3.291491326580445187e-01
-7.889659767532536394e-01 -1.464642696407391920e-01 -5.695284666781348371e-01
4.295405706199483808e-01 6.772339011106219830e-01 3.319163328659322509e-01
7.154437412937924012e-01 -2.881356415394364934e-01 4.146254408230289901e-01
7.488969893600601058e-01 3.955061578122683330e-01 5.308992266313640185e-01
1.686303067254394106e-01 9.600127158047208065e-01 -3.575595272663007612e-02
-5.384725828973729866e-01 6.725014336616524924e-01 -3.044578955739742909e-01
-7.784338704298958689e-01 -2.608744541781422566e-01 -4.004813998436696498e-01
-6.729688597127948535e-01 4.687052315216089782e-01 -5.441949620821520117e-01
-2.313403542305350058e-01 -7.784000579923144869e-01 -7.850397468446794480e-02
-5.040638521488682855e-01 5.972763823949056583e-01 -4.912854978351451352e-01
-4.584951009138117373e-01 -6.709900323351751794e-01 -3.681049244934529452e-01
5.980503640561199985e-01 -3.654132370319385648e-01 5.334947348165480774e-01
-3.085635801188234550e-01 -7.979545553947152703e-01 -2.570198127956469514e-01
3.626836732884161085e-01 -6.718676209421701184e-01 3.747466644210213915e-01
3.871438626539941974e-01 6.965719872499523957e-01 2.638328435391398830e-01
2.446077389649213910e-02 -8.205489382569461920e-01 4.163214761897589961e-02
-7.442005722683581181e-01 2.067024814660970156e-01 -4.172383603247479811e-01
5.475340514587694329e-01 -4.585147537553856956e-01 4.110370653343520808e-01
3.552190521517978317e-01 7.814461069311499086e-01 2.938943690105674245e-01
-3.819984573195738253e-01 -7.856013664543732844e-01 -3.064542997226419874e-01
-6.330587258900339798e-01 -2.560334844036993296e-01 -4.716826530557132191e-01
4.551469156626646861e-01 7.064469737868428467e-01 1.812930657398492407e-01
-5.045439322903176871e-01 6.543422466932627968e-01 -4.817439310179831846e-01
4.580614988701376400e-01 -6.274874982312232952e-01 3.052294802747695379e-01
-7.048026407852222563e-01 1.387875118620173487e-01 -5.918196361589465049e-01
-3.034042249328091079e-01 7.117895456540306309e-01 -2.993029311439894813e-01
6.090623070325883459e-01 -5.971030345995349542e-01 3.515332688866463218e-01
6.141938335580416908e-01 -3.659355538584080914e-01 5.529892892277956662e-01
-3.810353455339212658e-01 -6.920837267473677334e-01 -1.942962154775021710e-01
2.998271328118649187e-02 9.616582565453614118e-01 -1.331020476239505312e-01
6.495076697467420113e-01 5.086771495159162493e-01 5.016658844218081503e-01
2.298152686495508190e-01 9.393281013260922352e-01 1.679483532756622655e-01
-7.486228390177219749e-01 2.236631407628994483e-01 -5.874745783844306235e-01
-3.174795497956308110e-01 8.714391494621012146e-01 -3.367757424342979755e-01
7.377701897921687957e-01 5.075005617990856477e-01 4.629583850023833436e-01
6.230538916136029171e-01 -2.638242380750908667e-01 4.876335589144359939e-01
7.839780661259371231e-01 2.881666656838972607e-01 5.538484149099847098e-01
4.235660028476997963e-01 6.641643484176764645e-01 2.661833277965713895e-01
3.753533803542200009e-01 7.294366937349233693e-01 2.945026582978986784e-01
2.507633467479331579e-01 7.806215037952644042e-01 1.136870396591136700e-01
1.354680093102447747e-01 8.163234570379489519e-01 1.926543925951818351e-02
4.241828037186917144e-01 -7.392944732665926999e-01 2.413014122747123846e-01
-6.383845749543820558e-01 6.196977897778140898e-01 -4.373097790337999724e-01
-2.472400389126828135e-01 -7.854049316883984222e-01 -1.887405685043916093e-01
7.176626460916737393e-01 -2.189727563955355394e-01 4.228310352795412452e-01
-2.516461105387670649e-01 9.371257245516529943e-01 -2.467734769182978460e-01
-8.069715337640194219e-01 2.345423782140569624e-01 -5.102021926040366528e-01
-8.232607132118103799e-01 1.425025144141580102e-01 -5.233902588882175522e-01
-1.862483541002227516e-01 8.251851202225960469e-01 -2.890748426573403473e-01
8.265419959068996958e-01 -9.682825214961665594e-02 4.727415924233729916e-01
-1.190491113858552080e-01 -8.428236848451555741e-01 6.845661250902952688e-02
6.567926044824139442e-01 6.265652103929114647e-01 3.039777651202812958e-01
5.067417505478769568e-01 -6.794281747156661888e-01 4.775460526671874151e-01
-6.236293210129445486e-01 -5.350806001623134023e-01 -4.765098925537341601e-01
4.096234228462342086e-01 8.015806228102266839e-01 1.158686406726675416e-01
6.433417376706337398e-01 6.115390024303235528e-01 2.879144264386415131e-01
5.499213483648101031e-01 -4.523214165388609320e-01 5.015382596846866825e-01
3.391194202837807259e-01 -8.686384272453055999e-01 3.383528805847056398e-01
-4.364257873355606443e-01 -6.405347353751530415e-01 -2.441415884289929727e-01
1.315593725859157126e-01 -8.856745937186356610e-01 2.608841146358230056e-01
4.610912124433222958e-01 -6.338782422431273877e-01 2.997408155526165019e-01
-5.590396274992951442e-01 -5.984129828341219204e-01 -2.451894115011710173e-01
4.154779066229379869e-01 -7.047679707802444460e-01 2.520322074566477277e-01
-4.195903788773918675e-01 -7.460122453244849572e-01 -1.325299408895193876e-01
4.014664498211069632e-01 6.919511869482177779e-01 2.174842528224194549e-01
-5.892766045054578239e-01 -4.517226569913929124e-01 -4.690616640399935533e-01
4.294679229324367964e-01 -6.490324186526782446e-01 2.930118633860077648e-01
-7.735905462898596818e-01 -3.561254611509476753e-01 -5.064279406908813730e-01
-4.716285139234138724e-01 6.527205488233760455e-01 -2.837300844663280253e-01
-6.522002310135569525e-01 5.935953535540997583e-01 -4.047333159042417750e-01
-4.408272912319533693e-02 9.831379312899490852e-01 -2.890956494853061040e-02
3.504043099853614840e-01 -8.899157430148117998e-01 2.731859276225194755e-01
-4.797201119100345523e-01 -5.817090007196519252e-01 -3.128340823505069701e-01
6.035390931098254530e-01 -3.466046430376095167e-01 5.335879077981698915e-01
5.657592807832793058e-01 5.455320210687188975e-01 2.975487583635229027e-01
3.696888343376854569e-01 -7.612223733655814062e-01 2.120637443954672408e-01
5.553823888212305881e-01 6.570548183549151933e-01 2.310205815295416354e-01
8.093163657518679388e-01 1.768362524206038011e-01 4.325533696050098409e-01
5.634163437391588314e-01 -4.553765603942300233e-01 3.967220882000708770e-01
3.162061947231680770e-01 8.399800594343578286e-01 2.634690516642441138e-01
3.048837995586590674e-02 8.281888677846072078e-01 -1.072349872559598925e-02
7.429502741519194986e-01 4.122717240510238579e-01 3.694304658195075031e-01
6.011421726283964206e-01 -4.974222903929698680e-01 5.464058985185562545e-01
-5.417261233904093753e-01 -7.756046561909455406e-01 -2.920493492659400614e-01
3.200650821137135948e-01 -8.330879329211737794e-01 1.719134684378232081e-01
4.760472380487294486e-01 6.920633248202517906e-01 1.941673272375033510e-01
-2.677190978691925127e-01 -9.500092666006997311e-01 -8.745918012745988734e-02
3.397237471895510619e-01 -8.874285809433347660e-01 3.054762663081678209e-01
6.636599927213404637e-02 9.115725763945765614e-01 8.957129161242674553e-02
7.524404463950841171e-01 2.961543169677735010e-01 3.886182991833841416e-01
4.266421900958634050e-01 8.694873982962416648e-01 2.624429543863165404e-01
-7.593836740800818941e-01 1.331757188735591124e-01 -4.216588578384525277e-01
2.815194981688922682e-01 8.129871295787858276e-01 2.370733721670438277e-01
-4.821947183690528105e-01 7.043585698578613830e-01 -4.590042355163397314e-01
7.800830088003256613e-01 3.784088562826717905e-01 5.136017868756297400e-01
-6.968477236332826230e-01 -4.908642730569436896e-01 -4.865343830863068098e-01
-4.393423572472902189e-02 -8.775312685596577955e-01 1.412072826249951285e-01
-3.783524646200517871e-01 6.869932132517738710e-01 -2.649462433301310593e-01
-7.188198750706704665e-01 6.978355058639860997e-02 -4.225782431061178013e-01
6.633228599095114530e-01 -7.217729187753083031e-02 5.067273771939774241e-01
8.038821013763732815e-01 -1.987404821218709955e-02 4.421294524309761220e-01
1.001593237011249166e-01 -7.994044811060622147e-01 1.481453568615119787e-01
-1.521429869134448103e-02 -9.902820305288400071e-01 3.125076061984168041e-02
4.786205288651689260e-01 7.739477577706297406e-01 3.559002148724823011e-01
3.296836892617969750e-01 -7.038850073765419157e-01 3.620311456040846698e-01
5.412910477240353568e-01 5.336509831358169365e-01 4.172820925751573595e-01
6.294276853469393807e-01 -2.957556063754958608e-01 4.453505777702520541e-01
-7.747025237329622227e-01 3.479204181667501783e-01 -4.821325709866963738e-01
-4.688238866871703436e-01 8.049897697829192511e-01 -3.589360469055573599e-01
6.776739065014952823e-01 -6.276214503640757669e-02 5.672106337418104660e-01
-6.832622028649261159e-01 -5.914145495081225556e-01 -4.044663330837795501e-01
7.656694790174186638e-01 9.059881510583031247e-03 6.059653669012244892e-01
-5.333315166921274164e-01 -6.675356255703992492e-01 -4.078417441249433950e-01
-2.882866429880788228e-01 8.561965444958952176e-01 -3.433416426660951815e-01
5.873386848087598366e-01 -6.709111081255957343e-01 4.556928170682489343e-01
5.307355702749549931e-01 7.830206516391619020e-01 3.375964854749165522e-01
-6.369802301567922820e-01 2.758802957649880150e-01 -5.567557027772043199e-01
-2.865568145806204892e-01 8.387924663955141913e-01 -3.508866373282959472e-01
5.735235623697831908e-01 -6.841687467960443358e-01 4.525640317693628289e-01
-6.485316398501688173e-01 -1.743179151838829544e-01 -4.839865043533690403e-01
5.622083601904538375e-01 7.773857501592856822e-01 2.834360839725540981e-01
3.445017300524553239e-01 9.288968966935867710e-01 1.215377408610701093e-01
7.778138907921147149e-01 -3.401806641050711399e-01 4.669713781165052424e-01
-6.311336560619044134e-01 -6.623285736142342506e-01 -2.963231862817721218e-01
5.686102844073696039e-01 6.662882260266228540e-01 2.341416105682788129e-01
-7.817055039829731156e-01 -3.304211084967154100e-01 -4.062048706439095880e-01
-6.334221111905297130e-01 -4.565899188072253811e-01 -3.169825221833459383e-01
7.319515269605921803e-01 -9.583802076440832429e-02 4.312266240203631029e-01
-7.091231012936102251e-01 3.981579449779070190e-01 -5.576938176823214022e-01
1.963851586425958279e-02 -8.631431135038927227e-01 1.805565212416580245e-01
-1.498371699988429451e-01 9.383126129388184022e-01 -6.814749405819914285e-02
-7.288350466354862611e-01 4.208127047991459535e-01 -5.306254250203584766e-01
-6.931525894775136809e-01 -3.916881540371462411e-01 -3.432323542287798457e-01
6.162684414245320763e-01 3.966407607511351907e-01 4.882500070204905396e-01
1.197959216516582409e-01 -8.081153592260730267e-01 2.171749367406093090e-01
-6.602298471548783132e-01 -3.153454557211850945e-02 -5.204936754497287987e-01
-1.143408038179395542e-01 9.854084404308368628e-01 -1.480481563715583260e-01
-5.801233965864089903e-01 -6.104196873892591135e-01 -4.409716556848179425e-01
-7.072570916255903617e-01 -5.459722738281030940e-01 -3.573006963096058142e-01
-4.997049253674674119e-01 6.332627948642414184e-01 -4.855974861689240085e-01
1.051550733114741260e-01 8.853533884191120418e-01 1.146658383124096597e-01
-7.923558615432561014e-01 -3.517935569792997597e-01 -4.595054074650233855e-01
7.029673458829813759e-01 4.818886555535245031e-01 5.088395039287603172e-01
6.838892044000179915e-01 -4.011106748402513134e-01 3.952548222393159061e-01
-5.842846620113365530e-01 5.426449856839283825e-01 -3.403931572667637240e-01
-2.707839652103353756e-01 7.517875765465740212e-01 -2.081223280504864437e-01
-3.162634148445672699e-01 7.973562429135586660e-01 -3.755855440525251998e-01
2.523771871946751677e-01 7.783100152435566965e-01 1.303612005863708789e-01
-7.663975068796710088e-01 2.609121017056864611e-01 -5.700839624116631477e-01
-6.261440575693262289e-01 -4.203586604922304182e-01 -5.015477029084425276e-01
8.047227196457271692e-01 -1.262824205451253401e-01 5.858260889858254439e-01
5.351622811917330358e-01 -4.597395265675503495e-01 4.696258796495434429e-01
6.609655814602565238e-01 -3.210288303323166059e-01 4.130703505899738226e-01
-4.798323774288146271e-01 -7.680021183514033067e-01 -3.433004321384418023e-01
-1.477074524037693681e-01 -8.955319258987703979e-01 -1.410311685838311901e-01
-5.239824878427878918e-01 6.945239538634481180e-01 -2.964006362075675138e-01
-6.446279588253885917e-01 3.082058054291878513e-01 -4.128786841532510743e-01
1.372158090650648088e-01 9.284268177645572662e-01 -7.652996240022641450e-02
6.921287565428420052e-01 -2.808417858283657198e-01 4.159137184623199479e-01
-5.033494287083363217e-01 -7.507947406562601733e-01 -3.560345954955583814e-01
-4.165008338198415982e-01 6.146123318450539275e-01 -3.574016739331529191e-01
4.974215133253562238e-01 -5.429382482434815804e-01 3.684740279782348638e-01
1.279307006197535346e-01 -8.580793462847537967e-01 5.477513279082981551e-02
5.626472099859655129e-01 -5.329418830463217294e-01 5.286226271580761749e-01
-5.640420262090092285e-01 -5.352765573802751309e-01 -4.506697412715252038e-01
-3.031582253686074258e-01 7.782084385955206907e-01 -1.800491206776270170e-01
-4.114314293129820999e-01 8.034185160432544270e-01 -2.293414472649605851e-01
4.169722553101372631e-01 8.911259019880699572e-01 2.144478356040213640e-01
-7.691712799075478557e-01 -4.223807449071030895e-01 -4.393273745226195515e-01
-5.143046374769915108e-01 -7.957623274194293161e-01 -2.914538017146998672e-01
-1.538554364110359396e-01 9.602410916799855034e-01 -2.143582352125759927e-01
5.591175542758578532e-01 7.415587815972006780e-01 2.290167891061509475e-01
3.689252286210843446e-01 7.920654337877069961e-01 9.987057012191373484e-02
-2.895945480540938477e-01 -9.419582189116952886e-01 -1.048775580192826545e-01
-4.393393927384524056e-01 -6.278276610668755975e-01 -2.814606471265874155e-01
-1.478554309203879702e-01 8.182083380251035098e-01 -1.025033912817432530e-01
-4.301275604360035865e-01 7.080610910263779312e-01 -4.446598804061252519e-01
-5.840016542660282362e-01 -4.332410425175274860e-01 -3.617231918822230718e-01
-1.091857356157695524e-01 -9.769318227558937417e-01 -5.164911605390069826e-02
2.759782391332861184e-01 9.599083597760844633e-01 1.223034355138561263e-01
-6.229876785428759556e-01 -6.468806428780535800e-01 -2.744896338116786794e-01
-6.451953736614514101e-01 -2.839875637888173432e-01 -4.048917460587592165e-01
-7.967263626921211594e-01 -9.633334348374214540e-02 -4.244897109040379202e-01
3.020996801781201668e-01 9.509656080453700033e-01 1.162713425794259098e-01
6.004321843351276278e-02 8.570159881141827807e-01 6.429053947302362793e-02
1.720318541627575137e-01 -7.923316167558914769e-01 1.418051667333268817e-01
4.941017490768255804e-01 -5.203415771495958353e-01 4.277649678203250261e-01
5.133305821965165050e-01 7.833454607147087856e-01 3.454618332066119457e-01
6.026762609715284880e-01 4.034495024166157018e-01 4.080629287901140767e-01
6.504007715233046660e-01 3.989030687495155880e-01 3.595839730865711403e-01
7.827856994648506594e-01 1.662572000349397672e-01 5.859669289565749839e-01
7.355557164920825119e-01 1.766004989752769649e-01 4.096897695563097574e-01
-4.970980720818422016e-01 5.218067851113268318e-01 -4.574881302934429295e-01
7.783797123913693827e-01 -2.535028719267219399e-01 5.783373647830232223e-01
4.677103865160352481e-01 -5.778799250607785654e-01 3.524572730460012737e-01
7.454728338798672915e-01 2.178989144933971001e-01 5.830671831475521261e-01
6.599600136426279073e-01 -2.452213172589887691e-01 5.762376968665304799e-01
7.862551100380869851e-02 -9.697417394496666843e-01 1.720851232511846629e-01
-8.366015856068235168e-01 1.306672880255601611e-02 -5.044949391787968418e-01
-4.123978467906586620e-01 -8.324454793688522702e-01 -1.159889546049072823e-01
