-5.546126972858083093e-01 -4.660077317271061337e-01 4.561630611884699982e-01
-9.051702678332332885e-01 -2.964023197556571176e-01 3.023573842377226817e-01
-4.835746630302502069e-01 -5.657155130556253964e-01 6.905211561381728869e-01
9.808951943650393024e-02 4.149932490329696355e-01 -6.476275154007293811e-01
-8.622739145925206738e-01 4.430051755907922495e-02 -2.286991064729964607e-01
2.051239008821410525e-01 -5.229806719380222235e-01 5.866198461511732409e-01
6.597421992328156293e-01 -3.576860451702177923e-01 3.254078659646640892e-01
-6.060558691620753224e-01 -2.919506730521603810e-01 4.700981385335937235e-01
-8.326927810640545324e-01 -8.034384879683181824e-02 -3.468662229331026525e-02
4.018583036549840393e-01 -5.066497045306079805e-01 5.194494324116477602e-01
6.603311875145947418e-01 3.806032976144286817e-01 -3.376341917379546698e-01
8.866967144886679364e-01 -2.377483238920722886e-01 3.542806910537432685e-01
-7.816560564987121706e-01 -2.849135228856475299e-01 2.158437107596469784e-01
7.918081089053125021e-01 4.143157980371350163e-02 4.618868735698958283e-02
3.086199871158832320e-01 3.836470026923597398e-01 -5.827806840090353768e-01
-4.868151072086909781e-01 -4.958834730199545571e-01 4.967305313980646675e-01
7.038874888595048063e-01 -4.720399841340551239e-01 4.763625456328545171e-01
7.641306753528301909e-01 7.674513685460285228e-02 -2.551235660570543295e-01
8.623842440579697621e-01 -2.460345095350833511e-01 3.909669852779793509e-01
6.981916245234317531e-01 1.982416745035102956e-01 -2.261800504558884595e-01
-1.917805072577669911e-01 -6.517331452442604034e-01 6.803750164720140381e-01
9.553525910701363144e-02 6.127865159492432712e-01 -6.267655438555373992e-01
-7.840588747174465079e-01 5.121880888464148962e-02 -4.236315911829815345e-02
-7.235358757648246986e-01 -1.847114147527582073e-01 3.419906175213217048e-01
-6.804188497343684194e-02 4.820672922882194844e-01 -5.803992777313176088e-01
-7.696651199625920148e-01 -1.250084256640743852e-01 1.514200172656910148e-01
7.595959853851070864e-01 3.269171713392389489e-02 -7.089661378405276437e-02
-5.929618384262588249e-01 4.613111941977694475e-01 -6.225761260311550860e-01
7.187954734855434014e-01 -3.430555499209536063e-01 5.529431888080496016e-01
4.906264384337228335e-01 3.313634932160363089e-01 -6.110495492022910424e-01
1.999140326520165989e-01 -5.058017564476302574e-01 7.952184259353649587e-01
-6.321498732583106239e-01 3.230728651216269731e-01 -3.350077622289630574e-01
5.691253958317736839e-01 -3.689637098802788229e-01 4.097237602924472810e-01
-1.025404794125464036e-01 5.772777098835808474e-01 -5.867547378199040597e-01
-1.230390895475162033e-01 4.957971443489735952e-01 -7.792056249345868935e-01
6.768777698175115765e-01 4.463163535109577196e-01 -4.900655973740211668e-01
-4.980321517908474771e-01 -4.983157783368024618e-01 7.198017162001350000e-01
-7.274387595036135856e-01 1.576232608527076973e-01 -2.342609161765274173e-01
-2.569818323665853388e-01 5.576896636647725725e-01 -5.606067084541591639e-01
-2.077233405256491972e-01 -5.346467313222228457e-01 5.913603168937250354e-01
-7.675621491725902468e-01 -1.712710084428026025e-01 3.872504064591664741e-01
9.005643799308081787e-01 -2.220744523542373949e-01 3.288530180335678121e-01
8.302610840957065363e-01 1.675042943311462473e-01 -6.098440606398842362e-02
6.686736637241728065e-01 2.080213758900007759e-01 -2.831343378841090219e-01
-6.966781215907233982e-01 4.409072928552494886e-01 -5.242743244409587833e-01
-2.316189505736218623e-01 4.476746645614024245e-01 -5.649034698403028187e-01
-6.264558392881640625e-01 2.461346001311564280e-01 -4.326952470375121651e-01
7.218183293188344951e-01 2.859343030623508475e-01 -5.148823947040572779e-01
-8.029585242664465383e-01 2.069019487482029809e-02 -1.429787364224728574e-01
8.366788023024718246e-01 -3.397208719165002444e-01 2.755317283537741524e-01
1.763566465506608005e-01 -4.417292222620370357e-01 6.799360886040763940e-01
7.698419309903731245e-01 2.920206390749444658e-01 -2.187072788402487644e-01
-4.117854525347952044e-01 5.546867498229586246e-01 -5.446366742368926595e-01
8.090868041929769605e-01 3.171378228294128854e-01 -4.237343338804130943e-01
-1.434660483528813217e-04 5.694279064206269059e-01 -5.852205233511881266e-01
8.814048539781207392e-01 2.407533222805547379e-01 -1.866441127927399579e-01
-8.040338164219840156e-01 -2.097353008099278882e-01 4.398288595323219807e-01
-5.111733788092142072e-01 5.032470306035856655e-01 -4.783581442919495608e-01
-8.256578366061212426e-01 2.249157762152795836e-01 -4.206344061203801665e-01
-3.805960243424218459e-01 -6.176570587398088064e-01 6.760407009623732311e-01
6.457529139696085441e-01 2.334093070823949068e-01 -4.816481458825080941e-01
1.224019533412380178e-01 4.332281946235477244e-01 -6.043849970025922946e-01
7.589458371849742147e-01 1.882392087450744378e-01 -1.336251290758719290e-01
8.054634344335928064e-01 2.428665847922154841e-01 -1.551881701333746311e-01
-2.976043657861280334e-01 4.041014872228979593e-01 -5.756320258385391186e-01
7.521055708275583562e-01 1.136658395594781074e-01 -1.023807489463336717e-01
2.365809646108077147e-01 -5.120270277163905259e-01 5.797891020480998581e-01
6.281451971541790469e-01 -4.701011002100087266e-01 4.216522883586957260e-01
-8.086287400207988751e-01 1.050636688747343811e-01 -3.041591755254841600e-01
7.123334728888475187e-01 -2.927309655070795547e-01 5.275774748924568769e-01
1.455842224508476501e-01 -4.495147048594611006e-01 6.695652915343546230e-01
8.334960297069767821e-01 -2.558924865044497066e-02 1.867262500110160872e-01
-1.039129945936477090e-01 5.172938386410652623e-01 -7.835554161471142143e-01
-7.605543986763209086e-01 1.182252027634769498e-01 -1.389595314622480149e-01
-9.114782615869937432e-01 -1.533410840087705562e-01 3.021480624590494601e-02
-9.157815197079642866e-01 -1.836055120878666569e-01 3.375674325620041105e-01
1.277908460325893614e-01 -5.520611764031941870e-01 5.995256236892004820e-01
1.449384403799496568e-01 -5.158361536060221963e-01 8.054744086555295501e-01
-9.185134493032157676e-01 2.085224927853971122e-01 -1.197132891766467117e-01
3.566829364491070353e-01 -5.531599652390630784e-01 7.587877344148503678e-01
5.858356324195643783e-01 4.901473954758859275e-01 -4.851962359885659271e-01
3.399213751017619578e-01 5.311255310289868525e-01 -7.255235975569918061e-01
-7.695255945903063388e-01 -3.269345116578921684e-01 2.597806751256925284e-01
-7.034681929911476006e-01 1.940363640440555260e-01 -4.008949631783611522e-01
2.243658969643415879e-01 -4.474698918235881506e-01 7.414336519236209844e-01
-7.375482918589435499e-01 3.185790144808847146e-01 -2.521798883263356439e-01
2.832401345821972116e-01 -4.507380072151976336e-01 5.932641924331586436e-01
-4.103437812425264064e-01 -4.922084942282703990e-01 7.545973869288692404e-01
-8.752606273688839922e-01 2.467537507218135751e-01 -3.736766409635237651e-01
-8.600396007135153731e-01 4.424336676854975087e-02 1.101612097120255596e-01
2.932367054249768179e-01 -5.063210454014384077e-01 5.616139207953925183e-01
3.750891203693483278e-01 5.042758545465464426e-01 -5.091433154669740002e-01
9.381294582677868199e-02 4.247303191263611666e-01 -6.245744698157502661e-01
7.597345123526315636e-01 -4.288846731017348368e-01 4.601218514199167942e-01
1.806951479532382110e-01 -6.538856681922118330e-01 7.131738731328898240e-01
-6.135286790960075010e-01 -4.497281320006397687e-01 4.227830757289459118e-01
8.370516320607970240e-01 -1.305293202119548468e-01 -1.058842919248245695e-02
8.112932057063271252e-01 3.423490332109774270e-01 -3.566206188327902260e-01
-6.207451911406782763e-01 3.063932945738455649e-01 -3.487282824867788400e-01
-2.019236324723697740e-01 5.831386422780440171e-01 -7.452548912050043217e-01
-9.154897455115206251e-01 -3.054143239081013803e-02 2.066490569427527346e-01
-7.360094886735571995e-01 1.671423742684754465e-01 -1.958875554384144624e-01
-9.196337770289109148e-01 -2.646672651649895625e-01 2.250826563957498416e-01
5.239149537458778205e-01 4.498211893482126911e-01 -4.351040543182894682e-01
-8.645971076035618985e-01 6.660239928120420538e-02 -2.566691904437465310e-01
2.547951297500140599e-01 4.919797872274570549e-01 -7.584537777418434157e-01
-2.947744389138512999e-01 5.680864995892940250e-01 -7.280562406964802280e-01
-7.684509873239857569e-01 -2.153522984864497392e-01 1.793719591520232248e-01
-6.991679594128782926e-02 5.882995073972888678e-01 -7.627950476675392499e-01
-8.135177184150256258e-01 -3.469924706992864594e-01 2.777878424153345516e-01
4.948557805468163928e-01 3.558346845691923721e-01 -4.412021641454789145e-01
-4.043917052780950927e-01 5.706127197754095048e-01 -6.594478011151931884e-01
6.472851084308678393e-01 2.140321635171803794e-01 -4.370714890127168073e-01
-4.478522396745681089e-01 -5.375245823147949409e-01 7.347699390102030437e-01
-4.714924454944200427e-01 3.951784150155379649e-01 -6.736188438211954121e-01
-4.268139837085302979e-01 -5.911850106767830848e-01 7.016248758240649641e-01
-4.849709976141881040e-01 3.413205112135680452e-01 -4.901013398264297827e-01
-4.969398163211764113e-02 4.393516307170504120e-01 -7.465344815917971388e-01
-7.574409487315770795e-01 4.017916021997181009e-01 -3.624758123028058443e-01
3.567097474336318186e-01 -4.839379856573698957e-01 5.382988918329919548e-01
-6.107012187390140623e-01 -3.454768354267469532e-01 6.169987323647591060e-01
9.009783469673724454e-01 1.159172878764968412e-01 -2.758792978097496795e-01
-3.589237152486152160e-01 -5.935636814246250115e-01 5.902911132954201667e-01
-8.922345776313881371e-01 -2.984327189393800595e-01 2.519724579413930021e-01
-7.352831311092881128e-01 -3.524433491666160156e-01 5.666878333702987103e-01
8.813690126849379469e-01 2.545964741517777186e-01 -2.249245972966751328e-01
-6.211514326477217685e-01 -3.436497964975869235e-01 6.134111683518285174e-01
-2.931978354249969443e-01 -4.342950791236865893e-01 6.213811337818010427e-01
-4.693531657859341677e-01 -4.155030771376498899e-01 5.063825764429881193e-01
1.113306050179710821e-01 4.744922221169469156e-01 -5.759084051703923235e-01
3.948276872438445384e-01 5.700751126287904036e-01 -5.955887429609547645e-01
-7.990155045738299711e-01 -4.060072867407525932e-01 4.592960406944402441e-01
-9.110389033990555774e-01 -2.841122364764946950e-01 3.228269537809853040e-01
-8.730511315376952020e-01 1.544338858005542547e-01 -3.394809421999558374e-01
-6.123304987454191162e-01 2.573188176978837283e-01 -4.629978435399192405e-01
-7.942270412184462280e-01 3.259164065706047358e-02 1.950592773564644930e-02
7.524231076643205229e-01 5.539563350312384782e-02 -1.335422474841418128e-01
-3.009917759059235198e-01 -4.210766491099210973e-01 6.495319515457044224e-01
8.673930329964244512e-01 -2.616712580677681421e-01 3.865076917553786906e-01
-8.570072975413367544e-01 -1.360758620347887575e-02 -1.478808773416011024e-01
7.300244368130595074e-01 4.044266616267725434e-01 -4.712011734446568401e-01
9.205787365149962209e-01 7.800441549827483168e-02 3.911491619891543925e-02
-3.274370704855568692e-01 -5.925989355228106215e-01 7.594927391111442327e-01
6.185538349986690054e-01 4.357695165034475848e-01 -4.011128716343262957e-01
6.280572522057781271e-01 2.629937140523738726e-01 -3.261182422615081511e-01
-7.600980926493858814e-01 -1.268538067606538033e-01 2.274998000490669470e-01
-4.604618537737691919e-01 4.587001388313777794e-01 -6.986487754017911556e-01
8.082709225486502946e-01 -3.422916962274967223e-01 4.641892817182817210e-01
-2.849208619542315524e-01 -4.272961398465068839e-01 6.447216052269634234e-01
9.450570333803237633e-01 2.326797235992109428e-02 8.201201199952150300e-02
-7.977028992673854679e-01 -1.018385402487606700e-01 2.823272421819298383e-01
2.281098919997283092e-01 -4.536660621136804905e-01 6.198363919110332354e-01
-2.200884238178012209e-01 4.090257000511269836e-01 -6.158800167079961918e-01
5.396515864295803322e-01 -4.794367204994769982e-01 4.532046046628019909e-01
2.347111894596115578e-01 4.587905595800986225e-01 -7.531890134371843626e-01
-6.929865410740642107e-01 3.754107513164511856e-01 -5.647649323139100064e-01
1.685142210743987568e-01 -5.798028056141022457e-01 5.981594151584676000e-01
5.891705631842005797e-01 -2.962346710255539528e-01 5.119549608050780742e-01
7.327329141345078067e-01 3.878696876836124630e-01 -3.492627190700138273e-01
-2.805351623394785054e-01 5.992007581323419707e-01 -6.110712359893136769e-01
3.229118221952367862e-01 5.265238791468306312e-01 -7.342763131890592820e-01
-1.388337764093816873e-01 5.136357022805508876e-01 -5.659401182297316701e-01
3.290074069515945832e-01 -5.225871775827838350e-01 5.489481096520104630e-01
-7.892423546041270610e-01 3.152844516813498865e-01 -4.787544988247794397e-01
-2.126311237073266400e-02 4.437938518463930837e-01 -7.520898675064876526e-01
5.910846292336218166e-01 2.605510602522871921e-01 -5.068626455739030368e-01
-1.106256145773238525e-02 6.292052716987142080e-01 -6.873503996885322875e-01
3.758423028429348500e-01 -4.917965736701828128e-01 5.288805062781192223e-01
5.557812172177919452e-01 -5.260335927020488578e-01 4.944847259475158019e-01
-2.672784486581214480e-01 -4.293419515601374359e-01 6.563736378174389596e-01
9.106166359526864928e-01 -7.944868947057209460e-03 1.543297947179800289e-01
-9.432959031052674526e-01 1.980751612890311597e-01 -2.354442675540062979e-01
-4.952595480118887061e-01 -3.676400981293841963e-01 5.231061805548397059e-01
8.009067660427290347e-01 5.443458686323191659e-02 4.483261570644615085e-02
9.524295754238429890e-01 1.142466782855259266e-01 -1.664932013058424420e-01
6.890336928883059042e-02 -5.722888920687764225e-01 8.187637222406864979e-01
-3.238249463444756171e-01 5.807191971360879945e-01 -5.798004089610790945e-01
5.403569045817729899e-01 2.842828064677312971e-01 -5.230650846455148217e-01
1.944076370005510257e-01 6.146602454061262932e-01 -6.677633115899832550e-01
-5.959242372362469897e-01 4.659235780486977174e-01 -4.285932918067252850e-01
-4.548636206710187091e-01 4.742874989142177311e-01 -7.006740872541065146e-01
-2.471817943669438015e-03 6.283343368933874684e-01 -6.664068095808853842e-01
5.355431335560124628e-01 -3.573842758582440604e-01 6.238622945615602822e-01
1.640877176078517630e-01 -4.549097175358233769e-01 7.509320112370667655e-01
7.773986308714975202e-01 3.314874097978977585e-01 -2.706114935172126423e-01
-5.207751622998196828e-01 -4.414319652789313042e-01 7.042951804207113753e-01
-7.654358670292172873e-01 9.139803865801446325e-02 -1.410341121331869230e-01
-5.788690425494545932e-01 5.101114087219970061e-01 -5.005519118924866007e-01
3.239160433602119582e-01 -4.139563894883013795e-01 6.250630191207231512e-01
-8.100331571742683812e-01 1.729785153487793659e-01 -7.930847643067975850e-02
-5.650288346512519766e-01 -3.268742831606009092e-01 5.823347620081779086e-01
3.512217947214061886e-01 4.217759821321293567e-01 -7.152536868834178385e-01
7.367807463062155948e-01 -1.399570214351539832e-01 1.971658430713618126e-01
2.814096579490761307e-01 -4.450778626115777792e-01 6.005625479146211587e-01
-5.418757298787172383e-01 3.030738789234574404e-01 -4.736294380430787210e-01
9.431464455747640141e-01 1.152144147160446691e-01 -4.871729108293989391e-02
8.043064833009097025e-01 -1.025859165287196645e-01 -1.620473389057327726e-02
-8.134350766752223016e-01 1.659669336941756723e-01 -6.956484637523022152e-02
6.014517751338667173e-01 2.746104411383073485e-01 -3.603887639309650837e-01
-6.962549861347097080e-01 -3.558646738318990699e-01 3.230438820099414410e-01
-8.509150583162928827e-01 -3.558110143118026758e-01 4.076038851353097070e-01
3.954736218505769396e-01 -5.994043764156722354e-01 5.952040924072088401e-01
9.671706655283943688e-01 1.247602303322446413e-02 -8.883581746082086505e-02
7.045711046458349447e-01 -1.880839951262044951e-01 2.896982844986811800e-01
-4.731108738989024953e-01 3.449320138793868229e-01 -6.151559707185270121e-01
1.609705489992047101e-01 4.044935995279164143e-01 -6.711826920645533878e-01
-2.190261624760894144e-01 4.575872475880896628e-01 -7.545928535196209097e-01
-8.287823583357655233e-01 2.608414308363124490e-01 -1.613710511592480745e-01
5.599794294754337765e-01 -3.180381105224061034e-01 5.515262788449133424e-01
6.952163613031073774e-01 3.171299533474716270e-01 -5.436445391694778584e-01
4.473401238901586474e-01 -5.480648555786996612e-01 5.275923340634693925e-01
-6.967119874579704719e-01 -4.118415154368496589e-01 6.009822034559375581e-01
-3.837801502563837897e-01 5.648806648858941681e-01 -5.585199580824141696e-01
7.736191839393077307e-01 -1.807761986609178195e-01 1.057217858583014147e-01
-2.373753780943595182e-01 -4.332155429634956811e-01 7.048640260732395024e-01
2.108189302708126101e-01 5.787216656183038488e-01 -7.399792543023774316e-01
-3.589585359405756959e-01 -5.150315833644171226e-01 5.487170039854636361e-01
4.528822250508643399e-01 5.215996678926259067e-01 -6.700418001577734817e-01
2.598059118527298872e-01 5.833147166698596786e-01 -5.879007335273329637e-01
-7.621887655824977070e-01 -2.818002443521933631e-01 5.173799605013434944e-01
8.246481418884922254e-01 -2.304288001319714785e-01 4.213643281259685791e-01
-8.223097981131308742e-01 1.736818953024568402e-01 -3.854893220162500245e-01
9.253427592171464822e-02 -4.822877323852073905e-01 7.878092042558859642e-01
-8.888483181129197552e-01 -8.944730727001241888e-02 2.845352679673828211e-01
8.757175099116772943e-01 1.107022498270463784e-01 1.624691274428945523e-02
3.889845200847761864e-01 -5.911233472608105055e-01 5.799725419080766775e-01
-8.296245168869122166e-02 -6.637854561934538600e-01 7.142376190432465632e-01
7.746888209772764267e-01 4.599241213728227223e-02 1.787607074343948834e-03
-4.862735970965952892e-01 5.509033612441196492e-01 -5.607339221504525906e-01
-1.496627077591740351e-01 5.539529080917904302e-01 -7.728396180183568775e-01
1.234718841716422877e-01 -4.467436768998756524e-01 7.018076205569623305e-01
8.519222445268205268e-01 1.484865547251631446e-01 -3.452241241616627598e-01
-5.573505625704001654e-01 -3.212370855148219406e-01 5.439731520148399779e-01
-4.033821972633654107e-02 -4.850650552952341932e-01 6.390880353927060886e-01
-7.532684089164233265e-01 2.436709653545049148e-01 -1.882556183552769880e-01
2.754654476407290553e-01 4.475017160455602716e-01 -5.405408436144943929e-01
-8.387127263820058909e-01 1.544701340428584480e-01 -3.604287085058391904e-01
-4.947923087638197992e-01 -5.394378055338361344e-01 5.236640882769114658e-01
7.630928751293482026e-01 3.345165285190418447e-01 -2.719154017698321990e-01
4.407736565347042945e-01 -5.387593029577563142e-01 5.214754036311515240e-01
7.380156100176581413e-01 1.819364666192249402e-01 -4.217820364674293443e-01
-3.305606135459179806e-02 -5.187139920029901763e-01 8.145971468857617914e-01
-5.225960885164978587e-01 4.453316038225535456e-01 -4.353216558053866203e-01
-8.664822817347487272e-01 -9.880010412512789386e-02 3.020342350335889492e-01
1.358242364146144132e-01 4.669833984403392591e-01 -5.747562477967507188e-01
-7.318211980690308982e-01 -1.885086212184715893e-01 3.871476250182175338e-01
-8.299101138585672777e-01 3.195563177709777603e-01 -4.245780770526769166e-01
2.874862146356574333e-01 -6.206422744086254051e-01 7.376272829309246104e-01
-1.000000000000000000e+00 -4.029563484074101531e-02 2.921563631663121052e-02
3.096699117658117673e-01 5.878692221559895792e-01 -6.050218203197988975e-01
1.200907156550602151e-01 -4.862799154244864530e-01 7.902942062309287197e-01
-2.464682994841420338e-02 -5.860435961325910492e-01 6.131417196214256071e-01
4.843246415377489567e-01 -4.085766189063193554e-01 6.843444525618038732e-01
9.470197596517435645e-01 -5.616548830358776556e-02 -6.421353079330674452e-02
9.278956735863327365e-01 -1.573826819602139881e-01 2.633178477841405241e-01
9.242132224350519953e-01 9.749484812836205216e-02 8.512567363511440097e-03
-7.274108417991579367e-01 -2.753899435658594963e-01 2.583437792134937738e-01
5.464681493376813970e-01 -4.794249383871739267e-01 6.803467664311387830e-01
1.423270881500132423e-01 4.075494993076434480e-01 -6.819362909331292411e-01
8.477960164169831003e-01 -2.221436291904721194e-01 9.890129940031945621e-02
-7.593088480125412820e-01 1.143284228093508353e-01 -1.465656868750872532e-01
-2.806444795479194898e-01 4.519315148337834653e-01 -5.445843263540146584e-01
7.067292614528766226e-01 -2.060646150048170977e-01 2.482096727277796899e-01
4.599717360735449678e-01 5.271333389264492020e-01 -6.588361206854692620e-01
1.667474850334770831e-01 -5.489864987815226138e-01 5.931569258047070248e-01
2.083889179570489469e-01 -4.371522520969085557e-01 7.087229390834242082e-01
2.871027307158339759e-01 4.259255251026610734e-01 -7.266759880957633921e-01
1.204348003544854218e-01 -5.687203464974373013e-01 6.017904071428283874e-01
-5.412125629959515516e-01 3.377331100212220827e-01 -4.261143296433514971e-01
1.295071639814958375e-01 4.172042321386874586e-01 -7.140764349183376103e-01
8.859598077550003836e-01 2.267615236877033313e-01 -1.634233770645374950e-01
-6.601607477266535629e-01 -4.460888729534150943e-01 4.058749240697135940e-01
4.643808312294378515e-01 -5.897555901486875030e-01 6.239792288660783726e-01
8.303390500050040757e-01 1.948954832458240360e-01 -9.336901314803414120e-02
-9.328973137551270778e-01 2.617664014503953349e-02 1.299333857339585174e-01
5.860894498220297066e-01 4.520477792281867857e-01 -6.156173809430248722e-01
-6.351324143872143224e-02 -5.943369424140823032e-01 8.154169408596179114e-01
7.989164476989827346e-01 2.924116163273003666e-02 7.409863680888492676e-02
9.732629172726290356e-01 -8.220577482964515348e-02 4.766693665268813968e-02
-7.398649360552198573e-01 3.190516387147155353e-01 -2.514122004513673625e-01
-8.044821156562168563e-01 1.312957729867706425e-01 -3.412457320199358546e-01
6.426552470254193183e-01 -2.679245572357887850e-01 4.926031610484745138e-01
-7.757607278177673926e-01 2.937230013555066077e-01 -4.881569341756131775e-01
-4.019733275475236012e-02 -4.929725814967160225e-01 7.995430952917030876e-01
5.551210861333110147e-01 2.978620302571719503e-01 -5.676384680816024542e-01
9.679289255908055112e-02 5.315000826128619682e-01 -5.700518802178035083e-01
-5.475868150892505559e-01 -4.036332619449675141e-01 6.778086819552410214e-01
8.592052743828791916e-01 1.366228110983607651e-03 1.573621396016715301e-01
-1.583170316422268520e-01 -4.671544618128760651e-01 7.725127223002381527e-01
3.900322960825521879e-01 -6.023817198686601815e-01 6.002940538741287080e-01
-7.413122510653695763e-01 -2.283671330107953368e-01 4.695538804917108178e-01
-5.423576740989506373e-01 -4.313201249740439835e-01 4.520367646715480747e-01
-9.300984275554450287e-01 1.796880146359684516e-01 -8.241056969230169116e-02
-8.129854974521760758e-01 1.404255126960750610e-01 -3.528881218039619516e-01
9.704692975311164371e-01 -1.356800309870236261e-03 -6.665800055242976363e-02
-8.789672187971704354e-01 4.063612858583941917e-02 -2.226607986399656847e-01
7.314616275587161320e-01 -1.913133419509318034e-01 3.964926479000832060e-01
1.957250608195640895e-01 -6.219253246242961719e-01 6.221243771744064954e-01
5.673607567298905030e-01 4.627915967386381224e-01 -4.360245828032847104e-01
-3.350573955508323598e-01 3.834272982460883994e-01 -5.852951438473793511e-01
-7.203983634646909939e-01 -1.896352684439522596e-01 3.076797578022392732e-01
6.842251345902717885e-01 2.371055716356413601e-01 -2.487138985221190313e-01
-3.633328388738268355e-01 -4.597907437897022498e-01 7.532467231370151284e-01
4.386560574274552815e-01 3.411567976148956460e-01 -5.183554324589694229e-01
-9.727744007311109886e-01 9.329713939143031987e-02 -6.555308429396167202e-03
6.410732422947450493e-01 2.122287621957199277e-01 -4.149762408466314834e-01
-6.725824254625399901e-01 4.669272001053977883e-01 -5.116082814203706253e-01
4.593670839252621541e-01 -4.065439389225491418e-01 4.995962278065423923e-01
-4.221046791316480085e-01 5.708766967137951509e-01 -6.376362267790048888e-01
7.811518632920108063e-01 -3.800449604399182557e-01 3.101932523971598910e-01
1.969441688531712864e-01 5.401008360939334452e-01 -5.599499009553182693e-01
4.246898917429051123e-01 -5.902431779723108507e-01 5.831627776832003507e-01
-2.471567385028935332e-02 4.382329657641867993e-01 -6.163173336574764294e-01
9.263256399178184664e-01 6.996592481421148868e-03 1.239566059375354773e-01
7.675909352214203007e-01 -8.320806348408076730e-03 2.788049483945445606e-02
-9.547719389433032555e-01 -2.030556315388265531e-01 1.654559836555232755e-01
8.459226599195009133e-02 6.182491369617247878e-01 -6.377428027193406956e-01
8.263514168525882830e-01 2.333768337783633240e-01 -4.112968851446245910e-01
5.030160108592757195e-01 4.129264858442158181e-01 -6.693845436101679702e-01
3.603697039047385475e-01 -4.777384726572407869e-01 7.544914018945687584e-01
-6.492265295482805287e-01 4.640918978799867811e-01 -5.626053161355205612e-01
-6.281095393031467244e-01 4.934505911523998090e-01 -5.090590268352591652e-01
-9.030765218846423803e-01 -7.599919819317510483e-02 2.633583022246218097e-01
-3.811444341402796948e-02 5.121316808610705262e-01 -5.745700718123978312e-01
-1.911263953073462363e-01 -4.674456488352791705e-01 6.278314875963946218e-01
-1.817016230959181133e-01 6.171469923512132860e-01 -6.414762234620168257e-01
-7.851283607776550211e-01 -7.096785738926342235e-02 7.576697908392938940e-02
-8.739063155380456527e-01 -2.729360313449632480e-01 1.860211999298800600e-01
-8.091134214195491170e-01 -2.465055382445157650e-01 4.678167008900167012e-01
-7.756314528744490122e-01 -1.577822590343438414e-01 1.386681552704776554e-01
6.403379404239337713e-01 -2.763152573809921075e-01 5.098242037878748523e-01
5.825903404123958795e-01 -2.978101268380140554e-01 4.993114952849617150e-01
-3.566008220227042669e-01 -4.869847990414074013e-01 7.676283676157985569e-01
6.167540854687244556e-01 4.753982353233444091e-01 -4.698791719333302863e-01
4.404865623401709174e-01 -5.711866246267996994e-01 5.534064250462730206e-01
-5.706799997914228095e-01 -5.098946466895635243e-01 6.696796098787698437e-01
6.931886029393574677e-01 4.368720219309242259e-01 -4.568823732308231467e-01
-4.632406482864898090e-01 -5.936681082998863657e-01 6.415901980903933044e-01
-4.467283018144025952e-01 3.711931442376167345e-01 -6.547391360038421482e-01
-9.130293765477792700e-01 -2.441034455788707591e-01 1.675910433071449157e-01
-2.187251463419624953e-01 4.138554393409251131e-01 -7.090811904472521521e-01
7.657390955208429606e-01 1.064645640958977457e-01 -6.799324992016823888e-02
7.618095542374999640e-01 -6.482378699155565138e-02 9.285765221008816794e-02
4.245173360282527564e-01 3.931945066127602861e-01 -4.813472614807837169e-01
3.863849139442282477e-01 -4.066903713234428785e-01 6.859412991126361270e-01
-9.773483157057660797e-01 6.412577702102859045e-02 2.806069468191243338e-02
6.779964762849958193e-01 -4.357637945848158445e-01 3.766931535835560396e-01
-3.527198281522341827e-01 5.709915326475619723e-01 -6.971579387242643477e-01
8.560782233156954968e-01 -4.346312050383173420e-02 -1.312313835260271733e-01
7.815434141214880892e-01 3.671931483996687586e-03 7.337919485009559983e-02
-6.459537892972889717e-01 -2.612141763935448280e-01 4.393017229743769736e-01
9.569970830719174565e-03 6.290899673009173743e-01 -6.768291976452965875e-01
6.860249569817649107e-01 1.652461392250476058e-01 -3.162386686840398253e-01
8.915838408695876405e-01 5.424572697949441719e-02 8.658333148739039142e-02
7.687871753246374729e-01 -2.824491429633223596e-02 7.220949554948154214e-02
-9.247234264138576298e-01 -1.005823778287365661e-01 -3.440440589568146551e-02
2.493410087563653621e-01 -5.457412834631309995e-01 5.751359071499237974e-01
7.215630564065858010e-01 -2.005576991734254466e-01 4.074900187262415208e-01
-8.303074644770217505e-01 -6.238757567653274716e-02 -5.569671476201355081e-02
-8.062132444707593715e-01 2.420191603316969656e-02 -1.568269208195826603e-01
-4.465286566926098266e-01 -4.534655739273233954e-01 7.323785228145741621e-01
-6.105326423579786610e-01 3.362798471285071700e-01 -3.558780488854892954e-01
2.464858238835971327e-01 -6.149224749578831029e-01 6.122994826491191533e-01
6.108588624941956313e-01 4.069423441371756156e-01 -6.107239276655850313e-01
-6.034364406394706615e-01 3.254942194213131246e-01 -3.638462511926417453e-01
7.875606941453301424e-01 -4.278130744433438631e-02 1.662967364675905224e-01
7.704680029520705187e-01 3.070803864137190975e-01 -4.797788253771221867e-01
4.480245349183740733e-01 3.587463507328878531e-01 -4.836344701220395281e-01
5.346915882024391165e-01 3.000798568019696910e-01 -5.653626996829457241e-01
7.008483135079134341e-01 4.303788829904336422e-01 -4.744430159487419418e-01
7.958261540654267829e-01 3.482105972784848569e-01 -4.150940340788713545e-01
8.440603934933662567e-01 -3.509107240001879124e-01 3.359940062148920603e-01
-8.113632670496025989e-01 8.483611732033454964e-03 -1.370025133204935963e-01
-4.543218624714709386e-01 -4.771780958516994575e-01 5.057984040439235107e-01
-9.724645180354685170e-01 -8.425462456213892934e-03 -9.673555603711625483e-02
-6.902740720269697761e-01 1.953814195522920183e-01 -3.139802915246507897e-01
2.744565294453825688e-01 -4.244965673964933850e-01 6.507448634942788468e-01
7.884878365781565757e-01 -1.955902873051005297e-01 1.007026480241053762e-01
-9.174433452203690775e-01 -1.839927560737279200e-01 7.553129745474267132e-02
-8.825458489141266849e-01 -2.716334234320947894e-01 4.035650066736451991e-01
-7.933748236217568195e-01 2.847575443167739140e-01 -1.966731838137555088e-01
-3.067201734703279420e-03 5.438054609231304237e-01 -7.853510819310671742e-01
1.652804440870746586e-02 5.685590840839732651e-01 -7.767659271103182217e-01
2.299409755798581794e-03 4.474458003412814522e-01 -6.057054388856564220e-01
8.806247124212489286e-02 5.201123731920607174e-01 -5.700082922856112289e-01
-3.029357012845359381e-02 5.381946393196662681e-01 -5.753545461744715706e-01
-9.574514959487392396e-01 8.084595877521212615e-02 -1.953120066939864619e-01
6.678438971116242018e-02 4.186572118665972675e-01 -7.099502176673059273e-01
6.077356704678120725e-01 -3.974007252727643769e-01 3.793970561313856904e-01
-3.729051778481884405e-01 -4.547572026669245426e-01 5.523473923705763955e-01
6.751209623205756127e-01 -4.266524203195045661e-01 5.940803007959030158e-01
4.633703565064676844e-01 -5.584735746856707150e-01 5.367857879288931988e-01
-4.719455732617378052e-01 -5.796779180519898711e-01 6.795177990762902853e-01
8.848355114536000654e-01 2.137812704189307744e-01 -3.274675261157592998e-01
1.331476686487045313e-01 4.084232375956014516e-01 -6.595402887018468885e-01
-6.564313949579466678e-01 -3.179883531250801143e-01 5.821052513162466857e-01
2.904174273969194475e-01 5.850384374300933166e-01 -5.934200106565634680e-01
8.092570340525655492e-01 2.582962153404450012e-02 9.319382998067993196e-02
-1.175468347591494406e-01 -5.519074683219011845e-01 6.045633234584489868e-01
5.096688918976944871e-01 -3.397990252513605758e-01 5.481111551713176988e-01
-6.816155263196970182e-01 2.009230796738259439e-01 -3.446332876894758757e-01
2.863554080357517129e-01 5.043113585426369783e-01 -5.323895940974734398e-01
-3.691458810128454143e-02 5.287279720862705368e-01 -5.742402321035776636e-01
-5.403201303299102198e-01 3.105245268301527473e-01 -5.647916988521506365e-01
8.350228922008864352e-01 -7.453104989394104818e-02 2.554514636886774381e-01
-5.331252954740048899e-01 -3.777814776463131463e-01 4.686549810820315742e-01
-5.057907733735201861e-01 3.217598622415138165e-01 -5.716914622082726050e-01
5.808617448827513297e-01 4.989934766522480247e-01 -5.534967310111024164e-01
4.957598174638524480e-01 3.053975003294934210e-01 -5.215925903701346122e-01
-4.335956028616032576e-01 5.691283348480897786e-01 -6.257103516641249197e-01
6.067448992773137872e-01 -5.292150189329279941e-01 5.449835978260370029e-01
7.647569994022649364e-01 1.942930436414923301e-02 -1.069091176176204111e-01
7.930638361991884100e-01 1.331658481499587154e-01 -3.584533157505806478e-01
-5.516392594792345339e-01 -5.513630699399032498e-01 6.402970846700255514e-01
1.889364548014776379e-01 -6.360719185765757455e-01 7.583773376225417806e-01
5.791635133442815109e-01 -5.330807602472473761e-01 6.115976867965101649e-01
5.665868800415724271e-01 4.775551634579019988e-01 -4.543386854855515633e-01
-6.924980051137339387e-01 3.008829621328072967e-01 -2.733548474121480498e-01
6.297734362720189827e-01 4.752724318528364633e-01 -5.072361182503681842e-01
3.378168031981311770e-01 -4.653881355987349311e-01 5.531199695883576295e-01
4.120790709109329875e-01 -4.803527094422921362e-01 5.117679069369861500e-01
-1.184624123322747247e-01 5.686130672116669338e-01 -5.807975580242532576e-01
-3.853926710851041659e-01 -4.789427943744256622e-01 5.386249693796063553e-01
8.900740059199411247e-01 1.987680514898975404e-01 -1.161811065874902293e-01
-2.637462934532158049e-02 -6.015412880992100364e-01 8.138110061364062231e-01
8.512889544580349854e-01 -2.077315702535552921e-01 3.854501061823474850e-01
-5.217740118037667019e-01 -4.796110579906209814e-01 4.761385065872982270e-01
7.777837185342394433e-01 -4.971410999415573628e-02 -3.091442141032147567e-02
-8.136733555703982157e-01 -2.657692963798115593e-01 1.803673857440285522e-01
8.115994798011667566e-01 -2.732622858555482925e-01 1.670334778200018855e-01
-3.264311185166232643e-01 5.304907669469920428e-01 -7.385253395818893729e-01
2.522630767658660123e-01 4.035356616565726195e-01 -7.012745160082121121e-01
-4.910820424099757719e-01 5.441768704665292944e-01 -6.256897084893866534e-01
4.844678032961190484e-01 5.269197338772065864e-01 -6.365570394234408846e-01
8.086806663583403498e-01 2.154786106354363850e-01 -1.231807735583791280e-01
4.810967407716847388e-01 -4.620019242007033511e-01 7.119990432879120812e-01
4.840055939119964901e-01 -3.990808973848476437e-01 6.759690789454055881e-01
-8.848747262732172825e-01 -3.122344963758995617e-01 3.751245293614207665e-01
1.047522413265449537e-01 5.432472434344436385e-01 -7.793740766895163041e-01
4.708848079395540065e-01 5.437388904640154674e-01 -6.140154133779442969e-01
-5.515464850925701906e-02 -6.207606406324612802e-01 6.291803132908637686e-01
-7.557910896362449726e-01 -2.621883929760521204e-01 2.207309013547149035e-01
8.872643297913169746e-01 -2.014909204621869176e-01 3.437817857827706325e-01
-5.485721108653762723e-02 5.227942550934824295e-01 -7.865113767683753476e-01
-7.876237475891549877e-01 -8.060418724495910237e-02 6.621743955486841804e-02
-8.404228778757308893e-01 -3.691759370944117102e-01 4.112326482923204796e-01
-7.259963184169726524e-01 3.532406565950498289e-01 -2.875020176721697629e-01
4.314448270078587444e-01 3.447975460172444384e-01 -6.211172676358422962e-01
1.897091614119444658e-01 6.039381203425568945e-01 -7.139684350868595875e-01
7.961412955065610975e-01 1.704580597254697349e-01 -3.962417976708734191e-01
7.723920950371968019e-02 4.632715278280150062e-01 -7.680367432822380325e-01
5.946537187436287120e-01 -4.356165610733475635e-01 4.041693051972017336e-01
-1.172744396373169573e-01 4.271635774614143122e-01 -7.285129640032912413e-01
-3.621915136037339722e-01 4.039735049948033341e-01 -5.327624789418484719e-01
3.477638033064387457e-01 4.991684968088720420e-01 -7.328028434131942381e-01
2.238210320648129359e-01 -6.271567081535771582e-01 7.579819737181534567e-01
6.372151768532373362e-02 5.987459218114303816e-01 -6.063762241369972106e-01
-8.118001868810673649e-01 6.799675917051536955e-02 2.607992591539315397e-02
-6.724759399850663844e-01 4.655375001635061460e-01 -4.541097253310645843e-01
4.250681376388797117e-02 4.211276124837751156e-01 -7.149556918229548197e-01
7.359054065643617637e-01 3.227549669083875639e-01 -5.137058724319389924e-01
7.634597783808612093e-01 1.080010154996588999e-02 -5.472850642913897057e-02
2.785017954241582605e-01 4.634795375177790389e-01 -7.480198943470476314e-01
-8.188569285373173967e-01 1.419534899018337626e-01 -3.538445066613437051e-01
-3.967415459277228162e-01 -4.181192610934458265e-01 5.630637815457921747e-01
3.294575622065030324e-02 -6.239474209534514593e-01 7.995208788099192887e-01
-9.211435803126337696e-01 6.690487881465455311e-02 -2.286647353516384207e-01
-1.140296240976200054e-01 -6.419399401415494255e-01 6.501620476409447624e-01
4.553461552816054358e-01 -4.790534464074385768e-01 7.253550112701956376e-01
-7.318253701777202025e-01 -4.476727058797609904e-01 4.184279599228771240e-01
-3.259151379817410432e-01 -4.183005924002724529e-01 6.990354448240334584e-01
2.978399930392962580e-01 3.798094236011295144e-01 -6.518382848455994694e-01
-7.862497566714504726e-01 -1.039521578809257246e-01 2.687856232528026967e-01
5.381688817868142127e-01 3.932486272071310518e-01 -6.494981648788457074e-01
-1.712040623012143215e-01 4.445215739913863096e-01 -5.861585086744338646e-01
-2.487337551900208055e-01 6.027731268681711940e-01 -6.137543096142729082e-01
-9.048990641875163943e-02 5.875663345714754460e-01 -5.946318658859293116e-01
-2.874902725965868266e-01 -6.382787846842749024e-01 7.028821211393246893e-01
-5.439852428666053230e-01 3.509554038087758787e-01 -6.238436906481273914e-01
-5.874508536129681158e-01 4.985244833745626214e-01 -4.765559550752487827e-01
-6.392145707043117575e-01 -2.779614800198008107e-01 4.027001380343430137e-01
-1.565584590597059456e-01 -4.444789284479723768e-01 7.141780217101939554e-01
7.950010548553709810e-01 3.576758831948704254e-01 -3.793201133241780321e-01
8.876974010566655027e-01 1.239735294753475242e-02 1.407931697282350236e-01
-8.215714712733832026e-02 -4.951558770092055473e-01 8.007191287221067100e-01
1.505244771681550631e-01 -4.735390197965073655e-01 7.769870551679423087e-01
-4.057037161888359389e-01 3.913098762453630641e-01 -5.123492548044208394e-01
5.259459666458627947e-01 3.988623337189145523e-01 -4.136195953244283796e-01
-6.365512137030845397e-01 4.381069743984159492e-01 -3.930532542248195149e-01
6.566165848016112250e-01 1.989468169307635481e-01 -3.365775325631114034e-01
-5.762157652702899480e-01 -5.307805841608637110e-01 6.448167174496169940e-01
2.999074664476070184e-02 -4.647176082091705185e-01 7.649381423626462340e-01
2.327647519820807143e-01 -4.382002942248781063e-01 6.449001458782374074e-01
-8.507758994821279508e-01 -3.414601063209214971e-01 4.306847852683067246e-01
5.237939945124249208e-01 -5.492038592820328580e-01 5.273916194719019401e-01
-1.024645079983178275e-01 4.140719654721820575e-01 -6.687906896742656926e-01
-7.755503556581258007e-01 6.512920258105918403e-02 -1.528441649728649043e-01
-1.592040419580312005e-01 4.663985832157287459e-01 -5.744571450264969181e-01
-9.470519389201126348e-01 1.886398333393924376e-01 -2.306591751977085658e-01
9.617710557485380507e-01 5.140182867938684202e-02 1.041865254220354815e-02
4.680080943108644864e-01 3.225422608676592473e-01 -5.799169648452586756e-01
2.598473381208818433e-01 4.122289351077866870e-01 -7.144934123575847895e-01
4.024181109217689345e-01 5.368633225169250345e-01 -6.898560918020427701e-01
7.357348234651757135e-01 -3.173137630335215453e-01 2.453320021909328463e-01
8.295300466773213310e-01 2.762531494356885303e-02 1.100607082220235733e-01
1.942239179201834809e-01 5.351672739311289506e-01 -5.587224649038140534e-01
3.288341687420794357e-01 5.775185137225345988e-01 -5.851858120074330261e-01
-3.062867775865871223e-01 -6.157530509315916056e-01 7.451076142122139423e-01
-5.536806970585926857e-01 -4.944130133658565796e-01 4.738401303092912298e-01
-8.586018307812725014e-01 -3.308167798704415019e-01 4.232679284992182933e-01
-6.747038846650936783e-01 -3.562584141325990661e-01 6.040259294942544877e-01
9.719868708893463216e-01 -9.858891079462676899e-02 9.587104084986153296e-02
8.911624931344538370e-01 1.169310178007800655e-01 4.241201626901412725e-03
8.839323159326093471e-01 -1.206731651513095471e-01 2.914829621517695535e-01
3.956549515827703090e-01 -4.944143555341563578e-01 5.201750365637695106e-01
8.398732907045164398e-01 1.756458835506896909e-01 -3.728331381746879947e-01
-4.074472808718714312e-01 5.694343899486835614e-01 -5.715533589519273816e-01
-7.923943001809027331e-01 -9.510692958488500826e-02 2.604574896743040990e-01
1.687975531432601706e-01 4.622734258466122403e-01 -5.693877163207592407e-01
9.676968049926903959e-01 -9.030378094249402743e-02 3.020975598470496473e-02
7.339833538496945975e-01 4.072756742045395839e-01 -4.127046731202054231e-01
8.176157307490672377e-01 3.061577077245434819e-01 -2.479616940480126874e-01
-7.807733586347769261e-01 1.160850377174115905e-01 -3.071192425642324531e-01
3.733472521504918040e-01 4.472910866650534056e-01 -4.980196342386474240e-01
7.681163685321179546e-01 3.595147398248155213e-01 -4.612363480187695042e-01
-7.865987247033925933e-02 6.095791402507583223e-01 -6.186314879635300690e-01
-7.614734518753212278e-01 1.876360728148586121e-01 -1.485775436560646257e-01
9.259459969832940507e-01 -5.248713984601906246e-02 1.891150415627058656e-01
3.268325560419521603e-01 3.831689282827758225e-01 -5.665662187772819713e-01
-8.720056247047842657e-01 -2.495854845115848542e-01 1.517760383471653540e-01
2.040511402202947466e-01 -6.227429924978824527e-01 6.226730938466689125e-01
-7.932946902582680426e-01 2.052404561115935555e-01 -4.260792198293852362e-01
5.147682343405232119e-01 2.997513126708230558e-01 -4.820344593269570432e-01
9.322532559867796609e-02 4.118551436721812897e-01 -6.776484807624093554e-01
6.761945103120419187e-01 -2.218733324027298004e-01 3.933297829715103888e-01
7.687644776213731213e-01 1.010544867503479771e-01 -3.073825930490649561e-01
6.437741676589457951e-01 -5.076201379468637809e-01 5.467675082164344946e-01
7.951079453780288686e-01 -5.203522590126310327e-02 1.951963344134324541e-01
-6.746236564819241277e-01 -4.400810589370671710e-01 6.140942734405143710e-01
4.318343365696973857e-01 -3.886729112584967893e-01 5.468191937438237060e-01
-8.260989047330522528e-01 7.623266061019363937e-02 3.826731544275967234e-02
4.483592012263163396e-01 -3.778091884133757405e-01 6.415700050050553438e-01
-6.528419656034420981e-01 2.685984049564335008e-01 -5.201019442935063131e-01
8.756096310606199529e-01 -2.933843621013559888e-01 3.609380451260603695e-01
9.379236923411333748e-01 1.498096798033565213e-01 -2.082368063518161561e-01
8.974321772503838224e-01 1.186808786465373411e-01 -2.817973707620498591e-01
3.780592043188392704e-01 4.025579359588283834e-01 -5.084283289236769532e-01
-9.559676204100931995e-01 -1.391276763151777507e-01 2.549886711178969700e-01
4.438726557325382571e-01 5.381446742065412181e-01 -5.330198651878849114e-01
-5.360482773562011971e-01 5.346440820448913334e-01 -5.755277702290717556e-01
-3.298749321811659807e-01 -5.728436673520124200e-01 5.758789695454856750e-01
7.696284108397130064e-01 -1.684777379233909911e-01 3.755402791488601788e-01
8.356185145227295052e-01 3.136818944506408052e-02 1.089893123853295093e-01
-4.278957775474938052e-01 4.701779311625055580e-01 -4.828594049005035527e-01
-3.981777706450037035e-01 -6.136845334542071484e-01 6.553206250955881940e-01
-8.755702667628676439e-01 2.369748115487855730e-02 1.438441009122060632e-01
2.945387057030118272e-01 3.812955504809270035e-01 -6.560893226832885672e-01
-1.066154925752645227e-01 4.978165598006349390e-01 -7.809046623798084896e-01
4.986394675390051767e-01 -5.064875813890025169e-01 4.840915628378960611e-01
4.161718086871942779e-01 4.873187911423692564e-01 -4.897931894657764351e-01
-7.964615565449987278e-01 1.824963222843198896e-01 -4.034201243379207935e-01
-7.142198687979796068e-01 -2.018933023076532052e-01 3.924355696667162774e-01
5.538187473775546543e-01 2.740890077739135400e-01 -4.670880482546426182e-01
-9.693497346938867443e-02 -6.135357376329709789e-01 8.035317646592710084e-01
4.182808293454102350e-02 5.602363536573617964e-01 -5.806030239053741049e-01
7.699267577955833941e-01 -3.747015327042448746e-02 -1.437810251082311842e-02
8.412343379169934243e-01 2.086469093235581440e-01 -1.095678668541939793e-01
5.991346490919388090e-01 -4.505348581507946371e-01 4.114674870491578096e-01
-9.948623931608840953e-01 -4.211200363243190747e-02 1.000090490776679442e-01
7.833246516418388428e-01 -1.587299439158715020e-01 7.309836013059614612e-02
-3.338814792865140713e-01 -6.295402479811329499e-01 6.836201332049811619e-01
-6.472934966348231622e-02 -6.181206886669351475e-01 8.032119877620763626e-01
-5.467845428550711651e-01 4.208793696801622075e-01 -4.147296997241165517e-01
8.431182662340298561e-01 -6.861695127488302848e-02 2.482780822044035884e-01
1.141014740551928447e-01 4.417005018125467752e-01 -7.497473257083422382e-01
-4.476153746435909686e-02 -6.617950411460868931e-01 7.427769309359910643e-01
-7.489988531856647258e-01 -4.435944767424679358e-01 4.269890020097414363e-01
-7.472810952488823100e-01 1.232754754239746425e-01 -2.545046746974639063e-01
-8.174131540730187329e-01 2.008987448814661125e-01 -1.003113355878183371e-01
-4.190939075100002520e-01 3.516410663125332792e-01 -5.879585971450518311e-01
6.096653642601341794e-01 4.861172083122471399e-01 -5.160268522793306500e-01
6.891054937649592205e-01 1.644502504126220122e-01 -3.427145038120014142e-01
2.903859292737098752e-01 -5.136901127377678788e-01 7.816732286321600442e-01
-2.294073663015906150e-01 5.108119970056129722e-01 -5.498958460973412121e-01
7.968659663614335864e-01 1.815073447868073009e-01 -9.365944404414423829e-02
8.023488179144480092e-01 1.653996881188808110e-01 -7.357049905811677282e-02
6.309319291193228318e-01 -5.140346455476759724e-01 5.588214412347606297e-01
-8.481007264981033078e-02 4.825251514333232516e-01 -7.775149653976168862e-01
7.267070808528779124e-02 4.681774945473433647e-01 -7.711120602042726979e-01
1.658488540248008111e-02 5.280834891104821960e-01 -7.870607599696997081e-01
2.578832666564255249e-01 -4.695617457028450903e-01 7.665733613284194670e-01
-2.197793359227624699e-01 6.134118949900086992e-01 -6.390081624516369407e-01
1.848510995078064267e-01 -4.611343617838533637e-01 7.614007360614887254e-01
4.273673964589887464e-01 4.415684546552863798e-01 -4.726991025971256088e-01
8.218292671045538400e-01 -3.765053786321909818e-02 1.978516845056868256e-01
-2.130856989944933944e-01 -5.573104206368623137e-01 8.059637085706977677e-01
5.564886823615300404e-01 3.117478264033387014e-01 -3.988372797992524310e-01
-7.831272689862818492e-02 -5.966535793305616231e-01 6.153804542942279410e-01
7.301087938352656126e-01 -1.729420755256411146e-01 1.940826363408586219e-01
-5.831735916621595406e-01 3.010632680563320451e-01 -4.013630825792185441e-01
-7.236428633713645198e-01 -4.043897485959526694e-01 3.506979706134858432e-01
-7.988389708824853441e-01 -1.051504054809733468e-01 5.107512051115474516e-02
-3.195581240379518628e-01 5.813110571516502123e-01 -5.804927221356749323e-01
-7.431239249230833233e-01 -4.533093513882019976e-01 4.574035989012135706e-01
-6.209357534549344582e-01 2.810342851952274956e-01 -5.350631549156968925e-01
-1.375206228339855008e-01 4.398183611699661988e-01 -5.992855902235100229e-01
-7.653985082896257452e-01 3.604617905819411661e-01 -4.970363141404784413e-01
5.930296008471951374e-01 2.475451862640396239e-01 -4.452383425114767035e-01
-6.683591765467374879e-01 -4.808993504293143095e-01 4.518842885927423225e-01
5.061369289277819344e-02 4.535295230940367128e-01 -7.615726397001473247e-01
-1.415361795942355477e-02 -4.535112203816812348e-01 7.284225512195177110e-01
6.290590212199156372e-01 2.834976450745919085e-01 -3.197138924152378436e-01
5.262442858275639956e-01 -4.972268002580323421e-01 4.693716651945089025e-01
-7.741743503037773477e-01 6.843894746414382058e-02 -1.094298918538312154e-01
-5.602354684330402845e-01 3.304156392165694123e-01 -6.006004249933473149e-01
-3.352935466865024083e-01 -4.123565431589151231e-01 6.822676679602878158e-01
-8.334368815079395976e-01 2.375218165697744743e-01 -1.327143611493170061e-01
-9.524472934942799229e-01 -1.527608880589217122e-01 2.669206330943117433e-01
9.138569615217455588e-01 -6.598147930620117119e-02 2.147323345437520126e-01
-8.601892761893988881e-01 -3.434511251329252501e-01 3.128866963040923821e-01
5.505335681093028732e-01 2.961227337675598204e-01 -5.634198626689386202e-01
7.619917019997818342e-02 4.185648888929204281e-01 -7.108722300242632519e-01
-3.434524737532863164e-02 5.788001550183011767e-01 -5.900496263916007456e-01
-9.187447563566049080e-01 8.994916224750609812e-02 -2.508428233052151790e-01
5.956910665138692718e-01 3.723328074758966433e-01 -6.168471830876810502e-01
7.021193012749513129e-02 -4.623165511476566292e-01 6.640726661924569729e-01
4.433761506679522735e-01 -4.894248433926450814e-01 4.981240807197211962e-01
