3.070149925322042672e-01 -1.067063397243629141e-01 7.153540193649011725e-01
-3.812305766245658867e-01 -9.117471580082810168e-02 -1.997123089215227243e-01
-4.885708899628170010e-01 -2.769086356747296751e-01 8.527657925628701063e-01
-9.315325839314333445e-01 5.225983732346844296e-02 -9.954807946759045012e-02
-3.148637672442377022e-01 -3.246341709568664746e-02 -3.690351626490614434e-01
4.339872781920222078e-01 -1.338895414540285378e-01 -7.484355422466686392e-01
-7.017631072718054641e-01 6.144098480732815837e-01 1.458068304519381797e-01
-8.702976269674700394e-01 5.462191028149286642e-02 -2.150095204325704057e-01
-2.627223463656434554e-01 8.177455235529373923e-01 -3.196304615882035183e-01
-8.117180354262474307e-01 -2.284191664048691450e-01 5.730442090699624513e-01
7.444634561260810024e-01 7.574426243446590046e-02 2.196758972000894261e-01
2.965448334311193701e-01 3.118992998887620133e-02 4.076892490890026144e-01
5.933711594216877216e-01 3.979350414975675321e-01 -7.419490429253857711e-01
1.379765810260283887e-01 -2.316597377562832349e-01 -7.019717016401270937e-02
3.599246251018167753e-01 3.475398896406954596e-02 -8.531064463655747554e-01
-1.596338223258015054e-01 4.844183633214079743e-01 -8.710237169530418155e-01
2.002871382498764286e-01 -5.980817827592238567e-02 7.203379827245315337e-01
7.249865917397402271e-01 -1.284075275637471258e-01 -6.608690997628041686e-01
3.039648749039297049e-01 1.190881426696150935e-01 5.842655344236764858e-02
-1.500940884051221447e-01 -8.816293126853444462e-02 9.226746909647540185e-02
-6.391759816386630710e-01 3.601990257194815498e-02 7.492926232333855241e-01
-7.611067275075783511e-01 6.107601248217489065e-01 -3.340287329597612098e-01
-9.300762117578669219e-01 4.162936387550855155e-01 -1.353208587003792984e-01
-7.764630848402539476e-01 -1.149170273871409492e-01 -1.333153696071461836e-01
5.604022767906854385e-01 6.792178574496360310e-02 3.156352081633475026e-01
-4.662300179458061522e-01 -5.924414644872346702e-01 6.245489600710479872e-01
2.148618168039824750e-01 -5.882753785963211746e-01 -4.699682356810832434e-02
2.802679380901813844e-02 -7.994737351197414021e-01 4.502005069305864970e-01
9.205749433945559224e-01 -1.183800369417568332e-01 1.890214315121817312e-01
9.872602734501758626e-01 -5.255867798414666503e-02 -2.476907785562329212e-01
-1.481681157609565647e-01 1.980803849888588541e-01 4.446131512785389539e-01
-8.320976894988362238e-01 4.211219214632891394e-01 -3.865315669541654620e-01
-5.565540909709298933e-01 -3.520718268558837294e-01 6.378423286729757724e-02
2.979330501958256661e-01 4.129952157840012239e-01 -8.918797950691400578e-01
-6.165177722156225393e-01 5.094569350192394985e-01 -6.196387959642579712e-01
-3.150611876845748061e-01 1.890903134824289955e-01 6.800826934985410022e-01
-4.436676145263750426e-01 2.728331814839494163e-01 6.261816988425884523e-01
-4.008566252576756250e-02 8.074782188323255117e-01 -4.630395944249308671e-01
-9.040953798204723890e-01 4.706241501367416369e-01 -1.531589310068807441e-01
1.817795775141276271e-01 2.714248871678931474e-01 -7.228688998848228908e-02
3.466938757481072830e-01 5.953762488910938622e-01 -7.526931610080026536e-01
-4.247775935381921109e-01 -2.630731228174517655e-01 -1.186534081458711330e-02
8.806775585592777622e-01 -1.183064483182615090e-01 2.596767679199700751e-01
8.894821742064781267e-01 1.746618372765024463e-01 -4.552887571001091316e-01
2.736852460174428736e-01 -1.355734621086860381e-01 -7.180198556248673647e-01
1.800577390055764782e-01 -3.984610018496130279e-01 8.785562881367827703e-01
-1.248752868922364256e-01 4.140954782160420899e-01 5.703702909471879134e-02
2.000615990088095153e-01 -4.911892308739645441e-01 8.572367888986689444e-01
3.300644331018185995e-01 -2.364013589050940611e-01 -6.200066160332553533e-01
-3.034028741313669064e-01 -2.399653022897649812e-01 2.178579338790283954e-02
1.107174573426919495e-01 -7.109934648212028474e-01 7.273833696562970186e-01
8.987420689006463403e-01 -4.121193393260955129e-01 2.558539052390930713e-01
-3.487971189913242065e-01 -3.504129645096046852e-01 6.285035518776857510e-02
1.196043583320622467e-02 8.575878381887051816e-02 4.652790722990967076e-01
-5.434954256874816592e-01 -2.953694657240815147e-01 2.020523259941466553e-03
-6.655462986093473310e-01 -4.750188142503792843e-01 4.684982999632970602e-01
-2.352853151847799917e-01 -1.984522893451606540e-01 9.124920598263579485e-01
7.676937515251673616e-02 1.265238786650217939e-01 -1.263570847998951863e-01
-2.637014316014061333e-01 -7.090569394373373857e-01 5.806496041303463862e-01
4.359139975442408721e-01 6.129981383854346370e-04 4.786982996335527596e-01
-1.547843280292632122e-02 -5.761740422878053325e-01 8.521077799081688831e-01
9.920703645961356787e-02 -1.435551884671372735e-01 -5.123013058538029574e-01
-5.085352054516990572e-01 7.131364656886315379e-01 -5.409296008831666613e-01
-2.029825495176549796e-02 1.003388325503370149e-01 4.434187566542832082e-01
-9.918978162527682454e-03 2.486363845531830152e-01 -6.611843514497317553e-02
1.921570346602680390e-01 1.088583472043496043e-02 2.662910848032343236e-01
-3.570975877399192311e-01 2.545566996789802028e-01 6.187842517066647341e-01
-2.737929929318994038e-01 -2.811189878890367200e-01 4.897611324650971709e-02
-1.556273211057303818e-01 1.069361888864255455e-01 4.228874963517314373e-02
1.908063077181959277e-01 2.929669599845035471e-02 5.119917747931985730e-01
4.024554580675210880e-01 6.605502065184178928e-01 -4.808404311387260988e-01
-3.259774206401009899e-01 -3.290742896515407717e-02 -3.727824359729835502e-01
-5.226068540649286831e-01 -5.259275975779748036e-01 6.733427328490391162e-01
9.252959065886910694e-02 7.338768199078549159e-01 -2.932362905187161917e-01
9.568331045016619241e-01 -3.640601513555388746e-01 -1.247293500677815886e-01
-1.258678438517403519e-01 6.633167661335861998e-02 7.388806666429997838e-01
1.941962228602971408e-01 -5.630500162286947857e-02 7.192888189681266864e-01
-1.076895838476652073e-01 -3.488377701472808456e-02 -5.785548127558224341e-01
-1.196099991063987594e-01 8.362625983283278330e-02 -1.259524294570404657e-01
1.148411211789709813e-01 -1.474266921038651090e-01 4.530385476151430058e-02
3.800685381333002710e-01 2.050836727183637798e-01 4.256857205515032772e-02
4.057411326633636461e-01 -7.216390721585600465e-01 1.661481669634192956e-02
1.770145914201819159e-01 -5.552497127047312936e-02 7.279405789041234476e-01
-1.509213313318176486e-01 1.279661471026743158e-01 5.672291593579897873e-02
-4.358539393870284884e-01 6.961780035271432077e-01 4.872364765210768223e-02
-3.449843864381009224e-03 -7.550176733459070810e-01 2.862977207613213171e-01
1.932246065265343649e-01 -5.141166793363564080e-01 -8.238464850584904797e-02
-1.580302887291808178e-01 -8.540552075549651123e-02 8.578556887493206384e-02
7.975619733528002131e-01 5.563051057241354125e-02 1.976188123233388050e-01
-4.275143933264591301e-01 4.731952591546786380e-01 -7.665179856760866439e-01
-7.472749266096074816e-01 6.629513929470349787e-01 -1.472752132375102774e-01
2.426334409543707826e-01 2.265844655620518622e-01 -9.165123672133561605e-01
-1.797537055635624881e-01 -1.105381574291279811e-01 8.856385692626507211e-01
-2.353346795273139613e-01 4.740829714623486790e-01 -8.516313533673763869e-01
1.813672072631425658e-01 1.733725767891457215e-01 -7.024928201120661519e-02
1.869877515328081941e-01 7.509633604463745726e-01 -4.674345029901038062e-01
-5.854165236177383269e-01 1.702423442985962487e-01 -5.931628043805229344e-01
2.738134733956396616e-01 5.566823108322954683e-01 -1.774935552626506485e-01
5.319533322784483209e-01 4.299917590634961817e-01 -1.356939159833934483e-01
4.467292254850857569e-01 -6.616031593444342551e-01 6.512888791926770837e-01
6.970968228540270761e-01 -3.394893649748702003e-01 -5.239516609916501366e-01
6.445409165789142136e-01 -1.216291477290838696e-01 5.161799965022567660e-01
-2.383535903669184094e-02 -6.981130540259458117e-01 2.053236161476738042e-01
-3.073307007687905434e-01 -5.711479553749406746e-01 2.073095270698002424e-01
-4.608756718118275225e-03 -7.936543553006405460e-01 4.705816058018353898e-01
-7.445923970598525288e-02 -7.298102248322089203e-01 6.800077859714642736e-01
8.331507680220197054e-01 3.006785428263615279e-01 -2.796903813498560765e-01
-5.931698858200002977e-01 2.229136584925104914e-01 -6.198560741917633621e-01
1.177619063819431572e-01 5.624811545090186993e-01 -8.585749331991801014e-01
-5.101848708732840132e-01 -6.857225817092016222e-03 8.159165126312539762e-01
-8.376971689145114031e-01 4.275884876894092690e-01 3.143896596723405046e-01
1.310150681389693483e-01 -2.790058456955586963e-01 8.832521461445749233e-01
-1.602958224992908076e-01 3.109555800487556407e-02 8.248683138811112314e-02
-8.278380643052006826e-01 5.798486738350588920e-01 -1.945635676268633041e-01
9.996203663265939079e-03 7.013638536165833770e-02 3.834257955413767349e-01
-9.835151319189366914e-02 2.300057698647405002e-01 -3.298143754602124184e-03
-5.028394123987004471e-01 4.566581837970727364e-01 4.208510679107821950e-01
-1.104298009235221700e-01 4.084166318156638997e-01 4.232236114303294244e-02
1.663401841084092767e-02 -6.628406032654128588e-02 -3.541229716089542845e-01
-2.094052839194325000e-01 4.693871388183056825e-01 1.363030402929430729e-01
7.099428360719969855e-02 1.503704990232929972e-01 -1.176744325229445026e-01
3.965467630284383871e-01 -5.490533172920660787e-01 7.583471187446165773e-01
4.996299642151857401e-01 1.537578453757585395e-01 1.658119465204982990e-01
-1.863508365033541281e-01 -1.961220965683586892e-01 9.128927562938016216e-01
1.663713210728269554e-01 4.262518448679064043e-01 -9.239531432266598343e-02
-8.521015656727243259e-01 4.874743660727857697e-01 -3.011955791117224557e-01
8.568912912436134066e-01 -5.549394088926922208e-01 5.311539910301231460e-02
-5.169829068015741047e-01 4.636867932146843813e-02 -5.106798813801473047e-01
8.743789529382848258e-01 -5.203564310699902995e-01 1.689194529221742236e-01
1.772680644991758980e-01 -1.180974794456843557e-01 -6.896988073710699219e-01
-5.718597920029092757e-02 -7.222540580275121913e-02 1.569461501045417984e-01
-2.736802110213252814e-01 1.698206577858987210e-01 6.847146287270347020e-01
2.823898777898972146e-01 1.541648098911517217e-01 7.462725890708510335e-03
-5.148814556103823437e-01 9.730583721973705413e-02 7.660214386247286011e-01
2.169631810125222382e-01 -3.785679346627156550e-01 8.677801193945289260e-01
5.877941654792091797e-02 -4.536954780884719374e-01 1.197750106789076396e-02
-8.202807163051055450e-02 4.614531716746504003e-02 2.241924741121580078e-01
-5.371940049465360190e-01 -2.260905533833720560e-01 8.357460026727471236e-01
-7.648342281023239320e-01 -1.437934112016700794e-01 -1.051136642643904634e-01
5.561930883202045317e-01 -7.608170449767203136e-01 3.104485166087385672e-01
-8.334584785775062121e-01 1.645209430162089884e-02 -2.285260122689108386e-01
8.996915115977927035e-02 5.493535994365762454e-01 -1.132711640813471449e-01
-8.372366327756479709e-01 3.905654382526077550e-01 3.615176684687460562e-01
-3.233391397140277790e-01 -1.913211937696815412e-01 -1.598907289686377076e-02
3.123150998348140361e-01 -7.751749150452664772e-01 5.646653466945035227e-01
-5.744926334598229323e-01 -3.948007462939895906e-01 1.180098592418716841e-01
4.596171464986956723e-01 4.979312153378305794e-01 -1.840599515333534997e-01
-6.388512283836929040e-01 2.578861470577488088e-02 -4.116828614367142869e-01
-4.673483160307192463e-01 -2.336345013042681329e-01 -5.168730737446303874e-02
9.610412383562182484e-03 6.348584042458532695e-02 3.637974599043966029e-01
4.615855282832850848e-01 5.753910097147802993e-01 -2.923568550495398988e-01
-3.128600358121609304e-01 5.933484083259922270e-01 1.286939609372082793e-01
6.260080846560739376e-02 1.261921465311612034e-01 -1.306163929477550945e-01
-2.430746221271971319e-01 8.215694868453293775e-01 -3.637895105619992631e-01
-1.366392941581565379e-01 1.775453648761233516e-01 5.127107313380556697e-01
9.389917979313369134e-01 -2.390808338106266973e-01 -3.461170946193147802e-01
-3.995443090421119114e-02 -2.527410520167359675e-01 7.829946731618347977e-02
6.619039394606679449e-01 -6.693155767502853015e-01 -4.238298721761602633e-02
-6.563591862231083103e-03 -6.217644900212043746e-02 -6.257968862644989194e-01
-6.980277803302960271e-02 8.115518870665422435e-01 -4.337842715994875697e-01
-6.403002979432221853e-01 -1.010915561157117865e-01 -2.345230960258479214e-01
7.135717655278661642e-01 4.406293984746664782e-01 -3.928729793299482465e-01
1.090168350578959860e-01 7.165809445589204074e-01 -7.034444725781056063e-01
1.435452105087382246e-01 -1.743949276975880758e-01 -5.140746824403595872e-01
4.874274556285767557e-01 2.356312969354193154e-01 -8.608057620860479764e-01
1.346979055635904587e-01 -7.911201739214038242e-02 -1.674034996323317537e-01
-3.004902983534979422e-01 -4.654140805712270179e-02 -2.252132950824250468e-01
5.148871394495998510e-01 1.724268189392463291e-01 1.431630671008783939e-01
7.701971122712014672e-01 -5.421987203029727809e-01 -2.129970206331572857e-01
-3.440067163447633330e-02 1.293209506653707208e-01 -8.490047604984016782e-01
-5.840718239002651302e-01 -3.008422665643493699e-01 1.277407042103136450e-02
1.694520041324190929e-01 -7.137880359877260550e-02 5.328055688706738284e-03
2.613322278085152273e-01 7.244983614479519884e-01 -4.808240365747978862e-01
-2.789803104713156068e-01 -1.686478857057226166e-02 -4.695164629547123325e-01
4.060213662065074725e-01 1.087297538420655407e-01 1.918907310502979136e-01
1.090139198266085740e-01 -1.537762634843906628e-01 4.742244414908253908e-02
6.021409533778998568e-01 1.560068076959980621e-01 1.721480681966571225e-01
5.782151012177371152e-01 1.604327005417938712e-01 1.674717567561734843e-01
9.386459730984685335e-01 -4.110330880580652657e-01 1.063054345041917204e-01
9.551828014547553147e-01 -3.682933420877587682e-01 -1.234672228320269349e-01
-4.362155691981990935e-01 -2.850499395821368687e-01 3.016699963070849488e-03
6.377924294688286366e-01 9.811673449337897368e-02 2.480147534870285053e-01
5.940884370932611458e-02 -7.908076465395432741e-01 5.637128105983392201e-01
-3.405888269634028132e-01 -1.610412447113279411e-01 -5.255046668001867038e-02
2.846602378394051946e-01 -5.293908103027048506e-01 -1.631258870259559013e-01
-7.879653457210192280e-02 -4.397865131058821819e-01 7.704438093579116242e-02
3.124601836563897228e-01 1.156102207613572547e-01 7.306249495139054140e-02
2.763220740556157629e-01 1.071902984060452146e-01 -8.860808072034724869e-01
2.493975390563783479e-01 5.083018005111411552e-01 -1.385677020133847248e-01
-7.960280401137328488e-01 4.481285052152854734e-03 6.413645433441194088e-01
4.097678934529982997e-01 7.204460895364536710e-02 2.870324327003210829e-01
3.320415698540229443e-01 -2.766696842625983033e-01 8.064530742685688258e-01
-7.776231538215577777e-01 -7.908746938146621330e-02 -1.784853950632667163e-01
-3.704202938494995934e-01 -2.132015147544144562e-01 -2.879171375287243456e-02
-1.878620825669082006e-01 2.965384437792144279e-02 -1.080105857520318249e-02
-7.144772722866754577e-01 4.388819732470977120e-01 4.111912870665934139e-01
-6.232864559700074247e-01 4.141022547534767284e-01 -6.363982026956710447e-01
-8.401696278540459195e-01 -2.658658858959725424e-01 4.550182941860623220e-01
1.338764723155478134e-02 -3.122830586767115779e-01 4.398212651667857825e-02
8.918171277766938354e-02 6.589751574062839845e-01 -7.849450265653479253e-01
2.105393721171697208e-02 -1.998241442243388899e-01 8.270246574758444158e-02
5.048400788424718399e-01 -2.898726741075537960e-01 -6.107371046227408895e-01
-2.479540289879820780e-01 2.491178963345659081e-01 5.371309469988920782e-01
3.671750008156450529e-02 2.101170173104678074e-01 -9.455716653000011129e-02
1.799802868467768602e-01 -3.604827599949678163e-01 -1.475789184315724478e-01
-7.775077052476384587e-01 5.855394188799570854e-01 1.171112526884678928e-01
-2.996821075648231636e-01 3.210716579834831941e-01 4.713749658787676489e-01
-2.026218748767213695e-01 8.750527956765910553e-03 -1.694115585973905713e-01
3.247869640845659767e-01 6.973392356771438427e-01 -4.733551154172621067e-01
-4.045141059965517288e-03 6.056611594158187728e-01 -1.007842289885500647e-01
-3.605711865910321556e-01 -5.210585592487707585e-01 1.790492384657214608e-01
4.777908901946460452e-01 -4.127875831344954838e-01 -4.623852456003428313e-01
7.667314180498320531e-02 -7.681468392034093151e-01 2.616927963469393159e-01
8.790189465673944325e-01 6.702451547426860334e-02 -5.379570196305614171e-01
-5.340783831008879545e-01 -3.246718148597571574e-01 8.166645261793726851e-01
-3.043245760640175129e-02 1.201837895309593868e-01 -8.445782718540414402e-01
-2.655372947884932500e-01 6.203635048563130860e-01 6.315163949013573308e-02
5.484877738888641607e-01 -5.170417723348401662e-01 -3.418679864856944417e-01
7.668153945083604484e-01 4.985313991242065063e-02 -6.803853317537964518e-01
-9.552883194048990279e-02 -3.282925051233737818e-02 -3.776927788568540945e-01
6.514633058315291714e-02 4.614554008209986041e-02 -1.754442027124190895e-01
-2.665217533313239962e-01 2.622068143050856337e-01 5.358996998018219493e-01
-3.085594978683775524e-01 -5.268218573161888990e-02 -2.118380992625531201e-01
4.031264547395995712e-01 5.440596275857442210e-01 -2.118465848976843480e-01
-7.449913620987819174e-01 4.472353404790704867e-02 6.782181358741443677e-01
2.137701165040439277e-01 -2.673965754454087351e-01 8.534085588832671654e-01
-1.456216421062800914e-01 4.833943284456336809e-01 -8.746317321233847419e-01
-2.051266296844638792e-01 -5.830595024264171450e-03 -2.429542521843683078e-01
-1.477796750040533402e-01 1.320854359595558802e-01 3.105676548824683539e-02
5.951043474025153879e-01 -2.304784338437774194e-01 6.268837324244573850e-01
-2.299350316772622860e-01 -9.138605809023502002e-03 -1.496984240483060780e-01
5.580847964385666771e-01 5.503837528817788760e-01 -3.586303416450992709e-01
-9.539949789953924286e-01 3.892124951767100827e-01 3.129921616455329930e-02
9.433470480488952148e-02 5.193936178127216141e-02 5.432787103595181355e-01
-9.891085485893205131e-01 6.797332392485096186e-02 1.950344499034790680e-01
5.142709526549924526e-01 -5.579836837985518994e-03 4.582532600311361448e-01
-4.753346158933960397e-01 -3.593658483432689010e-01 6.112949475129415139e-02
-5.433429721537986340e-02 1.179945055128374526e-01 4.154627509145110698e-01
8.737149111110515953e-01 -5.345279492084400452e-01 6.072398921915495712e-02
-2.193431012259493273e-01 -7.329008690742603305e-01 5.294824120049979044e-01
8.177849135247967916e-02 -5.488096646005496959e-01 2.791702754183426893e-02
-3.316391788370126603e-01 5.626313543162897446e-01 -7.850709463127838461e-01
7.238900578111016060e-01 4.315600006440072911e-01 -4.060771520199334961e-01
-2.349412414832792728e-01 4.591026430166209593e-01 1.776427284427482545e-01
-3.508610044965719266e-01 -6.376021936222908693e-02 -2.443653710993280714e-01
6.521110262173816785e-02 -3.147766723063712829e-02 -2.404081401363709347e-01
-3.362660251912081288e-01 -2.777058825566210976e-01 9.040488092767607897e-01
2.693506895390770928e-01 8.669270947573010089e-02 4.653255075996361873e-02
-7.772377164290269480e-01 1.784050724411995748e-01 -4.264087052133725408e-01
1.541799589022349315e-01 7.289442608007516700e-02 -9.514786631152810648e-02
-9.206049246636474614e-02 -2.324205507627043893e-02 -3.440028852101389978e-01
-3.080731499153705963e-03 7.996520662725260520e-01 -5.029805524324082455e-01
1.266135748700114305e-01 -1.734620231275467994e-01 -3.357090824085156092e-03
-1.438759440509232435e-01 1.713399273264789024e-01 6.827811026821005436e-02
3.041826215922999177e-02 -2.022643330196874367e-02 7.636150061939041001e-01
3.908262778048701702e-01 4.437379148601329759e-01 -1.187107340823083945e-01
5.098869531687645340e-01 1.511448905259968611e-01 -8.501147184313244676e-01
-4.503432412820832509e-01 -2.590500304095949002e-01 -2.265311340817058317e-02
-1.599323260557528048e-01 1.949758785106967540e-01 5.117070576641259416e-01
6.308113891607970702e-02 -5.136515886055696978e-01 2.545327310311723892e-02
-9.939345052327146490e-01 2.056553727909887774e-01 5.780266626014983478e-02
-2.328030943510700779e-01 -2.110768095552358059e-02 -2.963986784998777213e-01
-3.133923565153088342e-01 -4.187772057905222306e-02 -2.959849236365793002e-01
-8.178941969859859773e-01 1.321084248320270049e-01 5.807511803369224124e-01
-2.825203229744862043e-01 4.728401898411797033e-01 2.273523268461354052e-01
-9.751310723245925072e-01 1.314868165354717705e-02 2.675395660366373662e-01
2.579422873763051460e-01 -6.693234435851063147e-01 7.390046222874048221e-01
-2.165645530741770741e-01 -7.104996954533280284e-01 3.602279925024495788e-01
-8.881722154658272528e-01 4.141431841997589292e-02 5.182070098017715898e-01
1.390494899735078560e-01 -1.708009958641167614e-01 -3.521508908080758088e-02
-6.735358469089901545e-01 -4.646180730577286755e-01 3.740212818073375689e-01
-3.855183630937338291e-01 1.073349272520065234e-01 -6.648669197189087665e-01
2.620258670956904234e-01 -1.920616046146880751e-01 -6.384983652265610043e-01
-7.494553093918351339e-01 -1.346083313926141611e-01 6.911962015116935865e-01
1.354595867605291604e-01 -3.943696428950480004e-01 -6.879722623262127246e-02
-4.115924717766666213e-02 1.815172357849773044e-01 -8.673916778534794536e-02
-8.891116632770558192e-01 6.948625381275579105e-02 5.117380331506298230e-01
-7.330776503751446072e-01 -2.348944171431757710e-01 -4.993270619999447789e-03
-1.553977571349106357e-01 8.890280477013000338e-02 8.158565436554833517e-02
-4.770923590021240029e-03 -2.372758663379057886e-01 7.473106517146101135e-02
7.383472801943432584e-01 -6.568144302793265110e-01 4.946102510667871321e-02
-2.876066953073987409e-01 -1.425632113025538383e-01 8.971943152986453507e-01
6.803364091790368995e-02 -2.384948090193932807e-02 -2.294930753840096482e-01
-4.367259771659058876e-01 -5.235118997239222027e-01 2.104264825150647666e-01
-5.374406941527735126e-01 7.086062590327636412e-01 2.620502318934909286e-02
-1.912709109018029541e-01 -1.458671520840353897e-01 8.994817061678219705e-01
-1.739675095202358746e-01 2.964489528569217228e-02 4.595294382633752228e-02
-5.198750695669293043e-01 3.646716317633356130e-01 5.364132229930425044e-01
-2.493392205483961899e-01 -1.631848244049491636e-01 2.256931034543841266e-02
-3.669608785320424560e-01 4.114184226408695300e-01 -8.056453440551368805e-01
1.339746964457472211e-01 -5.899726447764004622e-02 1.454052950313245718e-01
4.758736723162625970e-01 -4.380973478781847313e-02 5.385945054665783882e-01
-3.768461830243649002e-01 -6.662163593823974272e-01 4.795283716295266063e-01
9.900621161090448208e-01 -4.340846005327803070e-02 -1.460739213771662104e-01
-9.792559977975454633e-01 3.079067963797704199e-01 7.002135789445601555e-02
-4.337718238465793075e-01 4.378251132079280517e-01 -7.684966802764815474e-01
-2.547387460145096316e-01 4.998643866897186649e-01 1.671185941217686599e-01
-5.309109559765244901e-01 -4.872379467670190922e-01 2.149363272991209328e-01
-8.342882705923193587e-01 4.900865472811672396e-01 -3.389314608381027161e-01
9.742963172663158256e-01 2.836060188886676756e-02 -1.918758985358399727e-01
-2.088139160479542678e-01 3.654459546742303000e-01 -8.695900185640886848e-01
-1.466965182427356351e-01 3.302778078555958317e-03 1.083025854172021407e-01
2.935923269538821545e-01 -2.924202251480504944e-01 -5.007333308570756092e-01
2.295381855885809397e-01 4.909508491445795930e-01 -1.254651906304155018e-01
-7.950497425408750707e-02 -1.923597703154971555e-02 -3.278774453622089191e-01
8.980716179381563746e-01 -4.283960356910411216e-01 -2.042579279964765182e-01
1.212625895869340331e-01 -1.704819421068208829e-01 1.066093335388096711e-02
-1.386828350496573659e-01 1.810832321016832558e-01 2.873580237653783898e-01
-1.735464208499138961e-01 2.495740325723242725e-01 2.701856259183337272e-01
-8.836762440853352940e-01 4.869193111613490110e-01 1.181198193992552825e-01
-1.550331666649906459e-01 1.089678991286161247e-01 5.102140795186124733e-02
4.316484357189427912e-01 5.549849975080131115e-01 -7.380490619973590904e-01
4.594325373302910465e-01 -7.839827159670311740e-01 2.067099876359161648e-01
-1.806069939267927471e-01 3.066247280247952900e-01 1.972381299987527314e-01
1.580069009164716543e-01 -5.744384872479319643e-02 -9.481641537474046200e-02
-1.541068257050970114e-01 2.062541066331713968e-01 2.305957790398728280e-01
3.505998718195508790e-01 1.114504649299099398e-02 4.840588852032360889e-01
-8.036246406698760100e-03 2.906848091406382673e-01 -5.241044899157415449e-02
2.861546553190323361e-01 3.313807869613640822e-01 -6.313031537567377616e-02
-4.817413674268832824e-01 -4.927176848657250363e-01 7.530718161998114502e-01
-1.966629402101502111e-01 3.198240225461451702e-01 2.341483894289751455e-01
-1.635696882087812887e-01 5.985766837288163389e-01 5.339345399409539845e-03
2.915342575705505146e-01 2.333910089235885499e-01 -2.472846679090899905e-02
-3.295683739367355480e-01 -8.987093972808156764e-03 -4.810443286834629184e-01
8.010839805515630463e-01 1.947561037977826315e-01 8.338389550682645188e-03
-1.576129120357919189e-01 3.032442960916421071e-01 1.318278738687953533e-01
2.993895481101782607e-01 -4.623075650752739296e-01 -2.504050252328596793e-01
1.526235501154421526e-01 -1.475008313454127459e-02 6.825486865303167505e-01
1.310737592890956482e-01 -6.349735523590199771e-02 -1.665406453045810142e-01
-6.380475869334981120e-02 -5.619585682430202622e-01 1.122796624268389415e-01
4.345453545313146537e-01 1.554034778636734226e-01 1.329573283098070546e-01
1.958780012725272815e-02 -3.409967326179007552e-01 3.544360941029120471e-02
-8.321085082575697955e-02 4.035968956567291821e-01 1.634049473651266043e-02
1.207224805670265161e-01 -7.841584292428520619e-01 5.948440296160427687e-01
-9.416732872975572821e-01 4.153149201460168971e-01 4.562144016892712844e-02
5.862056405075264515e-02 2.508062773895501918e-01 -8.327145654275189268e-02
-1.806311088529590769e-01 4.322562085563588091e-02 -3.511026918154901491e-03
-7.139574639095497277e-01 -4.219393034035283652e-01 3.279329898580736757e-01
-1.261115802974440703e-01 8.104698335033314049e-02 -1.222014741868631127e-01
-2.722538746067955095e-01 -2.858471380789638916e-01 5.098302816515432739e-02
-7.103389432482118959e-01 -1.399876102015234214e-01 -1.489426718889304557e-01
-1.308835951277995402e-01 1.764130952872207114e-01 2.041823146836319741e-02
2.832180828745645695e-01 3.049568317807114792e-01 -5.438072365129122815e-02
4.508101182639925875e-01 1.006647553651526250e-01 2.394634060825776567e-01
4.820526023763983536e-01 -7.472005879955382346e-01 4.946162551241072847e-01
-1.735575914113363649e-01 -1.707735323429174779e-01 7.166380927409503332e-02
1.819162657969586039e-01 -7.276702613436107914e-01 6.943200055341863797e-01
1.271563312384555722e-01 5.933554379209818319e-02 -1.228719465650898041e-01
-5.759805380280794695e-01 -3.725248192281219728e-01 9.220962241358017508e-02
-7.875270935612004308e-01 -2.811165291819297529e-01 5.716578797350292396e-01
1.034770206657137509e-01 -6.066207141251127588e-01 4.803793027888871719e-02
-4.643213515944316083e-01 -4.639252740728128099e-01 1.558940090380295795e-01
-2.934200285004165409e-01 -1.030555909338372045e-01 -6.243679462037215327e-02
4.637250778754952729e-01 -1.269132845262437581e-01 6.450360786126181356e-01
1.455161741503430695e-01 -9.114045584182750570e-02 6.601817436731036159e-02
-5.070597819343679591e-01 1.397762740609388155e-01 -6.229295643768424373e-01
-1.841356396458782296e-01 -3.777090411217161048e-01 9.173384028078074293e-01
-9.203888771623331966e-01 -3.661453492853833369e-02 4.509854205084354306e-01
-1.983619640476264323e-01 1.145984547455767832e-01 -7.724997819381550501e-01
2.283787916650566741e-01 7.262478484215594277e-01 -4.053459438964345241e-01
-9.720202180176386042e-01 3.350667932426898421e-01 6.160701334610566016e-02
4.756700464470853817e-01 5.837975751616997222e-01 -6.482485953670560352e-01
4.542607621604307644e-01 5.404481852365516925e-01 -2.329722791473143595e-01
3.461228545696361514e-01 3.450432700978824374e-01 -8.959556399725472353e-01
-6.746119063647406655e-01 -1.157656685208906938e-01 -2.001621087462285009e-01
-6.290417331072430951e-01 -4.773955117642035839e-01 5.891111053437185774e-01
-3.827779410280866546e-01 3.675498667304209488e-01 4.808739276331666646e-01
-6.215882214626284458e-02 8.440932943215957718e-02 3.031534565761501709e-01
1.439810882589795948e-01 -1.985472922134496332e-01 -7.558844195210077943e-02
-6.822980615567120211e-01 -1.539486200570389096e-01 -1.445836586233033016e-01
-8.554636723446260027e-02 -4.552251276229876131e-01 9.050750505991580486e-01
-6.703482820186165703e-02 1.318420822092721822e-01 4.608605517249484418e-01
6.427470371212838651e-02 -9.841624908350744827e-02 -6.181042555402126437e-01
-4.883289421123047092e-01 7.890164232772506336e-01 -3.001750393356655833e-01
6.737076899907762373e-01 -4.896748750741986567e-01 -3.614893686903766779e-01
-7.374758577409512572e-01 3.851892265303633600e-01 4.580179607121966368e-01
-2.039150491741073823e-01 3.140594200312764664e-03 -2.425010629103288920e-02
3.808101136863684677e-01 6.474011896100950736e-02 -8.631952555532177440e-01
3.897462447153674653e-02 7.112403214524890549e-01 -2.228335247251407858e-01
-5.390014470288092413e-02 -6.170956684628031014e-02 -4.766693168723558638e-01
-7.761244491754346608e-01 -3.334001431870083909e-01 5.263099259472562297e-01
-4.559241336946174838e-01 -5.435694249438801501e-02 -3.372005426489100843e-01
5.597302147104995518e-01 -4.363678475670915713e-01 6.869357911352551582e-01
7.166412839390011447e-02 -2.471834532895365866e-01 2.534591860823955448e-02
4.175290990035650518e-01 2.354450873314752335e-01 3.505572530199772829e-02
5.483737263718815313e-01 5.322305972432829213e-01 -6.421422183761416047e-01
4.057797299613183362e-01 -6.169913182676631802e-01 -1.514399961328230237e-01
1.406691428848392267e-01 1.265969886348621565e-01 -9.708237366283728464e-02
-4.920461409288404142e-01 7.487654863815483841e-01 -4.892083206557374941e-01
-2.251978278348971685e-01 6.370375523160605180e-01 1.669183441671783993e-02
-1.199612584793319919e-01 4.769109996116082523e-02 -1.861317991358342749e-01
3.418235398053671159e-01 -1.819225226331133149e-01 7.579128077638999095e-01
2.030066870688347902e-01 4.752757783419716414e-02 -3.089644019408108871e-02
1.520349545501027133e-01 -1.579991190134472090e-01 -1.226972895480485243e-01
-6.785620723933626364e-01 1.006295076067882099e-01 -4.632946304488325673e-01
-3.711575149981977684e-01 5.021929883140195949e-01 2.863545918885544994e-01
9.370828078392565708e-01 -4.222034597211198892e-01 8.560193723927038423e-02
7.056166561737925447e-01 -1.525463456680412888e-01 -6.603454100879012634e-01
7.349578856589599196e-01 3.968094716380512477e-01 -5.318647796783718684e-01
1.869028726334167820e-02 3.388203564477469398e-01 -5.398474844703574083e-02
1.300358156033840085e-01 -4.755744645858795555e-02 -1.598953215727693666e-01
-1.529402869509333129e-01 5.301721245667347787e-02 9.908704805871125509e-02
-3.037559881091214664e-01 3.253154180406865326e-01 4.692663825504357900e-01
-8.471010624457046001e-01 5.650421146958147789e-01 -1.416060153080448414e-01
1.136769997949519696e-02 -2.415093602804554429e-01 6.703102942526155406e-02
3.886038832799421083e-01 6.478782571535263157e-01 -3.756512094586642037e-01
8.483242689669454606e-01 -1.571475149722660336e-01 -5.380572799400104023e-01
2.912536125460881697e-01 -4.330444677256508057e-01 -2.741748678084754420e-01
-2.803246961106400925e-01 1.813677726723457451e-01 6.734698634553833996e-01
5.608586379320816828e-01 1.579693808870751282e-01 1.707084625426743552e-01
-5.967053455272963713e-01 -2.862975440778207648e-01 7.876075502077161117e-01
-8.818215003224362247e-01 3.458503189794678301e-01 -3.171306041477567339e-01
-9.556184267526916798e-02 7.885776014806160639e-01 -5.974196508044755660e-01
-1.858973874139853988e-01 -2.522256428222742208e-01 6.894860661907521726e-02
-1.797660133360857171e-01 3.846962437528094608e-02 1.354688877109788171e-02
3.858226460993576801e-01 1.949065617843770970e-01 5.526575040043196080e-02
7.645900664769759159e-01 5.901024526871283260e-02 2.243652643224636478e-01
2.177873362669436805e-02 -2.079998990026698732e-02 2.306685412739830632e-01
-2.444127194103472289e-01 -6.911001763241533258e-01 6.605625117105712318e-01
4.648556832249913229e-01 -5.862465291283189828e-01 -2.221224985634264737e-01
1.439563183920745115e-01 -1.266045376478579787e-01 -1.710018013597708608e-01
1.090494712480466477e-01 4.515491906297500885e-02 4.201619090093428599e-01
3.286523280236295363e-01 7.440954774422428586e-02 1.809281017860018825e-01
3.441807252996652022e-01 -6.177647269691877163e-01 7.455056063869466287e-01
5.581655341619135013e-01 -5.803520745256142144e-01 -2.505836356101863172e-01
6.243821371219249183e-01 -4.581148939848069326e-03 4.015166676255333411e-01
5.782192992519295804e-02 -5.385162911402833208e-01 3.873775014413150669e-02
2.397961876246891555e-01 -5.407269074194271941e-01 8.279882412731665031e-01
-5.871455318789307043e-01 2.805087889632761899e-01 -6.489811585234961377e-01
8.301283276298375702e-01 -1.479560129074986019e-01 3.513084307723504107e-01
3.762083349130576626e-01 -3.673291535611631353e-01 8.016339298156961446e-01
-6.076676057791843139e-02 -1.483453706911189440e-01 1.167646174004148135e-01
-4.887996507677037084e-01 5.406273450955066950e-01 -7.076290227387787013e-01
1.523800659214644415e-01 -1.120385891730274891e-01 -1.144765937037694192e-01
1.522547663917529770e-01 -2.243949208078420965e-01 -1.184089907402842007e-01
6.952355028399825887e-01 6.572367932208848795e-02 2.660272721311951472e-01
1.548555251728583604e-01 3.390383501957031781e-02 3.942126017007486216e-01
5.314351045136866958e-01 3.861380273680991015e-01 -8.855131593413639868e-02
1.590697369455356669e-01 -9.933523816108896787e-02 -1.637693796165409776e-02
-3.918792444452151025e-01 3.158644080728575387e-01 -7.843503592710308059e-01
5.698093608486143324e-01 2.870373300620331358e-01 1.050951979274635829e-02
-2.774186684398449732e-01 2.813440912351788947e-01 5.139985381778414686e-01
2.296957156892542318e-01 5.144500956188126084e-01 -8.659432924502060702e-01
5.515080927183637627e-01 -7.638338173819713139e-01 2.959276035822026585e-01
-1.205460530121055251e-01 3.032020913224297010e-01 5.655929547544474856e-02
1.829486729244826984e-02 -9.497392275767982395e-02 -4.800048929890745053e-01
2.416906864826355583e-01 -6.731052050715916613e-01 1.975115815534763536e-02
-3.983351404260069839e-01 4.866769919463886374e-01 3.285260668290082009e-01
-4.577711419683587191e-01 -5.576123092833482620e-01 6.998549191922355250e-01
-4.100007911303176211e-01 4.088907255704131438e-02 -5.594697724272356121e-01
8.377636073167999964e-01 -2.431215879676788816e-01 3.857667557812420323e-01
1.590147815589467925e-02 6.160738328089353927e-02 -1.856878864852318234e-01
-4.240975058775587891e-01 4.009111968865934350e-01 4.617030294814543634e-01
-8.058794662135105868e-01 -3.095940125166624091e-01 2.333545344443322123e-01
7.842222178134852228e-01 -1.875957723401820987e-01 4.300141973943782392e-01
4.144312963277060891e-01 6.537247357966925465e-01 -4.701760902432245426e-01
-1.787124363968347063e-01 2.513288044507194230e-01 3.098040362561761407e-01
-2.234058138251664993e-01 2.979626917505869277e-01 3.682058042838076695e-01
7.419555364470141745e-01 -2.447998174855114395e-01 -5.784664214024642925e-01
-4.080800423528192500e-01 6.294258006524227067e-01 1.437603787393340327e-01
1.483294142061928611e-01 -4.118087295745922471e-01 -8.038905773587801118e-02
-5.599290511747675447e-01 -6.748594356294020102e-02 -3.073544897553279198e-01
9.028475641901412274e-02 6.823584275064563665e-01 -2.151410538224329816e-01
-8.208333900621177515e-01 2.147394513225647228e-01 5.335787141136931755e-01
-5.905214929022392090e-01 -1.961226771080309128e-01 -1.118569292120511899e-01
2.733104382893330672e-02 7.549879899671989580e-01 -6.566684483861687793e-01
3.584789097099015387e-01 -8.033450309699714520e-01 4.319506796895543066e-01
-7.419097093537482257e-01 -3.144781502505766824e-01 1.247362348508711805e-01
-2.854473288701153133e-01 -5.446919787642232613e-01 1.762494088791491664e-01
1.362694234902576684e-01 3.948856877720987452e-02 4.173765342297872105e-01
-7.622723325984395171e-01 6.219774909470210389e-01 4.265071156413535736e-02
1.431116742697690070e-01 3.244267812199344569e-01 -9.258422643049928347e-01
-8.508643883506912531e-02 3.786357721881187244e-01 1.886585750828793234e-02
-2.543507564737789717e-01 -2.208085825915536149e-01 9.145649997971889711e-01
1.112440900664820875e-01 -1.193979838193108822e-01 -2.767085261957130116e-01
7.981919946733972981e-02 -1.351845662563963824e-01 9.649034415606881632e-02
-4.178428033520610319e-01 2.181368224891633845e-01 -7.333476438700007316e-01
-3.833641764826832832e-01 -1.581375691103218684e-01 -8.988266874062604550e-02
-6.734036747670295586e-01 -1.174767948462843853e-01 -1.983478756476395044e-01
1.699357803534092548e-01 7.732422606091650906e-03 -8.215111155527100584e-01
-1.667969214593439942e-02 7.671870342851580538e-02 3.603708352592058795e-01
-3.796342557128659645e-02 -6.227634034460047818e-01 8.183408314803051198e-01
2.129366839132856015e-01 -7.525826738977007269e-01 6.484135716818518747e-01
2.718388933527186579e-01 -1.358448020372403364e-01 -7.169870662443393883e-01
3.024654938903304502e-01 -3.864470436217314897e-01 -3.538902835993181228e-01
-7.857043180471020571e-01 2.050859933422968795e-01 -4.310268290298076010e-01
-5.085159495336807334e-01 -5.854588493392298698e-01 4.089270781729712478e-01
1.512796336344169879e-01 -1.302017940650939953e-01 -3.875834319204854439e-02
1.174191305312031891e-01 -1.306773306803538925e-01 -6.069038296714183156e-01
8.575563200666553865e-01 -3.104832114795640918e-01 -4.195887182117114533e-01
-1.318551097401752387e-02 1.083867674459699088e-01 -1.498167051635978797e-01
9.210310626166724468e-01 1.208703466197172949e-01 -4.104149844803646752e-01
4.878924926457557931e-01 5.012869594184143907e-01 -2.005499914118813176e-01
-5.124752509677182877e-01 5.169485802103895855e-01 3.430195901130956293e-01
-1.471106690932700856e-01 1.440096901152019271e-01 1.340694643365948069e-01
5.047894617515438220e-01 3.847983031173393687e-01 -8.246547485311704617e-02
4.631275284168215323e-02 3.911238117219542620e-01 -6.103081620846415728e-02
1.459033387563752893e-01 6.114890173799195638e-01 -1.737663944776449976e-01
9.657375960087477562e-01 -3.612507525471252423e-01 4.764610588207056699e-03
-5.601489310923049025e-01 4.287590279068636545e-01 4.637655635103795082e-01
-8.980747857319827387e-01 -3.226923495411920112e-02 5.006128886118554888e-01
4.179224303810014085e-01 6.071201930589107398e-01 -3.124249300089552706e-01
8.655746544968166978e-01 1.381417792226632413e-01 -5.391846012764651697e-01
4.233974379220313278e-01 -2.373516631327799442e-01 -6.540442372814712080e-01
-4.546144204005488909e-01 -2.108453527247024784e-01 -7.108624186405147760e-02
2.376178324172916190e-01 -4.061890594576554950e-03 5.976419467076048431e-01
8.708029855209442616e-02 -3.966999409569119117e-01 -1.737954026109204270e-02
-1.873939932780951112e-01 5.165028699846842264e-03 -2.236835017489646193e-01
1.869626927018294416e-01 2.190338304081742779e-02 -4.807676303270554119e-02
1.512429396487843802e-01 -2.555586039183344593e-01 -1.126911074934160845e-01
-5.399854271466892480e-02 -1.373099854328731773e-01 8.791830807873060039e-01
-4.966022766454235293e-02 1.703172420842338497e-01 -8.992909994881792546e-02
1.974254922742772478e-01 7.168925962325116696e-01 -3.410530706491996522e-01
1.502729772033166988e-01 -6.361342596371368785e-01 4.080374781954154012e-02
4.853694094110874158e-01 1.477226318519036727e-02 4.323407681898444044e-01
6.458298320668809378e-01 -5.343049124231825653e-01 -3.081845593237917957e-01
3.479497903635976330e-01 5.975162439319309238e-01 -7.493125108551735858e-01
1.860200137640135309e-01 -1.905031971032729587e-01 -5.583636564526858193e-01
-7.479729467773750251e-01 6.219104204447633011e-01 -3.421977245613862517e-01
5.129438127520025148e-01 4.840458939598729637e-01 -1.915560039256937741e-01
-5.611950033466585053e-01 -5.265218521345921276e-01 6.147012582366554456e-01
-4.048137361395987011e-01 4.388599378928586536e-01 3.978886253473795098e-01
5.101209718626815298e-02 2.137478638347852389e-03 2.713491074997522734e-01
-5.249065972096774724e-01 1.292884371413659250e-01 -6.018043222024236361e-01
2.022865454671248994e-02 2.654861725004786233e-01 -9.124387257586487054e-01
-1.515218557192432591e-01 -9.098155926931103185e-03 -3.058395929333598273e-01
9.679893950796933932e-01 -5.423509247263390981e-02 1.265046630529944281e-02
-9.079794742746247760e-01 2.868265021788434233e-01 -2.680630365972280771e-01
8.679713368750138769e-02 1.511875402925210998e-01 -1.134856602533451109e-01
1.836472618870100149e-04 1.803213388167071527e-03 -2.541384225987017298e-01
-9.783070975402270442e-01 8.239898284240734089e-03 1.663217942997322618e-01
6.678832230608412468e-01 1.513679556476028587e-01 1.621962157082106615e-01
-2.747982002142892455e-01 -8.290313348329748921e-02 -5.991104888445192983e-02
-5.807969861307908932e-01 7.323461885704228846e-01 -4.075328726120923117e-01
1.520883396222027506e-01 -3.163935414602140478e-02 1.806284699027185525e-01
-3.330558939503742710e-01 9.777732555714639673e-02 7.737487090784077592e-01
1.130441344789426539e-01 -4.676516401211031071e-01 -2.757706752214363066e-02
-2.127868336437752361e-01 5.463156634430996281e-04 -5.834871243359379678e-02
1.174627877414137836e-02 4.311400248651412470e-01 -4.851725178457886450e-02
-2.748733622422556144e-01 -5.071283043294870507e-02 -1.233677713542080945e-01
1.518299264018417583e-01 -1.537328728761812868e-01 -1.290054160485823997e-01
7.328168825585418267e-02 2.811612217119781668e-02 3.312432645826132172e-01
-9.296904510682580947e-01 2.755107212221800106e-01 3.312141450067956905e-01
2.685469109615111205e-01 5.040916922127280930e-01 -1.400487415904271837e-01
5.518220225288993780e-02 -7.964245510041630949e-01 5.358011603468597617e-01
9.215987021290225067e-01 -1.404624301537577280e-01 -4.395654234183060116e-01
-4.057065262449253695e-01 -4.143594460672290758e-01 1.019429997632776141e-01
8.455336389644153572e-01 1.984060066133567779e-01 -6.112807002682418139e-02
5.567728050329544542e-01 -7.165593563783126951e-01 1.213603177644453739e-02
1.413413549520649570e-01 -3.716393777546187719e-03 2.567652476926473581e-01
2.413105219034223925e-01 2.541637006397572465e-02 2.649714433304772299e-01
1.597950416506357663e-01 -2.432692617766150922e-01 -1.483682248668790060e-01
4.185286109510409358e-01 -2.269392914801509897e-01 7.416118806466137636e-01
-6.627435465410315418e-02 -2.854773429138445229e-01 7.503228221158898814e-02
-7.246490691606810586e-01 -3.934425719758504747e-01 5.449504444712028883e-01
-6.852313809129543243e-01 4.760738327683315396e-01 3.794697850400620687e-01
-3.640638686491739495e-01 -3.150399627549569370e-01 8.932421712816723813e-01
8.000848440516004911e-02 -3.651681425181801388e-01 -1.128754046227162938e-02
-5.316860270995929505e-02 7.901375407138957474e-01 -5.857214109571655669e-01
9.850116615232877570e-02 -5.586661101507666566e-02 1.787754065293474803e-01
1.495600178294733962e-01 -1.550782067988926427e-01 -1.675349398483397811e-01
2.638002914663772902e-01 7.072854700251823834e-01 -3.874168290880307119e-01
6.834501989321651871e-01 -4.700290475343421592e-02 -7.216372103392098003e-01
7.494431847561559834e-02 -1.813677258508294421e-01 6.157610651006741043e-02
2.770119787269984535e-01 4.754941321220595984e-02 -8.605978323536875862e-01
7.198337642182575102e-01 -1.651660376386106799e-01 -6.445651837665657968e-01
-3.690336895603595763e-02 1.602125438510585559e-02 -2.498180653107411886e-01
3.793696615779041381e-01 -1.326747701251968226e-01 7.000907548754589094e-01
5.924731600347449278e-02 -6.620372902990080410e-01 1.198964691212289907e-01
-1.905840892209100523e-01 7.912774215539475353e-01 -5.833492913776208155e-01
1.227642908691220502e-01 -5.621615140861211529e-02 1.616797335889140486e-01
-4.627095346005620224e-01 -3.464455208714514178e-01 4.998569703646078138e-02
-3.359961558404709336e-01 -5.813868045489468672e-01 7.660728095035311824e-01
4.339032812143939211e-01 -1.970023058354227474e-01 -6.953813879865065051e-01
-9.489895046108919319e-01 -8.776803111250063016e-02 2.135835091653704443e-01
7.501404767521239192e-01 -5.314143853929880201e-01 4.532517750270351753e-01
-2.983467047825761331e-01 -4.409429330991531115e-01 1.116612017543392038e-01
-6.430947960903493632e-01 -4.471211743451568577e-01 2.503303382691876022e-01
3.731977569845106313e-01 -4.445972923090935058e-01 -3.546461072320359897e-01
-5.218518535098056743e-01 -3.785869539631989689e-01 8.437338631860316629e-02
-2.091259788423704413e-01 7.056334765845690971e-01 -7.219241555300984770e-01
-1.460993569779093781e-01 3.273333518448498514e-01 1.014498822678385065e-01
5.608664556696584258e-01 -4.754597853723360745e-02 4.957307249002695371e-01
9.535440981561925655e-01 -1.211800901894033791e-02 1.147148612525401325e-02
7.612578743701209349e-01 3.558050897803278767e-01 -5.446595906531048747e-01
1.038870840988040528e-01 -1.990947139449697825e-02 -1.842505455858298447e-01
7.467043243992522727e-01 8.238082718518947856e-02 2.094670030378457670e-01
7.329187000539545693e-02 -3.286355429185170429e-01 -1.368167466180775400e-03
4.186633866128794401e-01 3.321963708182116837e-01 -3.945899372703774721e-02
-9.161786254517704231e-01 2.682793725018712827e-01 -2.492236488365752178e-01
-1.740617964601512135e-01 4.792946781738286616e-02 -9.655600973594229142e-02
-6.341461150913066946e-01 1.927050254013485397e-01 6.716458669611031773e-01
1.332441229391612691e-01 5.702405054149751740e-01 -1.405313193331063915e-01
-1.864527565929278152e-01 2.375484356669013697e-01 4.299001458147693744e-01
-8.140697027795065210e-01 4.859363254462260168e-02 -2.839849798999567465e-01
-5.813274609962149064e-01 2.851767450215683675e-02 7.783104050497207105e-01
7.000216260542820867e-01 3.566579616880824477e-01 -1.375484326694879356e-01
-7.812820977996566274e-01 -3.575899823591115467e-01 3.257582882420205217e-01
7.069830071170277175e-02 1.434242125100150533e-01 -1.206881537615953903e-01
-1.299206033412884653e-01 -3.386082351751452113e-01 9.244876719339899518e-01
-1.488058231494387429e-01 2.447621215046599796e-01 1.173524224016827683e-01
-2.969017066475546085e-01 -5.575856179877535651e-02 -1.663498012317387309e-01
-4.428570051628157311e-01 -3.930986244107150807e-01 8.793092522945276934e-02
-1.320490560315485395e-01 7.649759339882300502e-02 7.291785010844604731e-01
3.852431595647828333e-01 5.317018146119975031e-01 -7.929147774545044491e-01
-6.702685170918920576e-01 -1.922916976137626077e-01 -9.828820361436821362e-02
-2.924374905506769151e-01 -6.947461364327932321e-02 8.724414121594179505e-01
-7.936172957281044660e-01 -2.430442601061663654e-01 5.939143521807375148e-01
-5.893053078361547570e-01 -8.092110385099160474e-02 -2.794306243768313047e-01
-6.292321529085471710e-01 -3.966925598840133071e-01 6.975038170955121242e-01
6.542193903482991235e-01 -1.895280664893459199e-01 5.574860769796928794e-01
-3.270720576417745495e-01 -1.216406574420171582e-01 -8.145292941363484196e-02
2.037459028831780372e-01 -3.088109895374819835e-01 -2.543911165509202266e-01
4.884118069017230890e-01 -4.326358541805881419e-01 -4.404271874228790074e-01
-6.300215978618721735e-01 9.019937814471637449e-02 7.314967268750534046e-01
1.554073701542244279e-01 -8.052679014415671244e-01 5.193314589735079645e-01
-8.877011042400959617e-01 -2.119459345702205677e-01 3.523737190073665815e-01
-5.952931204482927452e-01 4.688201416850357739e-01 4.128847608022113702e-01
-2.935635433819311357e-01 -9.546645704651122999e-02 -7.213960984109388241e-02
-6.322832124916800689e-01 4.731541960745379027e-01 4.013283301615342413e-01
-1.001473891772079600e-01 8.151276792009863881e-01 -4.590893200527486617e-01
-8.812329317829037389e-01 5.232974768528878551e-01 -2.565494406220839366e-02
5.059953191322968252e-02 2.250973718259131895e-01 -9.035266135404150523e-02
3.335763319036887387e-01 2.976448248035063610e-02 4.178421225762830593e-01
3.507523022904336374e-01 -3.114302698677802739e-01 -5.274568214121173604e-01
3.344166702260584767e-01 -8.026936005824876208e-01 4.599595885856429534e-01
-8.913690566799292725e-01 -1.386149547082889955e-01 6.857057446904478437e-02
