-1.094812078440304814e-01 3.984815412657684019e-01 -1.483899515552893067e-01
-9.475297455279124703e-02 5.373329916098964487e-01 -2.989903278618302185e-01
-4.410988593890353276e-02 -1.856996123323105818e-01 8.317283271893304020e-02
-8.913402475159785954e-02 -6.252546116221688322e-02 -1.570735383831670384e-01
-5.141717976832957948e-01 -3.591554045088797276e-01 -1.717998673313437252e-01
1.255326716388057151e-01 -1.208277749242497034e-01 2.253243390868086421e-02
1.886237950280812703e-01 -2.829769235820100981e-01 -4.288687919128782444e-01
8.221322753454967103e-01 2.796626881211181637e-01 -4.637599969281502865e-01
-2.694932777099475971e-02 7.214957977177589854e-02 1.560325546620944248e-01
-4.065398889776734859e-02 -5.477792371218792589e-01 3.102406209826017447e-01
4.821399252156003540e-02 5.399804426103523847e-01 -3.309409056592473863e-01
-1.341831650777212670e-01 -1.246672957351176447e-01 -1.683335201098402345e-01
3.653598843989894901e-02 5.225631812761705186e-02 1.514740679152656311e-01
4.696103665940790442e-03 -1.927373012680485553e-01 -3.262271836997432950e-01
8.070524430742607169e-01 -3.774627024722516655e-01 3.876912189393210695e-01
1.527048946581493760e-01 6.959440595889009040e-02 -2.015877071648765687e-02
-1.291682125942008874e-01 -1.011478459827981624e-01 -1.432684246122868377e-01
-2.744982601585326670e-02 -2.243301599929235779e-01 -3.926439493198505826e-01
5.178087805699169710e-01 -1.975737943223143112e-01 8.034757339613116667e-01
-1.314411934026887829e-01 -5.900047223753418502e-01 4.670870049656780654e-01
-2.098719099327897020e-01 5.866174565817156017e-01 -3.823537533773936903e-01
9.152714854771035746e-01 2.368851425828071011e-01 -1.904735033945822442e-01
-3.587305564367075650e-02 1.462056500544439142e-01 8.067558575874002047e-01
-7.734401670194820388e-01 4.174721843587654857e-01 -9.804821146589761185e-03
-3.045014873237785191e-01 -1.132983328459809119e-01 8.989109921875585441e-01
7.123831128156462578e-01 4.048982259598357114e-01 -1.150878279440491203e-01
4.939773744989007231e-01 2.878384270152397062e-01 3.766645218057541600e-01
-8.176670424563374784e-01 -1.130460686238800028e-01 -4.168847782309653693e-01
-3.533427967463797503e-01 -1.098451487633871071e-01 -7.939433279487315698e-01
-2.727219135384761906e-01 -5.358677194909057251e-01 6.582642430154844737e-01
6.897208064479033729e-02 -3.856618063493755244e-02 -1.599011688886756988e-01
-6.736113126402939466e-01 -8.941203305525048661e-02 6.880807075812928053e-01
9.142400685595628018e-02 -4.399002397644628803e-02 7.876130391388469487e-02
4.447857631348657581e-02 2.441964330464023447e-01 4.260555238989595095e-01
2.647559140023672541e-01 5.725580921145860813e-01 -4.774664348249816337e-01
2.134644314733106230e-01 -3.022598697329738071e-01 -3.699923637596330694e-02
-4.684731439719375667e-01 3.331487455155139887e-01 -8.175934285292936199e-01
-7.371413829358124392e-01 -3.538226194921259005e-01 -4.757181927793711212e-02
1.429349108724935202e-01 -4.375595196809113352e-01 1.382973443960559823e-01
2.509711320705942383e-01 5.774070782375324562e-01 -5.178806674118924258e-01
-6.241596661339263163e-02 -5.773375089284951134e-01 6.526691456554860604e-01
8.684380134120767147e-01 2.628799311697608276e-01 -3.653634583472298858e-01
-7.203899976032754893e-01 -3.933805393649901228e-01 8.926304189395745103e-02
-7.214791035402305652e-02 -1.570980594469535974e-01 7.117326512988803033e-02
2.187594268588946012e-01 4.319580055242304706e-01 -1.877103001964794404e-01
8.944016012641912636e-03 -1.070526345532845647e-01 9.307155317797258243e-02
-5.748952642658224921e-01 -3.300545369703553611e-01 -2.628633406790843452e-01
-5.538205751828208928e-02 1.833016004562118724e-03 1.045297876841592422e-01
1.024909807624327721e-02 9.490658023568099289e-02 1.819803963541560821e-01
-1.844584928787828537e-01 5.454770103672257342e-01 -2.852768590466635001e-01
-1.439635611229495189e-02 9.088773962539209439e-02 1.737680386737596727e-01
-2.105613565484474314e-01 -2.882368864337649383e-01 1.516859280593945911e-02
-1.188415102750399743e-01 -2.496382368860689538e-01 6.541040224151573046e-02
5.938833215384586861e-01 -3.567996844395139311e-01 -4.044813712642083559e-01
-9.739015165529510965e-01 9.990629077601682895e-02 2.427597052194692753e-02
7.848090933767278843e-01 -3.905045185188587564e-01 4.138808954680388563e-01
1.477695248527197969e-01 -1.164494198843572248e-01 -9.483399185209294424e-02
-2.865346059790851996e-01 -2.730772519647481356e-01 -1.629941904487402504e-01
-1.910678766619966842e-02 2.454960343392761923e-01 -1.222774703326421769e-01
1.102720053109665019e-02 -2.566062671463646971e-01 -5.777473260504548680e-01
-2.310409050885256152e-02 3.594736559100732420e-01 -1.574316435039168072e-01
9.029328765045931959e-01 -3.270725885147839906e-01 1.455646377777910228e-01
-5.990809971133339573e-01 1.597323491094036763e-01 6.416318420521671673e-01
3.701626886668046845e-01 -1.871607981402058363e-02 8.447571343456244941e-01
3.315217875980071977e-02 5.597489711003481028e-02 1.542493827688440067e-01
-2.613270263190843323e-01 -5.205963553567942714e-01 2.682952937638150570e-01
-1.144114450040402131e-01 -5.497828736181078479e-01 7.040588551384349136e-01
7.363594475741293000e-01 2.367498402482289266e-01 3.413310460923289491e-01
5.758313577058635779e-01 -5.354181253819355613e-01 4.377452803525717639e-01
-8.434198911502175378e-01 -1.400792874908158292e-01 4.641835806561132594e-01
-1.542031805432632630e-01 -2.062359185327236888e-01 -2.952770901834291806e-01
2.381971594092709144e-02 -4.420063953254554229e-02 1.072749471894704487e-01
3.940618604723016283e-01 -1.269162540600510813e-01 -8.135272277023433141e-01
6.626348271640755683e-02 -2.324655001349598127e-01 9.409270843822262753e-01
-8.797244867824378645e-01 1.056748150313829016e-01 -4.280682804232052163e-01
5.083062777918798680e-01 -4.437002120233432545e-02 7.889715088471317417e-01
3.073455194645328126e-01 2.661093174369525416e-01 1.986010945729443089e-01
-7.155087282663700199e-01 -1.900741647746076179e-01 -4.540595825174665867e-01
1.641404908749792280e-01 -4.215757069297040305e-01 8.564995200327660818e-01
2.376031740954290261e-01 -3.653773250298997799e-01 -4.069960219406241401e-04
1.039877087357219676e-01 1.364692954179192452e-01 2.021080115493709417e-01
9.167519574576997732e-01 -1.926884530914887983e-02 3.417880607282555161e-01
1.194460648868450048e-01 2.470202121007479545e-01 -1.097928117749069066e-01
-1.609275253054950061e-01 3.846191497054399777e-01 -1.065361410968475725e-01
-2.664593383576532304e-01 5.976917059993399617e-01 -5.469650246647157488e-01
-1.440340447306953098e-01 -2.938755259727440228e-01 7.091612428087412656e-02
-5.824865615911857253e-01 -1.186880161255389893e-01 7.621789680453658899e-01
-3.638530011267150921e-01 -3.331612739429471448e-01 -1.188044843179120180e-01
-2.578502012029954549e-01 -2.536089778838988562e-01 -2.813289714380404205e-01
-4.653886222606168910e-01 -3.359339840046317027e-01 -2.289428609975712181e-01
-9.135485587365606008e-01 1.574669436672202771e-01 2.416296994474538828e-01
-3.000868189491787685e-01 -5.648162316008135120e-01 5.026916946337715020e-01
-4.550007947136231468e-01 -3.703569942539325921e-01 -1.079997718003692792e-01
1.653530164771271904e-01 1.186150527956904288e-01 1.045733070802870590e-01
-1.618429224407496314e-01 -1.346537594542997762e-01 -9.722417352660898959e-02
-3.052560353692683748e-01 -4.506561654347331913e-01 7.712080209417486731e-01
2.618586020612413967e-01 3.363920347425230495e-01 -9.126330920751324349e-01
2.580143747688567468e-01 -1.666125802285646496e-01 -8.088237274911075358e-01
5.187140941472146993e-01 4.547148111244262436e-01 -1.408677106250607047e-01
3.867400354041587995e-01 -3.612305791379959441e-01 -3.360606469730173518e-01
6.850649752705813000e-01 4.381285335065970843e-01 -2.571772907493191096e-01
1.614630218698733799e-01 1.705212643903013525e-01 -9.718965298988054835e-01
-9.178931111912488339e-01 2.421816905719560153e-01 -2.402439321197326616e-01
7.881024313152922289e-01 1.993944131315164292e-01 3.414578015782051557e-01
-7.685022839886257451e-02 -5.937511703971113386e-01 5.773648124436382423e-01
-1.339447636993107982e-01 -1.265571728821301700e-01 7.951295898164897208e-03
5.641061285154828076e-01 4.293621130802373620e-01 -6.505770394838455983e-01
-4.657702062395116527e-01 -3.347810547558174865e-01 -2.334977381472869984e-01
4.821420971835701508e-01 -5.294548201145242716e-01 5.835602271995908863e-01
1.719473576896896616e-01 -4.541413917218712348e-01 8.299243125491946316e-01
-4.906169314000955600e-02 1.019491988617340639e-01 -1.114733771821292269e-01
-5.661859034547518377e-01 4.423490580714974363e-01 -6.563963092694093948e-01
7.991493517837839899e-01 2.859210629098156153e-01 -5.038508474295062545e-01
4.054774197256664769e-01 3.144768897577456257e-01 1.876504340216042510e-01
-8.221111951440250865e-01 -3.215902973257030451e-01 2.412214304980168367e-01
-6.069247287427851495e-02 4.400713114394822489e-01 -8.865852722367000283e-01
1.372426753505581742e-01 1.577472138434590733e-03 3.219461355806660374e-02
8.298303464780515393e-01 -4.011928442373088322e-01 2.411893602031888184e-01
5.111125540206633566e-01 -2.987293875979162849e-01 7.851972150815273999e-01
-8.487439522829112182e-01 3.373018989881956808e-01 -3.218778716715762211e-01
-1.402786636527648401e-01 2.647277140584687882e-01 3.478050729533813668e-01
-6.429603850901783810e-03 2.229158890261471182e-01 -1.220273328214281638e-01
6.551799381516508758e-01 -5.150333621449649790e-01 1.752087172373342494e-01
-1.811484745587579881e-01 -1.790978083795626841e-01 -1.764090550875113406e-01
2.315016214604565525e-01 -1.668830320825078484e-01 -8.120675229190207345e-01
9.237790341403294414e-02 2.897416584516678828e-01 -1.324761815243619134e-01
-1.735924420174992377e-01 -1.843485353049014452e-01 -7.596166767055415603e-01
-8.072278192348917303e-01 3.350552320265457462e-01 1.794156970220569247e-01
6.170664523349299602e-01 3.393651453184932665e-01 1.907462184968599372e-01
-3.880135710176324526e-02 -1.023561505722091203e-01 -2.184333617127284521e-01
7.993234205154812200e-01 -4.245458807908940591e-01 2.750201374974842183e-01
1.215478802667745994e-01 4.715942880533005033e-01 -8.498685383696710227e-01
-9.197977993176705835e-01 1.502922450610306715e-01 -3.243255030450340470e-01
9.203641829169861843e-01 -9.873821440546558248e-02 3.524779462587085965e-01
-1.712292470496639962e-01 2.665965288816181111e-01 2.900023388456689499e-01
-8.731861676919284998e-03 -2.466258485657635557e-01 -6.401927673618124093e-01
1.639514116271363064e-01 9.099708681894645712e-02 1.415568624036013176e-02
1.144086431185477037e-01 -2.488427929372122593e-01 5.240367835479643743e-02
-5.985897753056902415e-01 -2.429181305736783925e-01 -4.703567369023970990e-01
-4.623119147231360970e-01 -3.261959340338953517e-01 -2.643741383320586391e-01
3.044234740517535141e-03 -1.865982405965039004e-01 -3.168634239274266129e-01
-3.775145477220491486e-02 -1.229853197382725083e-01 8.512656703699580940e-02
-2.740182374322901460e-01 2.807105354950360510e-01 5.746916539443418515e-01
3.470393286070976857e-01 2.801612612371156552e-01 3.023044792233542388e-01
-3.273462284496261865e-01 2.623117647331835167e-01 6.199012029796927559e-01
3.494612542565727065e-01 4.345222152157382500e-01 -1.409361900673125334e-01
3.962674546416639076e-01 -1.815926166920520807e-02 8.339469064045698099e-01
2.960126786652539921e-01 -3.433768840008039613e-01 -1.587117044828220414e-01
2.566099574279046558e-01 2.633903498219126171e-01 1.211326594081578445e-02
1.663335396032073754e-01 -1.942988612541045323e-01 -4.243228651260274459e-02
1.365236906159416654e-02 -3.011680126464158502e-01 1.056700869746403371e-01
-1.673475774843614580e-02 -5.023908577419142762e-01 2.415477214704939979e-01
-7.119226705812484735e-01 -4.113838793121527559e-01 1.950388621695201552e-01
-6.354273384134526137e-02 3.305782118376019985e-01 -1.315813408780230898e-01
-2.325875063364018364e-02 2.549055364487441411e-01 5.789547669869881119e-01
-1.302250982755677744e-01 -1.145236039520925175e-01 -1.601691459852497001e-01
1.458361189757877152e-01 -4.247112938354899447e-01 1.259914579394573464e-01
-2.512960834977222557e-01 -2.463781606593019591e-01 -2.402252969908373337e-01
2.422830585911998902e-02 8.228096364292881992e-02 8.616577435810510721e-01
3.261750311360455679e-01 2.722226010792839213e-01 3.578281095335479334e-01
8.974057108697514051e-01 1.522457338290467699e-01 2.209087421740059121e-01
-9.413105234980737590e-01 1.700742150691444687e-01 -2.334761152072039048e-01
-8.143237150068984367e-03 -1.002459981132465677e-01 -2.208597167753698354e-01
4.350335789626184613e-01 -2.053967089557538206e-01 -7.229029978800088907e-01
1.423242819008255777e-01 6.354940924977905796e-03 -3.540516048701152635e-02
-6.426646451051832853e-01 4.790831566555852628e-01 -2.674591981535960269e-02
-8.146710503505876222e-01 -3.216548031450834899e-01 3.798952036382139547e-02
1.373068424715562508e-01 -9.716823716649487797e-02 -1.114764759689488710e-01
1.005020755335681859e-01 -8.030053370729152429e-02 5.951999144368633199e-02
-8.582036745473456962e-01 -2.754475464803001761e-01 1.176910734141427967e-02
-1.238018035161858321e-01 -2.044247734607038472e-02 -4.852816205322736665e-02
1.655895937292234665e-01 1.708959090274317638e-01 -9.713115136559379303e-01
8.883210555438471046e-01 3.275248169792481512e-02 3.688552755978329878e-01
2.199027500908405375e-01 5.767752927599157919e-01 -6.070881613402590027e-01
-5.385187669016027190e-01 -2.922152090173683048e-01 -3.863368891520115866e-01
1.395906011911287881e-01 -2.769404433844681046e-01 4.115530790109046128e-02
6.546481655173926884e-01 -3.766426464115145700e-01 -3.275715602383816316e-01
-7.251239519288463775e-01 4.046530001688813938e-01 1.319560734470335561e-01
-3.264819453926774695e-02 -2.109245906048698160e-01 8.766368667203069953e-02
3.618580750001866853e-01 1.471405742653224095e-02 -9.014182396549170750e-01
1.570378541514779458e-01 -5.762036851752178057e-01 6.619407265385727213e-01
4.434217006162931574e-01 -3.369725881296697922e-01 8.081351781098152776e-01
-3.969713776567171393e-01 -4.858359536816215796e-01 6.657260209366487880e-01
-2.281340726280460529e-01 2.955266339576611556e-01 1.415229331105018473e-01
1.127467139635654619e-01 5.219812875666669794e-02 -9.616049943387704468e-01
-2.888549672525133061e-01 4.421534723911845766e-01 -6.077067986347394618e-02
-7.370237512833625049e-01 9.436107710926847081e-02 5.721671272477686365e-01
3.458733148619507758e-01 2.799028980068685724e-01 3.005943666275363024e-01
6.649215440865019477e-02 2.522692500965798001e-01 4.950237919509392071e-01
2.724037944700796743e-02 2.291729173498072980e-01 -1.261254969201482390e-01
3.233637641551294073e-01 -4.569192049842967229e-01 3.736219369426308640e-02
-6.197244451532790688e-01 5.190850275087218607e-02 6.974805728142535743e-01
5.575984870671749638e-01 3.843106902439846762e-01 -7.153750247763862591e-01
-2.221286562251185114e-03 2.469431182677771508e-01 4.204861457655680312e-01
-1.293674871593386844e-01 -6.546538953034902741e-02 -1.008147663103391677e-02
6.578319103355113606e-01 3.923493688886874331e-01 -5.886291035721690212e-01
-2.845729086685286346e-01 -1.008869229841046072e-01 -8.272443595014369322e-01
-7.244059815173965466e-01 -3.480133519622343186e-01 4.818111398558348468e-01
1.409526629948537058e-01 -1.733948363626160449e-01 3.953799645646802544e-03
2.061830506220770909e-01 2.051706845280602820e-02 8.756310345600191170e-01
6.874717395960510125e-01 4.168372635400261483e-01 -1.240597550799990012e-01
-7.009496538184363246e-01 -3.471954301107662566e-01 -1.241609822780402606e-01
-3.493829106928437733e-01 5.447009362583684622e-01 -2.227215591791989191e-01
4.835965455194090462e-02 -1.654792619602302450e-01 8.004196393968832091e-02
-5.240996077684726417e-01 -4.054898356857058461e-01 6.695892390838253938e-01
-4.258970776044187501e-01 -2.877205340478873330e-01 -4.118372517079988970e-01
-2.444532699970146383e-01 -5.758823373383260558e-01 5.005835512713669999e-01
-9.966111561104358529e-02 1.467935480821591365e-01 -6.376375596642465393e-02
-3.715189655560280357e-01 -5.149972339935916521e-01 2.599169432763336340e-01
-1.472067938605093329e-01 5.562327699330817943e-01 -3.179934530809836457e-01
6.679885024429048634e-01 4.380550526386658428e-01 -4.498444681447497095e-01
4.186233222713979241e-01 -2.468040902278140214e-01 -6.711984024415768024e-01
5.423617157447692128e-01 -4.054780413669407668e-01 7.007108607417336099e-01
-2.188641603870098984e-01 -2.436568914051684132e-01 -6.036424781037555976e-01
-7.732973469107570219e-01 2.785163468392612973e-01 3.421241305394178700e-01
6.896400497325835821e-02 2.497992850339542104e-01 -1.261295322191527124e-01
3.785380063749542723e-01 3.640860058722723003e-01 -3.710447759696661879e-04
5.849958125087508787e-01 4.839046959310271401e-01 -4.536877060927045902e-01
5.037423084171079035e-03 1.169828005815341798e-02 1.297101095672247573e-01
5.245939037034891284e-01 -4.103457084228236407e-01 -2.652529882240011738e-01
9.039461952863562244e-01 -2.868286613656253481e-01 2.729016466177522360e-01
9.566060259818523481e-02 5.972434297406966630e-01 -5.641788324268492971e-01
3.146359229205316493e-02 -5.704781823653163331e-01 3.446000998981060270e-01
3.309725441122408074e-01 2.722876179550537956e-01 3.757296698195951579e-01
9.663243002493223655e-01 -1.706423155517219348e-01 -1.464947843813641515e-01
1.699830269131173965e-01 -2.066534803243934848e-01 -1.947910509168914173e-01
8.085073100601287699e-01 -3.534677275790591988e-01 4.238353301892837099e-01
8.355163337699472725e-02 -1.703490048559448411e-01 9.433257658760271225e-01
3.334694811232395417e-01 4.692992932499255310e-01 -2.032270252215032103e-01
7.075265172832708727e-01 6.573803341828560187e-02 5.826048492454298788e-01
-2.535964223637367509e-01 2.872719062258778377e-01 5.477409623000831784e-01
-1.257304714598224682e-01 -8.661082487562415944e-02 8.963497777376107020e-03
-8.494785756764757778e-01 2.154310976338653094e-01 3.132558328891099642e-01
-2.852351594561020054e-01 4.266406449790222655e-01 -3.927369559242059605e-02
-1.585193339172299432e-01 5.983342582102019191e-01 -6.108678067888306806e-01
-5.076758331453975343e-02 2.155784825141010830e-01 3.071249822876278013e-01
-9.780487756213468442e-01 2.603624452400409711e-02 4.731953360134589365e-02
-2.317665743875871043e-01 -1.421578184622961372e-01 9.202651943442539118e-01
3.650342821910037422e-02 -2.747424670541585567e-01 9.344888265057620380e-01
-2.755705382319483254e-01 5.849263150186554544e-02 -9.192028380535012255e-01
1.263383163524033348e-01 -2.351793467690695225e-03 5.541705425911862271e-02
7.036283595577494943e-01 2.879942117035004245e-01 2.676746115173033180e-01
-1.572583865145764093e-01 2.732461678882575629e-01 3.559100686843075789e-01
-2.473262337307685077e-01 -3.495586604415320542e-01 4.330125297086433178e-02
-1.678377331922583093e-01 3.077873763599303647e-01 -4.048850372550209797e-02
2.198438902096171502e-02 -1.056157021032078369e-01 -2.226459072034536746e-01
9.511159070587987818e-01 -2.135694498615597348e-01 1.996759341280184008e-01
-1.481437563433411486e-01 3.418041152223402768e-01 -8.511501804071114341e-02
-1.000446617518793019e-01 7.759669039825876913e-02 -6.803532103388157393e-02
-5.044848857133014119e-01 -2.891427897111494283e-01 -4.050194176980385086e-01
-3.163997411440743757e-01 4.593419786832254603e-01 -8.082296985936024969e-01
-4.574687728304541873e-02 7.877997735424961678e-02 1.513316579956079655e-01
-4.860457545237068661e-02 -1.457196375357067489e-03 -1.464671058986998231e-01
-6.225367051888321956e-01 5.157241094515778723e-01 -3.972962332905059513e-01
5.888965657761134898e-01 -5.439774475952441346e-01 2.843193880198975343e-01
-4.538677366100557498e-01 -4.828208278756637162e-01 6.182966967480700848e-01
4.033298916303572068e-01 -5.877956346890910178e-01 4.001415757970692155e-01
8.469136158128288960e-02 1.146515652598846385e-01 8.291033277661190581e-01
-9.194560871714807515e-02 5.380459097855406769e-01 -7.759713484730706989e-01
1.458015487053438419e-01 -2.508715499172494146e-01 -3.528298360333941841e-01
-5.120514388557426688e-01 -1.640626896486049174e-02 7.923216910964262505e-01
-1.237086063513007442e-02 3.381631132107602578e-01 -9.481415970360201895e-01
-4.519426101306649457e-01 4.841666852433101353e-01 -1.834472322430167474e-02
-2.756687063667705995e-01 -2.651869164247628863e-01 -3.459972693002669741e-01
7.778695064697573880e-01 -3.615869827444829210e-01 -2.389727947159991928e-01
-4.739869993651097888e-03 -1.542304024957593389e-01 8.831820933788156469e-02
1.125623910420724544e-01 -1.380434785130771058e-01 -8.508165223682379041e-01
2.587400193732171116e-01 -1.313571892467104152e-01 9.104261451321437049e-01
9.408659189379251497e-01 4.786558748367013977e-02 2.394371057609065712e-01
9.698070524954463534e-02 4.645306607558300632e-03 9.620415609607388396e-02
-8.000073959832264547e-01 -3.267621881286592589e-01 3.702056444561864328e-03
-9.097572355631803331e-01 2.196565267719512715e-01 1.620806759832784105e-01
9.298635889236723795e-01 2.687060651474880088e-02 2.850919837439960247e-01
6.331287110415214636e-01 2.855077256165564625e-01 3.305165625292751375e-01
2.313219251704081714e-01 3.978015149733697409e-01 -8.860941214621663731e-01
4.369262678502392472e-01 -2.897324475788701781e-01 8.298600073195544491e-01
-4.184524618824702058e-01 5.770616841586916346e-01 -4.913455372410128197e-01
9.477342463032877307e-01 1.807948613439595009e-01 -6.419236378528711540e-02
-1.729796010429743847e-01 -2.712476640204590228e-01 3.764899709008322215e-02
-8.600566235214268662e-02 2.568667024888844908e-01 3.932821235117731629e-01
4.428095943665213419e-01 -5.569665280479044744e-01 2.109662712804841189e-01
-9.611340003477890637e-01 -7.334582869993552801e-02 1.330716547407023720e-01
1.149220845242886063e-01 -2.326429253937683794e-01 4.789395071794604053e-02
1.939378208566725215e-01 2.832454101168754290e-01 -8.073110683559057976e-02
1.458648074643350279e-01 -2.167894857218736204e-01 -2.671678241026920753e-01
3.311732163019504571e-01 -4.865157485905465262e-01 8.290318757166709185e-02
-6.064140157713664436e-01 -4.660570697437299570e-01 2.494888073479975543e-01
-8.941881243663952761e-01 2.025961373564968138e-01 2.345699361535486527e-01
3.458153850152718145e-01 2.780894457173380685e-01 3.324772961449827258e-01
4.290600586924329107e-01 4.599696051068143943e-01 -1.613859578721580090e-01
3.871983608260927134e-01 -5.294666780252392513e-02 -8.641565242387920787e-01
8.111011094222417839e-01 8.029984295067259248e-02 -5.945409840748429042e-01
-3.338649183220601668e-01 4.489147705083272322e-01 -8.102352405258010926e-01
3.638565074339877303e-01 3.321863949426308027e-01 5.286084592517684838e-02
-9.333502669538421004e-02 -9.423003539744223556e-02 -8.780218547852275401e-01
-1.838386742521340989e-01 2.688805570724879801e-01 5.895097038729547601e-01
-1.959044347487990945e-01 3.058740132709968362e-01 4.227615018011074074e-03
-3.096612206487313612e-01 -2.803884755754335045e-01 -2.294486000548712490e-01
1.177544740692616915e-01 2.570225375373664731e-02 8.721607866087772998e-02
-7.301302755963681168e-01 -1.429669770082555025e-01 6.261759746278674488e-01
9.965695569230297313e-01 -7.036011748631111618e-02 -9.341858285024547126e-02
-3.698886207467751430e-01 -7.763324142778743608e-02 -8.146648528732581829e-01
6.062498242862426334e-01 2.533801820544013261e-01 -7.659511757807017096e-01
4.046032973731826243e-01 2.537655386667143076e-01 -8.909442871628755478e-01
-2.384525427178174617e-01 -2.992183226629513970e-01 -4.403850232517618826e-03
4.150882825409615839e-01 -2.981129689635287350e-01 -5.742075443560039627e-01
7.004328176684783414e-02 1.132505419340950614e-01 -1.165266879005665140e-01
5.721795161956649139e-02 4.253906581335021864e-01 -2.057674544673566419e-01
-9.309632482556766397e-02 2.355054026112154697e-01 -8.354262176147024543e-02
2.670934268182029725e-01 -4.052258182573827971e-01 1.483285025966058282e-02
4.631426176081998025e-01 -4.758846895660272525e-01 -3.549459306076992171e-02
-2.650313332411555201e-01 -5.708375524700676218e-01 4.505200013205120646e-01
-1.912291452515500756e-01 -2.391081268236260882e-01 -6.270205774852383174e-01
2.039822927631759486e-01 8.949994898379716457e-02 -9.590141400800064053e-01
-5.698646297394269755e-01 1.669987240895236535e-01 6.540256619284415818e-01
1.653470137512095262e-01 -1.683321400374733767e-01 -8.500682328287845202e-02
-2.146720454173466630e-01 4.206418152869444427e-01 -8.752210389826364789e-01
-5.168471750563393696e-01 1.631595375706744455e-01 6.874355467336661363e-01
-1.607424962735469198e-01 -2.516059821689507481e-01 3.630145107341475885e-02
1.040298938090296194e-01 -6.463980987255213417e-02 -1.453429143099970455e-01
3.886618474537922863e-01 -4.014375368345248773e-01 -1.686512896576526088e-01
1.414985882743572954e-01 1.250607097738443661e-02 -4.079693240926320075e-02
-3.467620107731095996e-02 1.809965673033254452e-01 -1.115601825730341418e-01
5.097825812147108726e-01 3.573635426883989830e-01 1.306542682346734652e-01
-3.542112246111879248e-01 -3.245594246627121482e-01 -1.298091825088481810e-01
-2.201963652855571940e-01 -5.618987145862101018e-01 3.703975499242809222e-01
4.485261636071996016e-01 -5.662832370312027574e-01 2.528247685346304841e-01
1.628856250614012582e-02 1.001470675294014040e-01 1.867951939658030747e-01
1.627458733907433674e-01 8.984818118111149998e-02 6.693696758606342521e-03
3.045933838350474709e-01 5.676758079381192257e-01 -5.328313486912881203e-01
2.165254126745394803e-01 1.937841477141429292e-01 1.490708381216349632e-01
-6.755117396021661502e-01 1.413347535450054648e-01 -7.036937232304486534e-01
-7.394608243586906493e-01 -3.759072892392489318e-01 3.780963377741303200e-01
4.884945545724149740e-01 3.238922501801961840e-01 2.382717122362611739e-01
2.972522511382563737e-01 -4.995425645791018443e-01 1.276374591190024277e-01
-1.290812275507165485e-01 -2.489310801026880238e-01 -4.722133351501965892e-01
-5.039098456247129709e-01 4.383040586602945377e-01 -7.165357858358781806e-01
-5.723528561343534937e-01 5.412796481365290679e-01 -3.552937913911262124e-01
-8.567976764887988983e-01 -8.293529541950064865e-02 -3.814425201811049715e-01
-8.699398015038305176e-02 2.523693101220574331e-01 3.739022935427507299e-01
-1.359438793509882559e-01 -2.927337474166088471e-01 9.189096569177347407e-01
8.596905142055523141e-01 -1.972665568442656392e-01 -3.904805640311444503e-01
3.337199070456535743e-01 2.548596068162783945e-01 5.076221861370406874e-01
7.459409537590602213e-01 2.773748399694979383e-02 -6.667128095847341118e-01
6.355142027714996145e-01 2.248306414177191070e-01 4.566722946391189586e-01
3.693929479440634100e-01 3.041016658038029341e-01 1.608356979956956923e-01
-5.432712798765227946e-01 4.751379671718107822e-01 -6.340944750202737179e-01
-7.580233264020750372e-01 -1.000292939088311128e-01 5.993076896594494718e-01
-1.738669935218146653e-02 5.223517087781468504e-01 -2.945580555731259764e-01
1.424454229347245082e-01 -8.033468760906176814e-03 -2.989987589601525789e-02
5.712238129501401307e-01 -4.448716862855119358e-01 -1.664038220884968555e-01
3.426805018615024512e-01 5.292827234792674140e-01 -6.699042793305657328e-01
1.631747200445978485e-01 -1.778558172335319154e-01 -1.492217599856346388e-01
-1.022306931350531502e-02 2.333613086405914860e-01 3.701245228452230696e-01
-5.282816868175601588e-01 5.548328582976550516e-01 -3.881972644135259776e-01
-6.481097065893761666e-01 -3.910343147442878475e-01 -3.658908535938625722e-02
-7.709021314522702673e-01 4.394471759007029243e-01 -2.235165390961965093e-01
2.181254854944772448e-01 3.494770054761033307e-01 -1.127233109318014764e-01
-8.233020643824405863e-03 -2.418390388038995087e-01 -4.431142939996448593e-01
4.544422258539271842e-01 4.286870852384361275e-01 -8.497240383709099565e-02
6.847960713530877319e-01 2.833421941838367708e-01 -6.737148221986559715e-01
1.228713185733982527e-01 1.865145531495066844e-01 -9.254132324713273960e-02
-7.909421538303093580e-02 6.917315326310710666e-02 -9.655381647194934136e-02
-7.846783497104989902e-01 3.865298439503184191e-01 8.212866674704816239e-02
-8.023132080676389499e-01 -2.833812473378112262e-01 -1.427519121690903614e-01
-6.803165740962353880e-02 -3.553562260734456357e-01 1.260770455510662746e-01
1.076602438042363191e-01 1.782127112633029586e-01 2.580850998298740429e-01
1.038379269469269506e-01 2.289672685681269360e-01 3.682280966557406887e-01
1.491109326931077672e-01 1.517487590515108342e-01 -6.057089414554828882e-02
6.915127638476864513e-01 -3.762413856287044056e-01 -3.015715341328516486e-01
-2.487874168533384944e-01 -2.667040147251577564e-01 -6.909684003840345368e-02
8.572464409805733432e-01 -1.418263375319672448e-01 -4.486501593294520140e-01
-2.764666295028991305e-01 -4.870638115172101212e-01 7.415047483886175739e-01
-9.557441971753878329e-01 -4.505283550717744528e-02 1.940431108841514096e-01
3.123210846281114228e-01 -3.368640312097728740e-01 -2.775711842380603755e-01
1.434963648132981662e-01 -2.680130584160030360e-01 3.369651971056472628e-02
9.423118816098571271e-01 -2.552370591938076250e-01 1.564645308599457163e-01
-7.666160843097921118e-01 2.195484093793364025e-02 5.731560895620940732e-01
-3.035239570194088188e-01 -2.412838906638731795e-01 -5.975872319768152918e-01
4.289909020618887930e-02 4.438589006824562033e-01 -2.195234460891273831e-01
1.498379505984263060e-01 -5.823341506769980080e-01 6.470693495462437328e-01
1.975803977202621464e-01 -4.238392453050395803e-01 8.484225128641553759e-01
-6.432504739506051950e-01 4.901633427444356816e-01 -7.621155107448641941e-02
-1.193534080849009416e-01 4.474162319981730279e-02 1.787624213364092524e-02
9.440764078796994030e-02 3.286276603094950149e-02 1.152786473331786216e-01
1.127797980267144229e-01 -6.344909615250984847e-02 5.000480432869925523e-02
-1.292762452735605194e-01 1.177949353835552326e-01 3.717519098299693764e-02
1.637879817214011116e-02 -2.533026444336409222e-01 -4.883275488823323740e-01
-7.749957834399946732e-02 1.165482854804157226e-01 -8.891322541359134024e-02
-6.013702566571513808e-01 5.144393358478366318e-01 -1.436552099683587047e-01
-5.922331733159491574e-01 -1.059959030872426461e-01 -6.638842706650727177e-01
5.286348075708339200e-01 4.051313458922162214e-01 -3.103376240493793421e-03
-4.300936578458556814e-01 -5.330845878853529562e-01 4.583486328496350071e-01
-2.791148150160288610e-01 -4.202026656915053837e-01 1.070644867241732356e-01
-5.567467425349281046e-02 -3.172386185504348921e-01 9.198892440053777486e-01
-3.560635544600774804e-01 -4.078219599331465717e-01 4.612413508725790590e-02
2.166748346860029872e-01 -3.266161061032260005e-01 -1.509403385756359281e-02
-1.952300154374484731e-01 2.621566600503134059e-01 6.139463612316169439e-01
-8.277986736881188801e-01 3.173220583748100343e-01 -4.173800380295551449e-01
-3.202321678910027281e-01 -3.870090555336818117e-01 3.612958691846621107e-02
-5.192388897640335399e-01 5.455820248552626373e-01 -2.309166486435257071e-01
4.196032942978982772e-01 -3.813515623297050183e-01 -2.926294072047938566e-01
-2.726293886420107504e-01 2.763390182709138942e-01 5.867717321239460659e-01
-3.109496777188066607e-01 3.107380828052073163e-01 4.837884176231632138e-01
1.809416736471916934e-02 2.318745438509299817e-01 3.759538941005091672e-01
-2.440412371078684584e-01 2.540387170346167789e-01 6.393324242542836044e-01
5.563393715638380588e-01 -5.418208186313946406e-01 1.838356261213207332e-01
-3.769453962797502666e-01 1.870401901330999428e-01 7.201903010879855405e-01
4.064140300350141399e-01 -4.634289333955354806e-01 7.366940550345429939e-01
-3.196079220333800097e-01 5.461527493178131021e-01 -2.368651690756286843e-01
-4.990614131728962066e-01 2.271090660548883561e-02 -8.085438276593240881e-01
-1.243094091442778493e-01 1.010258383443738139e-01 1.077306396361112756e-04
9.132992215110374845e-02 -2.541405844025881877e-01 -4.297870463222750459e-01
-3.142008861885632331e-01 3.733992645644790831e-01 1.217436113481469712e-01
-2.907358508685009002e-01 -5.266411704623920054e-01 2.824423755245185075e-01
-4.607482759935530026e-02 1.443868046039808173e-01 2.077444212655429889e-01
1.516734031464418153e-01 8.145844245831637687e-02 7.970394277606630828e-02
-8.843885394947788303e-02 1.277866144040070706e-01 -7.706187013484119830e-02
-5.255915503423745916e-01 3.334702786458277335e-01 4.366248687118980398e-01
-4.251052889928551813e-03 2.349066768374221403e-01 3.771012239627660190e-01
-3.484281857566038365e-01 -3.320562259296018781e-01 -9.867942686537303776e-02
2.853277384058010568e-01 2.531937093434275532e-01 2.056347990202915810e-01
-1.143266927360530177e-01 2.633931205806925441e-02 3.382817825801940487e-02
-1.324702612389316025e-01 -7.802888265905687237e-02 -8.843697388695842543e-01
-2.079409059526654280e-01 -2.720978241030453937e-01 9.109218173041643274e-01
1.086796767948278036e-01 -5.175709261203726985e-01 7.725634763634382507e-01
-8.674841222370781590e-01 -2.254701117566010882e-01 3.345571868904111401e-01
2.799260665615377897e-01 2.542506018178077865e-01 9.921126659396842240e-02
-2.562145459272605064e-01 -2.491502607211287246e-01 -2.362202382126931122e-01
1.752240916576951746e-01 -2.548927329267964281e-01 -6.640309945254554425e-01
8.335346284790570159e-01 3.292375217863864334e-01 -2.913860508557808426e-01
-4.491309750283688507e-01 4.135066380785429874e-01 1.894033863076465540e-01
1.686780901059999060e-01 5.279167245583634704e-01 -3.189737631254493389e-01
-3.225771196900938387e-01 -3.330108336862166452e-01 -5.950338529600558007e-02
-8.954229857843758467e-01 5.569716486018410490e-02 3.620516574638878438e-01
-1.095998430687730035e-01 -2.121696238515035637e-01 -3.446760600060999602e-01
-4.860922458678699765e-01 4.788682029672183260e-01 1.205214904835403070e-02
-1.194011272646223198e-01 -3.431721652942241324e-02 1.211603009342673669e-02
-9.121960991688428111e-01 -1.960334666927591452e-01 2.001680098426033283e-01
3.996845292343091938e-01 -4.319327196955197734e-01 -9.522363645056299009e-02
1.385841258152221978e-01 -1.953803550665605959e-01 -2.380985732502814423e-01
1.989705553124386239e-01 -1.076464239959553648e-01 9.210088768722606289e-01
8.008494301712539842e-01 -3.791500942603731050e-01 -1.534798979404512764e-01
2.602126415342993493e-01 -3.060562447762594784e-01 -1.858944898282116343e-01
3.485851958827353436e-01 4.092583779686020384e-01 -8.334187023159269625e-01
-6.363390128064870532e-02 -4.469678429759237348e-01 1.877863345137656126e-01
2.011655189523511023e-01 2.522331744391846930e-01 4.330254471007212169e-01
6.630516119998780544e-01 -5.988954102019539150e-02 6.862561535813923586e-01
-6.356871644016178768e-01 4.679771041204767168e-01 2.257848809442646043e-02
-5.785225519136014682e-01 3.179927885385575026e-01 4.469449899166987872e-01
-2.252162120266012757e-01 5.777502592213534793e-02 8.632278798811844345e-01
-1.365802810469677331e-01 4.479047663417594083e-01 -1.758955961139169744e-01
3.868720309634238186e-01 9.541901234046026858e-02 7.667890279092528516e-01
4.072488893225461454e-03 9.236103514318068364e-02 -9.735107917386930376e-01
1.266056566047052967e-01 -3.698451919675728172e-01 9.686904145321061088e-02
6.908655647910414421e-01 3.586116737395579346e-01 8.560592145139545028e-02
3.580133369931111087e-01 -3.515229102775072056e-02 8.559003169510888132e-01
3.468317072642208010e-01 -5.953266112968356172e-01 4.523442685524312612e-01
-2.351225119083701354e-01 -4.969408712860376998e-01 2.274043685794681913e-01
1.429299727564247724e-01 2.579651511767652380e-02 3.480027358001400867e-02
5.891435270449658645e-01 -4.451810285641470410e-01 6.179876891792722704e-01
-4.325430821003142245e-01 8.082783790706976612e-02 -8.630419157447499767e-01
1.779643736457065806e-01 8.390767025267563406e-02 -9.620450229664130326e-01
-2.614371943925761568e-02 -5.007110240813056334e-02 -1.819756575036733381e-01
-2.969255068829263489e-01 3.088770028784145749e-01 4.826966563327988458e-01
7.447180219024860381e-01 3.344876121595096174e-01 9.657084419631511985e-02
-3.621717540336854557e-01 3.357875874409360084e-01 4.138647761620622978e-01
6.407651897473454206e-02 -1.450503035694404586e-01 7.487406043458592897e-02
8.072781457242655945e-01 1.984287992768404840e-01 -5.664962878419447234e-01
4.163316992699692132e-02 -4.540438699283256829e-01 1.847184925624129059e-01
-8.958548527179057697e-01 -1.843177128868163372e-01 -1.399149919073190973e-01
-6.835004471612643462e-01 3.488257569356351673e-01 3.146181447110670271e-01
-1.170843006054228252e-01 4.869442527017831673e-02 -3.288635243331575891e-02
-1.718121091175964787e-01 -1.560062600697098845e-01 -1.308529069912317822e-01
2.251425015360352944e-01 -6.054144667735734675e-01 4.730738542446978334e-01
-6.053661819654432286e-01 -4.568872876603108923e-01 4.513167826146504691e-01
-7.544881091626073344e-01 -2.612006588536060492e-01 -2.789827931024755348e-01
-4.223126803877679802e-01 -5.017304624054944595e-01 6.096463770607810639e-01
8.032497288934563329e-02 -4.545063372356933362e-01 1.759069321157322452e-01
6.030902718008067653e-01 4.730140422442768444e-01 -2.766939306425222345e-01
1.947414979238225041e-01 -4.040256824103233280e-01 7.876135033750158998e-02
-4.391115230700113892e-01 -2.418429998114517421e-01 -5.572437837197131705e-01
3.517305032461778280e-01 -4.026166826804162269e-01 -1.048010825321591538e-01
-1.320872669067592320e-01 -1.794064447759307068e-01 -2.609493476199903350e-01
1.806703579005875526e-01 2.261782877992295215e-01 -9.644842547491294660e-01
-3.905009428895002688e-01 -3.631710543560445204e-01 -7.155602723359567874e-02
3.255749540801868708e-02 3.178365826281229767e-01 -1.477927350065821044e-01
1.516680092899634902e-01 4.937363879352618667e-02 2.149558507295037599e-02
1.407052344717545922e-01 2.126520022078384059e-02 8.875850200893343755e-01
-3.098520864483062520e-01 -9.642108320711190173e-02 8.953679723769922827e-01
8.364719134828121905e-02 1.653290703489016245e-01 2.481731186004167145e-01
-1.445966181095972858e-01 -1.141488650934421589e-01 -2.423711478715645518e-02
3.004673137406539962e-01 5.194684643761984244e-01 -3.020563668244563571e-01
1.419244738206502376e-01 -1.000029230196430585e-01 -9.904291621812043311e-02
3.230524017779506929e-01 -5.455315107459021151e-01 6.666140615671537484e-01
-5.620195762868653855e-01 -1.759401460248243010e-01 -6.068772593410042271e-01
1.017105164145940821e-01 2.515370062454025391e-01 5.142891844177943650e-01
1.819071747580646992e-01 2.248559792246519751e-01 3.089497537633896229e-01
-2.193752736084061405e-01 -2.179480723169980316e-01 -1.916039606480039459e-01
-5.305342465206569491e-01 -4.308099414911972236e-01 3.765520369710133319e-02
7.508032707133164285e-01 3.491335321643163070e-01 -5.025612989149066401e-01
4.514852502860808858e-01 3.108533100992501019e-01 2.684590141487466775e-01
1.454474176726560930e-01 2.216171219915217538e-01 6.597840602146299860e-01
1.809783052875623688e-01 3.006569902899615676e-01 -1.004787044269511986e-01
2.069805971053582661e-01 -3.719594449491716581e-01 3.977045240203677667e-02
-5.265217189538233811e-01 -4.832169888340949182e-01 5.191710409377774393e-01
1.901615345787281697e-01 1.607122566566113464e-01 -9.675635473181100066e-01
4.112317642612303703e-01 -5.575909734048741795e-01 5.794122212567590635e-01
3.248890681771456346e-01 2.573009818433277807e-01 4.956542372801361895e-01
-2.430095121607194208e-01 -4.999624835370422571e-01 7.393392858903886644e-01
4.949575156576006552e-01 -2.104581786924918096e-02 7.875331210047418207e-01
-2.868613787715602603e-01 3.353389218185249820e-01 2.248029261940432677e-01
7.996098491156348187e-01 4.857014807546528729e-02 4.933595440855217396e-01
3.036843189722555625e-01 -5.999638206218239622e-01 4.634108177682067509e-01
6.619881671119668409e-01 6.471497902832262783e-02 -7.493479439227263006e-01
-9.249442140792807354e-02 -4.974147028539855318e-03 6.757693149178096992e-02
2.546475458044748265e-03 2.500537360944254939e-01 5.946231574072693427e-01
8.720743904214582898e-01 -3.474998318656821739e-01 -6.020521818086376625e-02
-7.677497458444929590e-01 3.273721081766742258e-01 2.620285846125094409e-01
2.011579755606726638e-01 -6.032108136397892340e-01 4.315173705926350078e-01
-5.184588170898564163e-01 4.237540163200493315e-01 -7.196148727660099942e-01
5.922548182089332203e-01 1.754353246690177892e-01 5.658087152685954413e-01
-1.133412255162344617e-01 -1.751996013489330040e-01 -7.865044628988265840e-01
-1.510888953135238466e-01 -2.520494251770985517e-01 -4.898919823765983672e-01
4.747894344307122538e-01 -5.330501132811555909e-01 1.242878239953120745e-01
-6.515875647548901028e-01 1.130960788854765559e-01 6.385425340254917703e-01
5.100816469699925859e-01 -3.556783903097825439e-01 -4.250605730947810135e-01
-7.728398377522162077e-01 -2.737367689513449109e-01 -2.227633462087403871e-01
5.071653381270264660e-01 1.840561656465172780e-01 6.067442544129995063e-01
1.086464655746015445e-01 2.081159364386015592e-02 -1.039497276402395615e-01
-2.818461805230546569e-01 4.303826163845063113e-01 -4.885857627746081899e-02
3.422213661800759810e-01 -3.450047604825577929e-01 -3.350867275538767509e-01
2.052915052432732201e-01 -2.509098279900663364e-01 -6.790128983245170557e-01
1.682246170819673703e-01 3.532485549753713316e-01 -1.394299276321985803e-01
-2.990734090197731398e-01 -2.785310692180280601e-01 -1.857448299089907717e-01
-2.741996778139363378e-01 -5.697380091147032921e-01 4.566605899115281919e-01
-9.426725989335215106e-01 -1.079965079984812476e-01 -1.105665591575517304e-01
3.934737175671781384e-01 -4.607561504461092361e-01 -1.909073205498910963e-02
6.579574862301239557e-01 4.279145458981706840e-01 -5.116670226176361913e-01
3.584273427654404154e-01 3.032465203707718215e-01 1.366479538061242671e-01
5.635542902131165932e-02 2.514607809225776203e-01 5.557795289526840099e-01
-3.185099478479807567e-01 -5.524766638326406021e-01 5.632905048855365582e-01
-2.312436543360635033e-01 4.189001078517283205e-01 -8.212156948875573570e-02
8.095098129618627514e-01 -4.173737402110721528e-01 2.457211729582009507e-02
8.876124149954059406e-02 5.079437576486020012e-01 -8.139087152480176668e-01
-1.312264744135993415e-02 -1.947777093113271518e-01 -3.316717369858366848e-01
4.859680805038644746e-01 2.027864013633441098e-01 -8.624503306310531414e-01
1.940833345382005914e-01 -2.460606516621416662e-01 -2.363897452225126872e-01
3.280062000550690304e-01 -5.687709770857485303e-01 2.663890281720934783e-01
-2.605445047395014702e-01 -2.596282359510818094e-01 -3.387335427513999964e-01
-8.524372190150479867e-01 -2.808563523936321027e-01 7.961767305135321326e-03
-6.391112958961077117e-01 -3.565041593172862955e-01 6.017936804974369780e-01
-5.714343589883149610e-01 3.667885883856041307e-01 -7.234642619938831398e-01
-1.009471049546118993e-01 1.782212315036001415e-01 2.006902133343957673e-01
-3.157039019177118599e-01 6.551318892167247443e-02 8.378608958953521757e-01
9.049277564400149965e-01 1.724261555256313694e-01 1.667441927869948992e-01
-6.409158928404621314e-01 4.579978273079649553e-01 5.361280552930906829e-02
-1.095856883038823226e-01 2.244104789289308108e-02 -6.809209747132642654e-02
-2.521102990971516578e-01 2.580423244307154529e-01 6.306272957558021197e-01
1.865627224363056724e-01 3.076645222413770253e-01 -1.013598641913223686e-01
-2.838288349454267182e-02 -1.454041560107621478e-01 -2.635471093173716306e-01
-1.637655016201396141e-01 1.929445390310440545e-01 -9.637330003770422371e-01
3.652792183374377055e-01 -1.100803368831293344e-01 8.730926876761418987e-01
3.430925464748025844e-01 -3.390486629102669180e-01 -3.814350630129250685e-01
5.432716331511475705e-01 -4.574511787859228407e-01 -1.247161836696134563e-01
-3.490320485270095863e-02 -2.599565820019474893e-01 9.559736819491071458e-02
-1.699996530968939101e-01 2.608329950492111471e-01 4.134963547762061584e-03
6.627055632032066157e-01 -5.058373652759827754e-01 1.211016636328451079e-01
-8.502274300617717051e-01 -2.844359402482846688e-01 2.569141226185719384e-01
-2.859930435907124258e-01 -2.670937445746692784e-01 -4.476958654275141058e-01
-3.680156974544973592e-01 -3.227718448403341100e-01 -1.602656549008502629e-01
1.546857012248584184e-01 -3.757454375981381656e-01 8.408997731529924136e-02
-5.527972380564821764e-01 5.471621674126165846e-01 -3.797498421867152030e-01
7.066182100856820414e-01 -4.010997435556487578e-01 -2.254225245072486450e-01
-4.606724395221883928e-01 -5.238060755633278803e-02 -7.897941736120913658e-01
7.333425936261990519e-02 -2.103338620517978541e-01 7.118728685259179123e-02
-1.563478356517715995e-01 -1.758345981664067303e-01 -2.237850690827584976e-01
-3.274313942047366033e-01 3.628619216242265355e-01 2.003145905665514870e-01
-7.620436999534150324e-01 -2.287288544716408467e-01 -3.333800461456033482e-01
-3.929138314758911510e-01 3.823711778755559121e-01 2.432606454070867785e-01
5.686700609336644563e-01 1.437629888502662545e-01 -8.198757128497381474e-01
1.918648486303331166e-02 -4.594600631309671002e-01 1.932785000220098581e-01
-9.957982453643070275e-02 -8.136905309648538587e-02 -1.633158985963326926e-01
-2.968686479877762907e-01 5.027431654567225960e-01 -1.566494289453517208e-01
-1.862634472253893725e-01 5.287589352437713774e-01 -2.551323031460194790e-01
-5.721517892441800868e-01 -3.134388934139708538e-01 -3.131334217853134483e-01
-2.401231692625957204e-01 -4.333365273317884014e-01 1.396968501686654818e-01
3.663485522806956760e-03 1.908211314917243329e-01 -1.213663167691292483e-01
5.104402050770263655e-01 -4.913540690431969504e-01 -1.277944410889227458e-02
2.592149400339270882e-01 3.234018738088041967e-01 -5.860093476494009773e-02
-1.376187302181245409e-01 -5.733606301287196283e-01 3.864178676821596881e-01
-7.341088671498557927e-01 -3.724322289010246756e-01 2.063036213453206535e-02
-5.345135144850764464e-01 5.020348294691366897e-01 -5.434522616897318609e-02
6.587454492642911275e-01 4.277665329343932066e-01 -1.289041838443334975e-01
6.421096265219565780e-01 -4.329759520764024927e-01 5.754572504027591906e-01
2.243785246307555270e-01 2.542149141694667325e-01 4.900785205267273459e-01
8.536691748657035950e-01 2.175998615938426473e-01 2.004085419853973427e-01
-1.983249977708384792e-01 -2.423414277872102951e-01 -1.342998866461288764e-02
1.189148696392907378e-01 5.770908967289991448e-02 -8.602818592048215585e-02
6.159789137728244324e-02 5.720134855460572432e-01 -3.986807907927174544e-01
2.217235487221260182e-01 -3.314427950864028971e-01 -1.729519409311659414e-02
-6.375934653055005397e-01 -7.997510077101888104e-02 -6.502647159557022327e-01
1.472760911069340706e-01 9.208824650550656576e-02 1.042412908515829989e-01
1.385058402856916837e-01 1.545187441215144508e-01 2.008287068845986401e-01
3.140941362289597638e-01 -5.899326757960285939e-01 3.515234947905727658e-01
-7.751669476638995970e-01 4.173415429105447605e-01 -3.473699046053395079e-01
-2.806131017107004189e-01 -2.652191989590542143e-01 -1.956863792084760079e-01
9.594355558231533465e-02 -1.667857609812332595e-02 9.111991213402103051e-01
-7.756011742203759995e-01 -3.525954151547471271e-01 4.542867084999147043e-02
-8.949150336317161780e-02 1.674420324058806253e-01 1.992778371303832174e-01
-9.269248929839424278e-01 9.850081588541809152e-02 -3.154917436807902487e-01
-2.230365893691165502e-01 1.193862366217077892e-01 8.205908382462375750e-01
4.959543627147536271e-01 7.666936057548121020e-02 -8.599142622171440653e-01
-1.856052406427373680e-01 5.956523405851471553e-01 -4.239972424809266838e-01
-1.491790083438164494e-01 -2.162259600496337919e-01 -7.040792480498317962e-01
1.041232058430021229e-01 -6.532680231149226580e-02 -1.456625439343233186e-01
1.632592676836035483e-01 2.130387114470158327e-01 2.923324167731333190e-01
-1.062570042776627283e-01 1.733208460388978300e-01 -5.807953575388755812e-02
-3.455181217585144293e-01 -3.900793472577891996e-01 8.061860540998349034e-01
5.341437393512066256e-01 -3.618294534881142943e-01 -4.072448854261959128e-01
1.090152602256547892e-01 1.600844065611614075e-01 7.760778215752438536e-01
3.994646157702411854e-02 -2.949276106464437941e-01 9.906379636499262897e-02
-1.623022850694382235e-01 5.769101445916929860e-01 -3.621984914464420058e-01
3.252076260518434458e-01 -3.731966620701184789e-01 -1.360511683457494847e-01
6.876153449615816926e-02 2.212364735381881220e-01 -1.208690753853876310e-01
-2.373375356614804976e-01 1.953683922604987633e-01 7.388376384071447811e-01
-5.110201701242651495e-01 4.301716481771069023e-01 1.688379044364314574e-01
