3.323211500322952316e-01 9.358633629623132055e-01 1.774124772742601830e-01
2.087088813698267237e-02 4.817052261560264004e-01 5.249847930579614186e-01
-7.697284234888319976e-02 1.527661083263225639e-01 -7.261028360744421484e-01
7.058575710064654007e-01 5.623424643206605955e-01 4.633645070634004326e-01
5.728529768603780603e-01 6.772366937358541283e-02 -3.342991967653919511e-02
-6.376692317540133548e-01 -1.415828290699764624e-01 -7.396408257272537590e-01
-4.486433960040666080e-01 9.965696366137899442e-02 -8.262306892327290209e-01
4.651463477091043880e-02 6.072384389511140679e-01 -6.256738842094217157e-01
2.271010420885596071e-01 1.711543049890774937e-01 -1.929679494029612474e-01
4.715096221185925418e-01 -4.775507005293358476e-01 7.500701225611734468e-01
-3.248544652709738356e-01 2.540005993416389329e-01 -8.193681514571307112e-01
-7.090449159961502712e-01 3.794434313738798692e-01 -5.571717386345489409e-01
7.479946922062048476e-01 -4.285491925486140108e-01 3.747763295074679757e-01
-7.207049836848961055e-01 -2.407287365066766160e-01 -6.417298783128745354e-01
4.051431322210894553e-02 -2.458988644350884253e-02 1.705187057664482031e-01
1.680223991662042615e-01 -2.602547620292129382e-01 -1.525354667654353347e-01
-2.456470854269166559e-01 9.280394655256860026e-02 2.703667131914157251e-02
-1.834869339602403573e-02 9.491198157464422192e-01 -3.174714551189651290e-01
-3.572353416118169700e-01 7.532051933978287650e-01 5.022315656129175410e-02
-3.577965325384991901e-01 2.045076206674477370e-01 6.227586087726647707e-02
3.349373160819019146e-01 -7.794570034019759897e-01 5.561896971825662783e-01
-3.900854453881796163e-02 -6.009675569381393162e-02 3.130532222264633124e-01
-1.910408914968171890e-01 -5.769020675789204855e-01 -6.032946608825000556e-01
4.955847265488330655e-01 -5.222810599734333259e-01 -2.102885693970944075e-02
-5.091118738797905108e-01 -2.201571355675505104e-01 1.301102332581259013e-01
-3.577200042446891382e-01 1.780457035627749651e-01 5.578732628129338955e-02
-5.030179711054320046e-01 7.208208761004047949e-01 -1.581162024370920405e-01
-2.513596019952595365e-02 -9.489284930260666329e-01 -1.579065485625028020e-01
4.232254287531358322e-02 -2.111348892116305942e-01 -4.119336690759251018e-01
-4.545806041699122085e-02 -9.630065689591121858e-01 -1.327184751643381566e-01
-6.260885967735235758e-01 -7.203566369947858039e-01 -1.143705315357140262e-01
-6.664911762577944154e-01 -6.502254700588627756e-01 -8.943394564536051583e-02
-1.281171873309413511e-01 -3.588000336783171013e-02 -3.192851301423971222e-02
-2.862967563953781880e-02 -1.664693842086749642e-01 6.040197499493283884e-01
-1.122952080773679528e-01 3.930173380910869513e-02 -5.131741344189441612e-02
-6.054902798574908207e-01 -4.679290138624760953e-01 1.251392174487288289e-01
8.371144467541671852e-02 2.197012434645823423e-02 1.200352022541758407e-01
-1.929269696399567996e-02 -2.963137451454357987e-02 2.940739735947588973e-01
2.894452906044372997e-01 -6.175906048354782296e-01 -1.984861664061728093e-01
8.092121443399863390e-01 5.463386830010651812e-02 1.812707617933443649e-01
-4.362328683162779441e-01 -1.893597461989788844e-01 1.443723491213228793e-01
-9.834853999720481743e-02 -9.985487148222885745e-01 2.995700999965552475e-02
4.794044118186580050e-01 -2.489519953213547576e-01 8.245495827927052934e-01
-4.170709692557059145e-01 8.150333618538407876e-01 -3.410811226582364242e-01
-1.750189488327165699e-01 5.622258881156336208e-02 -7.960178676662953146e-03
-1.430794699126537173e-01 -4.125128666118360599e-01 -6.493150601974163605e-01
-6.240440535457337790e-01 4.520295789671553988e-01 -1.060425901063053039e-01
9.036788656832799027e-02 2.200498662290648055e-02 1.118351456930832127e-01
-5.429083465029983790e-02 2.202729848910007227e-01 2.925734350967857944e-01
3.054828394300295180e-01 9.543538258289379073e-01 -5.068756615386171144e-02
4.468097831311425572e-01 5.294640768158583866e-01 -3.054572299512146039e-01
-1.568279134236032490e-01 4.853854905877976744e-01 3.232904819426632437e-01
-2.499371883600065847e-01 -3.064934989524258913e-01 -7.385967967209063900e-01
5.230047521716198189e-02 -9.893736088685234353e-01 5.187851756247907620e-02
6.457667605009526079e-02 5.276635848818931468e-02 1.353118128529006425e-01
-2.764956181627158949e-01 -4.506962664143136510e-01 -6.934178548098498540e-01
-6.833924598918462712e-01 -4.589606108681743568e-01 -5.604175716683326147e-01
-4.684693059416918104e-02 1.684116700576613057e-01 1.031200594655627550e-01
-1.001039483014403014e-01 4.108230302908601472e-01 -7.421993960728977546e-01
1.823710873977670288e-01 5.130904301586163285e-01 -5.510006991860516568e-01
3.388675338255315445e-02 9.787774533084245832e-01 7.282612617414664646e-02
-8.139862896991756358e-02 -1.285700117791266084e-01 4.262589514536267443e-01
6.920012154066784715e-02 1.962037595259016540e-02 6.715480839938686719e-01
1.177680851515245652e-01 9.374659925449144171e-02 1.662786956786121290e-02
-3.143421070175691622e-03 -1.083270806653011259e-01 -1.449503840189681203e-01
8.469195391582928778e-01 1.060798482532562675e-01 2.687010166565959035e-01
-4.949286389943708536e-02 7.957875679152438819e-02 -7.592696164392448432e-02
-6.663715630468401707e-02 -5.541818580514478176e-01 -5.448661500489392351e-01
3.176063820596722875e-01 -8.666431775572945861e-01 4.142323512539002883e-01
-8.565070819274692160e-02 2.144988917262463379e-01 1.716247959904745879e-01
-5.289391463590920051e-01 -3.527803304335131590e-02 4.695664442223460022e-02
-4.960674720297555268e-02 -7.078879032615940925e-02 3.429454017741861427e-01
2.806736135345295202e-01 1.400799754840539590e-01 -1.219207726609559811e-01
-1.088244468615457219e-02 2.493195043145494671e-01 4.760062627982009631e-01
-9.807529326009907164e-03 1.475418637251161846e-01 9.019809523826820274e-02
-4.496676166408712372e-01 -6.882293892585272799e-01 2.651778844372165711e-01
-1.899749495901560670e-01 1.434136796206351983e-01 3.685027371809985325e-02
-5.419022546669080564e-02 -1.129190619445157723e-01 1.832057092198649817e-01
4.480758495743337178e-01 6.574030110047510700e-01 5.792359184303009778e-01
7.722975516199219459e-02 -9.863216680155417748e-02 6.776827091774435818e-02
3.320058963550659437e-02 5.799172612323427733e-02 6.023726378217032495e-01
-1.563672961661597416e-01 -9.642088854865454861e-01 -1.529989720006976472e-01
2.213408137272672785e-02 3.487865412969324841e-01 5.425157965335392074e-01
2.401377765570553158e-01 -1.497627996244409176e-01 -2.746725773505974758e-02
6.566509959665290941e-01 6.771075712143894698e-01 3.653418880440291172e-01
5.946277039454284791e-02 -4.898553387243882035e-02 1.307452556349483763e-01
-1.246016128520035515e-01 -7.888173649985505964e-01 -4.253493268883912215e-01
6.474497390723956691e-01 -5.929682044001722829e-01 4.372022214576145038e-01
2.947271312174374880e-01 -4.575834860045288055e-01 -1.838861370949347318e-01
-1.324085084968353032e-01 -7.210399518917797179e-01 -4.866400337188165892e-01
-6.989499162201863458e-02 -5.829187371829944175e-02 -8.006861892241075307e-02
4.193316090343246483e-01 1.593628805319269870e-01 8.206550778265665480e-01
-1.758207316307263124e-01 -1.312163166264974645e-01 1.189883859427574159e-01
2.118599021747689937e-01 7.002311715408870985e-01 -4.849843748720387704e-01
2.063409829590895361e-01 2.172599661577571672e-01 -3.335072865377090578e-01
-2.436047680907766910e-01 5.646519017686576491e-01 -7.251356412887202119e-01
6.244975443829207107e-01 -2.092426698740690039e-01 7.717749684231535179e-01
2.241538566622580664e-01 4.959070923423511967e-01 6.631048317575222173e-01
-2.463016963740412846e-01 6.168628437377329243e-01 -6.968087321409216495e-01
-7.848642110238662761e-01 -2.357126016395314494e-01 -1.386289742127013447e-01
9.032528539741367657e-02 -1.483634691632895464e-01 -1.241551531402548293e-02
4.250368808067627735e-01 3.740312633670148657e-01 -2.757575631330534405e-01
-6.132777920998105925e-01 5.603397549265511923e-01 -1.701985102564585461e-01
-1.537434135773143862e-01 6.202211943187095899e-01 -6.888103244960689375e-01
-3.007702017235746039e-01 3.569675349760503824e-01 1.421226444084243978e-01
-7.429283887070660120e-01 2.851116294465575463e-01 -2.116317441011354716e-01
4.381460031498699559e-01 -3.575408100080762486e-01 -6.217998917262957531e-02
1.601377127309326909e-01 -3.410552369912508985e-01 -2.544353800816510636e-01
-8.766295022768255674e-02 -7.563093286689907824e-02 -4.163258120545434288e-02
-1.864153713281076208e-01 -8.692904806634439707e-02 5.113652196242027964e-02
8.142497869546280187e-01 -9.094445668901962598e-02 5.770293902522698470e-01
3.989030501974333287e-01 2.336751081818806697e-01 -1.886746132603424886e-01
-5.437487738143468308e-01 2.814118967783824088e-02 2.680152189436629806e-02
-5.409846082282219193e-01 -8.143241512596053333e-01 -1.276058936783668329e-01
-4.223794518650164087e-01 7.121269796040332611e-01 1.513492261005954225e-03
-8.354140866462338444e-01 2.428435239968873213e-02 -3.602646156010836931e-01
-1.156845631415275161e-01 1.405871735916851828e-01 2.288989511594789056e-02
-2.086151059112306000e-02 -7.927506349372147598e-01 -3.712910152277901776e-01
7.118526873742863081e-01 2.920319771194718750e-01 6.574340036178329995e-03
6.091447399682025088e-01 1.475002014874088330e-01 -4.242880047535876886e-02
1.128074219067451978e-01 -1.123350669885929409e-01 3.351007379870608177e-02
1.709144878184772065e-01 -5.149273879805913445e-01 -3.191871936442551294e-01
-3.036365102777646152e-01 -3.535560861013158918e-01 -7.387846835534668255e-01
-3.527593393904662200e-01 -3.199900759024862373e-02 6.398773096751921019e-02
-8.722915407979156543e-02 7.608994159021561510e-01 3.189334497011430680e-01
-7.400883051009989888e-01 1.135697392676620482e-01 -1.351451267017169666e-01
-2.582966691045205376e-01 -1.113760417554177234e-01 1.008242134435210491e-01
-5.537257179824059405e-02 -5.431971989799407874e-01 -5.407472616598913984e-01
7.740366229204315163e-02 7.342621122068892885e-03 1.293613745690629091e-01
-7.033801910273154157e-01 4.693063379233151644e-01 -4.214116655109478304e-01
-5.274178862222335118e-01 7.231055830887583857e-01 -2.831141242891558885e-01
-9.541301830528034489e-02 -1.126051181498034237e-01 3.688881257710234507e-02
-1.446059686963977464e-01 -1.743245035971116297e-01 3.172765927400018615e-01
-2.537896059477193766e-01 -6.468056228940866070e-01 -5.786094941610958609e-01
7.845618603768533816e-01 -3.417219926968408372e-01 3.938183979964876569e-01
-8.239375026369124555e-01 -1.675564631167191301e-02 -4.976871382555572709e-01
6.775206476040342984e-01 3.842708586467679654e-01 6.522412245200126524e-01
-6.777126939704866126e-01 1.110265476297473547e-01 -6.661859591830018856e-02
1.785714693448054446e-01 -4.005752854247030537e-01 7.811360398192246368e-01
-9.375783179579560978e-02 4.911242656349913416e-01 -7.232507693203935606e-01
-5.842926763403233359e-01 -6.279985902577287504e-01 1.155337464776875350e-01
3.237051866764948382e-01 3.563177675845706216e-01 -3.576516816614063177e-01
-6.697848546706451911e-01 -2.762964692773390851e-01 2.979365746206301055e-02
-1.612584678948080982e-02 -3.997740538886734168e-02 -1.734603911598792680e-01
3.214839167184222468e-01 2.748707996417393828e-01 7.788141380367890054e-01
-7.520592658932656605e-02 -1.051398836760894517e-01 -6.982715912860262657e-03
-1.313872166347298809e-01 -9.291504548212574655e-01 3.168993828021086090e-01
-2.434276625036077835e-01 -1.843511358990903293e-01 2.072587031803448943e-01
1.696090985118871020e-01 3.952909420840773347e-01 -5.458608122476513724e-01
4.720872006889338945e-01 -1.128809675076658664e-01 8.411154266729036211e-01
1.358139936089116095e-01 -2.147949852479039412e-01 -1.134803603552139162e-01
-8.259697584172803753e-01 1.842889907939046154e-02 -2.884968729451023450e-01
3.113112639161524364e-01 -3.622604340373986598e-01 -1.340194929701847837e-01
-2.763871427793134893e-03 3.352961505371363504e-01 5.055091979316853612e-01
-1.827554946060735153e-01 -9.176120059231410719e-01 -2.663630079854951149e-01
1.150935217612684691e-01 -5.747681807024310752e-01 7.127386845686509709e-01
1.012492486124914187e-01 9.350077158596678539e-02 3.623294605410408431e-02
-9.066455480652439725e-02 -1.086273257433219286e-01 2.057848001277147107e-02
-8.261539934906997340e-01 7.541048381795402433e-02 -4.492343107318491624e-01
2.464995571003970598e-01 5.016222140871638979e-01 -4.941384502352172969e-01
5.919952244780176676e-01 -3.673134707388581166e-01 7.404093631587742586e-01
-2.467292705973721245e-02 -7.969461226656340824e-02 5.495202030959143169e-01
4.649608616373360204e-01 -2.881656183715195496e-01 8.197949052856222663e-01
-3.574855612388929127e-01 4.415093172919143938e-01 1.317701205946143206e-01
8.834894000175338991e-02 -3.809626810251018902e-01 -3.933503080356947623e-01
2.680339117281799743e-01 -1.144342074378673080e-01 -1.700207366969333847e-02
2.836646736549750525e-01 7.195390500256024779e-01 -4.191580084895834557e-01
-5.863063051558702332e-01 6.478848629171893858e-01 -3.969690033404662532e-01
-8.147635549861452775e-01 8.472948567280669252e-02 -2.799863968276850579e-01
-4.690726540608564088e-01 3.767130616722447201e-01 4.989659481970494526e-02
-4.740617538618995819e-01 -3.345045240753466431e-01 2.125831703938526884e-01
-5.580965177038869074e-01 -7.711164597884599958e-01 -3.003784374168604887e-01
-7.720577018050691631e-01 -4.736058744757833949e-01 -3.078574259395778778e-01
-1.906475393993899703e-01 1.769101405791839166e-01 -7.938041076404639407e-01
7.361623386170577099e-01 -4.342249178858037517e-01 4.796673235934214574e-01
6.599714585463059002e-01 -3.077199829708236051e-02 7.697141837696435118e-01
5.422922527581875984e-01 -6.986426538069765435e-01 1.719920048537698642e-01
6.047393228597413017e-01 5.303115828194921999e-01 6.106348779887044165e-01
-1.480275041082557141e-01 4.643949504237313564e-01 3.282782846795637144e-01
-4.203123599169415470e-01 7.443932400917343539e-01 -5.112339930157007162e-01
-2.715647627843169043e-01 -3.699855850475505248e-01 -7.244862754198814203e-01
7.709174839222524556e-01 5.145500085048648753e-01 2.133762531347062064e-01
1.051894265738266554e-01 -2.054753279507142982e-01 -1.300781915422592472e-01
3.838942957269237954e-01 -5.967789991172525177e-01 7.091094224195667595e-01
8.368493782376751344e-01 -1.592911332263610147e-01 4.218741465689434533e-01
-2.525922142515323390e-02 1.606844002413136685e-01 1.384389210852745022e-01
-6.574023903254445633e-01 -6.790791935179156802e-01 -2.719626008013295571e-01
-6.681340049371709000e-01 3.512498523907556236e-01 -1.208576826834140694e-01
6.289184194616422863e-01 -4.107200918209918949e-01 8.445099177250252331e-02
1.388659289315367397e-02 7.984048897900940245e-02 -6.009067810558726963e-01
-6.332630105653056299e-03 -1.040435768507057962e-02 -1.909379320943952185e-01
-5.300198066254334650e-01 5.539987339034030400e-01 -3.381139989010629315e-02
-4.309947815684775363e-01 6.741831318102905479e-01 2.056706487858708451e-02
1.249543831301097169e-01 9.817301958246935634e-01 9.466876442224624044e-02
6.453005379924584561e-01 3.271990331021000786e-01 -7.076924720504852717e-02
1.944222653470904436e-02 -5.897668779241284354e-02 6.265922213100387772e-01
-1.219539615143076274e-02 -1.245751153807221068e-01 5.969239562840621821e-02
-3.248634767006467472e-01 -3.579937929085077325e-02 6.159022437357597468e-02
6.038649037609030712e-01 4.905290642854491789e-01 -1.359253896509343973e-01
4.751217695004830710e-01 1.514181619249987121e-01 -1.011439639232174781e-01
-7.397563820528012535e-01 -5.486286533553982325e-01 -2.309460504177787699e-01
2.092305135363438373e-01 1.013287497681512189e-01 -5.750177434095420786e-02
-7.903980602982404458e-01 -3.775710407134636459e-01 -4.225284295022014303e-01
3.129516065438914252e-01 -4.349218666227666064e-01 -1.621134700730176292e-01
1.710393627811360520e-02 1.996590389808241758e-02 -2.225501355790407976e-01
-8.113935799936234927e-01 -2.201210670501293210e-01 -2.050734005001225435e-01
-1.760573169362895929e-01 2.240781623518373900e-01 1.088952731045507022e-01
-7.649800671014193032e-01 -4.838612934052207715e-01 -2.171953544500779543e-01
-3.358867142667448791e-01 3.637231203313462391e-01 1.245100719917242305e-01
7.065385555743690371e-02 1.125011089567184014e-01 3.191868162093044331e-02
-3.241431045073945305e-01 -9.473099969646969765e-01 -7.075227656362821638e-02
3.099812993393831762e-01 -5.747781737050986495e-01 -1.842408313823742649e-01
2.066235544309056038e-01 -8.039560333419799587e-01 5.634909544903570211e-01
3.062510879957620613e-01 2.611735797785355584e-01 -2.803003501452492885e-01
-2.197094015485357155e-01 6.874714724149835199e-01 2.399362248575412082e-01
-3.908046744566506803e-01 -7.755446077781232017e-02 8.581402705602154957e-02
8.540714399678359103e-02 -3.692289993612883348e-01 7.455858406970818919e-01
-7.149887866732418384e-02 7.365660572011863139e-02 -7.063370594515487877e-01
-1.137152460250627911e-01 3.853715276239600973e-01 3.408855744189005499e-01
-3.133185732729514283e-01 8.864759865975688768e-01 -1.372696040700489006e-01
-3.060399369076494472e-02 5.451963689651392331e-01 -6.827938322800956028e-01
-1.226569623667444348e-02 -2.335357800619780599e-02 -1.818242494298197842e-01
3.021771378270555197e-01 -6.636668622027106501e-01 6.796996532432086902e-01
1.654374556843245248e-01 6.833014903949198304e-01 5.333238679096464763e-01
2.106894296799840249e-01 6.442229399462320871e-02 -1.742525510182076770e-02
-3.971725316490112151e-02 1.993631629087963819e-01 3.196235894088038099e-01
-2.875215072875767497e-01 7.318414344760375556e-01 1.480515803452125134e-01
-1.264764021187397558e-01 2.611875605881073745e-02 -7.429792530879902879e-01
-1.333748142990800745e-01 8.173455922210696167e-01 2.322485280161795951e-01
4.000735216607771427e-01 -3.502894787699258328e-01 -8.067305319583106815e-02
3.312859382294396082e-02 4.907368989442968954e-01 5.350199407193897416e-01
-1.262405611326197774e-02 -9.685324094644739423e-01 -9.986202157813967029e-02
5.105543543947261426e-02 1.237313544264752596e-01 -4.700605197547381455e-05
2.507520480784398709e-01 1.429802681794696828e-01 -1.282770721567968175e-01
-3.187166382996705627e-01 -3.193851720129587957e-01 3.253758018382150174e-01
-3.466174563162295885e-01 -4.068367578309480814e-01 3.608573144174802572e-01
1.399131810613851445e-01 7.006382529559439243e-02 2.808125392003585352e-02
4.610652399900511123e-01 1.248046190980691000e-01 8.257133609912729044e-01
1.869566990708589893e-01 5.850577687256692805e-01 6.028307273685323819e-01
6.613637691943312358e-02 9.135086015198361498e-01 -3.681171784283878146e-01
-3.324619280828833984e-02 -3.348496363550077654e-02 3.596060190184078853e-01
-4.079665092515957076e-02 9.854754192016622616e-01 -1.695781042330655464e-01
5.009998035196678856e-01 1.244122911647529833e-01 -7.965098866838841996e-02
1.284904682009516408e-01 -3.884983465104163702e-01 -3.344693346378570520e-01
2.110306432454134296e-01 9.409487073390752077e-01 2.252145420418204813e-01
-1.186523769754872781e-01 -9.998048681492180401e-02 -7.112784556876290409e-01
-1.659632340277356621e-01 9.314799541395729632e-01 1.518632845088140754e-02
-2.667951201070970502e-01 -2.138313866964031140e-01 -7.705641289380372738e-01
-1.887141693808176146e-01 -8.224599109969938926e-01 4.195769386606361673e-01
-1.795546973504223986e-01 -9.629051480857939715e-01 -1.543769772550288299e-01
-6.227467284457597341e-01 4.878124686390534204e-01 -5.956655819622109771e-01
3.730092859975729647e-02 6.682226909834397544e-02 1.757105547336590412e-01
7.229230573626906943e-03 4.419695233675785540e-01 -6.827612535742064725e-01
8.540636648537809350e-01 2.234818458988299950e-01 3.630265931529718659e-01
4.484963314195090922e-02 -5.006800774007525989e-01 7.072592156315828937e-01
5.076099085027819396e-02 3.364360515495587456e-02 -3.137600297534228755e-01
-2.721782880088116086e-01 4.046545864341238863e-01 -7.862672438674569442e-01
-8.003827890927753819e-01 1.920955882159546269e-01 -4.762157526530086948e-01
-2.096635405157366017e-01 -1.788642470217068070e-01 2.187383542287431870e-01
3.224872474030498343e-02 1.183619419527516675e-01 1.033885768751786616e-01
3.927581654695890823e-01 1.141500169726671621e-01 -9.360980129412586892e-02
6.570660988504855027e-01 -9.567068613601860047e-03 2.949343205401882412e-02
-4.362281103653722347e-01 6.230429041891794029e-01 -6.411548250590438647e-01
-1.738682895600868750e-01 -7.203391161681973465e-01 5.038735508845605393e-01
-1.936299654797251149e-02 -4.074637391102142042e-02 2.771069308603595904e-01
-4.477798512016872845e-01 -6.800885716371838363e-01 -5.376657727264873010e-01
3.572995881364937620e-01 -3.537674413247582361e-01 -1.041116507885473247e-01
-1.221517396826971164e-01 -9.908227492906996892e-01 -4.123597456227696967e-02
-9.476180073737673626e-02 -9.974213880013160782e-01 1.063948066591455660e-01
-4.690213239484015140e-01 -8.693085661896735594e-01 -1.353556965432423931e-01
-9.465708517845100589e-02 -8.694551605187267329e-01 -3.232815130754460586e-01
-4.075736857526079254e-02 -5.344861630489566862e-01 -5.323395438019841164e-01
-3.280408078370575242e-02 1.737346589190165991e-01 2.484135526895263624e-01
-7.097790976864691570e-02 -1.068343081631645264e-01 2.945295490606048006e-01
4.168135882915984247e-01 2.525376722100252103e-01 -1.951912824974293137e-01
-7.473890032496234292e-01 -5.220259895155621166e-01 -1.926465717775876774e-01
-5.835236692971528250e-01 1.454891925488030306e-02 1.359273307599715742e-02
3.966364837002938487e-02 -1.486753069890554280e-01 -3.672393132721077369e-01
-1.825905483997065926e-01 -4.702474245808871967e-01 5.452177921637232361e-01
-7.391816333986552801e-01 -2.205835034208659673e-01 -6.186089241868245048e-02
-1.086477920639743050e-01 -2.824158489954680107e-01 5.563318735373251611e-01
-4.698185095599540229e-01 -6.791099331621172630e-02 -8.151806363773931308e-01
3.459149530041196741e-01 1.314872510947872053e-01 -1.097333540240499894e-01
1.722987911038646180e-01 -2.136389361617180016e-01 -8.892553598113756008e-02
5.498191090212178889e-01 6.402637933389869751e-01 5.491993630674932847e-01
7.030631831993487679e-02 4.164263801833214540e-01 -6.393749471379919225e-01
-3.984162756538533502e-03 1.832809685330735183e-01 4.803002907566364943e-01
7.233428964586935406e-01 -3.715842325031046833e-01 5.950073680882422833e-01
4.651911609340669135e-02 2.070432405986034896e-01 5.915710256023160030e-01
3.683113354280054957e-02 -1.227862636758428189e-01 -3.473343386151853673e-01
3.164832057427234835e-01 1.328958350210271769e-02 -3.188815222196413751e-02
1.699408061705925677e-01 1.258529099182354449e-01 -9.371569365297130472e-02
-1.442378399972730693e-02 1.064855661437941747e-01 3.581939715958940562e-01
-7.864064728576838359e-01 1.160777294096247969e-01 -5.683704141980602254e-01
-3.024526449613509915e-01 -1.707272456946969386e-01 1.663305769734668149e-01
4.377022740573895815e-02 -1.609657839320429440e-01 -2.018482294960382839e-01
4.620326855722112214e-03 -1.792998877027901783e-01 -5.201527060184465423e-01
3.022497789375856447e-01 -2.291182397269627136e-01 -6.785660909035595711e-02
1.302085907171745237e-02 5.061736521701087205e-02 -1.828082718568103393e-01
7.249489698313864583e-01 4.646008639558680264e-01 3.395937219233881310e-02
1.805888796389985007e-01 -3.481246519645710968e-01 -2.341791158171799281e-01
8.263566138843690956e-01 1.319740706749849279e-01 5.558286061845688630e-01
-6.663679862063809356e-01 4.563756352476047162e-01 -1.790681054804574845e-01
-1.416970933419284262e-01 -1.066390834545671573e-01 5.588537214037936351e-02
-2.369483753385138169e-01 7.204498284819040865e-01 -6.226215915542506751e-01
-7.572502584329219300e-01 -5.018992366181082021e-01 -2.080081522372759228e-01
-6.140077470508401719e-02 -9.535865502165886964e-02 2.994433716492636566e-01
9.570257855111592715e-02 1.242673541896405220e-01 -4.354175016320573910e-01
-6.205578735500979354e-03 -4.966806381111570773e-02 -1.917150256095038197e-01
5.692102158601624051e-01 -6.817357986496209721e-01 4.472659381705190174e-01
-6.191100081781253373e-01 -7.349173728275083528e-01 -1.833119444026753142e-01
6.952398069025546024e-01 -1.351892216801224844e-01 8.409883278305224641e-02
1.138721963358159811e-01 8.547340808789586353e-01 3.543959165091652430e-01
-2.805915857515110523e-01 -5.606394732894951494e-01 -6.387261476027873419e-01
5.804372666906824074e-01 -5.845246153655130339e-01 1.079119265606387212e-01
-1.973323022675866067e-01 7.255034680626196164e-02 6.104751056685370214e-03
-4.956172025190925257e-01 -5.465813356954161151e-01 -6.312804285768831569e-01
6.760223593526396568e-01 6.873325782322585731e-01 2.111960233728837899e-01
-5.073456777216498251e-03 1.271903296170928677e-01 2.260262257778785089e-01
-1.428775555990295099e-01 -2.654995886773392488e-01 4.928549448232023567e-01
-1.468295158447552873e-01 1.620861919542485041e-01 4.870820590427441671e-02
1.421032933436561577e-02 -6.674580799632275907e-01 -4.342801489230766476e-01
-3.358734095968912703e-01 1.066490113785580063e-01 -8.291358436656643960e-01
3.258030389704540952e-01 -7.451696291337369660e-01 -1.055348953754737945e-01
1.402808165798534179e-01 -4.126479161984406563e-01 -3.292325729069692786e-01
2.408846497114378732e-02 -8.425946352390334404e-02 1.328778806005854740e-01
3.919494438590573337e-01 3.667732047680997143e-01 -3.003040230629179796e-01
4.646513002598797737e-01 8.659823355360994901e-01 2.435328242500489349e-01
-7.332510175738871094e-01 3.706342191834261501e-01 -5.057740445818365016e-01
-5.594902786921114764e-03 -2.562472129424930162e-02 -1.951327970619922136e-01
7.849600530272050902e-02 -5.201431077147948834e-01 -4.211141783072991363e-01
-9.238285910113912258e-02 -2.187307549868324624e-02 -7.123290018304814786e-02
3.760895334475161667e-01 1.478574098254791802e-01 -1.205920640557601453e-01
5.292052442428971659e-01 -6.297853169409626251e-01 6.558818991642202667e-02
-3.487895290238330337e-01 -1.006731885542478354e-02 -8.246906253099098860e-01
9.877155566816703258e-02 8.283428780919663281e-02 5.695052761304281869e-02
1.207610154423232121e-02 5.313391893578962161e-02 5.565421641888147475e-01
-1.649833436638045436e-01 -1.146332692845742351e-01 8.220933508060114525e-02
1.377528873740392068e-01 -2.818260260999623235e-01 -2.214064744622858127e-01
2.041752076303914032e-01 1.911111892744393193e-01 -2.738363568391745662e-01
7.995879012098079386e-01 -2.899602571544817597e-01 3.558504626264420434e-01
-3.143700042497915570e-01 -9.421420658374808355e-01 7.523166788176018083e-02
8.432323283787528378e-01 2.892609702417110462e-01 3.780897595477841211e-01
4.753454782576922028e-02 -7.726792809038521836e-01 -3.430548212630388227e-01
-7.727983757905787510e-02 1.584853947459011203e-01 5.059497819159323312e-02
8.271993308096210473e-01 -1.999501057227284218e-01 4.345885580506912982e-01
-8.076130849474890683e-01 -2.025912222311847602e-02 -5.468752680615495132e-01
-2.633625421700458435e-01 -4.216574457936780318e-01 -7.020757384040798854e-01
8.738756197749453225e-02 -6.368645775082723004e-01 6.769767479335071503e-01
-1.990132401932941386e-01 9.350678860369813217e-01 -2.790502557112455317e-01
-2.156764873075346367e-01 -1.848104730265505147e-01 2.272179363110169992e-01
4.328890587598507311e-01 3.848080716113068400e-02 -5.358855606452371523e-02
5.863519346414549638e-01 -3.669967048715969682e-01 3.419055388936400458e-02
-7.423567391550738026e-02 -1.286167225288174787e-01 4.587399685542882799e-01
9.865450263875984172e-02 5.524859215612861613e-02 8.615968298619458565e-02
-4.631180930144774832e-01 7.309186624996788506e-02 -8.243500271562558268e-01
7.241022580169549361e-01 -3.456316634342638805e-01 1.860829070042460953e-01
-5.875107943156529511e-03 -6.023747053425140829e-02 -1.886545733888470855e-01
-4.900903957541995204e-02 -7.031448470301862597e-02 3.398888494396290483e-01
-3.155198166676322913e-01 -8.038095237639956633e-03 4.983980857730883202e-02
-5.784636731751358063e-01 5.918212557117620287e-01 -5.386603784231924763e-01
-2.356807051201028902e-01 6.146851607543821726e-03 2.101762092269900128e-02
-1.605790255700827729e-01 -3.912093538588406472e-01 -6.673844198225309388e-01
-1.436474453952990837e-01 8.954766846876409392e-02 -1.054283012251383024e-02
-1.414706277362756115e-01 -9.397281744164409645e-01 2.892289330233897005e-01
-8.896139434127690870e-02 -3.372292162918297809e-01 6.049010047829825876e-01
-7.994789063494482928e-01 5.589559433146950446e-02 -2.209106481927932131e-01
2.107961989965297100e-01 -3.013915806653079676e-01 -1.610318628648394756e-01
4.519877030075150973e-03 -1.783052118399848160e-02 2.400207253304453003e-01
1.489974021833506690e-01 1.668620121494371611e-01 -3.397216820133246440e-01
1.050905754821629401e-01 4.591104794768388619e-01 -6.133450583890711627e-01
-2.591931033503163673e-01 9.095852225024473325e-01 -2.990202023486000504e-01
-2.640218230633534779e-01 -1.385303779236847777e-01 1.325310980660195648e-01
-3.947585809186690553e-02 9.840037165396912089e-01 -1.825953137028589190e-01
4.221706378433615625e-01 -8.209844641655558162e-01 1.499524511691733286e-01
7.480615068700262604e-01 -2.967935653521687200e-01 2.017073655597538817e-01
7.441370713610160337e-01 1.195332701697196104e-01 7.463401435188676825e-02
-3.327812307429746652e-01 -9.273075539506243636e-01 -1.800075586361840063e-01
-4.630773990177081689e-01 2.963679938198599539e-01 4.673191395721344732e-02
-3.602440831123200904e-01 7.224481709916444894e-01 7.275275726431836010e-02
-7.968647486458085849e-02 2.758047634881962903e-02 -8.245625272385971594e-02
5.669742999535917760e-02 6.775290492469900894e-01 -5.907996020312730190e-01
8.175722943617550476e-01 -1.970431236922083884e-01 3.122825508219186363e-01
-8.623136593295954722e-02 -3.706883343308727680e-02 -6.951528292956131727e-01
-2.205941473315770340e-01 -2.248172356715392450e-01 3.056608970315623508e-01
-3.053167848591865075e-01 8.097182605794381871e-01 -4.986367994900950951e-01
6.034949913973040037e-01 -5.163490371417298608e-01 6.354668473602141932e-01
-1.506552003615515556e-01 3.506587821019894746e-01 2.652698388825477926e-01
6.700784696293414777e-01 -4.092909616388777372e-01 1.351002977671168503e-01
4.427460897657123917e-01 -8.816611560879501763e-02 8.453279934859465605e-01
-9.625688321870425057e-02 -1.221015291339204584e-01 7.434158461192059975e-02
8.539774893603484240e-02 -8.600152319015577640e-02 7.589734080945839678e-02
3.413345836017672719e-01 4.682237691228976484e-01 7.087033677407446053e-01
-5.878179662450587761e-01 -7.632429874819172122e-01 -2.307540927459741653e-01
3.474645704192201312e-01 -3.534580246379290802e-01 8.175467926090073112e-01
-4.469525864887059496e-01 2.877077982213717133e-01 5.298065417900738039e-02
-1.546879901098448529e-01 -1.040227054453205791e-01 5.836685179386628258e-02
-1.737999936023888192e-01 -5.983111999632990952e-02 1.793947700346635102e-02
5.738578912372168661e-01 -5.841305489958517061e-01 9.743941164108020636e-02
-1.291034972649001411e-01 6.518053769091946004e-01 -6.672991295311468951e-01
-6.949524140257513638e-01 -7.741993332254860916e-02 -3.955523159955647711e-02
1.459306874397050570e-02 1.808846679384017164e-01 5.318598626681478869e-01
2.653598433709574156e-01 -2.899427456353438903e-01 -1.174632033971611672e-01
8.177070702242127398e-01 2.697074878661663844e-01 1.867525139637298548e-01
-6.033649261549222098e-01 5.238703753490501214e-01 -1.182596164344061063e-01
1.042450439660429565e-02 5.253102733198974361e-01 -6.680215892037719705e-01
-8.807725862220555646e-02 -2.562712527571022192e-01 5.687525659018708435e-01
-9.472770366096483138e-03 1.670408375501550025e-01 4.567024127942990175e-01
-4.483580161724947666e-01 7.692490069906767758e-01 -1.250199755403902102e-01
7.906161865972347047e-02 -1.985594773033217686e-01 -1.718150870440288414e-01
5.873620513070468840e-01 7.640123741005572233e-01 3.097399220883845228e-01
-3.687818463678692593e-01 -9.286827608982796134e-01 -6.671648289364470741e-02
-1.601328421451983786e-01 -7.406975780681858412e-02 2.184212304170437408e-02
-5.681231026219843994e-01 -5.687243483794073295e-01 -5.763128432472640617e-01
-7.891290846777077039e-01 -4.010987860069242239e-01 -3.912739537293837278e-01
2.424509073805334036e-01 -8.298174157462552269e-01 5.240516239364277906e-01
-8.117371149696555044e-01 -3.460714472106168338e-01 -3.335533603285318338e-01
3.905107060329835456e-01 1.684627681152447640e-02 8.412103413949955089e-01
-2.279905535857298104e-01 1.553532673420660593e-01 4.828718153983502931e-02
-3.319113131215963297e-01 -8.585005808257631932e-01 2.494664247934782197e-01
8.554110960070402392e-01 -4.153799760719337208e-02 4.002817322042432346e-01
5.494877189467090028e-02 1.204674384202876758e-01 2.549278891332977179e-02
-6.660645879825692617e-02 1.328934761993404434e-01 4.508421846434439335e-03
7.498212828421633169e-01 3.852224850491710595e-01 5.690439049391747828e-01
3.178268154222387842e-01 -4.021829891134447443e-01 -1.468497136485782673e-01
2.874949905593090493e-01 2.064980062959887452e-01 -2.179096371273493982e-01
2.462579943387701864e-01 3.188732632717004578e-01 -4.133224075690292709e-01
3.711161037093716475e-01 -1.296340504897489088e-02 8.423076093044339352e-01
7.329620675651231654e-01 4.328045818651480858e-01 3.965241620228823066e-02
-6.352708747975421844e-01 -9.643385004282511996e-02 -7.486453244644775129e-01
-1.739774547682196304e-02 2.870446243304018430e-01 4.712048613486016779e-01
-2.785418750214186875e-02 4.541143174648403780e-01 4.744961403379479026e-01
5.717150995428348786e-02 -2.155913901717679548e-01 -3.522470604201210498e-01
-5.611638847163096244e-01 -8.589856235559055475e-02 -7.877731464463362254e-01
-8.396862214494028587e-01 -3.911110458827098818e-02 -3.530534375270697467e-01
-5.415617534177295106e-02 -1.080181387731140308e-01 4.951050987648974444e-01
2.118137041615046345e-01 8.151085331889256214e-01 -4.069519605459162026e-01
-8.016598535785200985e-01 -3.682956516580229711e-01 -2.457783052131944646e-01
8.620606989026630140e-01 8.289296346378872971e-02 4.011321814807522479e-01
-1.313580743680740556e-02 5.807462408824141248e-02 4.436749884613735984e-01
4.106421141642939698e-01 4.564064457069400005e-01 7.186007317184759380e-01
1.937739950497892882e-01 -2.554707604428144152e-01 -1.264760846754027779e-01
-5.498397457060653221e-02 4.978341700835050426e-02 -9.588245103684668591e-02
-8.143943309952515752e-03 1.215704405651890085e-01 -3.334698538870611156e-02
-2.433008559946408522e-01 -4.802035267790905615e-01 -6.704687258355587209e-01
6.523354425597730488e-01 -3.745256123162243322e-01 6.874319831178810070e-01
8.650704268314156342e-02 -2.743679573616827211e-02 1.127915933232288420e-01
6.598016579353184197e-01 -2.519275491595100724e-02 7.698766703559889457e-01
-2.612075281881579003e-01 1.196122722058196898e-02 2.970521507225431720e-02
-2.018616206621767079e-02 1.704775852141278969e-01 4.039383025322882403e-01
3.974523112653094992e-01 -1.510353035378765307e-01 8.456473616823072526e-01
-7.097257385812161257e-02 -1.593018751202871230e-01 -6.491298750313735377e-01
-1.424844656416433472e-02 1.318143035155362186e-01 2.793512058604511461e-01
3.161656019792598027e-01 -1.323118485909436370e-01 -2.902009355399090551e-02
1.466080153924693985e-02 1.080940407584311397e-01 -6.134996664951717360e-01
7.403206903651433635e-01 -4.411387238046475257e-01 3.494057098852809129e-01
-2.202748885239868837e-01 -9.546102305809384125e-01 -1.699703482560908641e-01
-3.297621926849387819e-01 7.532832799993897099e-01 8.426769511418519265e-02
-1.468812166777246075e-01 2.302459850824267462e-01 1.316011216676357121e-01
-5.424971152079924863e-01 -2.979862845617394229e-01 1.453485835596793896e-01
3.877164155135418705e-02 -2.609108068554716331e-01 -4.456469381700843280e-01
8.424034838638559675e-02 -2.267392783781592147e-01 -2.475753519530546898e-01
-3.479659826040381043e-01 8.378580836809874643e-01 -5.883340162976202770e-02
-5.446458806146983189e-01 3.742079698201307703e-01 -2.918330740744815108e-03
3.463143334764683390e-01 5.902985954865704044e-02 -5.819181651849425485e-02
1.626794562670657862e-01 9.718144973509482698e-01 1.354916995443898042e-01
-8.270398268666179220e-01 -2.724895853117452124e-02 -2.741188876670436203e-01
-2.099130169036856064e-01 -6.588565496720814041e-01 -5.594415595152927301e-01
-8.206618383738845113e-03 1.203260330677914103e-01 2.630694578197831368e-01
2.930255735763771519e-01 6.378246129280987775e-01 -4.430305092454867033e-01
6.160476805826314850e-01 7.593145250718417172e-01 1.769130014469776635e-01
-4.842328473246790277e-01 -1.767337559261562829e-01 1.190347720114798974e-01
-8.245121332408098525e-01 5.888615672692854019e-02 -4.712417400853026184e-01
-1.230340562722451597e-01 -6.931398847862185741e-01 5.512609142415808572e-01
7.712294323708732136e-02 -2.787715545821911611e-02 1.226802200765834405e-01
-2.830692375646416958e-01 4.787425819462758914e-01 1.978304232675028584e-01
-1.981053265713609429e-02 -1.206158237254691817e-01 -6.293190813199706080e-02
3.160393229741393917e-01 -3.188112210417190506e-01 -1.101111505030462068e-01
2.226715922662344804e-01 1.678147860648544487e-01 7.686479418906764227e-01
7.726521262280154900e-01 4.814019794376624972e-01 1.644490762312742493e-01
3.017085993658320531e-01 -5.664097255022004784e-01 -1.923175611460042067e-01
4.038054948079747297e-01 -8.496874853966416286e-01 2.888630110149634223e-01
3.442806514309434962e-02 3.084285446452483814e-02 -5.230164757736345260e-01
7.461771296881569704e-01 4.460068508879427157e-02 9.312868002131102774e-02
-4.796159613896583407e-01 6.866347653845483734e-01 -5.915426793243631215e-02
-5.153543645779726234e-02 -3.603407147491964890e-01 6.471903429740012426e-01
3.709265684795580165e-01 6.372597616140260879e-01 6.076213287561625931e-01
-1.416035116679490021e-03 -1.290104787463968727e-01 -8.605257232974507231e-02
6.730086420800482916e-01 6.834572354727881383e-01 1.411511124538905315e-01
5.350695332632902090e-01 6.828021038827364331e-01 -1.689941333607227758e-01
-6.327046423920197615e-02 -1.172711744611345253e-01 1.727014190187587533e-02
-1.430895276392062446e-02 1.310910921652989614e-01 4.141624474465126493e-01
8.963396434208799335e-03 -3.770237902785829043e-01 -5.116114618940670322e-01
-1.449064647773629644e-01 -3.469866546291859866e-01 5.462265289451637695e-01
7.907648483310363019e-02 -5.043853306139051140e-01 7.221198501324984642e-01
-7.172242285911324677e-02 1.943071174305099347e-01 1.438061254996015614e-01
2.252562429521741127e-01 2.316357696234397617e-03 6.961263994042564927e-03
-9.952078245098749942e-02 3.633811706917922102e-01 -7.477297480935816143e-01
2.569006018468557584e-01 1.392966165262869427e-01 -1.220217414574342879e-01
-7.169565523703804732e-01 3.774246181714156489e-01 -5.417076733097988539e-01
5.842652394107786806e-01 -3.612648861679506607e-01 3.173654625053077410e-02
1.941130332128152836e-01 9.816025204073964838e-01 -1.008728062602746028e-01
6.033984283606450005e-02 8.145899835388777099e-02 1.171429444698650346e-01
2.364262172141313734e-01 -2.229712712357550808e-01 -7.770288579371470439e-02
-5.104679996621599436e-01 -3.602621223729404187e-01 -7.295159375646430577e-01
-7.393877282312631971e-01 3.993278342196031061e-01 -3.640866339266445872e-01
1.014563069206837059e-02 -6.948578207283375718e-01 -4.223788142521900379e-01
-3.370721440838179983e-02 -5.225797120279278563e-01 -5.303837800699524596e-01
8.149184040069638035e-01 4.083536079468103597e-01 3.331670963966559262e-01
5.200025243175144390e-02 1.084947257444282415e-01 -1.278718680209250946e-01
1.893408018700088458e-01 -3.007697973569539718e-01 -1.794388542734531855e-01
-5.998024102385921541e-01 -3.563182135879418566e-01 1.164937295747722618e-01
7.912996569483776721e-01 1.294421268547213122e-01 1.365329089983492450e-01
5.204490280233931010e-01 -7.328033097723986034e-01 1.875523284028119964e-01
3.416018331911179762e-01 3.494891035915456134e-01 -3.347488278743361856e-01
1.057026991119526943e-01 8.037984645417831642e-01 4.077257259983487203e-01
5.201115727588128124e-01 4.385430917041936993e-01 -2.172592512849611801e-01
-6.618195853516911642e-01 4.915230820759214914e-01 -2.034562178239366914e-01
-7.495589758042595641e-01 -1.486125456851953852e-01 -6.342300890102520183e-01
1.734711105411621268e-01 3.428419190988684501e-02 2.755043779892836844e-02
5.784046925115985394e-01 2.152519872245117483e-01 -8.600533383600099391e-02
1.166778989328960403e-01 1.883715352971541968e-01 -4.817792598569361484e-01
-6.585725910419143458e-01 -6.707400883594673013e-01 -1.072675684915882915e-01
1.497240344148834945e-01 -1.050432840447149546e-01 2.420467132078876760e-02
2.061146179322871641e-01 3.752683344039892677e-01 -4.991042431731332329e-01
-1.101165639746061117e-02 6.036601032527110222e-01 -6.544237511316824962e-01
-7.999546778254225110e-01 -2.503589740482484727e-01 -5.065604117135580342e-01
4.037801953592087267e-01 5.174222556766560066e-01 -3.466468606350933679e-01
-7.151382424555180473e-01 -3.745321315261503914e-01 -2.000639672840874572e-02
1.932498395072230687e-02 -1.253613313504584048e-01 -1.879636819854473562e-01
-5.566863479662595426e-02 9.305080130414730699e-02 -5.650150274270873685e-02
-2.809509154115346630e-01 -4.221773501079751356e-01 4.337117266417055417e-01
-7.114502496332861803e-01 -5.586856142474234677e-01 -3.965149328991104949e-01
5.372324734303327021e-02 -2.128969243859984983e-01 -3.650904809397708672e-01
-3.921170431308328846e-02 -1.476517695861946991e-02 -1.371621939558484438e-01
-6.440551249477105555e-01 4.118318109852610598e-01 -6.324378412547025929e-01
-5.854221838147004586e-01 -9.924897837829264879e-02 4.306902451937646287e-02
1.961243529206845027e-01 -9.560126659074406064e-01 1.297288812831625116e-01
6.690844761777681171e-02 1.221577473377879614e-01 -3.610266298748824459e-02
1.470059052436514802e-01 9.347424132367815330e-02 -9.814670393838275525e-03
1.469900014316349313e-01 -1.006043314213985879e-01 2.860783857655578577e-02
-9.199043125607803519e-04 -6.084956902326969091e-02 -2.002524550802769199e-01
-6.883649809108989548e-02 8.425383113627019638e-01 2.601961727423295345e-01
-2.863131863628642360e-01 -2.138452310516535948e-01 2.286122288072851838e-01
-7.686208721035284186e-02 2.801273581281140679e-01 3.218336592777286675e-01
3.081951745322563871e-02 -5.063787535868415068e-02 -3.134723636339843966e-01
1.721369626964111832e-01 -8.934938098467453127e-01 4.413601590951516385e-01
-9.712591540199030926e-03 1.328069554204537039e-01 2.225254889680740398e-03
-4.710125010998542083e-01 -3.767852791724064510e-01 -7.321429593202862796e-01
4.301392650434919529e-02 -1.552238660238438317e-01 -2.601743505517004063e-01
2.526390339347647229e-01 -4.104333014527994372e-01 7.963274325895330907e-01
-6.552074632218766181e-01 -5.243455731596303737e-01 -5.369668429203042770e-01
-2.692556677719887825e-01 -1.114852149977093726e-01 1.024926733777589832e-01
-2.781932745067401333e-02 -5.224865587482238061e-01 -5.253767055125871943e-01
-6.172941985671990400e-02 -1.139634765620316376e-01 2.010921920091442716e-01
-1.507640364804899713e-01 3.812096812202717122e-01 2.875349701952870651e-01
-3.664931755278985626e-02 7.094031326717880059e-01 -6.098875470300668677e-01
-1.405166294717825545e-02 7.653359683661827007e-02 3.862819729625784904e-01
1.587332597400290257e-01 -5.712086532952266316e-01 -3.324236526932260460e-01
5.015788716938456293e-01 3.753565896525479229e-01 -2.120324176534579275e-01
-3.971941400505396014e-01 -3.274994995126732644e-01 2.661401222533679167e-01
-8.114016876459043126e-02 -1.269582009373615983e-01 1.551877376743280301e-01
1.000022283284398954e-02 -6.140890622500109336e-02 1.841220383318794007e-01
3.630922897672224647e-01 4.537380867417968311e-01 -3.707945239140531535e-01
-1.249757453808446050e-01 4.552652191293993234e-02 -4.034925402958589036e-02
1.049765828248374888e-01 9.687547846359704229e-01 -2.300831850137965151e-01
-6.267846105392478329e-01 -4.067119134782538614e-01 9.700687733431406778e-02
1.462699041624347940e-01 1.468245942735040277e-01 -2.298509520562555808e-01
-6.351022191105789583e-01 1.418808770188310399e-02 -1.457434903950663961e-02
3.390958990743937057e-02 -1.119904732142755766e-01 -4.000813882622367701e-01
1.493316686122347081e-01 -9.708878106229525962e-01 1.950427661932844781e-01
1.160763816774451340e-01 1.559606650432356079e-01 -4.308303478297499933e-01
7.917139712238185911e-02 8.195149811204520407e-02 -3.870036425295872440e-01
2.107871238647368931e-02 1.937501323050558610e-01 -6.401947752949185277e-01
2.287796270178034386e-02 2.665108481709020649e-02 -2.295730030294407531e-01
2.964501827796673858e-02 -1.035574704478815361e-01 -2.857687361436507811e-01
-3.522595447085912213e-01 -7.949088150579710632e-01 -4.385647146794648954e-01
-6.790606257910908328e-01 -3.507837752058531183e-02 -3.546586201356113216e-02
7.613675629714566906e-01 -1.581620633743591742e-01 6.528879503594099409e-01
-3.176620752666514669e-01 -2.519980017074829881e-01 -7.741782734120223886e-01
4.504382253703912431e-01 -3.626965820560861808e-01 -5.620266804285254519e-02
2.356240980007936192e-01 3.712287218980604014e-02 8.002323523629630841e-01
5.448295726192418087e-01 8.068996036472906308e-01 1.354737367538509478e-02
7.473057847701457257e-02 7.707045520240925207e-02 9.856471730460154845e-02
9.376099743370021333e-02 9.188377436564278966e-01 -3.474312108348964201e-01
3.740987995814574196e-01 9.227376546417994652e-01 -4.553596548738247235e-02
5.441108939603802597e-01 -1.465262464379856189e-01 -3.048439690065269693e-03
5.547014918667796807e-02 5.809075648901320527e-02 -2.769653575525510836e-01
-4.395905615450644843e-01 6.912942321800897849e-01 -3.922743440735731134e-03
-4.489599275735972062e-01 -7.981653299964526216e-01 1.748407586889657028e-01
-3.746420635595239523e-01 9.611938592351623734e-02 4.484942785439577362e-02
-1.460322475765160610e-01 3.557919239087958263e-01 -7.679577032736182307e-01
4.413218755201469001e-01 2.751646343971054787e-01 -1.981711322381060070e-01
-1.341999612917627593e-01 7.869446502220257544e-01 2.588478807025296757e-01
-4.248724604814868022e-01 -8.769972734910178036e-02 8.817442746531656272e-02
1.569589206525227043e-01 -6.006733936421744524e-02 4.478265409618683440e-02
9.852734283184359787e-02 9.264909537668924999e-02 4.129560097797921325e-02
7.772732766708977115e-02 -4.335286525609177155e-01 7.351812656498187826e-01
-2.535933719199552350e-01 -5.035515044645351157e-01 -6.625929336832594441e-01
-3.571377471988086694e-02 -1.413196412995101348e-01 -6.048797147003200925e-01
-5.555681474089959812e-03 1.194660664063774795e-02 2.899803354092017615e-01
-4.751986215191417867e-02 2.724295964832058603e-01 3.917074212205514105e-01
-2.043118179233951726e-01 2.534191709697640738e-01 -7.972542063107377341e-01
-7.883349822950380670e-01 2.656581541008670166e-01 -4.104307224581025260e-01
-8.375746897384621636e-01 -1.198389855757999445e-01 -3.116662291004101970e-01
4.544228585389178260e-02 -2.763318303591223435e-01 7.173840413406429306e-01
2.548329062932140274e-02 -7.862514280021112856e-02 1.394817001424417946e-01
-4.205554860839273990e-01 -7.870857150126142621e-01 2.270986331077399778e-01
4.514245197945844779e-01 3.169304804702962608e-01 -2.199321590812022276e-01
-7.722397311504164245e-03 1.119853739572531093e-01 -5.751041570305936990e-02
5.007962685112826717e-01 -2.625416993673649890e-01 -2.038912751823406672e-02
2.308298895098737438e-02 6.879370878065377282e-02 2.070240945785026265e-01
-7.064432300309442248e-02 -1.943491923091174856e-01 -6.409958645598824445e-01
-5.004987987880428202e-01 8.857000853750783553e-02 3.028616676260901391e-02
-7.078009509554999967e-01 -4.194843113104961829e-01 -1.322967822278321021e-02
7.291429663354801471e-01 4.024068299353278366e-01 5.857281383261471186e-01
-7.137517229122980478e-01 2.393987307971014999e-01 -1.400411728599265104e-01
-2.691983082595487686e-01 -2.370750083327120006e-01 2.746525345462556000e-01
-8.407793481152497916e-02 4.546067181156948633e-01 4.044643729957666523e-01
-6.158451695354914823e-02 -4.590102831359511859e-02 -9.872047426282225258e-02
7.150860004590484653e-01 -4.336666560654596769e-01 2.341357139688792499e-01
6.532663260066370325e-01 4.442385815901219587e-02 1.427958202557158725e-02
6.596612766757159463e-02 -6.505875305041360912e-01 -4.002672969853910967e-01
-4.967454928797338520e-01 5.076397006117020494e-01 1.838433614134696303e-02
2.824678905871168613e-03 7.835933151093689430e-02 -6.182494906956934599e-01
9.122358652855303007e-02 9.070336570858021641e-02 5.457334422648604799e-02
-2.862788751259537356e-01 -2.428689831356610207e-01 2.684421190420570591e-01
