7.101805517234227594e-01 -2.793014613840882343e-01 -5.777149148876907780e-01
6.645603883387652955e-01 -7.568348253518721869e-01 -3.410852111249170621e-02
-9.003905805981465837e-01 5.933811833616403630e-01 4.747825809096109517e-02
-1.521691872367361698e-01 -6.296172851286997441e-01 9.652558797059104245e-01
9.220907777912071834e-01 -6.446334812857437147e-01 -2.381842980097921003e-01
-5.225375866942792991e-01 -2.319106803330503730e-01 7.492517917907599578e-01
7.067345967022663489e-01 1.916670595009971612e-01 -8.517422360963461392e-01
-8.591452231792824357e-01 5.923787831721314401e-01 -5.567836758449355022e-03
-6.142238198734240734e-02 5.915182546827107979e-01 -7.962485464424707837e-01
7.226692423524249120e-01 -1.459750796257640315e-01 -5.162437150359087124e-01
-6.834497152290388566e-01 -2.245158284785792324e-01 7.273817489296954264e-01
1.061309826536242958e-02 -7.129406651408060069e-01 9.093572435357937245e-01
-9.083858764086008009e-01 5.141100693905271690e-01 4.634335587278120006e-01
-6.124844578516606269e-02 7.959515294510944861e-01 -5.988166877050224990e-01
-1.747589546117891413e-01 -7.532787844414169376e-01 8.584155557697029648e-01
-8.052871413549740620e-02 -6.478862772208959786e-01 9.447363941028558143e-01
1.136278846977517853e-01 4.735207703205455698e-01 -8.018984914317269785e-01
-7.464047156494927338e-01 -2.777744269703129668e-02 8.874100361591962249e-01
-4.114257437133284068e-01 -3.585060437811146139e-01 9.865870270913918993e-01
-7.468954050664563526e-01 4.931326331815378272e-01 3.658648485010344009e-01
-2.919322167845878613e-01 7.207395123913235002e-01 -4.458147287805059866e-01
7.269022676509144798e-01 -5.203196884288938673e-01 -1.937721993179876423e-01
1.497437386772226264e-01 4.849329626986792485e-01 -8.908831022918975995e-01
3.157313912403474920e-01 6.137545175943858178e-01 -7.795833722890409545e-01
-2.621917984432886040e-01 -6.983774027452156474e-01 8.782294204200170595e-01
7.254850757390358673e-01 -1.764290620145361199e-01 -7.356839673365891397e-01
2.377424202270303766e-01 -8.191030338736858818e-01 7.845547921293686278e-01
-7.507232621742050416e-01 -1.992315196318285853e-01 7.553891343981889994e-01
-2.357161885943865054e-01 6.604590272868530176e-01 -6.952289888534349815e-01
7.788795827460294197e-01 -4.926926922051289570e-01 -1.296243079539189658e-01
-4.287139154185897749e-01 -3.189776688806902905e-01 9.747215554836548002e-01
6.956720012136233811e-01 -8.995599855504322617e-01 2.063267580225283393e-01
8.083163648181834748e-01 -6.620450449000163662e-01 1.336037794560049063e-01
7.927695848279830981e-01 -4.968774348548590791e-01 -1.121220752859378028e-01
-7.015680566044116828e-01 8.375490713763832362e-01 -2.962585440598676234e-01
7.609203604148483402e-01 -5.911895914304103883e-01 5.158341309148357923e-02
9.208102771562618472e-01 -5.669470202950215310e-01 -9.940128814936707857e-02
7.488016412936939759e-01 2.867601387596680450e-03 -8.343204856924091306e-01
7.434905169768872835e-01 -6.862473771029041769e-01 -2.005350687453061886e-01
-5.675283210044496096e-02 -8.179373315504152586e-01 7.588874887397381030e-01
-6.334758400036233361e-01 6.648802914028540956e-01 -1.266003119905432898e-02
5.760490165385396821e-01 3.747565095189456241e-01 -7.736643049873662692e-01
-7.470275959350679562e-01 3.625090827427159268e-01 4.326763628569201825e-01
8.731135329253301158e-01 -1.486429697992085741e-01 -7.089479009869110726e-01
8.327349201860029249e-02 4.978780449072822689e-01 -7.657511696962016057e-01
4.135213418862634382e-01 3.114784162269696455e-01 -7.210786554765545864e-01
3.493086536789387631e-01 5.878030118551363925e-01 -8.660090981243081520e-01
5.917878489586574364e-01 2.296668412927884151e-01 -6.820943484576762472e-01
-1.495543659293837192e-03 -6.278316889050367111e-01 8.972181966295468269e-01
-7.330211748217978496e-01 -5.197060087633891684e-02 8.987663595314929754e-01
4.738332048356497239e-02 -6.434046163786201200e-01 8.693625258382572385e-01
2.376211840549095899e-01 -7.701195826427827962e-01 5.089206926564684430e-01
5.402547467039133799e-01 1.635083416297763437e-01 -6.879761726058484239e-01
7.266670248684551359e-01 -6.230182202286043136e-01 -2.310535889237876062e-01
1.120675692453014377e-01 -6.451087916125739508e-01 7.016302424936040616e-01
-2.753901160209051846e-01 6.637081195233254238e-01 -6.467706298395523579e-01
7.145299050371591021e-02 -6.363928499430439034e-01 8.375548096485211369e-01
2.675628687449466137e-01 -7.328844656529798218e-01 5.212873649085381089e-01
6.872800117228393679e-01 8.999002261683632098e-03 -8.511519486379935939e-01
2.251046196152647338e-01 4.799724984918882775e-01 -7.113955198671187974e-01
-3.903177977974011670e-01 6.795232124659128514e-01 -5.153925136685827413e-01
7.085904674536129821e-01 5.785122518433041469e-03 -5.853386790529191419e-01
-9.052913098615854581e-01 6.053110855149284042e-01 3.465527316781251144e-01
2.819252035926711475e-01 -8.818668302099628153e-01 4.759093887562794167e-01
5.891756225284783266e-01 7.788436106781267132e-02 -6.632364457022742465e-01
4.032525247672894553e-01 5.275616488195506992e-01 -7.653186618883517367e-01
-3.900903194068311985e-01 7.330679020399387680e-01 -6.234310135390452867e-01
-7.088654433628449603e-01 6.596688083504254063e-01 1.734374158054345361e-01
-4.273722383079466280e-01 8.534751414108999734e-01 -5.912419234030001913e-01
6.924460824956205629e-01 -1.375343793448053908e-01 -7.503220702806446818e-01
-4.589570606910594042e-01 8.733130465492655592e-01 -2.857500081877669684e-01
-8.365184070492571733e-01 6.446802220378600179e-01 3.118737373605760532e-01
-5.063452192447902567e-01 8.900248255741308734e-01 -2.655197160865189754e-01
9.223629156279753438e-01 -1.660170371930189959e-01 -5.857447532768471632e-01
-1.139561430468202657e-01 7.380847303729259901e-01 -8.161089778763320757e-01
8.684622428846793252e-01 -4.353175069888939874e-02 -6.975250648670480169e-01
5.606427828567210891e-01 4.058096331119720457e-01 -8.219638327049921811e-01
6.932087993579938434e-01 -2.173456394801562275e-01 -5.571569086302248230e-01
8.981095717917941812e-01 -1.619343041384172788e-01 -5.055701240675898323e-01
6.773929776684936011e-01 -8.856909637625742793e-01 1.292288584174964561e-01
-8.739380041271134214e-01 5.074135888748322332e-01 1.065561544904450875e-01
6.938016459825932514e-02 -6.219242744103686826e-01 8.098625543977702179e-01
-8.861439324813454865e-01 4.006089358109468090e-01 2.450998777537169715e-01
-8.603981853016311465e-01 7.121703773032278528e-01 -6.597701611049668069e-02
6.995049840335588742e-01 1.427249219834528238e-01 -8.727527100468480681e-01
1.592132113451537323e-01 5.949270999498577073e-01 -6.761146497852805748e-01
6.002679771103604928e-02 -7.897443314028675942e-01 6.208235437131801593e-01
-4.497506966670262174e-01 -5.559831553172839280e-01 8.768696184610187405e-01
-1.594694343274230541e-01 8.302222803753759317e-01 -7.448610651086591261e-01
-8.162060461524841548e-01 -1.017364087154710994e-01 7.176102671615700590e-01
8.393788891066877866e-01 -7.850397114212053218e-01 9.919754230724867061e-02
9.269020202627346050e-01 -6.317091944938861836e-01 -2.525487948628202806e-01
7.633365570081199758e-01 1.367826144497170660e-01 -7.992885199828433374e-01
-8.781954247304499805e-01 7.099335735802549952e-01 1.815559221613520791e-01
1.617995713409381420e-01 -8.888569701195666584e-01 6.027888446895414143e-01
-4.750550820579597100e-01 6.833750292097605650e-01 -3.689903079543250808e-01
7.335022728440084849e-01 -3.985718016967677024e-01 -4.595240156021845879e-01
-5.043473727033007670e-01 -3.164697171420290944e-01 9.891297996397092618e-01
7.892703917124832547e-01 -6.282926189998004896e-01 1.079309632617942161e-01
5.943778650181371637e-01 -7.112343176371869191e-01 1.105460571480513243e-01
4.520138880234206291e-01 -9.017063146918395944e-01 5.942446997464081448e-01
-7.032011443304658771e-01 5.477398580984584042e-02 6.147733504898986734e-01
-2.278388966959769002e-01 7.475064221467057068e-01 -7.558844852715932428e-01
-7.385429868363660999e-01 5.940750029726022952e-01 2.740862160164556638e-01
-7.514179793729496293e-01 2.057669024166491889e-01 5.080708945788527942e-01
5.905732920091349286e-02 5.091551606774424865e-01 -7.973213149551737766e-01
9.654308190487126407e-01 -5.227376301575946682e-01 -2.767219150949875583e-01
8.529703755204643967e-01 -9.693923636228019003e-02 -5.307264395013169267e-01
-4.033414849443098249e-01 6.912640213195886396e-01 -4.099209280804957944e-01
-6.613904981053572718e-02 5.948884722470263453e-01 -7.957390165213886757e-01
8.300723960800520107e-01 -7.384774628079217029e-01 -1.660221516229992422e-01
-4.580479563885159200e-01 7.106017189797808609e-01 -5.310255803948633613e-01
-9.166269326344044233e-01 1.291204400923503803e-01 7.107937994259475589e-01
-4.411481486803082164e-01 7.424290564357570732e-01 -5.821979768814831147e-01
-2.389479838184625227e-01 8.912358743279572559e-01 -5.555550736128836986e-01
-5.513955531814247468e-01 -9.166043564192949411e-02 8.275301694322864110e-01
-9.215641448224356491e-01 9.400012404515378783e-02 6.551089515703442112e-01
-2.454367793494088151e-02 -7.792790864285837893e-01 8.878710489286871788e-01
-1.265210596952675431e-02 6.073702894335030189e-01 -8.542861219111973492e-01
-5.832672913852509078e-01 8.467924381360018016e-01 -1.334218124744553091e-01
-2.712193839999931314e-02 -7.865191981884540606e-01 6.812226831630555646e-01
-3.153430126442235415e-01 -4.258141223262387753e-01 7.812451174872148130e-01
-6.694150872214474912e-01 8.385568604868341713e-02 6.655839210855163390e-01
7.538022542362032841e-01 -8.572181441354904674e-01 2.225980554496871655e-01
6.420218352680814311e-01 -6.213240820128212299e-02 -7.833394785881763189e-01
-7.900365630561583252e-01 5.830793285461675080e-01 3.615681545371515759e-01
-1.167313555646674605e-01 8.483009765650669776e-01 -7.131839503658621293e-01
-5.867226333904707047e-01 6.681211687789950782e-01 -1.592722012883792115e-01
7.268695669629219314e-01 -6.691334643527643289e-01 2.103192382885463452e-01
-1.099072287412955345e-01 -6.272581202614652129e-01 7.114103426420634868e-01
-6.789655075334245504e-01 6.114283095960605374e-01 -7.051758092352433671e-02
5.363132727776702691e-01 1.508031612315571257e-01 -8.971466904222314964e-01
-2.770873828610203038e-01 6.577207496537627041e-01 -5.962997891640055004e-01
2.843276418629180347e-01 4.755312979439196286e-01 -9.456051374476829308e-01
-3.194862447299101071e-01 -6.247266498106162080e-01 9.476587646405653098e-01
8.843651932404194005e-01 -6.431562835400964628e-01 1.705989207071586036e-02
7.540025126896697794e-01 3.861905529499316814e-02 -8.373207345996164230e-01
8.867085535444989564e-01 -8.188818089197001659e-02 -6.031932491993007295e-01
4.532745825269481332e-01 1.710018907943345601e-01 -8.291421153810654143e-01
8.455896406424345813e-01 -4.240101136468650833e-01 -5.512078397100198535e-01
-9.152181593316046637e-01 7.942819315473051422e-02 6.519524819319354458e-01
3.409769226976768625e-02 6.464547685594396187e-01 -8.845196487394029194e-01
1.653554867689769337e-01 -8.795396687448225892e-01 5.859377690263908312e-01
-4.944537216092775300e-01 6.928610573780094040e-01 -4.542943403346220155e-01
-6.622967727715748376e-01 7.503344518374334138e-01 -3.625447282298300267e-01
-6.166565089070749073e-01 6.652153410138192946e-01 -6.557076177395475269e-02
3.767434368026683078e-01 -7.676781095517840603e-01 3.950365636281086279e-01
-9.113397592787741974e-02 -6.817238507456191421e-01 9.439664841997525979e-01
-9.465532522789572856e-02 7.548141131337837706e-01 -5.580993990359724988e-01
-6.079722062109852443e-01 -5.845138070869345531e-02 8.822240785590320655e-01
1.304821355881266298e-01 6.242856580033062652e-01 -6.659548045213781187e-01
-7.770975512077838987e-01 5.459702652853825056e-01 3.858607960310280194e-01
7.905618954051712999e-01 -1.477676932356634387e-01 -7.619505492981188954e-01
5.607366923087139243e-01 3.935579854279760426e-01 -7.804895000302153329e-01
7.869882220859221178e-01 -5.195817186368475449e-01 -7.652858457108599466e-02
7.824800753517209273e-01 -4.024685097421755731e-01 -2.596838480067901189e-01
-9.763512153158680762e-02 8.431694428707966482e-01 -7.180653111619830220e-01
-6.244020708921756979e-01 6.565435090651174921e-01 -6.121224202084311894e-02
9.157465662617118030e-01 -4.701308040795062482e-01 -1.837587589071916494e-01
-6.248010384746525148e-01 -7.773105385946717238e-02 9.079966929575220558e-01
8.345075855817195576e-01 -1.200420124774112390e-01 -7.522322100480322016e-01
7.323455777639068520e-01 1.068276596687202235e-01 -8.522494338611374953e-01
-7.739005904067133290e-01 3.298017184116082690e-01 6.221899436649798165e-01
-3.814679228014304924e-01 7.385508460753703597e-01 -6.349235484447124378e-01
8.974948520923921036e-01 -4.583766747839342903e-01 -1.792137061816712340e-01
9.367207417870926367e-01 -5.987872480146947396e-01 -1.208108806013900305e-01
2.463550799542273684e-01 4.246147525437606873e-01 -7.379815084424470317e-01
-3.031565042016495792e-01 9.065051026125556799e-01 -5.254889876874668797e-01
-1.007918010369485695e-01 6.169802442965049982e-01 -6.384995847171960337e-01
-7.397828544850824084e-01 4.822297767242449407e-01 3.130174397610548387e-01
4.760486182479108375e-01 3.391509216621773071e-01 -9.458918349778825396e-01
4.317204159271057495e-01 -7.143664780242636736e-01 4.558603547127639266e-01
-4.230695297043475800e-01 -5.760768732461122310e-01 9.022403341958202816e-01
1.750573736995568730e-01 -7.966955510941325924e-01 8.237558958980705226e-01
2.386024547159943665e-01 5.824342758104613660e-01 -6.998569823496652020e-01
9.625534366531910413e-01 -5.387802189394647057e-01 -2.915950889138391733e-01
-7.206270385951407675e-02 8.379508980851736455e-01 -7.144822380061327527e-01
9.617391469285461181e-01 -4.451319054737560288e-01 -2.950013978476535015e-01
7.997270749038043469e-01 -4.038480389954728356e-01 -2.422937076119111854e-01
-8.456730281831308371e-01 5.733745360033601912e-01 3.404615914892048564e-03
2.274882098999668756e-01 4.026260264284225454e-01 -8.765179440225857599e-01
6.152368221172704876e-01 -6.817975580694968230e-01 2.673632528672721942e-01
-8.274537768550482841e-01 6.604589462041032810e-01 2.887691246998111971e-01
5.678031387769575389e-01 1.495862760840268313e-01 -6.737542908636984240e-01
-5.431087153481032326e-01 7.977322532599897542e-01 -5.045348971804104465e-01
3.136972145560872893e-01 -9.407995200238142841e-01 5.526586978656806703e-01
-3.332041516949854065e-01 7.293978032648434917e-01 -6.722559568675909869e-01
2.296777433823098957e-01 -6.793790507555866887e-01 6.641554336272059711e-01
7.506043306388210379e-01 -5.792720355577050118e-01 -3.149412887407293526e-01
3.484424729958917610e-01 5.750472561364341484e-01 -8.886692728767193739e-01
-9.285093483325032038e-01 5.028630438465923058e-01 4.609606392916563711e-01
2.561378100418491843e-02 7.956403891080660040e-01 -7.029259306214807879e-01
4.303293631985076195e-01 5.173874091136696496e-01 -8.788457014291828351e-01
4.588151441248796703e-01 -7.356740752359894886e-01 3.419838829964773619e-01
6.335684487935654419e-01 6.585048874213786374e-02 -6.336064420453219048e-01
3.232219837449678557e-01 -7.768822551666042520e-01 4.382228158398788764e-01
-8.043508252829498772e-01 2.589890049944878481e-01 4.173177878905709459e-01
-9.794520240007167367e-01 3.292402671856948793e-01 5.004561524013186880e-01
-9.827426903048523954e-01 4.513985868290795733e-01 3.930461968310172693e-01
4.353026121278542604e-01 4.068376723842931919e-01 -9.467529154296185911e-01
8.726465265570078067e-01 -4.303189766035012687e-01 -1.978864733011133359e-01
-3.072826041975760814e-01 7.274106657352628069e-01 -4.285949678147794595e-01
-7.807238437182348889e-01 7.299442780243772244e-01 1.755125303593501329e-01
-6.405646872263213165e-01 -3.517627969571366364e-01 9.031450502266201719e-01
-6.402607338709381812e-01 -8.033400746508567725e-02 9.144429002249749860e-01
6.267303613827095443e-01 -8.216688568568261131e-01 4.471797621800808753e-01
9.049151258666251474e-01 -2.882156420519209061e-01 -3.722500591197952513e-01
2.201788067671004434e-01 5.019658106631622596e-01 -7.031172445548576899e-01
8.446677223725980177e-01 -7.680327800814057415e-01 -9.211037826419254948e-02
3.245650082732344233e-01 4.669048672389742860e-01 -9.493104365517649468e-01
-1.807851206228794014e-02 -5.737508790780619927e-01 8.368779450285189769e-01
7.405288178209921135e-01 -2.382025146795908321e-01 -4.546752738656459902e-01
2.263804572791326131e-01 -7.827534879820104985e-01 7.966785069971662470e-01
4.518299235234266714e-02 -7.351010050428532505e-01 6.302264568563406000e-01
1.956857365820356687e-02 -7.375938160745845185e-01 6.421328872324442161e-01
-8.496096389848724062e-01 3.320446357220003808e-01 6.548773881881513326e-01
-4.233583959169909261e-01 6.835927343123793243e-01 -4.276887364620111653e-01
-6.074919303827892580e-01 -1.651703621080082285e-01 9.501891942475118036e-01
6.900495728275184426e-01 -1.867948012060833551e-01 -5.561668467304142771e-01
-5.426499476885134898e-01 8.015287982687875346e-01 -5.050788774025030126e-01
-7.208935323357114344e-02 7.590248023173036263e-01 -5.734748265223847952e-01
-2.975325747221997386e-01 8.232242696530623904e-01 -4.118902884917141072e-01
8.365318259199229223e-01 -6.688787050692364122e-01 1.063910003615534811e-01
-3.652369594671800446e-02 7.175357636385625293e-01 -8.490698869897485013e-01
-6.658063969622829426e-01 9.730535202407365747e-02 6.922126674887856268e-01
-3.291993399536449205e-01 -3.583185404436999844e-01 8.311348592486201836e-01
9.548805192751133042e-01 -3.650280723849207432e-01 -5.009413618133748969e-01
-2.246262245542290648e-01 -7.252162561834073484e-01 8.325545852482100218e-01
6.265797396700548694e-01 -6.721210263507521043e-01 9.391496636672808096e-02
3.025997037832853231e-01 5.536253613734538614e-01 -9.291232676177556549e-01
1.629824986225060779e-01 -6.730774259429728179e-01 6.491488821685875710e-01
5.453614391067808098e-01 3.957663877642388361e-01 -7.626359281887225006e-01
2.885473880903128840e-01 6.373812213538351257e-01 -7.838476977246781052e-01
1.007688336579872224e-01 5.737002110666403754e-01 -9.044312074560252324e-01
6.345487881763348659e-01 -6.954266727559037520e-01 1.742286412998952580e-02
-7.396690741733172869e-01 8.543703412613709025e-01 -1.352187456876386695e-01
-6.102663234978943363e-01 6.605398379317448665e-01 -1.027808376585253175e-01
-7.806742855356736399e-01 3.816222345320547382e-01 5.714590307043307948e-01
7.257767058618752598e-01 -5.631869168105643197e-01 -2.658506175333000265e-01
8.733236937974653280e-02 -7.353718460601573748e-01 8.749270014636391091e-01
6.725324689804984546e-01 -8.296705063835557725e-01 2.947805728059688449e-02
6.521807253635295565e-01 -7.294593841696228598e-01 3.619519873852198311e-01
-7.867317242161039337e-01 3.897112895834026758e-01 2.970106133503621626e-01
-3.676752052109643620e-01 7.547186454365821806e-01 -3.560083402875756087e-01
2.934464592978343056e-01 4.106680963736171197e-01 -7.275985462950821381e-01
7.043856623295198238e-01 -5.803397978314430716e-01 -1.390229312901944403e-01
-5.013782355205159691e-01 -4.461841202849582411e-01 7.849495918833906405e-01
-5.543884121452168356e-01 7.415914765766459249e-01 -4.704785661285725840e-01
5.238405171470434940e-01 3.585932965557834251e-01 -9.284633750132628149e-01
-5.795331135695542812e-01 8.835181372529236077e-01 -4.143915994937795166e-01
4.870714655355193878e-01 -7.548621258947367796e-01 5.549727370724205633e-01
-7.343042324249623443e-01 2.726918086246536421e-01 5.208190980495294164e-01
3.919019755741486311e-01 -7.229319618319460794e-01 4.534166670368393603e-01
7.577456313441406355e-01 7.819519273633514234e-02 -8.338186387221261375e-01
6.463253963465418472e-01 -8.643125440370263979e-02 -7.584858523687202370e-01
-2.311750479668596703e-01 -6.324012275726357268e-01 9.692711077599318603e-01
4.948705732013580771e-01 -9.057558468402735485e-01 5.514300766177742119e-01
-5.504952430716161249e-01 6.754249741079877412e-01 -3.355935653677167285e-01
-4.161796651368792621e-01 8.926327380524913258e-01 -3.541596156828669684e-01
5.208615141746631982e-01 1.255751337984813421e-01 -8.681074452152082177e-01
-8.726206948939617680e-01 5.604049013206421209e-02 5.946976905574139494e-01
6.745483664245101041e-01 -6.429675027984378399e-01 1.439857343097876996e-01
3.909879955528443030e-01 5.458034145492066669e-01 -7.744365793196408276e-01
-3.376933263802266438e-01 6.755789557119226130e-01 -5.045326479703138300e-01
-9.192722336961605123e-01 1.482090786561510998e-01 5.439272428952806049e-01
7.158439766941268045e-01 -6.660220267137560990e-01 -1.789751234072527175e-01
-4.564555813099401005e-02 -8.257709516673621408e-01 7.957267503589857682e-01
-2.486480426932219656e-01 -4.935969931255934640e-01 9.777482218409757619e-01
-8.451009798588744459e-01 4.794117629683452564e-01 1.327702047065321689e-01
8.867766916308599257e-01 -4.502192410653590438e-01 -1.811560097437272809e-01
-4.768274323975668638e-01 -2.056987339736776332e-01 9.103599688357640884e-01
-2.725604924795227979e-01 -5.543502361850399796e-01 9.899614827267221306e-01
-1.201359667885533791e-02 -5.826030571378498779e-01 7.718852999079118815e-01
4.750569263061958925e-01 4.671691274716107123e-01 -7.710164953344659233e-01
-8.416453617282326771e-01 6.077878438217452217e-01 -4.009896395213321391e-02
7.298411047119210959e-01 -5.495278404623982205e-01 -2.883277744950582533e-01
5.971985996110178441e-01 2.652876008569992061e-01 -6.974482827065823232e-01
-7.138378423969677922e-01 2.081423533303150275e-01 6.721157555933334748e-01
-1.493371553203136637e-01 -7.699328198415897884e-01 8.017405672791069193e-01
9.361016478811901020e-01 -4.444054847819707832e-01 -2.377446751979615247e-01
-1.308113551734698121e-01 8.210894281420081375e-01 -7.597683982049006080e-01
6.689940796560213121e-01 -2.875329652404516947e-02 -5.950771518139817973e-01
-9.758413506387815239e-01 3.622227653088977983e-01 5.113436111098388359e-01
6.678873418685471464e-01 5.847168298919312723e-02 -6.173729976288919730e-01
5.932344427145230803e-01 1.281020087571894117e-01 -6.607187830765730574e-01
-4.528574689718463664e-01 -4.178578657271309060e-01 9.972910594797017581e-01
7.649124038628052347e-01 -3.912543955470048074e-01 -5.445584428515732878e-01
4.923578073458208526e-01 -7.631064032284501364e-01 5.587324559665117762e-01
7.194381956618004503e-01 -3.157304330381341950e-01 -5.432236692501419828e-01
-8.399605874201425681e-01 5.854453237828977086e-01 3.886512804369041674e-01
7.728105821738494585e-01 1.367742500751281121e-01 -7.659164412542593947e-01
6.070903282973599824e-01 -4.120063246348892871e-02 -7.524163630963663918e-01
-3.336182212616888298e-01 7.688251208881394794e-01 -6.842137411032821470e-01
5.417651559271911832e-02 -7.729784860268328339e-01 6.223247755953982274e-01
-6.259990899208627280e-01 -1.636710289753250461e-02 8.543248850785980508e-01
-6.244210298556467365e-01 8.891109585553338412e-01 -3.362044545753008484e-01
-3.012603590061583847e-01 -3.836257536344523933e-01 8.303663827905842787e-01
-8.788723040477780524e-01 7.304487327298520016e-01 7.056957783873145200e-03
7.036220754769436647e-01 2.147278432722964647e-01 -8.394016988947768931e-01
7.585795087600691877e-01 -5.315447029672588641e-01 -3.768499622757850998e-01
4.408892249353771331e-01 2.971340509307244249e-01 -9.381636948847824620e-01
3.992627023283422671e-01 4.352854352408496164e-01 -7.163056585267704168e-01
6.874599329596122743e-01 -6.144433739148595919e-01 -9.001059590454577042e-02
-2.618414497744209757e-01 -6.692621908196764169e-01 7.813295968586091433e-01
7.502596025006063041e-01 -8.475317730581876097e-01 3.863724185602738365e-02
-7.815203962071596289e-01 -1.707494393141003319e-01 7.687417333044515022e-01
-4.491820733662540421e-01 8.661112458666790914e-01 -5.640474221477120853e-01
8.207429789558574607e-01 -5.946454353449031061e-01 -3.642373080378494832e-01
3.076739892491399675e-01 3.822128794954449682e-01 -7.372892358444598226e-01
-2.835226935203707388e-01 -4.710793098170180659e-01 7.690972197848863212e-01
4.426591683165274071e-01 1.945530306312079349e-01 -8.609785128300015966e-01
-4.182119541306182353e-01 -4.745790482429934620e-01 9.941490298372641643e-01
-6.994429865244898847e-01 7.547792211067295698e-01 8.335748315827322397e-02
-7.332061463952559421e-01 7.057619587816345297e-02 5.851612245402674217e-01
8.621235426948795633e-01 -6.118535983057128702e-02 -5.802514101034957905e-01
-3.755158483664252644e-01 -3.169807964290877189e-01 9.325942535433441316e-01
5.373331706167284311e-02 6.037854675315924569e-01 -8.897483913051068560e-01
-7.415811075006972786e-01 5.437227168680252021e-01 6.492671150950453385e-02
6.350770948674006044e-02 -8.736226386326617632e-01 7.408527745579178703e-01
-4.947272029553715367e-01 -2.524913244003442192e-01 7.608986249430883531e-01
-9.630359200984885959e-01 4.361487342237565512e-01 2.886632131150194680e-01
8.033479988998637467e-01 -3.593166169333127796e-02 -5.597371997037916547e-01
-4.889434078010849727e-01 7.005443878671914204e-01 -4.799658088847712500e-01
4.774837587671032502e-01 -7.133346322412204010e-01 3.937928082379595351e-01
5.122626401306353827e-01 -7.099976896494331058e-01 4.149923700717161879e-01
-5.699227123538379569e-01 -1.446827549478947594e-01 7.335430155926883078e-01
-7.377501115591014180e-01 2.939759201388978949e-01 5.047691075173378339e-01
-6.996751933519340660e-01 7.057130993463696100e-01 1.279348767972236789e-01
-8.184208335864688877e-01 1.671865913452411645e-01 7.791751936829810488e-01
-5.737450133560885179e-01 8.291523493128494238e-01 -4.680734232387724347e-01
8.751469573337536945e-01 -4.011319280096541928e-01 -2.330334733850340789e-01
-1.961802646128956995e-01 -5.635595161375717144e-01 7.415250335827692219e-01
6.213601445295504622e-01 -4.798375948956296738e-02 -6.577340051993986192e-01
7.223731383496921898e-01 -3.318420351168674953e-01 -4.666225972191845872e-01
9.271542343037734168e-01 -2.255349138092509476e-01 -4.744809933412604819e-01
-4.919269959808045267e-01 9.184176252241224025e-01 -3.666321769349529802e-01
6.482356713749306554e-01 7.465198032617886836e-03 -6.163583460201391695e-01
-4.067526950031153943e-01 6.898443645358164344e-01 -5.427420142995145191e-01
-6.216259295575786714e-01 8.994908075596848018e-01 -2.474850748243466458e-01
3.981028725709612193e-01 3.813369277200607255e-01 -9.505481044790300427e-01
-1.120344302610668946e-01 6.041675467448398562e-01 -7.458029281275637690e-01
-1.740608608642379707e-01 -5.792555387344372475e-01 9.709307662951869311e-01
5.965095867733600787e-01 -8.448728615531133634e-01 1.195806635956229852e-01
-3.533623943870565776e-01 -5.672272491094738633e-01 7.760727245322426304e-01
8.776437430921117944e-01 -1.504793555040290498e-01 -7.031083690231011429e-01
-2.530272183118407736e-01 -4.541622256670563296e-01 7.912489754541567333e-01
-2.708923063938215026e-01 -4.814724131972770715e-01 9.824802230745257603e-01
-6.987524529693230901e-01 5.907116072180887967e-01 -1.280650000771596346e-02
-7.266626070040357321e-01 6.029805163524299960e-01 -9.098666476547999371e-02
-4.919159634694729721e-01 8.854660235940983171e-01 -5.060584229016236169e-01
7.486474866038603793e-01 -5.420226946389309353e-01 -6.704432111472302669e-02
-1.028834328496085471e-01 6.562683527686445917e-01 -5.905145637169917361e-01
-6.304660516802289560e-01 -2.630444434954220534e-01 9.594855702448852330e-01
-5.810582980154819221e-01 8.064045464805792429e-01 -9.804538022969468136e-02
-9.119551983838465326e-01 6.542723311767228989e-01 2.527632224308800080e-01
-5.977002780713289720e-01 7.692213406298922251e-01 -5.689057905425423667e-02
9.019000620090814602e-01 -6.688385308032550602e-01 -2.304872639363483300e-01
1.081292940453539714e-01 7.396181295500576791e-01 -8.261769449935320031e-01
-9.163238732217799942e-01 6.445986063174116154e-01 6.186898590588085778e-02
7.612089828589972962e-01 1.049699945806703005e-01 -6.591802499609843435e-01
1.974542481835494800e-01 5.859990858744652531e-01 -9.264766851378368751e-01
6.995393983402382887e-02 7.766474436092142275e-01 -7.441453419454480134e-01
-8.855905460687578667e-01 1.404469376033583572e-01 5.184135672924724547e-01
8.703694040907613561e-01 -1.662540052185549899e-01 -7.077654403080811951e-01
7.549226796028036812e-01 -3.037375868188880168e-01 -3.936046661732501284e-01
7.538294800343536828e-01 -6.022896502555535880e-01 7.353373192354543952e-02
7.776733245389566562e-01 -8.501731072522541455e-01 8.826563409770651902e-02
-7.234536113541523150e-01 6.157177019942308149e-01 2.274121245196605856e-01
-9.529590481878619235e-01 2.126117907650729999e-01 5.297328654115108781e-01
-7.524178186809872271e-01 8.372690717262171178e-01 -1.897664147861823358e-01
3.276457100435260505e-01 -8.030689492776337257e-01 4.212117427877247744e-01
-5.811775304988601176e-01 9.085310247475039125e-01 -3.314000976572934465e-01
-9.816088237776510184e-02 -5.901994939455914579e-01 7.302262158172617701e-01
6.802043333314362616e-01 5.641247602819925155e-02 -8.699871338403059040e-01
6.021146535197205996e-01 2.167251678088415873e-02 -8.342630454846380328e-01
3.298925805533313715e-01 3.715477039955044636e-01 -7.329597943538146421e-01
5.760915829327167836e-01 5.467663694968905030e-02 -6.816497878537105537e-01
-6.191047905692557279e-02 5.839654444549364776e-01 -6.923551126955541646e-01
-2.330466061342937809e-02 7.967496513191596463e-01 -7.881376383809769459e-01
-8.929768127873788201e-04 -8.167612119919200886e-01 6.826426800308775800e-01
-7.643682604585090579e-02 5.874354812423403516e-01 -6.967744487151519284e-01
-7.216969665127145328e-01 -2.628883884468952714e-01 8.335552584319757541e-01
7.752012588882071231e-01 -1.782286626071473701e-01 -7.460294417560456859e-01
5.509093653149883529e-01 -7.289080330658110896e-01 4.516294094835143214e-01
7.497831591280555985e-01 -1.864944777023468392e-01 -7.369577759816644535e-01
-1.382494350750716749e-01 7.065136220609316009e-01 -5.434504123168563128e-01
1.399104115311476382e-01 7.327733238435560903e-01 -7.400265854172265456e-01
8.418522261533123441e-01 -7.551553886972406371e-01 1.210793829829846929e-01
-4.454941442183005806e-01 -3.151153865513197649e-01 7.695439963727356281e-01
-7.963947987710253695e-01 -9.109190204562017668e-02 8.597128831785608716e-01
-8.101924675881342353e-01 8.074275933906439606e-01 -4.221912609202904676e-02
7.303303383811484695e-01 1.008797186950432107e-01 -6.377213901238292237e-01
3.811739268344057074e-01 -7.169579710836030406e-01 4.828568851822477859e-01
4.655496256259328280e-01 1.643442606020957819e-01 -8.475943652810616902e-01
-9.803739499336832086e-01 3.603339623396666913e-01 4.231155644537391014e-01
-5.094896484125002178e-01 -4.967939990259871985e-01 9.084019632852334825e-01
8.491538671979174113e-01 -2.812972354382744511e-01 -3.576502985583493444e-01
-7.399616453120290149e-01 7.226198436036458395e-01 -2.563094436557410427e-01
2.818989382489692219e-01 4.374406026506724166e-01 -7.190004973778714170e-01
-5.856877977228308607e-01 -4.023990671924813634e-01 9.296375264562342089e-01
1.346304229711922096e-01 4.666109021004135604e-01 -8.489131893080065216e-01
-4.178225281283657888e-01 -2.891974065242210457e-01 9.458491160428020850e-01
-4.849999047348702019e-02 -5.874516304752297469e-01 9.042389541671448372e-01
5.269459021778869490e-01 -9.220499987882626591e-01 4.959846718518146624e-01
-5.885086722101964263e-01 8.707702876583794938e-01 -1.642331131319683946e-01
-6.503854837532578870e-01 5.259110112793140279e-02 6.948963269133582310e-01
-7.908340107788751627e-01 4.069285656101607751e-01 2.677789455373533190e-01
-8.699436398555935313e-01 5.621995142855525929e-01 4.192958241769712546e-01
-9.951452085035147888e-02 -7.776363340094670784e-01 7.383306497371678878e-01
-1.173597495679144787e-01 -7.214815395231118922e-01 7.121657734894724090e-01
2.536834451028878723e-01 6.386619931641462911e-01 -7.381310207136285717e-01
3.107001806141370115e-01 -8.650839125567593157e-01 7.221983705237891016e-01
3.571002918334460485e-01 -7.725254244714842011e-01 4.103381309231536878e-01
7.424510296280562027e-01 -5.495385939915048423e-01 -3.258312792150895310e-01
-7.634818498171110912e-01 2.362544200058230848e-01 4.747361987398474592e-01
4.585790772311900687e-01 5.037431193805784746e-01 -8.167935762184180826e-01
8.846267650766715951e-01 -7.210989830408082168e-01 2.166005979058695241e-02
-9.334349517965980780e-01 1.994605485837617209e-01 6.735067015556931436e-01
-4.144929063324125362e-01 -5.269102828465527244e-01 9.737214157745609500e-01
7.330608741545967533e-01 -4.356631035065636759e-01 -3.938561314772979216e-01
-7.473454493802571541e-01 3.807187170690953804e-01 4.171975118615145472e-01
-3.681344203248986813e-01 -5.989107451334543253e-01 8.095988950160520892e-01
4.265440028250812032e-01 4.022312399192182752e-01 -7.144121806473776592e-01
2.537804540304040846e-02 -7.439818630045083037e-01 6.386438533828053821e-01
7.100213085381104072e-01 -5.669988151458703607e-01 -1.616931294441834033e-01
5.881461116335303663e-01 -8.898292737956003950e-01 1.828301274612018634e-01
-3.804807146299164083e-02 -6.325330059795482018e-01 7.004697474257978174e-01
1.855170290605281935e-01 -7.287098884207369176e-01 5.685718535687949160e-01
1.711670807727372623e-01 -6.679113096348824330e-01 7.627936198220942599e-01
1.525621496882186567e-01 -6.534883756884566353e-01 7.124351624072530198e-01
6.729913106215543728e-01 -6.335120470144911531e-01 -4.203245598426383345e-02
-2.280916922076300646e-01 8.885502199643741106e-01 -6.238240884297364675e-01
-3.170494823383384064e-01 6.861921361533797059e-01 -4.793014260743603816e-01
7.624067374168423949e-01 -5.763535561529085083e-01 -3.365171736560452764e-01
-9.403389109796940204e-01 5.891584046134561437e-01 1.333878948731626601e-01
-9.116119568711902321e-01 2.098227773340621272e-01 4.657818019044364655e-01
5.086586249208011612e-01 1.585424764331972436e-01 -7.130052450044919166e-01
8.396496107511097762e-01 -5.427891104312807524e-01 -4.067097650787099283e-02
-7.669450971299394126e-01 5.979810971105251616e-01 3.190863018077154667e-01
-5.063397361862115309e-01 9.189831810265474132e-01 -3.796168504403293897e-01
7.590462484329607573e-01 1.581840657578114651e-01 -7.725917261573239658e-01
-7.832818219707285978e-01 2.378742854508499593e-01 7.233904405189044429e-01
-7.584014287032885271e-01 3.689560306327780426e-01 3.797644853462776582e-01
1.139662259388680293e-02 5.371241343327415318e-01 -7.701433912321132835e-01
-7.614351409715692798e-01 6.958616411695034421e-01 -2.123616963324874429e-01
-3.527154173297476492e-01 -5.557092425922675050e-01 7.710571605568147247e-01
-5.551594606915034591e-01 8.987713253139728575e-01 -4.151143246993005409e-01
1.474532463101388413e-01 4.576661097842817383e-01 -8.520799600340875912e-01
-4.328897118494886564e-01 -2.453807629865766837e-01 9.019325191062318448e-01
-5.489075666692109223e-01 6.872770096130984552e-01 -1.977655492227380074e-01
3.252711928042926748e-01 -7.933824345078051010e-01 7.277901751862458912e-01
-4.994843132650676476e-01 6.827967734422414336e-01 -3.266769159873652018e-01
7.542656311746869235e-01 -2.663340815366791459e-01 -6.688469585625688163e-01
5.480680560483524033e-01 8.170906767068852883e-02 -7.061491513645915541e-01
-4.689254952927275899e-01 -5.374929211508164828e-01 8.973496028662640844e-01
-5.427159010123877581e-01 8.560132332647366615e-01 -4.861919810146188015e-01
6.980538782424031696e-01 -5.934098539042619302e-01 -4.975304279477158614e-02
7.210262447836920385e-01 -8.863483622669934281e-01 1.675353039413854384e-01
2.255460629957247998e-01 5.318332888107855094e-01 -9.371228893059845300e-01
1.643292559686767296e-01 -6.593887620798219995e-01 6.938652104367712958e-01
9.687331422143625748e-01 -4.837956348116765892e-01 -3.060928904726373245e-01
1.886317892584354339e-01 -6.896364430211542329e-01 6.159460783952460661e-01
-8.828407090032692750e-01 2.848733318350922441e-03 7.154304666293352932e-01
-9.708626057088015626e-01 5.177256884616587840e-01 2.595921183121910336e-01
-3.419466277971371787e-02 5.886619887295654330e-01 -6.690423938123649661e-01
-8.579289930792929342e-01 3.663480407325954702e-01 6.245104039792407358e-01
-5.132737539521278203e-01 7.802797169949557965e-01 -1.761393337100178869e-01
8.404750533476086360e-01 -7.842645048575467293e-01 9.660380068454750557e-02
-9.293231195097092501e-01 1.933564758418934992e-01 6.821912713695662545e-01
8.408643840746418130e-01 -5.821226003254354603e-02 -7.558047467375511586e-01
-7.920879576942736477e-01 3.624481961095791238e-01 6.048494722247318434e-01
8.131733025240973634e-01 -5.927215939856700366e-01 4.247540160861829062e-02
-7.897918028487578290e-01 5.756269281209139832e-01 3.694822897614878365e-01
-6.874797146539104453e-01 7.841376761392535588e-01 3.874673277425896151e-02
9.102251936135058452e-01 -2.486937211487805499e-01 -4.202702129583208990e-01
-7.821804541206679451e-01 4.391464955274394510e-01 5.082993446537665827e-01
-9.456560746678688636e-03 -8.410156534800342643e-01 7.407451025684413937e-01
-2.996785229533138750e-01 -3.753690806158815896e-01 8.507528212053542260e-01
9.130561582941699728e-01 -5.337479108494396218e-01 -1.155380328130432288e-01
-7.524059011705337419e-01 7.961769456531189171e-01 -2.434982519699730730e-01
-7.005705098219601190e-01 1.307555412946798390e-01 6.094224916716991514e-01
-5.271092933558718663e-01 -2.347254219333302083e-01 9.665916041717149687e-01
-6.983453640389880590e-01 5.528202443158680007e-02 6.194385577503637164e-01
-6.738563194010653845e-01 -2.838709217347913927e-01 9.200500386693132304e-01
7.401724740276865999e-01 8.840753924724741031e-03 -8.394505524796472828e-01
8.719210211828000157e-01 -8.140589355858754428e-02 -5.687039087404002213e-01
5.551373891842014130e-01 2.287044460119295186e-01 -9.280273854365986841e-01
-9.775662560533024958e-01 4.775487203631909594e-01 3.063408428186281118e-01
-5.339485699230610560e-01 -4.496981307767115577e-01 9.436186986630071827e-01
-1.131399735869587225e-01 -7.320538649723247193e-01 7.138812740993389916e-01
3.403949525847564384e-01 -7.215521994197228173e-01 4.961525056010562262e-01
6.893459367185942321e-01 -9.390176755354780191e-02 -5.643597331521141847e-01
7.026205341730109577e-01 -1.893290274462615941e-01 -7.038554967334812451e-01
-8.996219644283015571e-01 4.008669605662040780e-02 6.863141232695154637e-01
-1.146770010782107996e-01 -5.513259090574051946e-01 7.609812035007175179e-01
5.025165668045046274e-01 2.745228897203271234e-01 -6.987130015240081704e-01
-5.179563618987479412e-01 -4.895263178359732792e-01 8.540201714331164817e-01
9.383651722257784211e-01 -6.271394485652457274e-01 -2.211624900491825918e-01
-3.369046809480114035e-01 7.070873380224712568e-01 -4.295500265385233107e-01
1.912590131834705776e-01 6.597685467461912312e-01 -7.047388337271618397e-01
-6.077712532395626033e-01 -3.649977337497860019e-01 7.921861110999954825e-01
8.018318201292513603e-01 -6.768930503456453973e-01 1.553880521341395038e-01
2.275091327338443770e-01 -8.820477076842296871e-01 5.276787273523039223e-01
4.405549953777688765e-01 -7.137009698122480650e-01 4.530204328550694326e-01
1.413078286571243895e-02 5.358682933010705529e-01 -7.804500970197767451e-01
-8.553717621775293045e-01 5.552769084174093983e-01 4.276873306609114689e-01
-8.565134840474889488e-01 3.878563835026058951e-03 7.996048864730516126e-01
6.350130922715105930e-01 -9.061183677399143876e-01 3.760102778543180646e-01
-8.681705007611479896e-01 1.714961941884035057e-01 4.812984988027029232e-01
-8.600375960027655253e-01 5.094327654704049468e-01 4.807762981080385134e-01
-2.415795651596970850e-01 7.843630457591446170e-01 -4.548462506926163607e-01
-5.121898261945652120e-01 7.227231090108598988e-01 -2.051379345767353202e-01
5.074115956642051284e-01 -7.578182061371293576e-01 2.345204381482516309e-01
-7.296714803369267477e-01 5.204582060834491708e-01 2.385237633449346362e-01
7.291524641603198686e-01 -3.822319538952946849e-01 -4.235020034049382098e-01
3.767546229790429135e-02 7.803944619405498440e-01 -7.919703761735942260e-01
-9.113632193120362324e-01 6.305369769153661430e-01 4.995984400964804256e-02
7.104829874681046764e-01 -8.637597569177410950e-01 3.097004649428394263e-01
-2.395193127280729195e-01 -5.521086952222585831e-01 9.857843501542374876e-01
1.933542301495876359e-01 -6.844556432710067195e-01 7.670523803283730846e-01
9.118379091091851629e-01 -6.753371350502208603e-01 -1.951212837869489292e-01
-2.491265334825740474e-01 6.699906329493598989e-01 -5.377788122735580600e-01
-7.846008594975438788e-01 -1.155191517760556785e-01 6.954515165763217599e-01
6.178148492623226629e-01 2.835142888427770180e-01 -8.966516332165601622e-01
-6.299813616004069916e-02 -5.955738521680112862e-01 7.295041716319072833e-01
8.827252852059314092e-01 -1.151532797413448023e-01 -5.415022715823617494e-01
2.282834854328112395e-01 -6.793088435252432333e-01 6.901109857515291823e-01
1.087789704898687038e-01 6.082540641229721157e-01 -9.091261490106614662e-01
9.334353606152849536e-02 6.655307887774046804e-01 -6.526719099123297063e-01
-4.423275371403617706e-01 -2.369812552787886328e-01 8.296946929249443548e-01
-2.231138121525609586e-01 8.414261727929055468e-01 -4.882673752469795514e-01
1.748688357029108964e-01 -6.622249726364415334e-01 6.937226661509966474e-01
2.769865833434747016e-01 -7.047922727315368840e-01 7.007806298824263980e-01
-9.919391443794698532e-03 7.810450038907628123e-01 -6.321464390538882316e-01
-7.219929883921911706e-01 7.093883756134606866e-01 -2.678409929713515547e-01
-8.600514323078627399e-01 1.951740886827718624e-02 7.968723111829252304e-01
8.118485695337345209e-01 -6.213841651684934853e-01 8.267641334383211971e-02
-7.525470098543043385e-01 8.385529425431208495e-01 -1.855487226540306622e-01
8.494828870849630009e-02 -8.811814825145737329e-01 7.351370724267409784e-01
6.562561613873993949e-01 3.263882649868983521e-02 -6.154837919033270266e-01
-6.261463979653422163e-01 8.985140220127001420e-01 -2.846837362846398878e-01
1.045368992806308857e-02 -6.169917555610732185e-01 7.185958274981609772e-01
-5.394472398051625150e-01 8.983666899480829970e-01 -2.573318279240665585e-01
-7.824464577158466438e-01 2.367021414215505493e-01 4.533377663886251629e-01
3.363644577777357703e-01 -7.247595371553127164e-01 6.682325705549867489e-01
-1.575404104332127631e-01 -4.849559969703516327e-01 8.794610326659688671e-01
-6.128034952379546318e-01 8.623778298921831453e-01 -4.000999778740511603e-01
8.768427769498878810e-01 -6.651229655481385450e-01 -2.645129070104873525e-01
-9.387899185608188368e-01 1.456965047326938267e-01 6.056491211971511968e-01
6.742896627193144532e-01 -1.211639285563071433e-01 -7.508446914726542021e-01
-6.485424901003702391e-01 -1.176423142892892293e-01 6.854908094871935420e-01
-3.908827768309877104e-01 8.924868768892970650e-01 -3.790111104708027145e-01
1.709573464661312270e-01 5.413369796057446726e-01 -6.896797072849317756e-01
7.521730769037217046e-01 -7.142065295932933378e-01 2.452146509641193739e-01
9.529004449325984005e-01 -5.241273257915720629e-01 -3.622368570578497482e-01
-6.988643793847696406e-01 -2.896838521550416656e-01 8.201165827383418705e-01
-2.902808821133844863e-01 6.772676265891020009e-01 -5.105786666196427959e-01
-6.192769212866470196e-01 7.665751790116192010e-01 -4.176197187090664453e-01
7.068851284191066675e-01 -4.718605501782087430e-02 -8.232614830734809042e-01
-7.044151815674219996e-01 6.632130868712569072e-01 1.631299224126786795e-01
-3.790653335287618164e-01 -6.147020354047728619e-01 8.663941681341987833e-01
-3.619276930866349717e-01 9.075618292627458672e-01 -4.436105693437742414e-01
6.781734936742184194e-01 2.460993603055454393e-01 -7.320339812049424522e-01
7.504076192738782236e-01 -5.673841694931691659e-02 -5.436645253649109444e-01
-8.521048065014585893e-02 8.454677850712355447e-01 -6.927521493818992182e-01
7.449565817607214369e-01 -2.126800416995110465e-01 -4.633398757671388091e-01
-5.246394064614340325e-01 8.296615970957057495e-01 -5.181417316383732929e-01
7.406054465954109434e-01 -4.668483939804023986e-01 -2.507441693915896108e-01
2.040825373582363933e-01 -9.183096992235474376e-01 6.683028577994934993e-01
2.665398505175426980e-01 -7.108979440418606854e-01 7.244461630465098834e-01
8.473381876586391082e-01 -7.774534246424712469e-01 8.342822425758192328e-02
-6.137059076659352463e-01 9.024460830422901259e-01 -2.759392649892230542e-01
7.076239803492380132e-01 -4.973083837419985109e-02 -8.218955510487614413e-01
-5.599746956339451270e-02 -5.565154662680336095e-01 7.921713550724396313e-01
7.355116732608756314e-01 -2.716398514042119849e-01 -4.447114996773449680e-01
-6.746773494755677891e-01 6.800615471949842394e-01 -2.786177619760490942e-01
-3.774134028086039150e-01 7.649563385512410107e-01 -6.490829554309547333e-01
-5.098905188279510003e-01 9.042093536904172169e-01 -2.941541448480823884e-01
-6.342572840265595646e-01 -3.208861170942667873e-01 7.724344220549036466e-01
9.172315769485872572e-01 -1.826678782915685528e-01 -6.306720738791066205e-01
-2.145115465888602080e-01 7.168657553963579954e-01 -4.975654154352132652e-01
5.345594771258757039e-01 -7.088481025976482996e-01 4.013734226283125484e-01
-5.101696740156296261e-01 7.976466535826334248e-01 -5.367571647390600997e-01
-7.630108764654887077e-01 1.402397410956774115e-01 5.309613473476880730e-01
5.429312400059742583e-01 2.182336082082929340e-01 -9.264965882272780950e-01
-3.526075661244759130e-01 8.766050478888481878e-01 -3.952239773853523097e-01
-7.957233539418167023e-01 3.426371114290777675e-01 6.286163673853043532e-01
-5.965914018054745416e-01 -2.837468675285224062e-01 7.383203146058763267e-01
5.850313766403576476e-01 -1.056454105771432138e-02 -7.354301693547800056e-01
8.140677611305899841e-01 -2.808697558362411306e-01 -6.729639474721106351e-01
4.370392296075081839e-01 -7.171659380400375872e-01 4.301560179307631904e-01
2.587157047488247152e-01 4.879799504492084994e-01 -9.419275207649492332e-01
7.746338538493712234e-01 -5.657903656263724157e-01 4.135778282261832507e-03
4.978655650781301789e-01 -7.408249048265095338e-01 2.711994948525358606e-01
-6.645539591169017379e-01 7.267709965726766308e-01 -3.444013010378160211e-01
-1.004307538988618714e-01 -5.695812040916875540e-01 7.468404056246619183e-01
-2.063390970683677272e-01 6.391514151790084197e-01 -6.809956721822232328e-01
2.028364944683241911e-01 4.901423768155244720e-01 -9.251209636988565466e-01
5.676765765235909367e-01 3.955159398828471673e-01 -8.023126192882134022e-01
-2.058719763698275695e-01 -5.613431347674777694e-01 7.424772029795456696e-01
9.518893661751749447e-01 -2.783319167440428954e-01 -5.220278210199098545e-01
-8.222157567240797604e-01 4.643656358140655360e-01 1.568815918297592760e-01
9.129788826471533225e-01 -5.342518474666251294e-01 -1.149493517259756736e-01
-3.825949326426548724e-01 -4.489526920355457751e-01 1.000000000000000000e+00
8.772054789949987885e-01 -6.015976832946580144e-01 -4.153727182462259998e-03
4.681510803998981118e-01 -7.435285294592067773e-01 5.584988499049109434e-01
-7.379269427174547369e-01 6.493485803695419056e-01 2.296621646481706858e-01
-8.950096884419701526e-01 5.482629098787169530e-01 4.296527232846257260e-01
-7.202551282980877989e-01 7.433533270327403741e-01 -2.908840858112486383e-01
5.186519430821627807e-01 -7.649666102657565192e-01 2.105614229663176906e-01
-4.717551579634396419e-01 6.819292468770251636e-01 -4.010155447857799427e-01
3.454042119381028342e-01 -8.223858884541321856e-01 7.135867885922653198e-01
3.025228757235612354e-01 3.256231566378125497e-01 -8.460121972886043284e-01
-3.123941498288864138e-01 -3.630582431387792686e-01 9.077498760759117324e-01
8.120874256340934183e-01 7.442187783405890267e-02 -7.262756985017636557e-01
2.830049232779306423e-01 5.212084559133590700e-01 -7.052108491079112085e-01
-1.017661435273655574e-01 8.404663562747924921e-01 -6.124039570212329586e-01
6.138227233463061649e-01 -8.024162968912006422e-01 4.586325584529755695e-01
-6.501166459184377633e-01 7.601427763022785555e-01 -3.808027366308921469e-01
-7.359122490987951570e-01 8.540791332273364178e-01 -1.784040293916034359e-01
-6.802821449809591803e-01 -1.046769929387911247e-01 6.713792680787588063e-01
-4.620084121906047336e-01 -5.365141001529654119e-01 9.196589504188882325e-01
-7.350732206241762379e-01 5.569285803910244415e-01 3.596421433408681506e-02
2.596700829830729251e-01 -6.954953703134585385e-01 5.968984033912416720e-01
4.210301242252707521e-01 2.069799702506618377e-01 -8.049544611718306708e-01
-4.276105901589899450e-01 8.791953800128872176e-01 -5.674003469912136666e-01
-6.253535972728854198e-01 -3.601195098985715548e-02 7.008740966894716484e-01
