-6.375713330203569562e-02 1.386602726107383221e-01 3.077921981850886279e-01
-1.018917298677846361e-01 -6.790805273416254950e-01 -7.122741967346419845e-01
1.057233295228782177e-01 6.432861673904179955e-01 7.764859682838954891e-01
-5.861351987736475033e-01 -7.333007087462463103e-01 -2.698052406665192235e-02
-4.224407579868447726e-01 -5.423226195903230185e-01 -5.559077570865137430e-01
3.217790877147981843e-01 -3.025062104354829251e-01 -4.017765246918071353e-01
-5.576998213040672454e-03 -8.513160372343309135e-01 -1.355641451475502746e-01
-1.082079308250749328e-01 -1.682505213524286836e-01 2.708705690877180050e-01
2.857270265304871493e-01 -4.831870942949336167e-01 -4.571602766350293945e-01
-2.312360934459178341e-01 -8.803770582214587304e-01 -3.926485914429506119e-01
2.476060341867357406e-01 9.132945440475301879e-01 -1.316831560033863979e-01
9.921955118537706397e-02 -7.466449004088047126e-01 -4.790482134979631157e-01
-6.196406184893289426e-01 -4.171587878093178658e-01 1.968320841145771716e-01
-2.933074508402505054e-01 -1.612918547191768692e-01 -4.940840469009960545e-01
-4.339016414364016416e-02 1.712597344899674801e-01 -8.303582695796577484e-01
-4.974037021682590209e-01 -7.294864276665357083e-01 -3.231626393273114850e-01
3.339531346992854477e-01 7.792759220831411149e-01 -4.746975466723543091e-01
8.667021368023035410e-02 -2.341849291687720380e-01 4.982573832877955078e-01
-3.968522945392696233e-01 -2.985561823578882223e-01 -3.928737628978282714e-01
-3.619430470974176473e-01 -7.774778783594326059e-01 -4.739050834276194446e-01
-1.317034522829767240e-01 -2.735338987824955659e-01 1.245190866673245855e-01
1.848804577929929749e-01 -5.779924531103233232e-01 -2.756758088571468757e-01
-5.314470223219409650e-01 -8.914547610573612946e-02 4.609018364950329683e-01
1.535035274229100410e-01 -9.891084235688736570e-02 -2.872739810181553222e-01
-7.677404949638197418e-02 -2.312339784397687281e-01 -1.957170524360926367e-01
-7.919555071123385304e-02 -6.331094014766415479e-02 3.228193919285814451e-01
-6.565946775090905109e-03 6.258995952334153179e-01 -2.739583683266347269e-01
-4.662269888325490386e-01 7.624228055447511421e-02 5.166182361206895779e-01
-5.184274642747477291e-02 -2.199421465145775523e-01 -2.126987933354277660e-01
2.102836869032101083e-02 1.318706091752336051e-01 9.766359382468392525e-01
3.870404686051185511e-03 -8.363796534685695727e-01 -3.738848171418658883e-01
-8.831582568462611332e-03 -2.894841504906362495e-01 -9.299819768050507918e-01
3.587597523498587543e-02 3.665314786722581597e-01 -9.859225076837162260e-02
-1.794612894547199244e-01 8.261504521186079086e-02 3.259510140391247979e-01
5.966409561259674588e-01 6.928551557638135128e-01 1.247257930576601975e-01
3.319374393279886926e-01 -2.376863591293817690e-01 -3.892794909732928410e-01
-3.023212338033489099e-01 -3.560854867964467485e-01 -7.315265058896104344e-01
-2.026938900589806414e-01 2.886692073074724196e-01 3.298030451025120158e-01
-4.661067250875905454e-01 -3.835272654799418146e-01 -3.331836651832206786e-01
1.419247100338461021e-01 -1.736131543264107235e-01 -9.589900169486021975e-01
-1.302002966520214022e-01 -9.359224459125642381e-02 2.955191256267316602e-01
-2.349062223719452711e-02 4.313939330174938469e-01 -3.031394174989801571e-01
4.197507219308345694e-01 8.148115531751612961e-01 3.893557328826308117e-01
-4.277475762007655891e-01 -3.303366882642457258e-01 -3.227130356662936128e-01
-7.532126576677287966e-02 -7.722320445214556628e-01 3.392079255643290492e-01
-2.059437378965690568e-01 -4.129603908708917928e-03 -5.775394232212839318e-01
-3.551194890502563234e-02 2.245904241853918237e-01 -3.765460686571531768e-01
-4.076902440436189212e-02 5.106339754971902511e-01 -2.737182827198275312e-02
9.654759929571821164e-02 2.782004147680733341e-01 -8.718552601542152170e-01
-3.940534733861800198e-02 6.335840140866358938e-01 -7.946663872878449719e-02
-4.744015924966322184e-01 -3.023179330711680234e-03 4.513487061202156592e-01
-2.531788084914912695e-02 6.958818845605715397e-01 -8.139979505559258310e-02
5.940646158816680344e-01 4.480863716632478844e-01 -5.914695827008153994e-01
4.473176686653511369e-02 1.664573326446611434e-01 -2.907415325210457868e-01
2.535452299395901110e-01 7.675451102746888576e-02 5.690079566305488168e-01
3.821099565696715189e-02 -7.057422639497125116e-01 9.396665777507191841e-02
2.402246966459989919e-01 4.375008340821139041e-02 6.169990329274042118e-01
-1.086558044102937798e-01 -2.729672731261287844e-01 1.620721899548316636e-01
-3.388255825567693807e-02 4.370261072551058223e-01 -3.969518936621682093e-01
-1.939281433341516481e-01 -6.481649163472256170e-01 6.635976256268233398e-01
-2.097708930274361575e-02 7.905215122232597258e-01 8.792161408722050375e-02
-3.176836473389706428e-01 1.952431938972435110e-01 4.066306286080521026e-01
-1.582999318446530728e-04 4.263205516599899436e-01 -1.046558621888537821e-01
-8.420990451972604207e-02 -8.154049323704283259e-01 2.612584621692992104e-01
5.408684790337762172e-01 7.376307127593582091e-01 2.610685087068178034e-01
1.762251300123019171e-01 9.279132978473997317e-01 8.846699314421732629e-02
5.195254609332167206e-01 1.282445073784671541e-01 -3.334821870781390918e-01
5.029479145913832161e-01 7.587581944807250123e-01 -4.001097995697598386e-01
2.861434029131700307e-01 1.602285465063038594e-01 4.565322819030503965e-01
-1.724674293481197052e-01 -5.016893880836355013e-01 -8.098195738457413251e-01
2.983578726468174777e-02 5.246741758700638192e-01 -5.895888223226414260e-01
-3.136478132812979824e-01 -8.458360935841681139e-01 3.934179207411441781e-01
2.071870921116784892e-02 -5.013796768420547556e-01 5.440043505611262820e-01
-5.991462267349154797e-02 7.792958307410064421e-03 9.903895005573339905e-01
1.779006506378889574e-01 -2.362093214780774664e-01 -2.804991751358344443e-01
-2.500498718345517402e-02 -2.433845075260551993e-01 -1.958805659064775662e-01
-4.583700615081819363e-01 4.490856288296277143e-02 8.212428442768741066e-01
-3.607894262448593237e-01 -5.153640464602313731e-01 -6.496511490434019320e-01
-5.110839947151462059e-01 -4.255166878102569217e-01 -2.432829068161016794e-01
-1.993435336288618687e-01 4.072629922774877453e-01 3.191438160879093711e-01
4.098523222003727096e-01 2.972489393204148511e-01 3.809741590762089070e-01
-4.405552069962647560e-02 8.595358157198619564e-02 -3.717882486720736068e-01
3.281816266680847582e-01 -4.279061377881235306e-01 -6.562227003052846230e-01
-1.892629244743065098e-01 -9.427469082012437940e-02 2.780949919721464880e-01
-2.829811190999080572e-02 -2.342988520192375024e-01 3.065634639843977105e-01
3.259986515317229161e-01 9.187164521850601506e-01 2.354013594779338636e-01
3.996746606582674555e-01 1.973444521731629597e-01 -1.432632560984284376e-01
-6.302232059562395960e-01 -4.237865719788971863e-01 2.430495428775562017e-01
-2.213550833572482199e-03 2.494081497921926405e-01 -3.195684720445304827e-01
1.992734198072520779e-01 2.251667722291035290e-01 -1.177916383757834917e-01
1.524245706043281766e-02 -1.802282140970661029e-01 8.969246724754628142e-01
-4.818267487915474656e-01 -7.368162920754646183e-01 -3.470237596119450929e-01
8.274167048998255563e-04 6.399492592842792593e-01 -2.893602006203478960e-01
-5.757395762221149127e-01 -6.491526219055373526e-01 -1.748555201307888107e-01
-3.995887781516403031e-02 4.671302042728325277e-01 3.119459871592645400e-02
-1.634317219411965116e-01 -7.348112131546837844e-01 5.284243504030373684e-01
4.881761706716551963e-01 5.573612342280349630e-01 4.836960721697342591e-01
-3.406236087819992098e-01 2.793648600364221357e-01 4.662859876664330883e-01
-8.905921768979306596e-02 -7.005464015209340589e-01 4.956288458670137231e-01
2.550473683331738739e-01 9.227338581770151427e-01 2.689230921928793538e-01
-2.275347755697819940e-01 -1.664910811402969537e-01 -7.799135159122890792e-01
4.841167688504314781e-01 -6.773187965769759955e-02 -4.862079278034457941e-01
5.603479481775740512e-01 8.022165818344207944e-01 -1.191087421457232530e-02
3.340700713335239547e-01 4.299435774066390215e-01 7.403078627450481175e-01
6.452497007285167285e-01 4.310343298525579070e-01 -2.269251040448311829e-01
3.278884113014280954e-01 8.709308689059505060e-01 3.867591743497024726e-01
-5.167190561689437578e-01 -4.828823366837207698e-01 7.085115987438307394e-01
5.245066625991604559e-01 -3.001223506000579716e-02 -5.791192119751460421e-01
1.122502533946598963e-02 6.873848311957896362e-01 -2.512000521821043941e-01
-5.167053928789159256e-01 -7.231995953755407935e-01 -2.862166742323108415e-01
1.924835336501998229e-01 -4.290311984136049167e-02 7.106294051417776370e-01
-7.051902806740582841e-02 -6.522900739415652405e-01 5.409255082525555869e-01
3.276722866277246293e-01 7.090968456673604203e-01 -5.754452587027772958e-01
6.855615509021219071e-03 4.130285095947185958e-01 -8.296586311777150169e-02
1.358036542111030753e-01 8.806086509294560605e-01 4.086497533754738787e-01
-5.011514367000676762e-01 -6.581075943114352844e-01 -3.725506139368401914e-01
-1.885946233712137154e-01 -6.420163438605713813e-01 -7.213484021712174288e-01
1.639203839004822749e-01 3.744788664374912313e-01 8.924826955931438599e-01
-9.023404652161848283e-02 8.919466910618534250e-02 1.000000000000000000e+00
7.801715323686861381e-02 8.075367120293004686e-02 -2.893990492027521677e-01
-5.008612080386427579e-01 -3.423426558552095100e-01 -9.415853237328462508e-03
1.029198602989562644e-01 -1.773118441699826631e-02 8.973582301808799011e-01
-9.445470170746106398e-02 6.565268589387361631e-02 -8.364294506569321941e-01
-2.387409727211712851e-01 1.508303398295071096e-01 3.487646924215100919e-01
1.625933475272882123e-01 2.010235917195887234e-01 -1.762817722426393563e-01
-4.696839143736525335e-01 -3.017244882229789815e-01 4.311983986436755678e-02
2.816524636521330893e-01 1.559812183259129403e-01 4.558137357589929217e-01
1.003308194165384998e-01 -1.935143559344672803e-01 -2.613873741629792469e-01
-2.180683047114647943e-01 5.014438744758118460e-01 7.771195556838103036e-01
5.037716650868663548e-02 -5.986400842373169606e-01 1.195706618332078586e-01
-3.323343316546403248e-01 -2.706473906189704737e-01 -1.616781238835931778e-01
-2.512473175539231551e-01 2.891545096183873453e-01 3.694079205039651481e-01
-4.427237145701065080e-01 -4.191976887151779296e-01 -4.847439648875409568e-01
3.934114093263009759e-01 2.726597446193290697e-01 3.889959291880313447e-02
6.542566050501367192e-01 4.549986333734842292e-01 -3.107936514673955153e-01
2.588250687794974025e-01 -3.385937253270060454e-01 -8.591954005067102829e-01
-4.591259181731888184e-01 -3.892951230668851847e-01 -3.830538604471326880e-01
-5.155715234832632943e-01 -3.636603034066673290e-01 -3.313894005219881339e-02
-3.739297188974493036e-01 -2.881233360999949089e-01 -1.596417175921683029e-01
3.557863064978194489e-01 -3.492557441742204505e-01 -4.932688570320806765e-01
-6.566163289516265857e-03 8.216099634957862996e-01 1.391847317678818752e-01
-3.077194881957443506e-01 -8.339020509375544288e-01 4.186841260037896251e-01
1.592042491954589467e-01 6.534800215569754045e-02 8.732742716746391132e-01
-2.328622447143766094e-01 5.400254077756688753e-01 4.356465127808629156e-01
-6.020891980477323102e-01 -7.206429840304525714e-01 6.125394181710870634e-02
-3.987114579182755580e-01 -8.898274305557144492e-01 -2.041296494387853100e-01
2.834877207835727608e-01 -2.121384830288527978e-01 -3.417687577767538065e-01
-5.647522044284961629e-01 -1.084071455254116967e-01 5.734186128462406273e-01
-5.267473081579381045e-02 -4.118126035853679479e-02 -9.109653917347949603e-01
1.550901732595025007e-01 7.410521949689730103e-01 -4.608288041837091953e-01
1.899102137754053454e-01 2.151422653905723237e-01 -9.221412865396584335e-01
5.936816356292642233e-02 -8.019077565951574504e-01 -3.296433687131574697e-01
4.852893456800677630e-01 4.874536877859463879e-01 4.784814485499874759e-01
-5.849847160127508855e-02 -7.629355720445306632e-01 -6.089689526485655424e-01
3.154539631263172245e-02 3.595510446238542324e-01 4.449928449290019988e-02
1.754745272126301547e-01 -6.713798028397763851e-01 -4.211695111108066381e-01
-5.648391229651593681e-01 -6.477044437960803869e-01 -2.120878531627896357e-01
-1.952591613494240042e-01 -2.697653401520425653e-01 -5.030273502457874996e-02
-1.538516750636282626e-01 3.456439351740553945e-01 2.802643171591351345e-01
-3.888248296811073201e-01 -2.888953768242858433e-01 -3.597709066912477271e-01
-2.813080299292718134e-02 3.663160057530722713e-01 1.402648779964126846e-01
2.442627624541540698e-01 -8.969872902121561742e-02 -3.030493188236607072e-01
5.836377265582078783e-02 2.025233425547171562e-01 2.607267630480279985e-01
-5.628204917119300488e-01 -7.922132177837545308e-01 9.469031569722477504e-02
-7.008840536371721552e-02 9.268745080261051039e-02 -4.000870418570713904e-01
2.571586065636822793e-01 5.384555652846285678e-01 7.825372679576330093e-01
-5.920927199233220195e-01 -5.988037036252216172e-01 -1.249562002287009227e-01
8.548714845556815156e-02 -2.891170224558403112e-01 5.403621939153414599e-01
-3.090064416970415839e-02 -3.163498540665254932e-01 2.367059449196630694e-01
-6.348216898609949643e-01 -6.142754683163499374e-01 1.269042595130883133e-01
-5.175525204274781382e-02 -3.226621917331813916e-01 8.625527164934125857e-01
-4.968085100584432312e-01 -5.029504896038617945e-01 -3.937942352856221850e-01
1.346999653062725122e-01 -4.291463813320409715e-01 -1.875414645666025060e-01
-1.734640059374427390e-01 6.255924454037441462e-01 6.424999663456949506e-01
6.825162869797690712e-02 -3.592969564772522939e-01 5.748137101924243320e-01
-3.163648812866895477e-01 2.196548579499507381e-01 4.132657344962314960e-01
2.649344068261073604e-01 2.633132018308475750e-02 -2.705233213669095416e-01
-5.983740133687778240e-01 -4.063019713496435203e-01 1.279337323356122269e-01
-2.027911748241972290e-01 6.157847832422117529e-01 4.841659861004113941e-01
7.903786612604551953e-02 -3.205225781542720420e-01 6.334067604244065786e-01
-3.127951140823818643e-01 -1.944972213771669622e-01 1.687714264856877422e-01
5.015260625198394440e-01 5.059286213688984901e-01 4.445779617384251203e-01
2.363845162937321387e-01 6.093988632314097931e-01 7.571732406437247098e-01
5.237400420226010489e-01 -6.993012942637464452e-03 -5.137136097202918972e-01
-3.760265784291660363e-01 -1.474131257680537377e-01 2.410838818499446423e-01
-1.798461740968800293e-01 2.374685139391408822e-02 3.186426600503124984e-01
-1.850555607838186567e-01 6.266690568582892196e-01 6.060239161298612842e-01
-1.307698909395803022e-01 7.108302740498800842e-01 4.699165081499437346e-01
1.703778489381448102e-03 -3.668978068782381974e-01 2.608363343227007580e-01
-2.139761041678276410e-01 -7.055981622473515014e-01 6.018309747995176373e-01
-5.090161952995331945e-02 2.299277655321130542e-01 -4.044688743048263091e-01
3.360719116899418824e-01 9.070163787808906974e-01 -1.696977648215093060e-01
5.635540344656597006e-02 3.158397645182389746e-01 -1.609391325611385648e-01
6.061294619588343258e-01 2.202129111640282744e-01 -5.572860017929790466e-01
-6.158717557108709384e-01 -3.065358842004062834e-01 5.498495071054945171e-01
2.886788460771363418e-01 1.238989814785458193e-01 -2.091240667192762748e-01
3.283662590170844386e-01 2.207636701774380872e-01 6.656700291178181406e-01
3.458630218888401886e-02 -4.956811074214722557e-01 4.286310641985964232e-01
9.240386673147163443e-02 -3.741583686785385776e-01 -9.077990824678305870e-01
-2.440709385106074325e-01 4.586806917010004953e-02 3.308234292879388416e-01
1.035958314869351027e-01 -8.381873368897788112e-02 -2.864456396743228495e-01
3.001893051287813363e-01 2.589226751154584116e-01 1.593871943201801422e-01
-1.672132453024881560e-01 -8.382286395023869074e-01 -4.944928509038636344e-01
2.133473158335660036e-01 5.367190362583909025e-01 8.105743010988137875e-01
-2.567960202521976654e-01 -9.438650717764643372e-02 -5.665669834487915280e-01
4.217284428314543310e-01 1.873166757065555243e-01 -1.693971167225943875e-01
-1.702883890823275259e-03 1.828171627430984214e-01 -3.333411609106380347e-01
-9.266630569142841889e-02 6.879374127947107675e-01 6.505029172580485408e-01
-2.184721949514641104e-01 5.250204877044207796e-01 3.815135077268759223e-01
-1.958406021838825506e-01 9.242017934459255402e-02 9.939458761127640818e-01
-6.271235227695163283e-01 -6.529059392980928189e-01 2.515824772692443756e-01
-4.571527736878647219e-03 -8.551487522671695762e-01 -2.564310142889766331e-01
4.663912822807890768e-01 2.056880635943402480e-01 -8.265540082493337826e-01
9.565489735882841404e-02 -1.306937113101251935e-01 8.428772247027018771e-01
-5.541479195005551972e-01 -9.500607950137794633e-02 6.681701291323592917e-01
5.866947718062053285e-01 3.393466178226132168e-01 -6.443288645853498808e-01
3.041429810029600000e-01 7.093126144986630077e-01 -5.757277877258453191e-01
2.920644236954548778e-01 7.520396436997499601e-01 -5.162305529436479468e-01
6.203186285018947865e-01 6.518147105010375641e-01 -3.203355333221500900e-01
5.864899897588210509e-01 4.460241050963604792e-01 -6.069980508635335337e-01
4.157785558391303704e-01 -1.744375042005243959e-01 -4.597589990369561619e-01
-1.246328658184833738e-01 -1.110511596077542046e-01 2.908324324109170522e-01
5.023877993023352362e-01 3.682143774590184160e-01 1.804797273572171512e-01
4.633118070367951702e-02 -5.082048808025110276e-01 7.304699361342882613e-02
8.809323297072348125e-02 3.182530104436988028e-01 -5.188920395291559545e-02
3.497462554122718337e-01 2.418221271195391264e-01 -3.638257576940367305e-02
1.829556232095059798e-01 4.263653883407415857e-02 8.312059172990229339e-01
2.880430260755993677e-02 -5.364998131842256823e-01 3.831321552638042860e-01
-6.462206359283098056e-01 -4.860818787622396275e-01 3.103339175273389094e-01
-4.227958266366329543e-01 -3.756079744951465460e-01 -4.982597900337685792e-01
4.559870444538954848e-02 -4.182928876628398962e-01 5.936484440396496698e-01
2.427915978704931269e-02 8.436520992610095915e-01 4.033949359234397791e-01
-3.651932948306348126e-02 5.587910301876978236e-01 -1.031906084016128433e-01
1.505591446298298330e-01 -3.488386889992281525e-02 -2.855818611533121887e-01
9.461440292906386773e-02 -7.578645016497226328e-01 -4.453499844087359105e-01
-1.074349731210591102e-01 -1.346617452898937750e-01 -2.986984234388170290e-01
-2.541257802842223495e-02 4.906644714597958590e-01 -3.404591463229628689e-01
-3.700446400455060236e-01 2.363917116752444481e-01 4.846281040069833068e-01
1.678075015730489949e-01 -6.744781181547885307e-01 -5.112607235720224574e-01
-6.077585822304515384e-01 -2.506658849980961112e-01 5.115580671612651731e-01
-2.333793572224199531e-01 -6.884195344638350811e-01 6.310384554869756801e-01
2.417101991568897656e-01 6.590643117142049034e-02 -2.505884110310803714e-01
4.354554642105422091e-01 -1.516302626444550605e-01 -4.742323627742077718e-01
1.953687609298246364e-03 5.756642226652765038e-01 -4.160968186267781643e-01
1.302026275845774850e-01 -9.159147094553253543e-02 5.021199174649231267e-01
-1.332802163610167234e-01 -2.697257731952030779e-01 1.314618956938415073e-01
-3.427916194750943446e-01 -9.214136800298780017e-01 -1.696239552983177246e-01
7.433051061656562042e-02 2.946906767425502283e-01 9.473417066492983984e-01
2.920498501079841769e-01 2.093270134098202118e-01 -9.164468728408481368e-01
-9.044222469589779934e-02 5.312193503595679517e-02 -8.475137365075121609e-01
3.133931508703496904e-01 2.250755951706980007e-01 3.368422070103732069e-01
6.385129530953387311e-02 3.004389520184936879e-01 1.303934861398837464e-01
-3.003083411933666139e-02 7.830293954763885012e-01 5.187418104311002365e-01
2.047236662591243594e-01 -5.987043333739818785e-01 -3.526078715228225247e-01
1.718260922184661546e-02 -6.422403442619509795e-01 -7.382321634564066315e-01
5.369198899639141681e-02 2.935179927165426084e-01 1.523625316778533245e-01
-2.902482282668925606e-01 -1.773694773031202765e-01 9.575525267271640661e-01
-1.811333692776281173e-02 1.959655958676265741e-01 -8.404343080092959717e-01
-3.513620862074074980e-01 -2.437920978045408360e-01 -4.221511859086771734e-01
-2.017630535839463335e-01 6.035219274198053707e-01 4.301766430572698807e-01
1.533161161382224913e-01 2.828176932985990710e-01 -6.824627985829706924e-04
-1.290123194325539790e-01 7.112989521501232870e-01 4.845591096453563118e-01
-9.012501748721143957e-02 2.932570187424853314e-01 9.695043754120351576e-01
-1.931363705561311150e-01 5.527333768661051201e-03 -7.020360969840627741e-01
-5.416760780517519969e-01 -4.703796834423372430e-02 6.546839852082821931e-01
1.595047224387181883e-01 -3.518386374340565781e-01 -2.415171401459755840e-01
-6.440071163892795159e-02 2.253033402778845118e-01 2.735622389177412295e-01
-3.667649549428211864e-01 -2.618677472369798642e-01 -4.483295252220967364e-01
-9.478543048749620004e-02 -4.205589157918056264e-02 -3.597813833999814470e-01
9.539724160068822900e-02 2.852297529122050368e-01 1.311959779967984130e-01
-8.468544099991074390e-04 6.673578493092050534e-01 -2.343231228383814146e-01
-2.767685904257561891e-01 -2.109195219553283152e-01 -3.073787614847069971e-01
4.514588785669239671e-03 7.811413105227414944e-01 5.686443015393668476e-01
3.750099198468374029e-01 -4.391797784932965215e-02 -8.909121741712294762e-01
-3.197742523090851274e-01 -8.862128205366507361e-01 -3.230122164084712755e-01
-1.862573831720561179e-01 -4.252882241382603956e-01 8.569873727161737564e-01
-1.414622965528719301e-01 4.242495106934307536e-01 8.990113282466480893e-01
4.064151521345100160e-01 7.921976208270338216e-01 4.428180909258719877e-01
2.665579358063441262e-01 1.211116819831136310e-01 4.986851262647171157e-01
1.900126519016370058e-03 6.235930556751368981e-01 -3.241536431236783922e-01
1.912089720132160997e-01 -6.187490951553905605e-01 -3.356541158057848584e-01
9.141006864669484755e-02 -1.828487462203688962e-01 8.072898236591362631e-01
-6.286554852652852243e-02 9.310340350905130236e-02 -8.551643128822438156e-01
3.683862415000467849e-01 -1.951942163917078921e-01 -8.435717210668951527e-01
2.257112806908986510e-02 -4.468527846874472131e-01 2.430323992173109571e-01
-5.587958254022517418e-02 6.583289120532089811e-01 6.353907291931941079e-03
-6.840472631134543458e-02 2.974462251310596717e-01 -4.814151446285427349e-01
1.740840172987683787e-01 -4.022735668091130257e-01 -8.702626154377611778e-01
3.088555896376903309e-01 -2.359964612943285522e-01 -3.668100247841316608e-01
-1.168803943407080714e-01 -7.334374863704580527e-02 -3.533533777326107184e-01
1.121815938036435471e-02 3.002094174651085412e-01 1.774257067791392695e-01
6.583296383010703301e-02 -3.672505046612472568e-01 5.613397108170685712e-01
2.675205051714130700e-01 1.054238749862432267e-01 5.431388290621474990e-01
-5.188254970040733216e-01 -3.250844693535102636e-01 7.815752687484942007e-02
-7.726961574618945380e-03 8.133286805078955295e-01 1.081594326874707745e-01
3.166300671427485502e-01 -4.579556241108889147e-01 -6.061082428056636662e-01
3.352227709081517792e-01 -3.815701098132937563e-01 -4.754431243357701842e-01
-4.159767611202101478e-01 -3.221327692010764188e-01 -3.824004900113089911e-01
6.747186149174388969e-02 3.243587242013169503e-01 -1.110400880259455464e-01
2.407695435252965588e-01 3.934756360752598298e-02 -2.635238803100797833e-01
2.754302073653340233e-01 1.726808030047533582e-01 7.537233220811637713e-01
-6.774802664575915040e-03 -7.909547526057068012e-01 1.013945955116061642e-01
-4.625293354374162558e-01 -3.227617122999373311e-01 -4.199529421064009810e-02
-6.212297354920147674e-01 -4.533889579566632855e-01 1.429671762188152451e-01
1.871548423626048507e-01 1.299975903646578002e-01 -2.234012193974638238e-01
-9.870021008517229633e-02 -4.165096194148718012e-02 -3.627172896126899526e-01
-2.789577722929143314e-02 5.539039540533223782e-01 -1.767030521108826358e-01
-9.552728134820392958e-02 5.500282657450903390e-01 1.212923126207024055e-01
-4.998534534246905081e-01 -4.367298006345777805e-01 7.519239089000125942e-01
-5.700511015396335646e-01 -5.160633939629890587e-01 -1.639057386989774545e-01
4.655412913987698187e-01 2.064904723882750870e-01 -1.740232888522291188e-01
5.251788358724352596e-02 -4.121769620234116416e-01 5.008337926600237022e-01
3.044498173819172315e-01 1.562146132683402688e-01 -1.774639886176960779e-01
-4.955026236052252342e-01 -3.459102675777593339e-01 -3.563041707378134665e-02
-5.630844038909179616e-01 -1.093187425576492428e-01 5.482622399565307836e-01
2.984019686405373073e-01 -2.060312311905304061e-01 -3.512012243700690095e-01
-3.575186997727454186e-01 -9.104553805500653629e-01 -1.979566473394659409e-01
5.451577079342833088e-01 7.270163184393022560e-01 2.628239960330320257e-01
1.294522415859566400e-01 -1.089932476559734853e-01 5.136965874474443972e-01
-2.668775463701920647e-01 -5.155033141741872660e-01 -7.444513097850775640e-01
-5.097266009239822399e-02 -3.887431275189052182e-01 -8.950267490948848881e-01
-2.358278866674221041e-01 -2.639307269215921403e-01 -3.894559764069836175e-03
4.939708210625769202e-02 -5.406216674299038072e-01 -8.195387289449047596e-01
-1.829594470191673872e-01 8.965776566147141968e-02 3.269780827419940805e-01
-1.750863304345448290e-01 2.808072895776171293e-02 -7.269820639250038630e-01
-9.863546754643809367e-02 -9.044271359778657260e-01 -4.055146167147427594e-02
3.687792105146492361e-01 8.489313741988225859e-01 -3.324682126510885016e-01
-3.108121974774200047e-01 3.481083612525179838e-01 8.220414392255643854e-01
2.118869452619739913e-02 2.724981611434489359e-01 2.021569866907272639e-01
-2.199675912015541801e-01 -7.939067709673671702e-01 -5.531001011929910227e-01
6.291881686416458952e-02 3.340684566921943155e-01 3.977720727026265446e-02
-6.224257108992599374e-02 1.064310941158129603e-01 3.167800571517839781e-01
2.306283129518955644e-01 5.681294539957974787e-02 7.453330175218439990e-01
5.899869946215187122e-01 1.712452248115069742e-01 -5.962868014206738065e-01
-2.132340897822884163e-01 -1.435018995785351803e-01 -7.900348955162306286e-01
-4.639747798711048032e-01 -8.684825879860810227e-01 -1.170257515280266752e-01
9.764467349342698110e-02 -5.077138309413700146e-01 -8.747134432255562753e-02
5.796304951924487886e-02 -6.897907394901705569e-01 3.342315412994269208e-02
3.266529429174437615e-02 -5.098461251351956713e-01 4.036139996359310311e-01
-2.524219839605385540e-01 3.733782340694569712e-01 3.827147303743025364e-01
1.040316209476879195e-01 -2.553435588533658485e-01 6.423559717644893308e-01
-1.778899195286548773e-01 -8.031593805780270698e-03 3.118978223642204228e-01
1.995343378964599679e-01 -5.345698522227768645e-01 -2.869958514602590771e-01
-5.074551374031763817e-01 -2.653587262006403269e-01 1.793667117517294129e-01
-4.253219739271448252e-01 -7.256645534829236910e-01 5.567104485272227343e-01
-5.948511462724932475e-01 -2.071386512847627204e-01 5.716622318503584710e-01
3.930135447676734173e-01 6.812648969960586331e-01 -5.937737425052301843e-01
4.834792265496390407e-01 8.210851046093045058e-01 -2.926839054071862511e-01
8.616832358184686735e-02 3.121905565783143488e-01 -8.914027582102228286e-02
2.227922297591074796e-01 -2.877505337853534240e-01 -3.034226952475000405e-01
-3.885186133445661105e-01 -6.679966814172990652e-01 -5.480364219825875072e-01
-5.257770349468267046e-01 -7.112627856952891299e-03 5.842788222193353587e-01
1.229618480030890276e-01 -6.976339608520815139e-01 -5.714112797589203652e-01
-2.312045360550200185e-02 2.442827124207526956e-01 -8.025596422548980646e-01
-9.651200678411867018e-02 6.537803231626582168e-01 1.436193605368779047e-01
-3.860353353004417759e-02 3.088688818125840396e-01 -3.832318952938723045e-01
-1.628936509208049332e-01 6.258827415991426169e-02 3.228208333108514294e-01
1.258749032876935962e-03 8.035231774894583401e-01 5.082970167679247142e-01
-3.693324996768282409e-01 -2.673217157119944787e-01 -3.795161160529124666e-01
-6.798668998226992111e-02 -7.639237503295962517e-01 3.404733209105643144e-01
-1.261968357812409680e-01 4.492671020873962862e-01 2.144502984009924174e-01
-1.677569529291386419e-01 5.771975711882079002e-02 -7.056104523736319578e-01
9.325716058188955604e-02 -4.546329390323631398e-02 4.289614646409620757e-01
3.436283369634916540e-01 2.452774214277672893e-01 6.505542864665601055e-01
-1.375856270304789269e-02 -2.327493984022995788e-01 3.255635208584157225e-01
-3.408183118815209366e-03 6.603027562280154861e-01 -2.339031284048545822e-01
6.485258762200019067e-01 5.689202532764580100e-01 -3.061392204103922099e-01
-1.104640046738474268e-01 -2.727058767017504493e-01 1.598083026271042983e-01
-4.398011040630527280e-01 -3.546940844261536885e-01 -3.762257162136106170e-01
-6.268026174492016267e-01 -6.630154004968010772e-01 1.743798873824627671e-01
1.196574405195651725e-01 8.098379459275019121e-01 -2.804368597451382117e-01
3.544962318584083394e-01 9.273846268994107023e-01 -2.939923087333601998e-02
-2.826920554088255266e-01 -2.386061804672886810e-01 -2.346014247084264315e-01
4.245902339806938985e-01 -2.225197798989783926e-01 -5.253681217420624883e-01
2.311478405276795045e-01 2.623274806465412667e-01 4.473149955148801593e-02
6.326376254379234565e-01 3.454471931175946420e-01 -4.959868368390236149e-01
-1.861745502453684697e-01 -5.383154782805391614e-01 -7.863177154507084987e-01
-2.898559348261357527e-01 -1.489017613670673423e-01 -5.574632867806397218e-01
-3.015048357471483143e-01 -3.601653948554595086e-01 -7.330053587383629221e-01
-2.596693300073026900e-01 -7.352534839831306179e-01 5.767317846538471127e-01
2.801473942252516794e-02 1.858461353535888760e-01 2.771692886185976867e-01
2.149040140581016251e-02 -6.388491269156556518e-01 2.632732098831886414e-01
-6.395241337186914343e-01 -5.819115839092006137e-01 3.188763320116871358e-01
-1.997345296144025228e-01 -1.064746501189101913e-01 2.690255867816541135e-01
-9.623411292666930739e-02 -2.586927696913779440e-01 -1.502829619093326297e-01
-5.297131493363859134e-01 -5.902926758255911954e-01 -3.264963319758128479e-01
5.172428409193569054e-01 3.832065045535825165e-01 1.745226138248001657e-01
4.401812642206056059e-01 1.426177705491126768e-01 -2.361828113762792503e-01
1.109048130453689079e-01 -4.642258592690048369e-01 -1.361858250120107083e-01
-4.402899842620054960e-01 -4.141365347950609066e-01 -4.871189306028377297e-01
-2.047856537237598695e-01 1.920155214855747989e-03 -5.971441393478875703e-01
-4.389286755262291617e-01 -8.305150575833314397e-02 3.403347472418302155e-01
-6.124783202613343081e-01 -5.948353878330855382e-01 -3.438145257273251404e-02
-6.389543349452362353e-01 -4.105304621616933658e-01 3.562706917232754678e-01
-2.241774364984082391e-02 6.281673262144538139e-01 -1.754008095012205282e-01
-1.262686653665021259e-02 -7.079562098103900913e-01 -6.717543767888614070e-01
5.590646663426872970e-02 -2.215106425745961838e-01 4.292260665529106789e-01
1.992985951923883781e-01 1.363921995106636142e-01 -9.444607231468573616e-01
5.808806181431103166e-01 7.612716037335058861e-01 5.517093098449413202e-02
5.959975975366924722e-02 -3.791442963752055806e-01 6.025621591955290235e-01
3.328949992793295287e-01 2.272654824481594449e-01 -6.882351737765089739e-02
1.497463901905560779e-01 4.852743871621189448e-02 4.227322784848476234e-01
-2.475586888984035727e-01 -2.250944938315315932e-02 3.078940950136590526e-01
5.051232519123918241e-01 8.501668983256536194e-01 -1.245058694907731078e-01
-5.978501760643004648e-01 -5.827967554930114646e-01 -9.873797387306959550e-02
1.225018666716850557e-01 6.914766243298386961e-01 -5.020896354084450897e-01
-2.519818870014126633e-01 -1.038231129782967999e-01 -5.006463074950728842e-01
2.560036319356118195e-02 -6.643147454552849052e-01 -7.113048756305286879e-01
4.701540576462443638e-02 -4.606718269446415104e-02 3.906219755198859778e-01
2.158528164883905254e-01 3.083250122361646476e-03 7.026168292009913330e-01
3.143114615053376193e-01 4.782924105596834674e-01 -7.909123002449226503e-01
-1.443580655451318917e-01 -7.625755167233195797e-01 4.645085340220273529e-01
2.916330944719466856e-01 4.859764127935901068e-01 -7.877805639415829120e-01
5.268452981473112917e-01 8.064662689409550778e-01 -2.432759864432467722e-01
-4.306796652724851904e-01 -3.288261468640587548e-01 -2.633198642960691838e-01
2.509022301984039638e-01 6.617473043657208231e-01 -6.256613055232322917e-01
-2.237347686254777257e-01 -7.307491211118233299e-01 -6.273811216573274008e-01
-1.859594978489177708e-01 -7.095271090242449841e-01 5.817460310932812684e-01
-1.221913777601724010e-01 -1.918759145254866627e-01 -2.436034583615760141e-01
2.525444884698978543e-01 -4.387970790015396361e-01 -3.507029622048999928e-01
-2.765947831195764151e-02 4.577510409385524559e-01 2.075666845654418335e-03
-2.922344380455133561e-01 -1.586780630210136711e-01 9.605888637649605544e-01
3.423611664384369063e-02 -7.818804361925186797e-01 -3.312199670889792724e-02
1.444077715746003854e-01 2.588118414502837417e-01 -1.098598571257763390e-01
1.850962270281342748e-01 9.236752316436294130e-01 2.439056804187144101e-01
4.573110408503521657e-02 6.724916886826792783e-01 -3.938188572104123208e-01
-2.444713421137877226e-04 -7.697797985474001958e-01 -5.698763699258411197e-01
-1.390115933705677875e-01 6.114760924584717455e-02 -4.793782182703549832e-01
-2.311450526311146780e-01 -2.278685636509551193e-01 1.291804712067454453e-01
-2.983246668894997122e-01 -2.635316398721984643e-01 -1.852155285924152531e-02
-4.837671516596339094e-01 -5.409755374563312014e-01 -4.374852895890838367e-01
3.569429549193900986e-01 -3.317489996400569963e-01 -4.779945179923600906e-01
-1.404219008194703723e-02 4.538255604340053484e-01 -1.887809671003716216e-01
6.094811007972001926e-01 5.987923929680820656e-01 1.272000703874247018e-01
-1.562904690202149005e-01 5.859066695590640084e-01 7.399329655964617114e-01
5.867450916303270508e-02 -2.609412519044932433e-01 -9.446592257824112382e-01
-2.403732768559192212e-01 -9.399835826582217946e-01 -1.436720235863754580e-01
-8.978672227013129170e-02 2.406799796367687927e-01 -6.749844241438083259e-01
3.026391492649655457e-01 2.575232689242803463e-01 3.954088947087316952e-02
4.530239710150019694e-01 3.359498616928444648e-01 2.827529694277018946e-01
3.525259096619953181e-01 2.258094117727415806e-01 5.283951780137470244e-01
5.063150590232836507e-02 6.603403262469864643e-01 7.614782979975774913e-01
-6.009345451299121788e-01 -5.875653527288878797e-01 -8.670513943022541137e-02
9.520842429855058686e-02 -7.060436265922085397e-01 -1.229722036799369422e-01
1.185993020917846807e-01 -7.300031252726740805e-01 -2.768999216568263644e-01
2.532271463997158301e-01 -4.885049747862387770e-01 -3.762887775036711235e-01
3.056424636851908794e-01 8.269206481229000039e-01 4.902827544335395249e-01
4.324826115636742907e-01 3.165346743861863765e-01 2.737165056411049457e-01
-4.470493433530646210e-01 -7.784921469434638031e-01 4.588540514707997731e-01
3.293923293103520611e-01 2.663784133959447575e-01 1.347137240811484005e-01
4.347448101536399712e-01 -9.355027788542170930e-02 -4.266279864897022378e-01
2.463629763480573442e-01 -1.509796274409259120e-01 -3.128801976559371090e-01
1.515433564618124118e-01 2.351827499483554185e-01 2.082936789609309280e-01
2.491450381543337811e-02 2.833040506824828220e-01 -2.588415290860244244e-01
5.017187768634266964e-01 4.537925029321754344e-01 -7.134595204969661486e-01
-2.093795258314727903e-01 -2.363872005442133051e-01 -8.222332072473048648e-01
-6.210643353832364655e-01 -4.041377341139538726e-01 5.456475910630723680e-01
4.668459443392247721e-01 4.475083382013465005e-01 5.042800859538114633e-01
-5.745632717529993716e-01 -4.908780105296590146e-01 -1.151607134401719384e-01
-2.360583635138129716e-02 6.065460914325339070e-01 -1.891006495635555729e-01
1.685896690256048769e-01 -6.903234087521653572e-02 5.651814379465996963e-01
-4.666622535427547014e-01 -2.891446633737958516e-01 7.138631749972469687e-02
1.479716334448250015e-01 8.816142479365262075e-01 -1.293060097274391640e-01
4.009251095163149196e-03 -2.889240530966953602e-02 -3.155997867775369170e-01
1.194346473795785263e-01 -7.291255389478176197e-01 -2.784622202623566189e-01
-5.003163043659760723e-01 -3.969595392607473960e-01 -2.073909804703174542e-01
-2.506336346543538984e-01 5.456233510913542917e-01 5.391020986638275225e-01
-5.172525022588646965e-02 2.227784656385726203e-01 -4.049315804989310208e-01
3.651411341166754809e-02 3.437456077999743731e-01 -1.639523688710523008e-01
-5.350791432489392374e-01 -8.051605908944799994e-01 -7.936655906321035681e-02
-6.231905396856062263e-01 -5.882641619117556786e-01 4.112821232153244244e-01
2.801351047152743079e-01 -3.433805025903262087e-01 -3.631326074363251943e-01
3.022310863583715663e-03 -8.490469633832963270e-01 -2.748356352203429886e-01
2.010112773876317205e-02 -2.133104678282950195e-01 3.751397934212842844e-01
-1.631666155550243469e-01 5.670195590985301765e-03 3.156754337706745850e-01
6.093153742334183054e-01 2.327593431196300078e-01 -4.228064139275460875e-01
4.713678203874732131e-01 6.054876576292596013e-01 -6.275278354798246028e-01
-5.557809102741001483e-01 -3.751599867318577974e-01 5.426321387699483551e-02
1.784902962221313616e-01 -1.959667048169518727e-02 -2.825987961283060179e-01
1.760553486611017293e-01 -8.157286977483327317e-02 6.973989447275972253e-01
-7.070399862006865321e-02 -2.458767674042660889e-01 -1.785479200056395155e-01
-2.526076649112981784e-02 5.705534049489698889e-01 -2.024773118212312428e-01
-2.943229585823784467e-01 -1.904289653057052445e-01 -6.616569321485582522e-01
-5.582961686604566154e-01 -1.278984811831034019e-01 6.857315434336721527e-01
1.515163373552564641e-01 -3.317800512923226308e-01 -9.136097034357086866e-01
2.017380682335813691e-01 -6.369524793400493934e-01 -4.724558868162766490e-01
-2.267263979756896364e-01 -8.066753426763908497e-01 -5.321057037381684562e-01
2.464483722970259132e-03 1.578004334032456768e-01 -8.776325900874917263e-01
3.405184704460892942e-01 8.876752432184016328e-01 3.315739894006186073e-01
-3.879981372253420435e-01 -3.332836759843179064e-01 -5.555999331523618912e-01
2.134561462094576867e-01 1.931862362765088825e-01 2.997412909548834992e-01
4.891031190459466105e-01 5.972585499555495003e-01 -6.205427354906545290e-01
-1.239519100407236729e-02 -6.727509610580686417e-01 3.610686492261991898e-01
-5.341922667325226248e-01 -7.206712099329887211e-01 -2.443055732716378492e-01
-5.324309845776588335e-02 3.688850733240221502e-01 -5.587462108227708724e-01
-5.806027830482760610e-01 -6.544456964957996448e-01 4.527930011466848037e-01
-4.884062302465702610e-02 -2.906819977320491133e-01 2.328200935309212571e-01
5.054054792989516320e-01 7.731772710796362968e-01 -3.689951771480476372e-01
-9.636656291345825631e-02 -1.424950035463368458e-01 -2.881054884637681002e-01
1.965768886466297272e-01 1.843773601232477286e-02 -2.727854875415471336e-01
7.993303541868793105e-02 8.567303780576743799e-01 -5.937488264614456529e-02
1.511988864609119243e-01 8.530534866640902825e-02 -2.586026094604120806e-01
1.610451828814375708e-01 -6.664534204967882403e-01 -3.055751957332180080e-01
1.107526169088824120e-01 5.494688315605270601e-01 8.433888822347060943e-01
-4.211478949846406694e-01 -2.659835188646867410e-01 8.785094160019667475e-01
3.298191348711302928e-01 -4.190657774913393308e-01 -6.730329684297888804e-01
-8.634421054430159448e-02 5.994839319243296938e-01 9.139806984987940142e-02
1.602429600810418298e-01 8.419238741895054279e-01 -2.656282705363344765e-01
-3.737423197496216737e-02 3.445144740674787598e-01 -3.806900604794207221e-01
-1.149351522264482339e-01 -2.514523598117414660e-01 -1.563815267372082318e-01
8.156242956667633659e-02 6.529664290280811079e-01 7.696186810855791816e-01
1.356867356184988660e-01 -1.847549868089226888e-01 -2.734432494997978691e-01
-4.561560759474083127e-01 1.017938584911085159e-01 7.875373998557705368e-01
-1.750154096012131733e-01 -1.251507454192305746e-01 9.823396471070101610e-01
-2.004151221398061677e-01 1.004781199087447091e-01 3.312323834339396256e-01
5.771053873409350832e-01 2.851255128705942332e-01 -6.707501649510967390e-01
-2.609595140102751176e-01 5.144104785215940501e-01 6.699258947417027210e-01
-1.712072835614903699e-01 -8.556799863096363479e-02 -3.869289787593399588e-01
3.383170787956352871e-02 -8.051324713619445461e-01 -1.052099145419877618e-01
-1.777974115962585033e-01 2.780544134897078301e-02 -7.191652679744424681e-01
5.696751569233540202e-01 4.817470342715500231e-01 1.984218660881856278e-01
-2.713427101744244826e-02 3.667396932720445313e-01 9.470255042438370241e-01
3.546656133168735181e-02 3.624626646149948783e-01 -1.193729308780374365e-01
3.676834731385520971e-01 7.979228522094615750e-01 4.799212162359439704e-01
2.447963041794288808e-01 1.431650939899356545e-01 4.141842021672458296e-01
-1.202097124986662852e-01 1.863588377318662337e-01 -6.291133719309154326e-01
-5.403052039182214966e-02 1.754872763232606658e-01 9.921189349651440281e-01
5.192947449678145810e-01 6.759678525644775837e-02 -4.028923323358412634e-01
-9.068447480145115647e-02 7.400696184882546991e-01 2.595284908368657439e-01
-3.632995498946020030e-01 -7.654204734182413761e-01 5.292225464050435146e-01
-8.975354967248112825e-02 -8.136086062183791601e-01 2.772657895724409682e-01
-6.666668038010657715e-02 -5.126130864577432833e-02 3.292711945419450337e-01
2.022139596588098942e-01 2.677301299566992587e-01 3.453434793173208034e-02
6.259950918090047001e-01 5.471375092320469591e-01 3.312595230433037358e-02
-6.017732761704617378e-03 8.579827076352155441e-03 9.737864229849240161e-01
5.621152396716008193e-01 7.391910785894900693e-01 -3.293989301691411797e-01
-1.036427865401420290e-01 2.181395485196030437e-01 -6.566842492748187210e-01
1.545786727360110857e-01 1.339780004879628506e-01 -2.339451496302067390e-01
-2.712776649991505140e-01 1.239795545789083991e-01 9.647993530083682767e-01
-3.078381912558776287e-02 1.160182336782625140e-01 9.910545737090463714e-01
3.204621244148797010e-01 9.104621136143912219e-01 -1.601667001546169533e-01
-2.818003809721807973e-01 -1.837033151869595371e-01 1.847107983787017738e-01
2.134297322883263459e-01 -5.283485905412072881e-04 6.013035663750168069e-01
-2.122159055059770205e-01 -2.467157190989074100e-01 9.827502655248902819e-02
-1.705923227443006673e-01 1.880783003569474199e-01 3.217476786464650296e-01
3.364603691666191443e-01 -4.227985852881034901e-01 -5.613999979861373779e-01
-4.138174856704385229e-01 -3.128762912335785185e-01 -2.327048058715311118e-01
2.935950632442801619e-02 -5.598551939604269334e-01 3.188401335494825406e-01
4.775650682008428793e-01 8.758185317610839293e-01 5.357089016556307315e-02
1.626358696894047440e-01 7.497326718664595324e-01 -4.540436060948487285e-01
2.388950713595998088e-01 7.370931183240789775e-01 -5.244623635689190655e-01
1.423491079962042015e-02 3.975138916718244930e-01 -1.155684079696707722e-01
4.292899796567051229e-01 3.184913159750114575e-01 3.730176305127059777e-01
4.820644306962835191e-01 6.333316905224452009e-01 4.747341532448957069e-01
8.507872354936114878e-02 7.085855955905417947e-01 -4.178115357012977538e-01
1.506096073832821902e-01 6.535430758881597413e-01 -5.835850251045611170e-01
-5.554674900191676201e-01 -5.547056124187241810e-01 -2.437159952467178869e-01
-6.107606747795087943e-01 -6.807044986775441231e-01 1.749327846367008596e-02
-3.208715335133103252e-01 -1.737339139819640832e-01 1.973924858383642733e-01
-4.951305163138694510e-01 -6.021949259254124609e-01 6.398260721468500556e-01
-2.553370877560166563e-01 -2.534314754210459375e-01 4.651338327088826857e-02
1.459459661014844978e-01 1.101260719262197735e-01 3.659641796933934543e-01
4.028497284012214075e-01 8.085538826107258048e-01 -4.014595652833844452e-01
3.265894970860870883e-01 4.163067131338493154e-01 7.500573729070215689e-01
-5.308155420360350929e-01 -2.345357201192567465e-02 6.787350696860140475e-01
-2.583400902671799393e-02 5.076244181962559221e-01 -1.392591334165618200e-01
-3.339420497487962658e-01 -1.495740708776499561e-02 9.525772879864713438e-01
-5.899814827868412603e-01 -7.033451426727834743e-01 3.381201682961526012e-01
1.023081360180496807e-01 2.246319948430666735e-01 -8.998369639023242605e-01
-1.564352832536082261e-01 9.283399938057751433e-02 -5.711075630540511927e-01
-8.568335777591015723e-02 2.715402195430333676e-01 -6.180729659226854578e-01
-1.330769493035835194e-01 5.288328006813537430e-01 2.075975994399194557e-01
3.854526231407029435e-01 2.770669521813969305e-01 5.307408423484213378e-01
1.468832543818625325e-01 1.001143246872576026e-02 4.507209550254758779e-01
2.793296119758453822e-01 -3.799832119120161722e-01 -3.723302095635505626e-01
-2.216049574049919479e-01 3.324320549971869765e-01 3.443034957493937842e-01
-2.670522540984796023e-01 -1.831456331135538351e-01 -7.215891561185622249e-01
8.994272817452837743e-02 -5.769251957276849696e-01 -4.040090196540909590e-02
-5.960658764425112999e-01 -2.861122550151408150e-01 6.324432083065949506e-01
-3.160473848239794270e-01 -2.030192899924801730e-01 -6.009939774732603324e-01
-5.826065882949181818e-01 -2.407556772292115677e-01 6.643514540257742240e-01
-2.193981606109481064e-01 -4.357334081864229491e-02 -5.305457412806267037e-01
-6.371397085626245849e-01 -6.203025265109971542e-01 2.185911941996644958e-01
3.089404817347690124e-01 -4.548385943996492986e-01 -6.620862909259059847e-01
3.884827711260842587e-01 8.875908970862662617e-01 2.682320830268641876e-01
1.421864915152096509e-01 1.640867744058835676e-01 9.141874115875417983e-01
5.262380224029612474e-01 2.505815670006664164e-01 -1.769135093032476180e-01
2.598380219413178871e-01 2.603385581772616475e-01 8.828601102663816147e-02
3.772352481010436409e-01 -1.204501994379409829e-01 -3.825030204123917588e-01
-2.644166362469519971e-01 5.166705789658443404e-01 6.477538498496101527e-01
1.682668958139583726e-01 3.988601640805137793e-01 8.845557588833037332e-01
5.858610802820784363e-02 -1.722096568142571504e-01 -2.609233149724417555e-01
-2.467600686859273973e-01 -7.540915508076944107e-01 5.460938282475578109e-01
-5.133517839575452157e-01 2.913819567549098127e-02 6.098986858555898172e-01
1.991740152623573401e-01 -2.173035825423011991e-01 -2.931542365142940088e-01
-2.738915947472355880e-02 3.141414695226871223e-01 1.933857294440031460e-01
3.365877328596234008e-01 8.119543679001565151e-01 4.892261093454142729e-01
1.672109972220298668e-01 -3.916230448855099189e-01 -2.384604605173529512e-01
2.968502983514902365e-03 4.153622521313503624e-01 -3.865771257119532400e-02
-1.198817927748130202e-01 4.882001242914023598e-01 1.908437519793580173e-01
-5.864740605658498307e-01 -4.931876142793347739e-01 -7.080707757401416558e-02
-3.619109232118440378e-01 -1.597430174827221827e-01 9.329902249047686835e-01
2.842825756458410846e-01 -5.055632095081903365e-01 -6.151492058870440260e-01
1.464233306738238205e-01 2.596675825360300061e-01 1.563803821991255893e-01
-1.055663840104252571e-01 2.597785705244352039e-01 2.761057884258958373e-01
3.653642937912661148e-01 -2.510733350515984008e-01 -4.355084277640299817e-01
-2.373723919286809536e-01 -7.014717261035444303e-03 3.131095037496259281e-01
2.177972510574738285e-01 2.647042362672987759e-01 6.632223933401169835e-02
4.141602125260401279e-01 2.824229807169152395e-01 5.007561961906013132e-02
2.118510306966335521e-01 -6.202432936791110185e-01 -5.254031476022773539e-01
-5.453043490419876710e-02 2.624043128698144711e-01 2.492618668055877340e-01
1.967496803062761535e-01 -3.414959617795955693e-01 -2.772728626848731115e-01
1.614256211145625730e-01 -4.418296994989919235e-01 -2.194669610210346344e-01
5.481164435637109200e-02 -3.870281644462423287e-01 -1.105818477320906212e-01
-1.309532941838782161e-01 -2.932826557615508256e-01 2.698120228903351514e-02
-5.991884217166421056e-01 -3.175292718461893982e-01 2.936854221188229808e-01
-3.141122990926938363e-01 4.925566043885241246e-02 3.540114386130918112e-01
-3.318425468134633682e-01 -2.719501808758260641e-01 -1.422927410070457810e-01
-1.682005762938453691e-02 4.520968165118251503e-01 -5.728820031545839297e-01
2.409909683726645380e-01 1.651335295798243841e-01 -1.768388425491462246e-01
-2.357741628085560648e-02 4.484036535358449371e-01 -5.505157463929045702e-01
-8.267350898090887468e-02 1.484588153183370729e-01 -7.969502156745933430e-01
-2.226604317950238721e-01 -8.962876386553864094e-01 -3.528186709940029364e-01
5.049343099866209217e-01 7.671213737707625047e-01 3.094710459030021177e-01
-1.803919345462075274e-02 -1.309912310359612198e-01 3.481088150260382985e-01
-5.119200857857105769e-01 -4.078955730314328676e-01 -1.906929699460411243e-01
