7.973327511130728906e-02 -5.523566907716527252e-01 -6.694095208192630819e-01
-1.296426962110218961e-01 9.239163922802500206e-01 1.371770717414707297e-01
-2.461236447107588432e-01 8.307582316350902163e-01 8.320961551284603019e-02
-1.251705293238746519e-01 8.414981188911878629e-01 -4.818075463547763504e-01
-3.120641250036130382e-02 1.027646810630207380e-01 9.930509793130519736e-01
2.557112024473612300e-01 -8.466197074368674302e-01 2.100010187051269406e-01
2.087230808478947597e-01 -7.326399516578848692e-01 -4.041406738296033918e-01
-2.423913393215771650e-01 7.495475266929568781e-01 3.997894233470820624e-01
-1.149792799579763825e-01 5.239599684812283886e-01 -8.354909466462214773e-01
-1.271810274980912925e-01 8.509392108194835380e-01 -6.977160354604686199e-02
2.091849092319459924e-01 -8.131361631174924831e-01 1.908573214253352912e-01
2.335720781546762048e-01 -8.055021441714046437e-01 2.847383158299702233e-01
5.154881269196010668e-02 1.467042647239106407e-02 9.498416763096758642e-01
7.640955139303885757e-02 -4.679873942004729170e-01 -7.170363003873820862e-01
-1.447156938418074079e-01 4.731552147921936347e-01 -8.355726411814773380e-01
-2.045923062059690489e-01 5.451130394010565983e-01 7.606849099953202353e-01
2.312810695995821120e-01 -9.600928555591445868e-01 -1.829511736949173129e-01
-1.167110708564538385e-01 8.595189526635382826e-01 2.229681442828180260e-01
-4.885391135879202373e-02 2.390496488073333772e-02 -9.671859560935218703e-01
-7.594480777221349066e-02 7.504453936995664209e-01 -5.605872638797818608e-01
6.179880164260467129e-02 -5.005081960374488936e-01 8.621929622877322341e-01
2.507685764791410810e-01 -9.533898552797153148e-01 -1.461582306389171138e-01
-1.943548357077830024e-01 8.528744823964039545e-01 -4.654417543417109782e-01
1.156004395024980320e-02 -1.169010388025597397e-01 -8.434787080816351645e-01
7.523247300910930468e-02 -3.573931311455367243e-01 7.674697450566062562e-01
5.042345890410821624e-02 -3.895903472047234639e-01 -7.721242805186578906e-01
1.315716863410910376e-01 -3.261670174298360037e-01 8.686691773291846941e-01
-3.376582919423880280e-02 5.701387251669994827e-01 -6.942696577293503424e-01
2.377229226943000095e-01 -9.291363926667813855e-01 2.699081535681706057e-01
1.420629964431550096e-01 -2.079779989408835073e-01 -9.056176161315984130e-01
2.669554880456813106e-01 -8.384830499600882669e-01 -2.724872010743281669e-01
2.210085693944224272e-01 -9.600497271645127562e-01 -2.031786960915464013e-01
6.870513875437640749e-03 3.916853682276265625e-01 -8.080685007377645945e-01
1.323608396084275662e-01 -7.965699154885975686e-01 -3.186119183882671901e-01
-3.285789906282887002e-02 2.971109947232731738e-02 9.990554322054715497e-01
2.427991570836064428e-01 -9.709356706201898168e-01 -9.010928692911089263e-03
1.622780999404384583e-01 -9.684543790333709490e-01 1.506118891979282559e-01
2.507670557522088117e-01 -8.243654492020239255e-01 3.132029491520849640e-01
-2.606216120067370579e-01 8.731965350946684357e-01 -2.411458227847104174e-01
-1.269775804010384312e-01 3.015248181600858612e-01 -8.645235401879201032e-01
7.324988752718235296e-02 -2.917936918369622434e-01 -7.913603417462322653e-01
2.120118924452136511e-01 -8.839422598590775948e-01 -4.282345055634591557e-01
8.963264331445490452e-02 -8.141679277675801796e-01 4.302160692417609233e-01
-1.357041140477523514e-02 -1.756306252777920518e-01 -9.418627883624322017e-01
2.086698265404466901e-01 -7.954206090552922159e-01 5.547627925677395266e-01
7.147397861118648388e-02 -1.532947844513393720e-01 -9.833742596009926729e-01
1.726473728897955084e-01 -5.400400658118529318e-01 -6.479530253232940185e-01
1.334114261536079316e-01 -3.805528424526534170e-01 8.782791873690047879e-01
1.215908775507159312e-01 -9.079125236332676874e-01 -8.942906062963669467e-02
6.315171283878492914e-02 -4.894653617314135285e-01 -8.417938905620823142e-01
-4.470473030599594194e-02 4.917163343196604974e-01 7.706605991826359636e-01
-7.224275418808759341e-02 1.629296263557613311e-01 8.278233081259310788e-01
2.269316373557422883e-01 -7.725297845296081878e-01 5.366265246123880228e-01
2.173779065185918458e-01 -9.770370002609053417e-01 1.047117060172770286e-01
-2.481177655998342835e-01 8.448373694626607477e-01 4.146901436893584703e-01
1.569641245623655812e-01 -3.169208209115334518e-01 -8.964010457740817506e-01
9.302505476097691628e-02 -7.106513168652930368e-01 -6.298897596093897544e-01
-1.030246869840503177e-01 8.188228768748058162e-01 -4.926278848659967902e-01
1.739733476978849169e-01 -8.308843574323594439e-01 -7.565726598139038694e-02
2.661507345400755398e-01 -9.431562442444629824e-01 2.558479791990643168e-02
1.151819541185781504e-01 -8.464679963170954613e-01 2.368298658450571359e-01
1.963896501609254108e-01 -7.645320940911295438e-01 -3.272650668782423611e-01
-9.542829830985066764e-02 2.337188364920140538e-01 8.103933105546466953e-01
-7.881109358081538063e-02 7.595286634451325902e-01 -4.779122228016956520e-01
2.140119584837046340e-01 -8.800151267577104308e-01 4.253825739185040922e-01
-2.334646264204732757e-01 7.564530329111738283e-01 -4.319998469672776675e-01
1.008743001788569849e-01 -5.717439125641436970e-01 8.192841497202831835e-01
-1.668273146220819458e-01 6.790830856575885699e-01 -6.967529382041690589e-01
-6.297076921779118375e-02 7.034904046674695932e-01 -6.096752564158152143e-01
-1.483427427573096868e-01 8.616113140421871597e-01 -4.586363027958753613e-01
-2.203349235697480424e-01 7.022982827586938814e-01 4.547444605756574831e-01
-2.381568720572361728e-02 2.974800244072522970e-01 -9.478136977881599368e-01
1.040534855860980462e-01 -4.813266291820315068e-01 -8.702873678659521772e-01
1.371630528635234270e-01 -8.508908493583823285e-01 1.003077489398161298e-01
5.670935103146498152e-02 1.737569358592913893e-01 -9.288019285171179584e-01
-1.211513053172174198e-01 7.737066672403765111e-01 -5.985674075426672403e-01
-2.337910264834885121e-01 7.276379448076856216e-01 4.279968992721897569e-01
-1.516262424591983404e-01 8.222873058785457046e-01 1.169841717325833946e-01
6.186809214016120856e-02 -6.548084064585808495e-01 6.015799884526611407e-01
2.083373534074032390e-02 6.190267949815748960e-02 9.776834390230330074e-01
4.357044430125547180e-02 -1.711108498738849737e-01 8.325806564741562443e-01
-1.394508004167029358e-01 8.404121195207712169e-01 8.476751823319637544e-03
-1.434174869943933284e-01 7.869237649818090485e-01 2.774128802703731411e-01
2.534980214605065396e-01 -8.918300780372085956e-01 -3.417304595024910907e-01
-5.710225729501560571e-02 5.520460118345219547e-01 7.422909784511856346e-01
-8.017625098669142747e-02 -8.316065383100068598e-02 9.148486587596490471e-01
7.176715436914750390e-02 -8.110439857226169058e-02 8.897408178954567815e-01
-1.121435995862830326e-01 7.948442398666152320e-01 5.103649467362346703e-01
6.825972730567064772e-02 -7.299039373693861910e-01 5.663741336808879590e-01
8.339006395545363326e-02 -1.243100371080865518e-01 8.899358978587017521e-01
7.935371986214978524e-02 -6.596851863991555209e-01 -6.280092986155564327e-01
1.976613893833299995e-01 -6.667295660010585934e-01 -7.118421003055731555e-01
8.698445804274601567e-02 -5.470213376791447368e-01 -8.168284366729039458e-01
1.833390400295641376e-01 -7.593451366120932411e-01 3.500404196050015959e-01
-1.585032375101868285e-01 9.103974133682406489e-01 -3.435617300552231135e-01
2.353258202498501317e-01 -9.067924767108838102e-01 -3.506563382674673379e-01
2.200447098826681935e-01 -9.690029021502262196e-01 1.557746728959889249e-01
1.968617513713149525e-01 -7.090780196885635434e-01 4.675310241536175804e-01
1.738527838654848612e-01 -3.758152040267416782e-01 -8.025675566797156879e-01
2.455188599486469170e-01 -7.755531217979003689e-01 -5.344842042174220431e-01
-2.237530437574272724e-01 7.787621697901910833e-01 -5.193500113865867629e-01
2.267847299580312559e-01 -7.385264559977818832e-01 5.499228650112510941e-01
1.690967001416849580e-01 -8.307648123384850924e-01 9.064462123132155380e-02
1.775547076372773758e-01 -4.013363268546912277e-01 -8.521696198092487684e-01
1.467196337167904763e-01 -6.824263954651275110e-01 4.878676234362500086e-01
-2.234699423278463937e-01 9.245130514556587631e-01 -2.673231051014350879e-01
1.477965001491897412e-01 -8.430852441712415324e-01 -1.027492215762698669e-01
-2.274376210962865755e-02 -1.666961539131862347e-01 -9.218894432703246267e-01
-1.466943757757550133e-03 2.773188200381462507e-02 9.960385081704284937e-01
1.259970649843636659e-01 -1.358888736957415688e-01 -8.921072876719092770e-01
1.645707886616921689e-01 -9.482525286249762209e-01 2.657838203500449969e-01
-1.476638532569302109e-01 9.285883927740387067e-01 -2.635983466522413554e-01
-1.602381614894635153e-01 4.609748656912510123e-01 -7.518425714586103314e-01
-1.281412044456097798e-01 5.374868496694533704e-01 6.338555428770635825e-01
1.019533832208321666e-01 -6.562023289378784430e-01 -7.236112257587956620e-01
-3.700394288532866949e-02 3.485151496184546449e-01 -7.683797360860245007e-01
-2.513340938176252815e-01 8.942539960525381915e-01 -2.632771251129886192e-01
1.053338843324975183e-01 -5.275970674626032780e-02 -9.440595330856060841e-01
-2.048702107378777282e-01 7.983212972397527585e-01 1.771623761614744552e-01
1.643856233477416495e-01 -5.155283866812175875e-01 -6.668128782187198178e-01
9.977998799653685358e-02 -7.696602011151353340e-01 -4.929830225327753723e-01
-1.363013785752997808e-01 8.215430013652934571e-01 1.912585939249057121e-01
-8.739589483118326285e-02 1.915986862559199422e-01 -9.423610472347357936e-01
1.699736691559497748e-01 -8.771722672178787761e-01 -4.485509093636144140e-01
-2.319335496258812523e-01 7.726941208137430017e-01 -4.956565119002200315e-01
1.831893764934009183e-01 -4.980765218866526345e-01 -8.237695512845751855e-01
-2.465907538419611911e-01 9.437499407938467755e-01 -1.039677814554756108e-01
3.089238722115478578e-02 1.093601580448735899e-01 8.891586721004868243e-01
9.415339189702595646e-02 -8.023430670522661845e-02 -8.630361207370375043e-01
1.363314200750933292e-01 -4.021491190424022477e-01 7.758228824598142337e-01
-1.669099427350086706e-01 5.880798240857938453e-01 -6.030166898971300871e-01
8.423649967386996618e-02 -3.596733776807234939e-01 9.284670841192409485e-01
-1.543228749379535192e-01 4.609676755383803060e-01 8.615422155690120043e-01
-2.207222541748619926e-01 6.917038904995832516e-01 6.487016207635746268e-01
2.451117865986320310e-01 -8.452616052161034954e-01 4.049540836255677290e-01
1.385376991323330753e-01 -3.588433236980933527e-01 -7.705670616561469677e-01
7.754148284962725235e-02 -4.549278355490895542e-01 7.135229062308203751e-01
6.419040117065732964e-02 1.842232262837361755e-03 -8.575551622829420406e-01
7.374583473615461959e-02 -6.348089682154777202e-01 -6.603743802687098707e-01
-7.271738875556636728e-02 5.387719293581577640e-01 6.778694272514605990e-01
-2.031706012642735815e-01 7.975712419380291962e-01 -1.926328696810205576e-01
-1.245243984282407984e-01 8.070700205615358724e-01 5.161053116693662401e-01
-5.923832348545041843e-02 -1.780889808852667566e-01 9.162823457251264569e-01
1.592067617137817859e-01 -5.502287594331088938e-01 6.570012982743546059e-01
1.352153528429088647e-01 -5.651773017474507332e-01 6.267226940993529949e-01
1.825404737429067170e-01 -8.243069532521744014e-01 1.153839148668655834e-01
8.550409122275452745e-02 -5.372501873469314182e-01 -6.708487109194390952e-01
-9.656230810647423168e-02 3.464741489388281637e-01 9.307389964334551458e-01
1.104028202724508939e-01 -2.561362023554913936e-01 8.524370559526875946e-01
2.060677173725705136e-01 -8.118630626569383058e-01 5.388579781196644047e-01
-1.889123758202231607e-01 6.691373248168207555e-01 -6.786777405996834434e-01
5.138050138267123701e-02 3.698642507554641967e-02 9.288226412249580566e-01
-2.747595372755353219e-02 2.583935264671659571e-01 8.190295525204036586e-01
1.013621692267884372e-01 -1.960883909084004673e-01 9.155310531637641525e-01
-1.165648852991272716e-01 9.036249955526205468e-01 -7.842692477514237592e-02
1.940037517649442073e-02 -3.430519785969102786e-01 -8.900684950201611656e-01
9.888820673982005871e-02 -7.506938047998639174e-01 -4.978843068766165558e-01
1.706231745907173525e-01 -3.688056254131363287e-01 -8.012968053885849429e-01
1.126215534992116990e-01 -7.868078840398917695e-01 -5.477319044019589578e-01
2.531277127673426386e-01 -8.510124258953882803e-01 -5.330157625196196847e-02
-7.593556991488689331e-03 4.158530676687450245e-01 -8.700096405139867706e-01
5.849784066894948148e-02 -1.236630582198137152e-01 -9.892664303621260258e-01
-1.532309808566088283e-01 9.380458019458710606e-01 2.022446082660478428e-01
9.377701542066507745e-02 -6.741640824921234509e-01 7.275054584887706843e-01
2.140694229805991111e-01 -6.988882615330971326e-01 6.174026972465720409e-01
-2.233146565774203618e-01 7.762505148044916981e-01 -3.153873551356775606e-01
1.760143768325892477e-01 -9.145554049076950465e-01 3.777937732635886503e-01
9.450153263533363213e-02 -3.954415521775513920e-01 7.498722035825906573e-01
-2.711650892768552867e-01 8.733621872829245847e-01 6.229404235372778403e-02
-8.663547997059725669e-02 6.366186315333181023e-01 7.146643646447120579e-01
1.226918084415711679e-01 -8.810711647967216509e-01 6.747646503378974814e-02
7.979922428700954307e-02 -5.064011741764815611e-01 -6.942681331690586655e-01
2.211477220958770473e-01 -7.466041416720673451e-01 4.324584064662527205e-01
-1.358354698817748341e-01 6.525333247929714364e-01 -5.089047754223038345e-01
-7.028496907877151978e-02 6.653590268026978727e-01 -6.999753251845883817e-01
-6.547536672159545712e-02 4.107102727266172260e-02 9.893756346481648034e-01
-1.209380505798669618e-02 3.600039572730697746e-01 -9.130751888146855233e-01
5.286756040359429781e-02 -5.286673232467185013e-01 -7.733987285839784009e-01
1.091325162267804405e-01 -1.457912664217125287e-01 -9.600824659922052584e-01
1.969630298318707784e-01 -7.839901311503032488e-01 5.833943529771489223e-01
-2.028254121053860715e-01 9.343938280277036545e-01 2.665796624876722309e-01
4.918578327389143412e-02 -4.489762432980508033e-01 -7.578425062977728333e-01
1.157077875357535174e-01 -4.154410073843093909e-01 -7.302981091096188981e-01
1.565519380195828369e-01 -4.567241514740952857e-01 8.251605069400130832e-01
-1.096370378356591874e-02 -2.267704755132217698e-01 -9.002106993692295944e-01
8.436964144092305717e-02 -7.929227399480847094e-01 5.086551586822144477e-01
1.714828672576181323e-01 -8.224783311709240596e-01 -1.438328310520397280e-01
1.531512268967572254e-01 -8.330990234795210281e-01 1.271271751776444914e-01
1.232198599266951106e-01 -8.313606585126644966e-01 -2.772220905452391637e-01
2.203806717334672038e-01 -9.468235578763892768e-01 -2.574445007351000014e-01
-1.662135800107246431e-01 4.871417563282749441e-01 -7.331292312598056693e-01
1.497133821853578461e-01 -6.029016043898781652e-01 -7.874882329778113421e-01
-7.157370002234001750e-03 -2.451129428593318005e-01 -8.902955032467344543e-01
-1.223468743055669827e-01 9.079527427200556611e-01 1.370867026651797771e-01
1.851661900983521403e-01 -9.249192922722594412e-01 3.496612660257224503e-01
-2.126362643798714036e-01 8.177870206627804173e-01 3.118703532793213468e-02
9.905044648017315156e-02 -6.011175338298526682e-01 -7.779701490666409702e-01
-1.751371107749122302e-01 3.771136435177201429e-01 8.518678827602278458e-01
-1.855342457355588504e-01 5.212774985704152764e-01 8.042692337277504988e-01
-1.537007340954301693e-01 8.447299786365778385e-01 4.796497899456123037e-01
2.641817077691130944e-01 -8.680891913449386710e-01 5.193775876895202585e-03
9.008949814803496325e-02 -1.874108276066973611e-01 8.617652613529663830e-01
-1.128869604190406786e-02 2.258568648639953380e-01 8.379458892617456245e-01
-1.618794579569852454e-01 8.156395227763411082e-01 -5.423955370610996640e-01
1.619781415249270107e-01 -9.609820658431633689e-01 -1.700974172120613970e-01
8.673224734563153571e-02 -7.543712194352855116e-01 4.670117796918604181e-01
-1.040996930644695062e-01 7.617716769937959986e-01 4.400087471858486476e-01
1.652784929374080392e-01 -5.990142500322368502e-01 6.048328634828658013e-01
1.962866547293519795e-02 -5.260063295603059075e-01 7.765572269451845866e-01
1.234774174402433200e-01 -9.231789077496135310e-01 -6.492106379246498360e-02
-2.037752043304723870e-01 9.395694665581946214e-01 2.467793702809752687e-01
-2.728895119087321741e-01 8.836403261999788983e-01 5.896930171551073574e-02
6.320881841623174346e-02 -7.090255690416856771e-01 6.165987470962350780e-01
2.124221698913638934e-01 -7.973699948969189544e-01 5.465345856433410088e-01
-1.680218089793818204e-01 4.676760744202350106e-01 7.034025311846149320e-01
2.169613491930523844e-02 -1.993197093500223838e-01 8.234754962413727286e-01
1.137399057774120814e-01 -6.635630823715585880e-01 7.443122896054961135e-01
7.959960368141145992e-02 4.490354499055618231e-02 -8.846246627531499929e-01
1.935794695087574846e-01 -7.044462212122885036e-01 -4.476720109688587246e-01
2.377819559202818955e-01 -6.704779042639223974e-01 -5.958555111918226732e-01
2.756250019787810923e-01 -9.131569548650214641e-01 -7.800027709140792964e-02
2.404331577249740892e-01 -7.156344637376560458e-01 -5.960462202686317434e-01
7.288879580851195805e-02 -3.949879483439304173e-01 -7.525032761632719502e-01
8.283734873100827290e-02 -2.648742105550406373e-02 -8.674214397192432369e-01
1.813656459947817542e-03 1.713711930294230523e-01 9.595279359315480594e-01
4.182136339403200870e-02 4.038504474174416103e-02 9.581942367973177443e-01
-2.484668247011133924e-01 8.271130994879115628e-01 1.312924407810323602e-01
-2.538802986364196435e-01 9.203782088848542209e-01 -1.748241419783824468e-01
-2.280353909623001121e-02 2.380036840247046481e-01 9.535993168564396161e-01
1.275310867378937063e-01 -9.368738772797089442e-01 -4.879974710022225159e-02
-7.355090607677843006e-02 1.729383542654101477e-02 8.623279698048845754e-01
-6.684276701905676743e-02 -9.050964044060863523e-02 9.615154466951146839e-01
1.865214901997725230e-02 1.262138054944303422e-01 8.702649767788643853e-01
-1.032442749735595217e-01 1.266435466788963793e-01 9.651857181494596372e-01
-2.133753101796716928e-02 -1.468230827374534253e-01 -8.795747657011149245e-01
-1.068306197204748897e-01 8.755167549899197654e-01 -2.475840396665868193e-01
-1.211497535710722162e-01 8.327274343246914290e-01 -1.902349574747467797e-01
-1.655441827112225373e-01 7.732522847046778836e-01 -2.766036676617965040e-01
1.060582674721641805e-01 -8.785147628911348372e-01 3.099048174754246432e-01
-1.528712101921741451e-01 8.010380301058552810e-01 2.135727188412081534e-01
2.464967296666502328e-01 -9.373000836073871467e-01 2.154156361480819570e-01
1.982955658151807909e-01 -8.558780550763100958e-01 4.847253968798532209e-01
1.682879413922133971e-01 -4.835963706773838688e-01 7.708970653545592633e-01
1.896735451971095221e-01 -6.944727950535883876e-01 -4.628080598668630752e-01
-1.533899449665349357e-01 3.023232342250128935e-01 9.001139978560160904e-01
8.205834523941088476e-02 -5.422502137706539660e-01 -6.719546703950569633e-01
1.277414426817087278e-01 -4.751810594742517102e-01 -8.726672495854620459e-01
1.804468991085373952e-01 -8.859805879364139880e-01 4.415412112877095674e-01
8.184743233351089720e-03 -3.139441233124078412e-01 -8.815228904832564938e-01
-4.189022868304621144e-02 3.254757015827787758e-01 9.264483295947715247e-01
-2.003334549171136014e-01 8.247114978131444563e-01 5.162963791673567115e-01
-3.390915334046450819e-02 2.397593600270140346e-01 8.175823103238223366e-01
-3.455614057095166003e-02 1.856664615016996311e-01 8.266012585697444237e-01
1.238682024788509001e-01 -9.269073756347311344e-01 -4.099550672561250164e-02
-2.906365719155172209e-02 -6.990794909354440534e-02 -9.656284391834987213e-01
-2.560256055453975499e-01 9.418757470288122713e-01 2.094846051726760583e-02
-8.896366477384701210e-02 6.673295450804019868e-01 5.688537841384824212e-01
-1.677021282299724983e-02 -1.307093749932445315e-01 -9.589381167344531720e-01
1.146934522849923643e-01 -8.426863588774551328e-01 -3.205882201163708922e-01
1.631295595936887721e-01 -4.743012778667789475e-01 7.554846978976441640e-01
1.547572301147888407e-01 -5.646418125631906815e-01 -6.179812451552555430e-01
1.006595315188601319e-01 -2.015280990477043011e-01 9.218187973467972807e-01
-1.014979119011504283e-01 8.468960908554477029e-01 -2.918575477697354370e-01
-2.058549087653831471e-03 -2.283944871682104805e-01 -9.314349438369254885e-01
-1.950959405313980322e-01 4.990116455454602917e-01 7.077492548192979571e-01
2.239320482602983053e-01 -7.158087529640948521e-01 -4.549243465974378564e-01
2.230917407566960012e-02 1.436188388489729739e-01 -8.393939138484748375e-01
1.970925619356468372e-01 -7.784248936584127199e-01 -6.014436292855774857e-01
7.286835207342459708e-02 -7.502445767449094083e-01 5.526124367471090260e-01
1.362336947639258000e-01 -9.495124466810641595e-01 1.566101040670579148e-01
-6.035669784455682807e-02 5.026694434439860082e-01 -6.808514275657253645e-01
-2.367682000196469627e-01 6.658995172098297610e-01 6.028840494353789881e-01
-3.211145347220450974e-02 7.473355285421745542e-02 -8.469958560917159041e-01
-1.915577665892579662e-01 6.552009012833579504e-01 5.062806110791709946e-01
-1.201130333491692986e-01 8.893385337393644452e-01 2.278589122044746840e-01
1.486345947661200373e-01 -6.759713913044477218e-01 7.266547889338794697e-01
2.047736284837388676e-01 -5.041355353904535264e-01 -7.579995765801711416e-01
-1.910981165821288297e-01 4.525322001291527396e-01 8.086208584106140407e-01
1.778435891538384384e-01 -9.618510365928339967e-01 2.183430314287845009e-01
-7.607336936365972913e-02 6.507333986462583431e-01 -5.592790499475648325e-01
-1.163583621947123364e-01 8.698835109212625927e-01 2.671477610661089908e-01
3.019030611599492209e-02 -2.765240285855092607e-03 8.622121351172656878e-01
-1.798444527737497189e-01 3.821146272335755323e-01 8.259136263133046718e-01
-5.618138136931060192e-03 1.256266379794573895e-01 9.803338085472432795e-01
-1.126296944977591419e-01 8.197937656352947133e-01 3.254940924688840553e-01
8.837832221073931016e-02 -4.935759939714535194e-01 -8.579949682691052626e-01
-1.440854433309222138e-01 6.855646911524037046e-01 -7.041056298090035970e-01
-7.215333499269861728e-02 5.314841539506984791e-01 6.823836115651819023e-01
-2.229632103601601467e-01 9.640863812624081985e-01 -5.799902207441715030e-02
-2.689814870816931158e-01 8.817142051081733323e-01 -1.022822137337672244e-01
-1.181730981142953690e-01 8.989766965633878559e-01 9.393718122206446905e-03
1.648539869547700765e-01 -6.298163037499721062e-01 -5.484701306551592603e-01
2.630771166035189568e-01 -8.136148217868387489e-01 -4.109329091033197545e-01
2.802118222067853312e-02 2.188164677676114611e-01 -8.404475253136736157e-01
1.205861260780481531e-01 -7.308469954025459403e-01 -4.516176035842473513e-01
-9.928578120509716498e-02 8.498785864338586071e-01 -3.455988892455455486e-01
-1.038070909701971217e-01 8.431212433520566263e-01 -4.285277674256442459e-01
-1.351341337672005982e-01 9.165099076219765939e-01 2.295611524340432918e-01
-2.896680261618941529e-02 -2.981507669366784130e-01 9.046775467756973388e-01
1.148361881031073617e-01 -5.527102977480191637e-01 8.296559073367655301e-01
1.475778458863069575e-01 -7.019298082079371559e-01 -4.592884116938031336e-01
7.613073160110742955e-03 4.067562922340181575e-01 -8.297250670385597493e-01
1.867886926976179696e-01 -4.181210224984094337e-01 -8.001302210382069680e-01
-2.688526799301628467e-02 4.579286230585892792e-01 -8.601833035003905170e-01
1.706016446423549715e-01 -3.789320446369297546e-01 -7.914163389613905197e-01
1.219785604930705147e-01 -6.848472315964583279e-01 -7.081979404790623711e-01
-2.277197923543768932e-01 7.741988296136661507e-01 2.955099780940077525e-01
-7.743710041171983360e-02 2.097782196257365894e-01 -8.301743167964149572e-01
-5.283400485375287087e-02 3.749668436392766813e-01 9.069798369501613777e-01
-1.764866005184734521e-01 8.165319954629517429e-01 -6.083634575102678937e-02
-6.337723964090623274e-02 6.851797507983616864e-01 -6.548287508124063239e-01
2.365112067772426607e-01 -7.917867130747241466e-01 4.863074184276733880e-01
1.193740022074526591e-01 -9.213969472409846428e-01 1.169073486718204963e-01
-2.015060850370451184e-01 7.184555887415334796e-01 4.034592819621106718e-01
2.238689585359272538e-01 -7.451784297201570206e-01 5.633345861060837789e-01
1.519090567921512203e-01 -3.042464674417932891e-01 -8.197659586367200824e-01
1.169072221547963059e-01 -6.017680088005982197e-01 -7.867715271023310031e-01
-2.158963733642826621e-01 8.193452836703059017e-01 5.399779943856345896e-03
-1.654283173310351629e-01 5.188976037985466583e-01 -6.877254570483896101e-01
-6.124305271199975698e-03 4.515642530542944288e-01 -8.301384266125260147e-01
-2.339890630960270515e-02 -2.589891658171779645e-02 -8.594233558020832886e-01
1.806887821624451884e-02 1.201456970397358215e-01 9.614709309013540484e-01
9.430832793888377363e-02 -1.173741908003107515e-01 -9.727544538490033865e-01
-1.269041531063844208e-01 8.560283433916164864e-01 7.387135263846533739e-02
-2.203451277602179736e-01 7.282388445303926705e-01 -4.488155165920045264e-01
7.310366828729732147e-02 -3.121838515511577983e-01 7.888969795736643364e-01
4.973160180314948470e-02 -6.547057332203666258e-01 6.669902217039938019e-01
1.117049643332402031e-01 -7.760226049794390901e-01 -5.660699778467923604e-01
9.304907813740039002e-02 -1.544685646470772000e-01 9.184978366291237650e-01
1.752008819581542531e-01 -4.976799096397844235e-01 -8.337804921985129125e-01
9.053146692392879946e-02 -2.301193452848807885e-01 9.450084524431462407e-01
-1.989012378195627317e-01 7.841447836637107649e-01 -5.593794881886792192e-01
8.454416536206278698e-02 -7.941005675735337554e-01 5.052806966232835650e-01
9.930872339664481574e-02 -6.256762322108887497e-01 7.765943735610908449e-01
1.170092718409273258e-01 -2.633953816223514877e-01 8.939653173801713759e-01
1.657845349338159802e-01 -9.274338005164446397e-01 -3.178424666680978450e-01
1.039221731135455684e-01 -2.387316889724877267e-01 -8.138585106049974760e-01
1.507184337019079612e-01 -5.571821956504122708e-01 6.422163841442134480e-01
-2.638749617785457469e-01 9.267228032812939720e-01 9.012536378725066744e-02
1.488143320681433457e-01 -3.924258057868971195e-01 -8.955543357204536203e-01
-1.958879240076880635e-01 7.652365864091157377e-01 6.015859857694948465e-01
-4.638034291717219038e-02 5.056697281284832091e-01 -8.395885676298960876e-01
-2.386757574731737108e-01 8.094040206486898814e-01 -2.350390250743901455e-01
-1.709060798213655474e-01 3.956483445827820300e-01 8.625495832053585721e-01
6.681800332135977294e-02 -7.001148624695290035e-02 -9.885669796304624724e-01
1.055916509305551421e-01 -2.077424539149482219e-01 8.968033430790887106e-01
-2.008932558802876134e-01 4.875403526619643269e-01 7.709131079950850562e-01
-1.948576713533717031e-01 6.194934483925477187e-01 -6.045763853473895555e-01
6.358421230275454472e-02 -7.073889385038379940e-01 5.853542841482231029e-01
-1.790308798994734441e-01 7.140342025257122582e-01 -6.548560703425460039e-01
4.934926055450106208e-02 -5.780808390281740872e-01 6.649102423786238392e-01
-4.017741526783980693e-02 5.566876983935178241e-02 9.973650427269135088e-01
9.600170970837434634e-03 -7.939837325442959670e-02 8.433166638870633891e-01
5.958392508063471704e-02 4.646344732990111831e-02 -9.795773431440680801e-01
-1.804836476382079835e-01 5.900670768575396741e-01 -7.357133375675667386e-01
9.867055134440674835e-02 -2.969859506244524328e-01 -9.492696518367711445e-01
1.707072057517990404e-01 -5.566073830892791507e-01 7.789165469468178893e-01
8.385523367991904939e-03 3.591793083155981336e-01 -8.085249139182812961e-01
-1.745883554173361177e-02 -1.060834914383788768e-01 8.433345171712247623e-01
1.115569121720696583e-01 -8.591077764203751688e-01 2.340794762308645027e-01
-4.506766617014693055e-02 3.264000609164841027e-01 9.280854172683611347e-01
1.308497423114634017e-01 -7.403366965668282118e-01 6.652133203513053150e-01
-1.697642005686180178e-01 9.670177193525423265e-01 -1.826500959181103292e-02
1.354135405589900754e-01 -3.149847949783923240e-01 -9.250548316146197658e-01
2.028278791204812803e-01 -7.021766988990666425e-01 6.475926194655688972e-01
1.825072964502856832e-01 -8.089342599942258571e-01 -1.932018270071032273e-01
1.350157027919199615e-01 -5.629726605707965348e-01 8.145003022185979269e-01
1.522230084978035136e-02 -4.814802852278358691e-01 8.311412175548188452e-01
-2.083230511893239822e-01 9.437150629860392437e-01 2.269900816856820491e-01
1.585626276150830377e-02 1.489369506316186309e-01 9.515978083520052477e-01
-8.809768625056254090e-03 4.205219477116826643e-01 -7.717521316046656032e-01
8.050306416765945494e-02 -7.792372764269980268e-01 5.239389903205895482e-01
-1.940229539738442255e-01 5.789691647924208873e-01 6.107330186075852207e-01
-2.480884127124530214e-02 -1.285938328772201766e-01 9.865184279483254493e-01
-1.197598748168931249e-01 3.565686236660676744e-01 -7.817153912506363822e-01
-5.691719072972693111e-02 6.821720398875412705e-01 -6.161118782595530474e-01
-1.913296624956216940e-01 5.066583760766136812e-01 6.916412438222601100e-01
-2.089449400793006173e-01 6.046056074214292142e-01 5.968345234866577753e-01
3.397509641617079551e-02 -3.792139014905083205e-01 9.225143062307654684e-01
-1.125378997997458219e-01 8.956968006132469684e-01 -2.156261212651645609e-01
1.050309162502392341e-01 -8.693560448505989191e-01 3.710365694688549376e-01
1.840575225813761984e-01 -5.231787269402501384e-01 -8.128375530898653833e-01
-1.745741103735945210e-01 8.749684226892822103e-01 -4.343114576830664486e-01
1.606832280220371265e-02 9.388273543946476507e-02 8.628911812450232866e-01
-1.052045032177051087e-01 7.971639128878207359e-01 -5.433668007582189707e-01
2.231892456617037140e-02 -4.234864298802473725e-01 7.613053655117318907e-01
-2.167361672618458301e-01 7.062357319772191167e-01 -5.878718317510333025e-01
1.830617690536877340e-01 -9.836077529156631583e-01 3.071516084467963009e-02
-8.497974395453258833e-03 1.902070317027353130e-01 9.616632969844627343e-01
-2.333105834275771839e-01 8.019238824478948091e-01 -2.466134840832453490e-01
-2.569625065845673739e-01 8.081098846936483060e-01 4.331137001062403957e-01
1.767869732647631420e-01 -6.111322748176815089e-01 6.009563759805860439e-01
4.962326229125298138e-02 -2.723614383286770968e-02 8.757355695252315719e-01
-1.573649341044702221e-01 8.641255423666484026e-01 4.423272333582411453e-01
2.374994554286133375e-01 -7.793853549064285735e-01 4.064785299022427578e-01
-1.589851201265642666e-01 5.311174237559458389e-01 -7.957816375603732340e-01
9.376975626802296982e-04 1.399375232452594597e-01 8.514550526546118547e-01
-1.620740506696742023e-01 7.106683321633294748e-01 -6.713774242391165048e-01
-2.646091305791771764e-01 8.298998871958306323e-01 2.504494136961757378e-01
2.896756320207842517e-02 2.608143325692960923e-01 -8.426895577503422663e-01
1.870365966859388329e-01 -9.106133479835644140e-01 -3.778281322548320276e-01
-2.093123417906239958e-01 5.340609260682710469e-01 7.438814614858552110e-01
-1.238729901653361637e-01 9.130400532717088957e-01 1.298448114275036203e-01
-7.187176333621365931e-02 5.854759247376263298e-01 -7.886208045813046796e-01
-1.343767441545223318e-01 4.180767713001222186e-01 -7.482404849078675424e-01
2.467956033001686977e-01 -8.126244190194440442e-01 -2.516772589621515399e-01
-1.335507521200209879e-01 4.795602589619560319e-01 -6.931703308935743824e-01
1.435030517715246701e-01 -7.904195025070286373e-01 2.936100410953984552e-01
3.435770621952114259e-03 -4.383747009981890375e-01 7.928820787831629691e-01
-1.157062899512439902e-02 3.810719618613089277e-01 -8.999250165472002516e-01
3.166967859562864161e-03 5.352234322340262279e-02 8.511770194228951425e-01
-1.204800883666200667e-01 1.708538970330582274e-01 8.547084027473895729e-01
-2.142295565541421920e-01 8.382089488857240589e-01 -4.654006169875842813e-01
-8.045602584053582196e-02 4.579298158358273696e-01 7.116755914219468071e-01
8.927038353215187294e-02 -6.675715919266224097e-01 -5.824274603749981516e-01
1.485903912745265842e-01 -5.486194791754231970e-01 8.117649357988575565e-01
2.312152991324843698e-01 -7.055368075291615915e-01 -6.305832813281208038e-01
1.156956036917762554e-01 -4.797640568215513768e-01 6.972749993252066458e-01
-1.894219369991621549e-01 6.250878411018404579e-01 7.399982272344289846e-01
2.430811065849884656e-01 -7.572339542795931688e-01 -4.070483748745164498e-01
-1.211841767841763673e-01 6.447260250822284267e-01 -5.231415476999272673e-01
1.722383964810159651e-01 -9.518278224268946763e-01 -2.380065232344489856e-01
1.521403443537700795e-01 -5.608369122211985802e-01 6.392410437819263658e-01
1.397500280611428669e-01 -7.847966457190449496e-01 6.099350961156422279e-01
1.973589225816172743e-01 -8.075147859449196552e-01 2.059951780203043425e-01
-2.578490938143171776e-03 2.373555174850494054e-01 8.500926517274768335e-01
-1.609648454946551455e-01 3.480391352821188278e-01 7.956915298713692630e-01
-3.932253266414544035e-02 -1.379355030741247767e-01 8.547980858678935201e-01
-1.884722050735795629e-01 9.422185353356428150e-01 2.380213422673592150e-01
2.480345986061658833e-02 -4.845405784571042429e-01 8.459388234524901629e-01
-1.256292726344414301e-01 9.291170436311406711e-01 -4.583995373066634266e-02
7.914809544718622025e-02 -9.764095518264626072e-02 9.342752996099464857e-01
1.606059838815219326e-02 1.984892058289731420e-01 8.902473560687828025e-01
-1.875591429882892680e-01 8.426136753680628644e-01 -4.881034023672515265e-01
1.386614952179615612e-01 -9.462436098067458223e-01 -1.398074398148209663e-01
1.576154032747281719e-01 -7.022815351660938177e-01 6.987448511589773315e-01
-2.039712843262147524e-01 6.394052899642683752e-01 5.398597522070517352e-01
-1.733178067014198021e-01 5.228336919876078737e-01 6.553624627835132888e-01
8.636596976236804446e-02 -3.332590286130945323e-01 -7.735775879730508731e-01
3.512885462286843147e-02 -3.505447592736299911e-01 -7.988918722583365772e-01
1.686163034345449507e-01 -8.838356178903006288e-01 4.477577053771547577e-01
2.033913537719598819e-01 -9.297448719177388021e-01 -3.248206352173952927e-01
-1.194439154363510502e-01 8.542074227027942612e-01 -4.434491192696772277e-01
-7.039977422007742680e-02 4.890208695742262468e-01 8.432150955023668404e-01
1.558791937525043358e-01 -2.952891802138817301e-01 -8.963523431285052023e-01
-2.350253955758397906e-01 9.358075818294285808e-01 2.158884929094964655e-01
-8.331472892206513714e-02 -2.397547355161205526e-02 9.606978896460564021e-01
1.016247598641153299e-01 -4.424788275465690868e-01 -8.918016140719873253e-01
9.690353800128635731e-02 -6.136062783563880213e-02 -8.728875187920378531e-01
2.673084139400826453e-01 -8.789846671203054296e-01 1.678040626833253723e-01
6.411431443599058255e-02 3.332757568101400031e-02 -8.624019798892981203e-01
-1.974522090256431439e-01 9.202725219285208258e-01 -3.143968679250476739e-01
-1.249542383226612437e-02 -3.550249006912753469e-02 -8.534280562360748723e-01
-2.376478814439325626e-01 7.766243878673154688e-01 5.342738148469262649e-01
1.723338160834375354e-01 -3.544513835973668314e-01 -8.582061098444966341e-01
-9.365617133592817056e-02 7.132278806403260507e-01 5.240627266279940244e-01
6.892916951918286184e-02 -6.998913585325566844e-02 9.497158058912172907e-01
2.381757652366357225e-01 -8.057090964745369233e-01 -2.513176662370624204e-01
-2.754317258837463145e-02 3.537724469276308237e-01 8.061844839206446789e-01
-2.653905552755364550e-02 5.542828494927680705e-01 -7.396493298103391512e-01
-5.123020479032451557e-02 4.874519639230994739e-01 8.176618727541324905e-01
6.318665378249981035e-02 -9.713160089508852957e-02 -8.408171844270088124e-01
8.745180123263109062e-02 -7.056744703937903873e-01 -5.854132479923798149e-01
1.237891430186789099e-01 -8.737013728480782504e-01 4.345278212253574357e-01
7.612690526195170504e-02 -1.641672745700770708e-01 9.591236866556872576e-01
2.354003489813296102e-01 -9.027893304296326082e-01 3.409006445486522652e-01
-2.001773327130386693e-01 6.164323301774423669e-01 -6.466573955080993086e-01
5.694407888177643179e-02 -2.167888089751387193e-01 -8.157525812311383628e-01
1.195464484014094469e-01 -1.561229797536372033e-01 -9.473686377086376620e-01
-1.168079068835524703e-01 8.736134427955992710e-01 2.461516290697166598e-01
1.593087811393263387e-01 -3.720851292236755370e-01 -7.794683804999894550e-01
-3.993357038962364047e-02 1.391495156793490784e-01 8.324578665519182241e-01
1.283975599168633297e-01 -4.481238649021512810e-01 -8.858059856586932845e-01
1.960023016641351534e-01 -4.971338954229602147e-01 -7.208549280284883842e-01
-1.258704109485101752e-01 4.074211577823463881e-01 -8.768450107433708451e-01
3.012567731478767510e-02 -5.693434262177509142e-01 7.499109296655245283e-01
-4.750538342938724623e-02 -1.107061996407695398e-01 9.767866291376818833e-01
-1.971509514362223547e-01 8.030079488286865352e-01 -1.586951909670075989e-01
1.871059492425576620e-01 -9.539405563558847057e-01 -2.434613214423776983e-01
2.039433247490678169e-01 -4.998606921574577089e-01 -7.566375609643731792e-01
2.536500231224766977e-01 -8.209854851819565758e-01 -4.586944026935829144e-01
-4.717461026783333067e-02 4.959854120591514759e-01 7.543013421305565513e-01
1.470667568222868982e-01 -2.496300795522585214e-01 -8.532389866309521009e-01
-1.285976898871641905e-01 8.389344653252017725e-01 -1.260728066816900195e-01
-1.034316496756329251e-01 7.781912470728425957e-01 -5.754871290067217204e-01
-1.069314417794495348e-01 8.687204995964130649e-01 -3.463816356402611984e-01
-2.554620781735775781e-01 8.000420694019033663e-01 4.491852007770562039e-01
1.534866893845279745e-01 -8.092241598598408636e-01 -2.356408374362279345e-01
7.400120762871859048e-03 -3.073437986438284919e-01 9.440838661857018366e-01
-1.258871913407588472e-01 6.581792142006646085e-01 5.154680953677306388e-01
-1.367234293122648048e-01 8.670320294117143112e-01 4.060695531311773743e-01
-1.551802115783590397e-01 8.200400271504787453e-01 1.161897692538080562e-01
1.005570943411506768e-01 -7.735983675223840894e-01 -4.858747530561010053e-01
-1.034265422828158504e-01 7.669617321003168176e-01 4.393360004969182331e-01
-1.148958243570064042e-01 7.212773677984897214e-01 -6.663384262665783542e-01
-1.455982629306213083e-01 3.713154621846913028e-01 9.000066313156456221e-01
1.700915578040566589e-01 -8.739211957957969679e-01 -4.553066709717390470e-01
2.720093385383003382e-01 -9.028733369305674827e-01 -2.097560609608621895e-01
-7.630785809681638748e-03 -8.421235189921928710e-02 -8.541518292553438307e-01
-3.031172294529353023e-02 2.606392179759270400e-01 -9.611662338369688641e-01
-2.611650736880146151e-01 8.343430075992066541e-01 3.784665102196434483e-01
2.545797924259553535e-01 -9.432009924354062269e-01 1.527775890849805973e-01
5.374445216909247772e-03 -1.862188859679394723e-02 8.482066842762744363e-01
1.373040311639458222e-01 -3.584400320819665642e-01 8.641769668609105004e-01
1.508341050747346312e-01 -7.537176222134120973e-01 3.671347821808383372e-01
-6.628538072337593345e-02 5.991739209230089180e-01 6.974656148074408479e-01
-1.207939020297450899e-01 8.075059575454470728e-01 -5.433773802031962585e-01
1.029189804716386381e-01 -2.185376888982824561e-01 9.222408084827861119e-01
1.414626986832768218e-01 -4.865714074214259610e-01 -6.839251547425232447e-01
8.764986401568587715e-02 -4.998646592523562360e-01 6.820451434033899529e-01
-4.923463485493546898e-02 1.003167954115285337e-01 -8.503500643005943438e-01
1.570998131301030720e-01 -7.994712743005355504e-01 -2.583189296045521055e-01
1.169905111043512413e-01 -8.392244493790846915e-01 -4.404882198508639490e-01
6.800565865833391177e-02 -4.900656303952478227e-02 9.403479800853072890e-01
-2.300431808943956824e-01 7.388630202292468807e-01 -4.799131044645074118e-01
-2.409019553831813210e-01 9.392775215529118871e-01 1.816936107449885207e-01
-1.846745336745448107e-01 5.775357508168026399e-01 -6.477916123728900688e-01
-2.462575281348604872e-01 7.690116471352288485e-01 3.600273775488936900e-01
-1.038019913998564775e-01 2.151305881252799368e-01 -9.137682653418219836e-01
-1.182181878638964741e-02 4.854869695171995514e-01 -8.008499338615099328e-01
6.105987920510328598e-02 -2.142518580242967208e-01 8.250565451625422320e-01
-9.253948814543225265e-02 7.410929278973700240e-01 -6.220303665564146378e-01
7.950070914829328317e-02 -6.949775855344438868e-01 6.900659664710195873e-01
2.301369820219109907e-01 -8.375821554345727060e-01 2.773002851243251687e-02
-2.436225712104279073e-01 9.428151772810993148e-01 -1.284626542377005631e-01
-1.321802260706679000e-01 4.360334907098742385e-01 8.847189678263932544e-01
-6.939093282587092959e-02 6.600663446718110228e-01 -7.056704085941007953e-01
-2.229002770571637260e-01 7.049597306489632231e-01 6.339074397717594511e-01
2.294848927892389479e-01 -8.241750797237898940e-01 -1.449167322804906233e-01
-1.732945956343074911e-01 9.221664266926994369e-01 3.026038409530464879e-01
1.057015233528893899e-01 -7.561427427255555944e-01 -5.869438239584559014e-01
-1.268769217811923367e-01 8.467993940858818958e-01 -9.876951723040174047e-02
9.814243482929080678e-03 -2.146167390822214804e-01 -9.541697849167111167e-01
1.120566982556389646e-01 -8.981461521496344469e-01 2.724445259887460224e-01
-1.292837681776178860e-01 5.482128849489591449e-01 -6.268956306679482893e-01
1.025111816391334890e-01 -1.345503465227368967e-01 -8.521722882815179201e-01
2.340623685809107846e-01 -7.621172330412282481e-01 4.494635478212296031e-01
1.093102554850458596e-01 -8.888413247583246690e-01 2.542031919055270373e-01
-9.492140279661964719e-02 7.611640219753170733e-01 -5.925398165096799064e-01
2.739176035025014944e-01 -9.169434740582793619e-01 -1.241664207252895225e-01
-2.893847830460925807e-02 2.466227294213576837e-01 9.541394734905681574e-01
-1.112480094895225841e-01 1.032274324295941598e-01 8.760198967830651329e-01
-4.718279486065254588e-03 -1.493514936260083859e-01 9.886868890941095112e-01
-8.315581895451597261e-02 3.615797617136135012e-01 9.247486018533989105e-01
3.895660423706916176e-02 -1.780954202629636551e-01 8.295681436649976481e-01
2.719565064827565992e-01 -9.257054739570407254e-01 -1.119868972410713037e-01
-2.268219733304095362e-02 1.868985340342798063e-01 -8.208486128881750110e-01
-1.181976362650841855e-01 6.086144641539936728e-01 5.743976591701381862e-01
1.938254621700414848e-01 -7.835200259913096543e-01 2.900248058255496808e-01
-1.374772313082215092e-01 7.201154470222721482e-01 4.196916808959366696e-01
-1.366922075575283391e-01 9.447508872041981975e-01 -8.262053720812956303e-03
9.184191892057344542e-02 -8.208084020274453163e-01 4.102023417612326583e-01
-1.161079419902009274e-01 8.464426368935127343e-01 2.528264518399788718e-01
2.175013770119162138e-01 -8.323903131401529931e-01 4.721464521805864012e-02
1.213194045039046182e-01 -8.905865523197145084e-01 -1.394589166692862536e-01
1.997644844192832114e-01 -8.109800148425173605e-01 1.917090742549327764e-01
-1.348615478355923158e-01 1.706156092578603456e-01 9.095432718916028891e-01
-1.407084983543967216e-01 5.674681520926121436e-01 -7.961124480849161023e-01
-2.027190104768308507e-02 -2.291153908429860719e-01 9.586085229355095771e-01
2.565373945100861697e-01 -7.800400236626733319e-01 -4.089819818981421662e-01
3.256722324855728518e-02 -4.849555449443451183e-01 8.548796797165835182e-01
1.049326343874162348e-01 -7.971985723451920913e-01 3.626183762095698815e-01
3.614103423523687408e-02 -4.499215403482718090e-01 -8.003403093102829935e-01
-2.019283234803541036e-02 -2.104817129470444026e-01 9.657980742746907765e-01
1.200543639030833727e-02 -3.293444510663592339e-01 -8.492089865509783175e-01
-7.210386786284368743e-02 -5.079461231950852668e-02 9.684312601881106541e-01
-6.215056633870697650e-02 6.044690803623094244e-02 -8.777409566870789659e-01
2.073464735525323011e-01 -6.567873651298659077e-01 5.977189730566161430e-01
8.376060904328135048e-02 -1.763557947502177037e-01 9.504652317026587305e-01
-1.226680370618305621e-01 8.667868970699379449e-01 -3.756180877308527497e-03
2.309651181911312814e-02 1.445870033630560769e-01 8.834806490242195220e-01
-1.243877196062745938e-01 7.933622309357281077e-01 5.419344533651083706e-01
1.658320111404092134e-02 -4.207922350584877846e-01 8.868411849682185100e-01
1.270951347597938652e-01 -1.778422106698331340e-01 -9.380769532578837611e-01
2.295629004316553090e-01 -7.620864479199380703e-01 4.198928587145106528e-01
5.422288093547075055e-02 -6.690587393152961360e-01 6.665008554814458863e-01
-1.282633096488090818e-01 9.329197278869936216e-01 -4.769330697993502850e-03
1.137341624845449317e-01 -7.102402720000865477e-01 -4.893441280622544687e-01
8.520535061267638099e-02 -7.987250494899108544e-01 4.676789043787759614e-01
1.597461487013441817e-01 -9.535788694640152663e-01 2.346823327246182755e-01
-2.399237599067474136e-01 8.471507006326666200e-01 -3.921330172172232675e-01
-1.391487767813903709e-01 8.309906371173687578e-01 -1.054100652344372169e-01
7.849660700381110370e-03 3.518391042666643154e-01 -8.076442214434915723e-01
2.678972666108415113e-01 -8.748078464991111414e-01 -2.209883409316878891e-04
-9.796727363943058542e-02 3.961617921593784120e-01 7.368305934004790725e-01
-7.939959111186359331e-02 6.605318078127627723e-01 6.149988763004549108e-01
-1.696853202315266040e-01 8.671567836116402805e-01 -4.510382161732677808e-01
2.358134201608690361e-01 -6.607421191354589940e-01 -6.224813328148035563e-01
-1.140262814374886774e-01 7.380258734179216962e-01 6.181482289522792772e-01
-7.031057637764037693e-02 1.619681929450029756e-01 -8.450493755488406311e-01
-1.586190987207666478e-02 3.178834267628660726e-01 -7.891899940410660452e-01
-1.939661713261924825e-01 8.029689286388125291e-01 1.500487654248212899e-01
-1.839702015364425569e-01 6.512931534559223135e-01 7.241918115802949973e-01
-3.600956333142112803e-02 -2.787723400840169119e-01 8.734721271482681626e-01
2.050132839043800337e-01 -6.758341612545956112e-01 6.560233216822534130e-01
8.800471329378393992e-02 -1.452672243931424079e-01 9.336340557162596809e-01
-2.724796610649692918e-01 9.026452385616430263e-01 2.971953043877172129e-02
-1.366077296043897993e-01 9.145131210577714942e-01 -2.944168559801375040e-01
1.150256601663625783e-01 -8.538798687599159498e-01 2.216595410154605372e-01
1.377505875727124685e-01 -8.031089687679404676e-01 5.833526838956984983e-01
1.154861675047352126e-01 -8.338518472731867859e-02 -9.272976750020861525e-01
-1.755862240150270204e-01 7.632679788334427728e-01 -6.063657925663645809e-01
-1.687716428586544248e-01 9.467876079364481168e-01 1.972362659072822433e-01
1.238105098326800629e-01 -4.336142732658169741e-01 7.369438750320003173e-01
-5.734532193852247273e-02 -3.376767561928678552e-02 8.593664296141624304e-01
-1.505593656823060456e-01 7.205055434693266037e-01 -6.668267531588257802e-01
-8.051303531692038939e-02 6.257995318228464221e-01 6.170026909449706221e-01
-2.183369897265098614e-01 5.893064314266370785e-01 7.075661787019857929e-01
-7.653729785123680740e-02 7.069020766260094568e-01 -6.501325631984010700e-01
6.816007382060843001e-02 -2.371765542375326441e-01 -9.691884259838895455e-01
2.315624527621607531e-01 -7.486422477584238067e-01 5.119060650379188004e-01
-1.076101411096004185e-01 5.693994663791931421e-01 -6.070290594406074769e-01
1.540753647133757676e-01 -7.634382284115144301e-01 -3.490320298703989965e-01
-1.935137043013298030e-01 8.165943260681224336e-01 -8.501911075567093398e-03
1.352433344240441260e-01 -9.297097732931908221e-01 2.774085132990473657e-01
-1.361906445311291125e-01 8.853610482263285508e-01 -3.903914284493788522e-01
-2.497550009339750687e-01 8.366080214922595459e-01 -1.131411779912882831e-01
1.605541950992319181e-02 3.692248965228904778e-01 -8.414872403432255288e-01
1.722730718681540485e-01 -3.463391878205209773e-01 -8.442859188000050308e-01
-1.553626722423629147e-01 7.021747812358799523e-01 4.331391981116717860e-01
2.881366325081020571e-02 2.788467887568251702e-01 -8.445041488744309266e-01
1.006762792676164087e-01 -7.754198795560034441e-01 -5.117827219666809535e-01
-1.625166709679333188e-01 9.380436771317206546e-01 -2.487455728797879073e-01
9.731921470958984632e-02 -7.953766584532113715e-01 3.910248688678997220e-01
-4.844914342501056848e-02 5.085406378129608829e-01 7.758829731052691026e-01
-1.166112990087204704e-01 8.135043019726944102e-01 4.825427562620105415e-01
-1.794865710728219543e-01 8.151973709059296969e-01 7.132703405300931665e-02
