-1.876206854606865884e-02 6.281881828118716093e-01 8.223114999938913039e-01
-4.375145232844285803e-01 -4.683944056900063990e-01 7.380209031280688947e-01
-6.290556757692712386e-01 1.058966504519968793e-01 1.700858572940065205e-01
2.141238648354600316e-01 -2.742746465349170555e-03 -1.598354460428453444e-02
-7.811641238233789641e-01 -4.253851433823722661e-01 -2.393966802984975606e-01
-1.338217758165674287e-01 9.301594096681738144e-02 -3.108735396049053801e-01
-1.237503981481138937e-01 -8.640316876049075612e-02 2.435637783755810470e-02
2.283872716789604046e-02 -3.970173503024919115e-01 1.025091386468769961e-01
-2.280505123196649719e-01 -7.841070445894566809e-01 1.803893273275846698e-01
2.876641739521984889e-02 -2.687472021221735674e-01 6.609606391146166660e-01
-7.936798618313157805e-01 -2.426061403466813968e-02 2.641760109714896276e-01
2.327964493034758928e-02 -4.556943240042015120e-01 1.052570507772473685e-01
-2.516002451055918132e-01 4.352236456150414545e-01 1.976475390186260561e-01
-4.755005653352117889e-01 4.265889818419787982e-02 9.279025642058763568e-01
1.656848074663017922e-01 -9.002180805349903336e-02 -8.325714106976668527e-02
-1.614475063844766911e-01 5.564320270434747195e-01 1.697108832579632687e-01
-2.451541173121540018e-01 3.954509733658450460e-02 -3.385396639777041861e-01
5.029959472245704166e-02 6.456068472413156734e-02 1.585312408577821686e-01
4.848580495106225019e-02 4.065400878728119838e-01 -5.115849551125716266e-01
-4.583629039890380064e-02 -3.688374800972094025e-02 1.695708428542296031e-01
-4.642481855937926477e-02 6.233138507294314623e-01 5.700527564612543896e-02
-3.813017116061551137e-01 3.838479422742336333e-01 2.639014281509327597e-01
-5.860568983613776428e-01 -7.797202554321616130e-01 -2.925506899622991597e-01
3.947723534124557287e-03 3.639952104574527003e-01 -3.214054200201715283e-01
2.040069349965020484e-01 -2.251831582455092184e-01 -9.559145202252199436e-01
4.749219847928581872e-02 6.185614029757525723e-01 -1.244127821293906921e-01
-9.241207012726565528e-02 -3.377595566104193980e-01 7.384770637030741991e-01
-3.570443586206940023e-01 -6.270281778389037719e-02 -6.207087399462870581e-01
4.453050862184907976e-01 -1.536093519647196634e-02 8.838561496735167222e-02
-3.494124780682967835e-01 -2.773168263683919998e-01 8.799760484316945242e-01
2.728600088349313335e-01 -6.357899291160509225e-01 -4.426154301740931052e-01
-3.545672336198902874e-01 5.398513748172428794e-01 4.068028218493257575e-01
4.964118974721707517e-02 5.556706484836909654e-01 -2.036089689897132016e-01
-1.075373617388588297e-02 4.502123212249357215e-02 1.658326932432741818e-01
-1.881523308193064070e-01 -8.638612042302510341e-01 -1.505496759848141131e-01
-5.267499425041060057e-01 -5.698203544704374401e-01 -5.984599986786005577e-01
-7.103329865890476436e-01 -6.598872748993658277e-01 3.374706717833782510e-01
-3.395216119440057079e-01 5.231641138789497880e-01 3.536467698769540369e-01
4.861995410715970189e-01 4.750484329803663502e-02 2.779835706570493725e-01
-4.556671915385946958e-01 2.703728327528566178e-01 2.268402830840957340e-01
7.018086013828760128e-02 1.726310199133757398e-02 -1.157293342735516012e-01
3.637485620292676969e-01 -1.316026988419931876e-01 -6.674472539791569126e-02
2.482553033989711166e-01 -5.674593676614000243e-02 4.658781404693913553e-01
5.040356231323602776e-01 -3.138994524287911370e-01 -2.676090889499432302e-01
1.480024437410358273e-01 -1.833829252575941079e-02 -7.376106902907181295e-02
-6.858123464773208111e-01 -7.592535835886301543e-01 1.912037030511407401e-02
6.649999915709924325e-01 4.384246213661559255e-02 6.568967547497704673e-02
-5.984407130618716320e-01 -3.138856107949464236e-02 -8.121067149595481705e-02
-5.607421454138976635e-01 3.638359982978635054e-01 5.835243636008364820e-01
1.782753856325447472e-01 -1.136721057733798557e-01 4.759160208038439310e-01
-3.814642768030458708e-02 4.022088069763440910e-01 -2.078377461802314446e-02
-6.817471970778028467e-01 -3.987902111071978117e-01 -4.271214219992811589e-01
6.059916091987402331e-02 1.656535067048865439e-01 -7.415589835286935314e-03
4.659906293952494893e-01 8.108173823727138352e-01 4.456111362756922656e-01
4.938567826646754200e-01 -2.301894219729894719e-01 -1.771117361915112154e-01
-3.065696487798706404e-01 5.552419982516861863e-01 7.456162026891650640e-01
-3.278418835284222510e-01 5.866014938631275433e-01 4.645806209914175589e-01
-5.017256395723146412e-01 8.232530046744265806e-02 6.222249493331506731e-02
-4.329910252390730685e-01 -7.810801015381509949e-01 -4.811495691959294940e-01
5.054581681340388766e-01 8.444086235974408439e-01 2.961962684190845851e-01
6.331644158814113688e-01 -2.723973375240161809e-01 -4.619719537625094352e-01
-1.894143684531789801e-02 3.048695544493286724e-01 -3.404227441461835646e-01
5.189001944735250477e-02 7.010459364492771517e-02 1.534537251454451967e-01
4.272571768723623098e-01 -4.615701729154890742e-01 -3.616534811580844888e-01
8.378100671201323124e-02 3.946334379608953946e-01 9.479483041495018192e-01
1.958892008211889774e-02 3.809417768654064229e-01 -4.667445575669005864e-01
-2.457529784555073371e-01 6.485524592655481646e-01 6.227568578055674431e-01
5.081419938034887895e-01 -3.545409073239550457e-01 -3.235427115956446276e-01
1.500894937302157950e-01 5.225073720975197400e-01 -5.075526729080160893e-01
2.054203256356533502e-02 1.567116046751225178e-01 -1.597027102237982277e-01
-3.302235416663258927e-01 5.137021240124246130e-02 3.223971349584534712e-02
-1.765640608282007806e-01 1.172356398688353812e-01 1.225992635714786977e-01
4.332759150958400141e-01 7.643730466487355102e-01 5.558663437570924293e-01
-2.729225561484000528e-01 3.933508546531678807e-01 1.959269446444580065e-01
-3.045390919004232755e-01 -1.205599330589084660e-03 -2.452690265876048825e-01
-4.293713729512061983e-01 -2.017308658495427232e-01 -6.706326498744380471e-01
2.197717503037693865e-01 -5.826232746582389599e-02 -5.427508995540652331e-02
1.937199581060449483e-01 -2.792914752360470959e-02 -5.082149603984092989e-02
4.290115256061337590e-01 -4.813249145222400771e-01 -6.433702995012982040e-01
2.844226897990039665e-02 1.711588694439521718e-01 5.926290865769102273e-02
6.192038929112342327e-01 7.210918116606847006e-01 4.015091467159572214e-01
2.829248486797010242e-01 5.566452754997210928e-01 -5.831955619823667725e-01
1.436246178606070609e-02 2.521981341600219029e-01 -1.436282352439567089e-01
-6.499885395938725940e-01 2.476284565902064083e-01 4.789322416535271576e-01
-6.448650095878032396e-01 -9.194459706702337587e-02 -1.508764007683227326e-01
6.483343851724669982e-01 -9.091995016518428230e-02 -1.329545495903879104e-01
1.583992318837006696e-01 6.562026527757245375e-01 -2.953714532325349973e-01
-5.055351150500978497e-01 -3.612623473328903101e-01 -6.519398396746548530e-01
-7.691355296831652311e-01 -7.180582332142289304e-02 6.335742673671821423e-01
5.975714551129993612e-01 5.112196285727288458e-01 5.861405995787770662e-01
5.982260360725391579e-02 5.292575830488768229e-01 -2.738125764538907325e-01
6.704467139851816304e-01 -2.130594015705064848e-01 -5.535431609496618277e-01
1.769894499762357798e-01 -8.056384752363947299e-02 -7.836784076483498118e-02
6.162207651930366042e-02 6.635849444168329114e-02 -1.187833352516732138e-01
1.771368399170806518e-01 -6.933811466907640053e-01 -5.649134975235649003e-01
-7.041421672386936059e-01 -2.771425353740104569e-01 -3.243264253063011804e-01
-5.677677060722511326e-01 -7.241468562006038168e-01 3.768711460245674494e-01
2.943602669222372681e-01 -6.184527267049391153e-01 -5.493474230785561074e-01
3.552547881148135911e-01 2.812685494923404250e-01 8.174961672581304573e-01
5.828639445779859596e-01 7.626245040909994666e-01 -2.555366526125597559e-01
6.352286507173751096e-01 1.342330854752716573e-01 2.871675789269407808e-01
8.493810883605892870e-02 -1.003809958864990970e-01 8.226316334615667580e-01
-6.172916205478047313e-01 2.545786898564710854e-01 6.833936029981085847e-01
3.665727120084682489e-01 -4.328351605328147333e-01 -7.964568261449730402e-01
-1.207829402875622155e-01 -8.379783817179584093e-02 -4.019183265353021978e-02
-2.844368815827025276e-01 2.237296249757585176e-02 9.866117620362958585e-01
-2.935127710233901288e-01 -3.793752125184878810e-01 -8.251339848757469619e-01
1.315489107485430520e-01 4.330884548503552978e-01 -6.189743015745312604e-01
-1.592146041014511626e-01 4.134351817259392103e-02 -2.594469340352545950e-01
-1.781033757361783487e-01 -1.410441109074077326e-02 -7.956147008625399364e-01
-1.236766441583170145e-01 9.538188623248707032e-02 -3.024878860472750564e-01
-7.956827536406375911e-02 9.064172041227602783e-02 -2.529952817794444697e-01
-1.170432116607212775e-01 -6.115439874794283831e-02 8.951954696872797823e-02
7.842213362557013401e-01 2.657477606178206830e-01 1.896304333551398491e-01
-7.780764539193933960e-01 -5.400902384415542240e-02 1.503621450249698899e-01
-2.119516867872467680e-01 -3.408819407854816325e-02 -6.030955965075057712e-02
-2.148940596329389913e-02 4.044611373554365952e-01 -5.837214492552043194e-02
5.031399949313338782e-01 6.228032462917102441e-01 -5.304250216962278497e-01
-4.422289875212009336e-01 -8.540974218930474926e-01 -2.904305763450381050e-01
8.793165000698686118e-01 3.174722428546479236e-01 -2.283965017379597229e-01
7.527317800246201562e-01 2.134981051024636145e-01 -6.348504318721791551e-01
1.985598335465698361e-01 5.420756839291230866e-01 -5.382420965884916475e-01
-5.660600216060834855e-01 2.829839577692629948e-01 3.396675727997170990e-01
-1.729943608273324385e-01 9.515190234050789619e-02 -3.688327131655624314e-01
5.754566839855361771e-01 6.928902247940248449e-01 -3.996888011927888229e-01
1.396347809973369491e-01 3.371680901285510901e-01 -7.418915946537714134e-01
1.959865435560229421e-02 -2.511328363729285473e-01 3.027466482457559227e-01
1.127968815020368304e-01 7.272807077051028635e-02 -9.123190064995460036e-01
-5.782593476168841340e-01 -3.926272444627219860e-02 -1.185320020483352915e-01
8.675197501245108800e-01 4.514615749118447985e-01 -1.881791592571621097e-01
-1.943991443704178868e-01 2.577596780995879480e-02 8.290997544761177784e-02
-2.918583475636064017e-01 -8.331526651807628081e-01 1.137627123252182709e-01
1.111528059601497725e-01 5.125825201449717428e-01 -4.546306603576651395e-01
8.099782847429856103e-01 2.405926692122630633e-02 -3.460888916550857175e-01
6.509863007831888371e-02 8.181466379549930112e-02 1.390119269655551715e-01
1.380058950552070229e-01 -8.707092472971827979e-02 3.489125901098794613e-01
-1.930135769136622770e-01 -6.512371120699417260e-01 3.927217924400040472e-01
2.064236937233225322e-01 -9.664083100711036434e-02 5.981053268280533963e-01
-1.109842329000713668e-01 -9.732724012870144770e-02 -9.439837504804931764e-03
3.957051905468240149e-01 3.089578087353406777e-01 -8.223400063955905726e-01
-1.838473994277060874e-01 7.050341067663939976e-01 5.122141653654902482e-01
-2.472977452012002919e-01 5.645374515576907504e-01 7.904393072233094619e-01
3.005312849966715882e-01 -1.790536354311444978e-02 3.149879920884044587e-02
-6.359710439522671122e-01 -1.060157657057480274e-01 -1.931917919537963491e-01
8.436711055867248676e-01 5.051909986205855851e-01 6.031984664139340702e-02
-4.638368270581700870e-01 -1.534413584817851950e-01 9.088675529937805253e-01
4.357939418874295368e-01 8.591988772601848456e-01 3.404936265726422606e-01
-3.525313271662511294e-01 9.691880659198087722e-02 7.460545323459492895e-02
-4.546884168023883344e-02 -1.799982120358221138e-01 8.768164119449399496e-02
-1.262180189394079659e-02 1.750808915166038593e-01 -2.189799791842472754e-01
-4.510797006800767832e-03 3.470849107019407520e-01 -8.819700931326304727e-02
2.721173463059168296e-01 -6.245716181331042449e-01 -3.870596310993952294e-01
-1.498562826409400583e-01 -5.329203798834670353e-02 9.659913215358556515e-01
-4.535502297585015941e-02 1.057212931043069182e-01 -2.305468930385946580e-01
-6.154717284214271666e-01 2.854863324161585614e-01 4.561043075433728888e-01
-4.576191772629856769e-01 3.970447347012104888e-01 7.779345503592903777e-01
8.010333617910433968e-02 5.949114899650097543e-01 -2.324729476252756499e-01
3.887665126432965912e-01 3.895223834965256815e-01 8.020787664812201179e-01
2.658299319407184114e-01 8.591391793731564253e-01 4.472628851628978608e-01
3.707166845433203933e-02 1.112429953794799170e-01 -1.402023742499227399e-01
7.465997445964143164e-01 1.948693973272248303e-01 -6.466287480638164276e-01
1.138222578609036917e-02 7.383276977305985866e-02 1.530391488306376835e-01
-8.427423209421596173e-01 -1.312205918551486994e-01 4.083868816971439331e-01
-6.992902768733029184e-01 -4.251190891515333609e-02 1.861153259004210206e-02
5.128318136934186811e-01 5.177310457867451143e-01 -6.434925731874969745e-01
-2.040428705341705284e-01 -8.323060369609094344e-01 -4.801773295418459986e-01
-1.338899511858983316e-02 -4.065456011430471639e-01 3.076253234127091507e-01
5.464574662717178732e-01 -3.281967960969773279e-01 -3.426934419881360050e-01
-5.042290957900782966e-02 -5.975495226832222562e-01 -8.110780891975596374e-01
-8.113271349266434340e-01 -3.663759478975092687e-02 3.351893509402255611e-01
1.591020527223848680e-01 6.650022735433014365e-01 -2.813630744849720533e-01
1.543386172348674423e-01 -2.961959007522150800e-01 -7.677325699439598028e-02
1.513483606535218351e-01 7.990993703065170095e-01 -7.650872667585188053e-03
-2.176722765279526239e-01 3.548026128884457231e-01 9.585287562204476419e-01
-3.538183494419708808e-01 3.169155038311378125e-01 2.060743504566824313e-01
1.624647810590206243e-01 -5.271515102805415277e-03 -5.862352327922495249e-02
6.111632812468054121e-01 -2.965666535481800703e-01 -5.652342585737336611e-01
1.270655245577072545e-01 -1.164459684584829013e-01 -9.088281081377765080e-02
3.176162212050271938e-01 -2.206889068265117382e-01 -1.127057932036922283e-01
4.028792014395921051e-01 7.790321604760593044e-02 6.010446651182924649e-01
3.808704790700340875e-02 4.305165528238803774e-02 -1.389710297205824230e-01
-3.579082456972991211e-01 5.626884698871507107e-01 4.802403280553475540e-01
7.779858430194352970e-01 5.313623357957747428e-02 -1.121665781615163726e-01
7.100863519941235102e-01 2.229002473494043693e-02 -3.293974184951296846e-02
3.052525820004683976e-01 -3.302613047441744221e-01 -8.999634820506362543e-01
-5.090669647123280406e-01 -8.215355486498213677e-01 1.688981779262570537e-01
-5.049827663914454590e-01 -3.400655680787006419e-01 -6.482187660965997855e-01
-5.629117316805369864e-01 -8.357569335288204115e-01 -2.624183027954969313e-02
-1.759585528363726004e-01 2.617319911316873422e-03 -2.030892022758193916e-01
5.219984346440408318e-01 5.549080788767690731e-01 6.545528439615947436e-01
7.422804957514502755e-01 1.134700523995676863e-01 6.770164830073606421e-02
-2.599124098461410431e-02 2.964675648072122027e-01 -5.545464375263157164e-01
2.460003575095696948e-02 8.123476233437775251e-01 2.868898267273121139e-01
-7.263355630179224587e-02 -1.221275803873333871e-01 1.048166933963450842e-01
4.109096288083237125e-01 3.038369253982658655e-02 3.386242057467409583e-01
7.284106593380906824e-02 1.267949646434349542e-01 -7.375424260596126491e-02
-1.440315716358795024e-02 -2.390396017309719956e-01 7.645474599181383002e-02
-6.292899156567659524e-01 -7.907298283995600752e-01 -1.412908094406370996e-01
-1.012843035626184718e-01 -9.684168581807146847e-02 7.191835271528786155e-02
-3.597995143167658227e-01 5.055757416254725856e-01 7.581578393533096039e-01
1.433423207223695484e-02 2.582539903688408356e-01 -1.371227534398162806e-01
4.814139666365470083e-01 5.014808474159738738e-01 -6.668347943481606199e-01
-7.507111961503840636e-01 -6.265691782318765224e-01 -2.021940623386896951e-01
1.078669543760267663e-01 -8.979861958354379281e-02 -9.564490363096705972e-02
2.803168306253930320e-01 3.445062195236495151e-01 8.759072139787332789e-01
7.752986217588501150e-01 1.908370036299367320e-03 -2.067394028003781692e-01
-6.957005725077934910e-01 -7.448616230860569676e-01 9.910993887821223369e-02
-1.482642910272350886e-02 5.640712975621111624e-01 -3.930940667340034750e-02
-3.058795668867768658e-01 8.505140764569599221e-02 9.875152330803255163e-01
4.572069239260368456e-01 -2.040587233858245086e-01 -1.372358307272419364e-01
6.064557928084439095e-03 3.636213814780300813e-01 -2.002619349753017586e-01
4.153284709077201819e-01 8.711414187469016523e-01 3.101970404827729122e-01
5.085090678785239016e-01 1.782468137047718559e-01 5.808550535495573541e-01
1.871036576538052387e-01 -9.703767093024531776e-02 4.460422215660571621e-01
2.289780193577040102e-01 9.302715748405647814e-04 1.874373115506177464e-03
7.147293347097100069e-01 7.006775585570287346e-01 -2.102424896325837400e-01
4.786681711033921038e-01 -9.206741341201121753e-02 -3.510278230878107614e-02
-6.650553860571455367e-01 7.390027899678677792e-02 1.633341451871463124e-01
5.138136314304173613e-01 -3.453682346245833812e-01 -3.185135776309713229e-01
3.252772017774362423e-01 5.955424079823387444e-03 1.149126272441881313e-01
1.823368732803218872e-01 -6.285091414163607171e-01 -2.227678371210361774e-01
-7.393935641589876040e-01 6.488130824308102618e-02 6.136554211473109754e-01
7.277957607527815176e-01 -1.352861763836041842e-01 -4.496416779727182567e-01
8.365218538101518164e-02 6.599313512264564086e-01 -1.469049835467207410e-01
4.139455807070253623e-01 4.266828374247604028e-02 4.480919622677385084e-01
1.828573070992275604e-02 4.364983689269430478e-01 -2.247078076887797093e-01
-7.169550258589008074e-02 -7.049456091945927039e-01 9.587944998478011016e-02
4.390119342733365265e-02 -2.044571514941259660e-01 7.476578645600326922e-01
4.298224157394069794e-02 -7.261362664641655140e-01 -1.407229492442462204e-01
-5.920480132575897114e-01 -1.241654292653735642e-01 -3.042887259016877621e-01
4.894208422733290625e-02 -1.875824488372085375e-01 -5.778310357866978803e-02
2.418267742589082225e-02 -1.670471518306713699e-01 2.704207973411195676e-01
4.271067155707216137e-03 -7.586750271535132040e-01 -5.904211743009241120e-01
7.236260730652664952e-01 -1.283466680853268538e-01 -3.551109078697345378e-01
-1.169046275059328933e-02 1.863776536820656304e-01 8.095770001749215405e-02
-4.682116524802745761e-02 -7.389392692493472747e-01 -4.675446264139619668e-03
2.966458319978463876e-01 -1.225348406647540911e-01 -6.695251399546109372e-02
9.965131632623282221e-02 -6.316666128166864569e-01 -1.052253854917602899e-01
4.496610767512422835e-01 -2.433646725856681570e-01 -1.651760194628560940e-01
2.836796560816752244e-01 -3.384565129355494584e-01 -1.431736375083133561e-01
4.536544557714239922e-01 -2.096530629553771397e-01 -1.404067968060792315e-01
5.000282837322664875e-01 1.952717299629547557e-02 1.622413017097155685e-01
-5.286500117860999381e-01 -8.448347480153535205e-01 -1.633175519183098778e-01
1.681369307626613407e-01 -1.536357902382787547e-03 -5.227677635801725869e-02
9.162829655074727908e-02 5.373201156713398596e-01 -3.595384659857526755e-01
6.348569541849641285e-01 3.540178957780816538e-02 8.505831914698773477e-02
5.197408897519008031e-01 8.252082655928715260e-01 -1.276573181730971396e-01
-3.671881788564522187e-01 -8.203302831621924751e-01 1.946019260733957423e-01
-1.483158426979527267e-01 -4.650460702224146758e-01 6.298638394663323981e-01
-6.834163089714066774e-02 -6.473732304142140737e-02 1.467530967561271882e-01
2.795148149034574758e-01 7.295162182396879302e-01 6.882348620080482871e-01
2.357642527503207158e-02 2.389754073178946003e-01 -8.632334409845056344e-02
7.314936562273689769e-02 -8.027294195798501120e-02 -1.028077222245507710e-01
-2.301434087960383679e-01 -2.443826450292348879e-02 -1.124437106640455569e-01
-7.542756063507258801e-01 -4.637854593571059669e-01 -2.989509073958611651e-01
-2.445755632368766530e-01 6.210415385238473585e-01 3.515621440813488929e-01
7.287633191769965491e-01 1.444285484971060685e-01 -6.758534930996702439e-01
-5.493885726600227226e-01 -5.532327164813324316e-01 -5.824370893581588549e-01
9.624393991260977999e-02 1.161180144153830737e-02 -9.902694054244373656e-02
5.450028916405568191e-01 7.538069710525602263e-01 -3.035708236325371789e-01
-8.357665890289581734e-01 -9.964046880021344699e-02 3.123333893349427570e-01
-1.434170010088789970e-01 -6.439802591831914613e-01 3.274968541584286075e-01
-7.035082710764237746e-01 -7.377635260721749910e-01 -7.315186995685796223e-02
8.650645634084697111e-01 4.631673658665556026e-01 -1.837819617333546485e-01
2.760908102827211996e-01 8.865979234600340764e-01 2.057347958177693226e-01
7.484484468898428000e-01 2.258097347872716487e-01 -6.384395824078960002e-01
-5.402883138180863964e-02 -1.236692609698006734e-01 -4.673477081651215143e-02
7.003607675552743217e-01 6.146520098994698866e-01 -4.046097868492014027e-01
-4.305356637875947141e-03 -4.157451663186174096e-01 2.105344506686638029e-01
4.420825015388619161e-01 1.769672522802806791e-01 -8.723504552313392502e-01
-8.155691202514463445e-01 -4.241395040268999828e-01 -1.483479813143225579e-01
2.390821841514108037e-01 -7.066496139121068720e-02 5.316822770555340583e-01
-2.171479027518709304e-01 6.400357723020527745e-04 -2.086038864777855772e-01
7.287219726431094502e-01 4.481979077511654697e-01 3.962319375829256307e-01
-8.589892064816729844e-01 -1.810304417713046732e-01 3.318468400665554041e-01
-2.348021810093950737e-02 -5.455032243000402792e-01 -8.486205700894328130e-01
-4.048383083225103318e-01 -8.051957262937517457e-03 -1.413478314371412470e-01
-3.831662091806599668e-01 -8.056180675007611897e-03 -1.460428439733090777e-01
-1.722705086041030897e-01 3.401026599750828772e-01 9.730609101866241062e-01
-4.929922847421895904e-01 -8.615336503998827222e-01 -5.879617717330010151e-02
-5.171557928869916498e-01 3.791592619420554033e-01 4.177633940076263541e-01
1.590909069724439073e-01 -3.090506204892040990e-02 -7.185352952461838971e-02
4.743905291968790738e-01 3.370933010808538355e-01 -7.906926792053833308e-01
-9.290855230242305030e-02 6.680937717746245064e-02 -2.431137524306060671e-01
-5.905811754181276019e-01 -1.804149506223315727e-02 -6.111444565663018413e-02
-2.533382241560078532e-02 -5.521380963273330167e-01 1.832824037386101279e-01
-8.191846353198518893e-02 -7.235087730760244584e-01 8.368624680417835471e-02
-7.892189789003998257e-01 -6.193862038681405835e-01 2.177076926238578625e-01
-2.333141890011060648e-01 -5.816091960965309449e-01 -7.860537748086640075e-01
1.227945979080481281e-01 -6.682881775905552546e-02 3.081837493601293221e-01
-8.622292240691401544e-01 -3.496630311974841532e-01 4.749958059535035193e-02
3.460211703330317023e-01 1.070197685791128908e-02 1.613385322656088194e-01
2.107912706148652726e-01 -4.292721158082702937e-01 -1.241773020319462406e-01
5.515370779408401009e-02 1.584254272237390349e-01 3.745933409040787948e-02
6.822105667778853855e-01 1.619018335757937133e-01 2.570930567434147607e-01
-3.332052511033715692e-01 -4.089867597191015891e-01 7.880294291723501932e-01
5.065174620298820152e-01 -2.700735242298874517e-01 -2.236977780028256146e-01
2.056459825742089353e-01 -6.741334165970852554e-01 -5.744577373629777828e-01
1.036467103524386923e-02 -3.213059053846163415e-01 9.921466988745807070e-02
4.704709988725764847e-01 -1.370473130900189823e-02 8.910191531242986351e-02
4.865643720495745339e-01 8.605368262771456722e-01 2.512331454551849363e-01
1.109881780810047375e-01 5.169785729733351876e-02 -7.296467657936119011e-02
1.501965524498929949e-01 7.397766222819164572e-02 7.112946802628822285e-02
-1.054421733703585357e-01 -4.243426646909708722e-01 6.341684848745631209e-01
1.288188141780107487e-01 5.695076235275590149e-01 -3.896101857656988354e-01
3.321083253161210003e-01 3.583099471405750552e-03 3.494115823731090975e-01
-6.338630533684710411e-01 4.696647235484503052e-02 8.042030136401745466e-01
2.236711332503788993e-02 5.101830135990388371e-01 -1.670286844380749758e-01
3.006710822607874811e-01 7.174801371558056085e-01 -3.507231364744144986e-01
4.810253678788049547e-01 -2.861622547277784534e-01 -8.114150249710574414e-01
4.978981277853412601e-01 -1.865282708574243775e-01 -1.388452849559811131e-01
5.883844868934259668e-03 -2.876812565362262819e-01 2.705720376934658278e-01
1.315428199561927414e-01 8.497507701121002899e-02 7.520815323191680501e-02
7.587613939558984777e-01 7.428382032242812627e-02 -3.077635360113311486e-02
-1.445112406423185725e-01 7.154529056412662902e-01 3.633176273470772322e-01
8.405156605507043688e-01 2.499981294815289412e-01 -4.505816369018399437e-01
-2.856970234643815831e-02 2.075684888056031629e-01 -7.266719756497336258e-01
-7.646707919215448013e-02 -1.053873848128806939e-01 1.146162723408844369e-01
4.014682125807932933e-01 -5.234811556154352896e-01 -5.864375540644825024e-01
1.051238426386028046e-01 -6.170024562570510795e-01 -9.982271038499225535e-02
8.113426808767649767e-01 2.682080453974768353e-01 -5.213636862508095327e-01
-5.773548790252702734e-01 -1.038886416350146141e-01 -2.822923517997465437e-01
-5.304412936348811003e-02 2.683048002093536555e-01 -5.217367731424967792e-01
3.064140717352179522e-01 -2.551450956640580747e-01 -1.235671961917649830e-01
-6.464770413540438243e-01 1.576909903731661677e-01 2.662688253531296789e-01
5.586872471480561764e-01 3.011165206106587999e-01 -7.765744126047841034e-01
-2.660134631827225093e-01 6.193538755465504558e-03 -2.478107231544975364e-01
4.879885420718639566e-02 -2.986604606347177393e-01 5.548981425882644827e-03
1.616099518642230559e-01 -4.994305670793500185e-02 3.179513111179639306e-01
-1.456479499003900590e-03 4.217715425081464131e-01 -1.252655478187050531e-01
2.833558202202929310e-01 -4.491773605489268184e-01 -1.900136184701397279e-01
-3.069017536482184227e-01 -6.339848781174874937e-01 5.244925516447549452e-01
-6.435195152046010447e-01 -7.412738694818749030e-01 2.581479974778281838e-01
-1.778665253505709865e-01 -4.735727369010585969e-02 -7.278756344487782859e-02
4.885021968177681861e-01 8.141142204693543327e-01 4.130624155735312386e-01
-6.581964506786085467e-01 -7.417464937987929829e-01 -2.292056527696479939e-01
-1.012664359985151336e-01 4.021618937229496371e-01 6.743632329922696900e-02
8.559750760387290977e-03 -2.447374818368498739e-01 7.398864663538583519e-01
-1.528532448648252384e-01 1.310909252532143632e-01 -4.128200706143574372e-01
7.098332154278741424e-01 1.417478629256420652e-01 1.741813744027309319e-01
-5.658197888744139759e-01 2.562749484993135374e-01 7.756472408558313658e-01
7.292915339347872949e-01 3.625401446063254984e-01 -6.092402616492365031e-01
2.878727090335194139e-01 -3.234729174036163890e-01 -1.401972007668287057e-01
3.635576358274931336e-02 -1.296160769836276760e-01 -8.403943640787372993e-02
6.321741380204347338e-02 5.408658813485708317e-01 -2.664949817021854406e-01
-2.241202154363773069e-01 -2.350278650815844916e-01 8.939930894470230482e-01
-6.741718142602679542e-01 -7.668508339522105421e-01 -5.397265127201318624e-02
3.514611027719432568e-01 2.749312450521266271e-01 8.190905387645507352e-01
9.247937728467597873e-02 1.258686380063230026e-01 1.384385795288839947e-02
7.947492647174568825e-01 5.096948989955467635e-01 2.391135544007592095e-01
3.503375348657737365e-01 6.989397545646526266e-01 6.875925609453046317e-01
2.580357856940093675e-02 1.366800278000613600e-01 9.992293663899046163e-02
-3.654621139121821960e-01 -9.928072396869637439e-03 -1.668000268952484488e-01
-7.729034195400452667e-01 -1.566420653608726621e-01 -3.426712142440653530e-02
-7.127894243334424729e-02 2.431983219661918716e-01 -5.408802339487316369e-01
-3.395437713841675254e-01 -8.599653343560273999e-01 4.852345331436878906e-02
-5.519645026830759527e-01 3.298819886440038651e-01 7.131268095562141029e-01
-2.874369729241246230e-01 -6.811525264363834653e-01 4.377963850921918199e-01
-3.532603286011318927e-02 6.722334575755867236e-02 1.523759509426904357e-01
-2.700381868643234040e-01 -7.341178840798799898e-01 3.284686227887719245e-01
3.200900357117802408e-01 -3.873803378436090905e-01 -1.844562063779374983e-01
1.633286860842618135e-02 2.595607028570429131e-01 -7.569931610954695744e-02
3.859386145439693827e-01 -1.973707908051596654e-02 7.135511086681156634e-02
-2.403445877070283787e-01 -8.514506830558511707e-02 9.646506038092239610e-01
4.815250755965493901e-01 -8.715678236596526365e-03 9.767319101329435815e-02
8.262079933227365336e-01 4.601767752374006926e-01 -3.683593305758281478e-01
-1.597374599238200465e-01 2.192808211115885864e-01 1.253407194661274315e-01
8.584133824585488126e-01 2.056542793690855908e-01 -1.357775278492288074e-01
5.381372250533440482e-01 -3.594931895477593287e-01 -3.858748794936189830e-01
-3.490114673614799212e-01 -1.815352849470519905e-02 -5.308654392283920220e-01
-4.451788374809633742e-01 -9.496386592165610707e-02 9.298011072666352295e-01
5.245511616384345155e-01 4.511537396948850365e-02 2.196142053548219841e-01
6.430589263606713941e-04 4.122162189446912546e-03 -1.500814105327440973e-01
3.961962250267285213e-01 -2.304139267167501157e-02 6.704121033398773022e-02
-1.116336440941292744e-02 -1.370637703896996629e-01 2.087647978095115153e-01
1.487532194922297213e-01 5.263140523580742691e-01 -4.993368271879356501e-01
5.925282270931250123e-02 8.113887220593080096e-01 1.931229988736908043e-01
3.232156511881635521e-03 -7.939382383388784437e-01 -2.487451767986281204e-01
-6.703842079734881887e-01 2.089799108221543356e-01 6.024047119744824208e-01
-2.981554147851467329e-01 -1.711054800112314644e-01 -7.865936007387299700e-01
1.272985021701366903e-01 -3.137287429140214745e-01 -5.890458036556434074e-02
5.582161760592860844e-01 -3.075279502528052156e-01 -6.942229452212583807e-01
6.514512461955143108e-01 -1.350845283101139993e-01 -2.018552760271744573e-01
-5.236699359098669904e-01 -5.088881537756161089e-02 -2.113957370428416194e-01
-4.538483898578671294e-01 -1.760049758470150151e-04 -9.954553594809102679e-02
-3.950029908790843036e-01 3.695182922787480506e-01 2.636006542615277337e-01
8.388981919660930264e-02 1.420577748301064640e-02 -1.069427947405895002e-01
-2.337298520525358247e-01 -6.225920950929516584e-01 4.873674068645748036e-01
3.111822068219486925e-01 -6.070812367054408965e-01 -4.700850750486655349e-01
6.315757165770922166e-01 7.657686680268253054e-01 2.917468208647799877e-01
1.612977495005897266e-01 5.275414296395732894e-01 -5.155754488958838033e-01
2.346232609864797036e-01 5.918731117321968105e-01 8.225081948261979692e-01
1.630300984556257160e-02 -2.219636929526812574e-01 2.769151302048332153e-01
6.160282366615599248e-01 -2.513948110676484382e-01 -3.352184810547027549e-01
6.296478190474529280e-01 3.745596461225985663e-01 5.435213081568681659e-01
8.400856105245717576e-01 1.142646157769300758e-01 -3.779877455173237255e-01
-4.369726607837366994e-01 -5.771471902050839820e-01 -6.742929300418148975e-01
-8.330145855822496115e-01 -2.411292237205335531e-01 1.705997708708511737e-02
-7.916174140218262822e-01 -9.489876825991420180e-04 3.217662176681899688e-01
6.067431570898323967e-01 5.865891325124699129e-01 5.448355073596621301e-01
-7.977832654911812815e-01 -4.325536268713799926e-01 -1.983065327729407468e-01
9.970418014178258903e-02 -4.777587130899041967e-01 -2.538424390106800224e-02
3.032520395326155915e-01 -1.659959947067267683e-01 -9.454085263738469802e-01
5.074664758352682714e-01 6.010291284931399414e-01 6.456874587237988461e-01
2.776748118982388068e-03 -9.796492186913033362e-02 -9.643153154902668611e-02
7.463692013919622781e-01 -9.778506210738899251e-02 -4.842970992759198512e-01
-6.260442714812680665e-01 -6.202485265104099588e-01 -4.504066698053657558e-01
2.202697043611876460e-01 -5.043138361044373630e-01 -1.631078973429902490e-01
1.274012776388476660e-03 -3.411309024835947334e-01 2.982303467318437318e-01
2.721603291994487139e-01 6.589264243691513867e-01 -4.286958901895625007e-01
-8.127834400788556124e-01 -9.915913860456580797e-02 1.723841570973978499e-01
-5.299824611634944560e-01 3.479179665032891555e-01 3.847538504592711850e-01
1.768652409860983765e-01 4.994137887499571632e-02 1.294739456339270844e-01
-2.077229736778874181e-01 -2.556345299147194106e-01 -8.714544627401228372e-01
-4.314356410031687239e-01 -8.762072775559069937e-01 -1.028462618869010609e-01
-3.507017122689479738e-01 -1.597555462639472512e-01 -7.301205200914296922e-01
-2.404938308124265345e-01 6.124785523702482859e-01 7.233596612044689289e-01
2.384183179832243329e-02 1.000805341387724506e-01 1.330150998552936115e-01
5.802273368669154385e-02 -3.815120798728556528e-02 2.375718530306348830e-01
-8.941039632486785793e-02 -5.045544351039821240e-01 -8.654424578738566520e-01
-8.252825107909328439e-01 -3.456631295732189857e-01 -9.751670399577282156e-02
4.952712067178847988e-02 1.345244234640432246e-01 -1.147747435153076007e-01
-3.192939142763515648e-01 5.354906743994138907e-01 7.618410594414253278e-01
1.368820537114157632e-01 -4.317169175014560212e-01 -6.107140006089111645e-02
4.449455618180124805e-01 -1.753502201506514924e-01 -1.098431121233973684e-01
7.742442877077843066e-01 2.608707046747359981e-01 2.076521584642335438e-01
2.584254668290878465e-01 7.443318877982235682e-01 -2.645332879347341293e-01
-2.272375503662161719e-02 3.090385159239272261e-01 -3.824426827357185754e-01
4.041006195744818036e-02 -2.860922307125317587e-01 4.662002322576719870e-01
7.493812134466528718e-01 3.813546864043514117e-02 -7.427807068890066033e-02
-1.810314501253471320e-01 6.616353412081804608e-01 3.094025375635610087e-01
-3.378831219502032718e-02 2.641722300473202112e-01 4.385495466853425728e-02
4.447430151003562981e-01 7.092588234378277567e-01 6.140721945821577821e-01
-7.003496395060387902e-02 6.578690510723265994e-02 1.458125352284646015e-01
5.204538383998535966e-01 -2.679793485478667581e-01 -2.331390494652057221e-01
7.166837814935208412e-03 -8.027372570424410325e-01 -3.926993829165396077e-01
-6.850925414329576135e-01 -3.100288990676980938e-01 7.160009496997752354e-01
4.271493024192868360e-01 7.756705712069514869e-01 -2.869303363412623042e-01
6.300302820099790146e-01 -6.921713941086439503e-02 -8.292768165289027271e-02
3.561782343138534938e-04 -8.052597452638883269e-01 -3.997122878642985211e-01
-1.164725865381083247e-01 -5.410403791580008503e-01 -8.416176484922520684e-01
-4.180720103417137623e-01 9.291191141828236688e-02 6.450218586021133627e-02
-8.464874791032274137e-01 -2.165482857193029298e-01 1.027415411622369518e-01
3.061837741910625743e-01 8.853998175728875486e-01 1.415480724211152508e-01
1.345116680466268144e-01 -5.967174719655421455e-01 -1.237440410070107244e-01
-1.355391962765858764e-02 -4.940730394895038735e-01 1.977923391503337291e-01
1.952800844603275465e-01 1.375272747457664119e-02 -1.506028859837209299e-02
5.137353117979840539e-02 -7.186923763024054557e-01 -1.421076062831171938e-01
6.115606245366335125e-01 3.890276126156747005e-01 5.721065033307640713e-01
-1.224586733431415886e-01 -3.218983527414082807e-02 1.049077331146748421e-01
3.915926263609111752e-02 1.744032183193520158e-01 -1.131348603642500644e-01
-7.838817812386897899e-01 -5.119461960680719015e-01 4.335741029576800631e-01
6.569181336593227227e-02 2.420549117342015930e-02 1.938018253753826248e-01
7.169065089489705389e-02 7.923614592559447001e-02 -1.049886408406342370e-01
4.521278170755160253e-01 -4.741090765460356238e-01 -5.929859744420227230e-01
-8.200956649426792699e-01 -1.369599188127025302e-01 5.250417401722814459e-01
6.697694721667914186e-02 2.792713352196917742e-01 9.690520742928355746e-01
-2.846730813323942733e-01 7.007058855020151071e-03 -6.247369310395755049e-01
2.531154058848852917e-01 -5.629036358453139155e-02 4.859745425550179299e-01
-6.658746956290794161e-01 -4.182520558584200687e-01 6.708471090748346910e-01
3.628807859490039700e-01 -1.237239731612894689e-01 -6.089838965625771899e-02
-8.161228093813303053e-01 -8.557771900277265364e-02 5.048214150920112830e-01
-5.985560304529901066e-01 2.998454966737008065e-01 4.391349466207584151e-01
-7.177097121594314122e-02 -6.986056035881054171e-01 1.058704560135310113e-01
5.324312786880176507e-01 8.534815356058116365e-01 6.227350737049609786e-02
-3.129261255309033207e-01 -5.777315844455028770e-01 6.052735922391643264e-01
-5.456983651044756273e-02 1.913837468567896327e-01 -3.052123227510663561e-01
-5.416198550672236545e-01 -2.512213501807460392e-01 -5.624794166321662736e-01
3.969685383468949946e-01 -5.281027108406308734e-01 -5.835881636562691988e-01
-3.714466221879225705e-01 -1.342855462815049396e-02 -3.348496756821862097e-01
-5.063867912918808001e-01 -1.401018309359638447e-01 8.947475924680963200e-01
-5.040595225157049608e-01 4.276163817277302617e-03 -7.026733613209387719e-02
4.376777874012138152e-04 1.826610883616773817e-01 -1.969189681329343300e-01
-6.277437448792809738e-01 -4.303723242717210490e-02 -7.389294265266951878e-02
3.454378093046426429e-02 3.788709717273146538e-01 -5.359021182894251334e-01
3.087426297746602710e-01 -6.079719937983684153e-01 -4.590443200518700695e-01
7.418006379061434785e-01 2.637940592629760619e-02 -7.990203999198186580e-02
-2.118247089168711073e-01 -4.235495740665998210e-01 7.344296910146428381e-01
3.922531038130115666e-02 8.265314276138920890e-01 3.997866120268483425e-01
-3.654407577977752952e-02 2.657457269043049797e-01 4.590340587303299441e-02
1.809350259584233678e-01 -4.351391308147142256e-01 -1.013797853473643457e-01
7.397328063323397318e-01 -1.113373883020348787e-01 -3.876191944937981138e-01
5.959868506908432007e-02 2.960185547013907126e-01 9.698976720106420313e-01
2.753943746628370048e-01 -1.419900464517007965e-01 -7.882270545790784344e-02
-8.276067382380577486e-01 -2.055497148914673111e-01 5.182321596075396553e-01
-3.593409775040194987e-01 -8.360404246921190191e-03 -3.953356775238222598e-01
-5.049968216604711069e-01 -5.859216762631344055e-01 -6.114458824548797411e-01
-1.692687046314401977e-01 -8.367645054003812755e-01 -4.612659314375464614e-01
2.771006489368764147e-01 -5.819606852703422817e-01 -6.924078060729988993e-01
-8.192664402897893716e-02 -1.291394993638202149e-01 4.466442347698110216e-02
-2.150601128969024944e-01 -8.197217918117060131e-01 -5.120464432926842280e-01
3.188975013423734350e-01 -4.723538837531991567e-04 8.511457612469203182e-02
9.720914034581265573e-02 -7.551222959675231161e-01 -3.750803026313815902e-01
2.632725589495477636e-01 -3.823489554340041285e-02 4.194330436834442510e-01
6.894500882444579704e-01 -1.740424689210709197e-01 -3.541731854188118200e-01
6.793133028762647907e-01 -1.879717348917371578e-01 -3.573346947885702174e-01
1.064816681115494101e-01 -7.502614129918836472e-01 -3.866163742839807127e-01
-2.322687621609312303e-01 -4.960905194844197896e-01 6.638091640369042645e-01
-4.481197896887308962e-01 1.951928937516517193e-01 1.632840869393760996e-01
1.381786845999710134e-01 2.164047588925474830e-01 9.412135045954796997e-01
-5.970643004442291457e-02 2.184457726483764461e-01 -6.601012212533698964e-01
3.201899140075838424e-01 6.937089220526474476e-01 7.082709517321349457e-01
2.020268498669329782e-01 -1.286333984307240774e-01 -8.302210912038021640e-02
1.164119281572136427e-01 -2.155322865062142823e-01 -7.375508638619546198e-02
-4.921636249858026280e-01 3.425309283854599540e-01 7.930849044007481918e-01
2.395055335756024195e-01 6.854538132297312014e-01 -3.540221606358304740e-01
3.276070644750273854e-03 -6.652274958531583238e-01 1.489133201716072614e-02
8.569367938030483245e-01 3.395418988300411556e-01 -3.695181021536917965e-01
1.806712667895354896e-01 -8.304283738894809030e-03 -9.488113593206372043e-01
-8.582639478660529161e-03 -3.280301934914447732e-03 -9.007411509847002007e-01
3.241292249376541146e-01 -4.777799332533990140e-01 -2.475758902130475725e-01
-7.869798664672615907e-01 2.403850967209108722e-02 4.169843590288473956e-01
1.604015073834924240e-02 -5.395084726949522791e-01 9.423342020289060539e-02
-1.963837040289614921e-01 1.095344488244255621e-01 -5.071622576879153410e-01
7.119914810432191599e-02 -4.029119609767498056e-01 1.288199058412493360e-02
-3.866763665741171363e-01 -8.507456621679521103e-01 -3.608626038829860216e-01
-4.688009103258248406e-02 3.671702954354178483e-01 5.699596426845567922e-03
3.005549398917485224e-02 -6.054014875046346278e-01 2.564195639293510853e-02
6.249690277511762426e-01 2.587402307449606087e-01 4.847178358418135491e-01
-7.571436362486426708e-01 1.408923914587581093e-03 6.235823123201241769e-01
1.714926436022968462e-03 3.038124947683742416e-01 -2.118473133366414740e-01
-7.473678470622750758e-02 1.528911218314360221e-01 1.225745362677208850e-01
-1.961907563566556434e-01 -8.715776115300492011e-01 -2.435551070482377400e-01
2.036524839606915771e-01 -3.834483976701096725e-02 -5.117650702573234289e-02
-4.700615168700431612e-01 -6.870522500227908003e-01 -5.684960256296419656e-01
-2.374945459046749752e-01 -4.682764145589530247e-01 6.997751993442671292e-01
-1.059455405674639000e-01 -8.280326274445187762e-01 -1.296654126529886430e-01
1.074455497599216686e-01 -1.892118934558755516e-01 6.410030902965772048e-01
4.976277438003348652e-01 -4.334257468944431313e-01 -4.967846612631759418e-01
6.317120602875934132e-01 -7.873473751192472392e-02 -7.602105777640697504e-01
8.010634049125457679e-02 1.348534961902789764e-01 3.477274287280227721e-02
5.324758343801225813e-01 -3.731923788606156811e-01 -4.038194644224837870e-01
2.562132679092544718e-01 5.152418290714465554e-01 8.529371783481566327e-01
2.414134104419536977e-02 -1.500827608212793873e-01 -6.885762748989385229e-02
-4.966175263392008654e-02 2.712182089810015184e-01 5.616350017909443881e-02
2.466937829902934864e-01 2.496924462781397597e-02 8.817693763705318488e-02
1.080740135926738649e-01 -2.001278792938933626e-01 5.576550245223197422e-01
-1.749218582276063083e-01 2.887320458967274073e-01 9.869373392898537212e-01
-1.037579740394787425e-01 -5.538464237918412358e-01 4.003821627454227650e-01
-1.467628593479265164e-01 -6.450685787357091083e-02 2.706033518086778389e-02
-8.138115197857463956e-01 -1.127406281541719624e-01 1.496587547474078905e-01
-8.462973563406654964e-01 -5.155606009564881465e-01 1.954007548310992826e-01
-8.885770864344973499e-03 -5.999141150525042487e-01 1.030328881055642964e-01
-3.062547483476046883e-01 1.373904277580440501e-02 -3.441777227592087707e-01
-6.437924035115784038e-01 1.214369202953326406e-02 4.275370457748752656e-02
3.569783079858198094e-01 7.869979185637231145e-02 6.829966069591124622e-01
-3.098666452874006549e-01 1.781471402440507751e-02 -3.942404308476709640e-01
1.861195948383850551e-01 -4.336345467959290545e-01 -1.054010909940853169e-01
-5.129202999309423472e-01 -2.096393954727944209e-01 -5.684458486360589591e-01
2.654726237663360133e-01 8.850005093751575069e-01 1.993471192161524463e-01
2.332216136930156669e-01 -2.670465312643063860e-01 -1.065588329146542335e-01
7.435790737061210853e-01 -6.591136404866390630e-02 -5.655339467452524804e-01
6.040603495264355027e-01 -2.253084975167988224e-01 -2.712292365870047628e-01
3.941681665845087057e-01 2.676342274728155668e-01 -8.449643904329677824e-01
-1.835621147877329606e-01 -8.757747609638651815e-03 6.272707149368662860e-02
2.281476876018520006e-01 3.345720811207803652e-02 1.217210553171643866e-01
1.209343785450115588e-01 8.233994494087668037e-02 -2.929362562943054263e-02
-3.491223572799057040e-01 3.604453101822703842e-01 2.270392349747618610e-01
1.020822357964306648e-01 2.017098799668461465e-02 8.971801651834705460e-01
-1.648090877353899919e-02 2.118049943494063614e-01 6.484457626101372552e-02
-1.445661642053086213e-02 1.591139633753935190e-01 1.024652990400694019e-01
-1.661757794812486260e-03 -3.700392391467669517e-01 2.114756627294963887e-01
-4.940133000867050206e-01 -4.320629514152075912e-02 -2.237246377179578083e-01
-5.592626301028011948e-01 -1.590463899234186365e-02 -8.236589961091388135e-02
-5.504672018257790178e-01 -8.366988397060528548e-01 2.935903974994367310e-02
5.288416261362829246e-02 -2.572215612937115425e-01 -9.531398236716767114e-01
1.939920477264604204e-01 -5.956409291184784627e-02 7.345524057696304343e-01
6.571571503373756507e-01 -2.055728457103301460e-02 -3.541071887508376315e-02
-1.475561358200667972e-01 5.227264773046152307e-02 -2.671722919142525687e-01
4.107101933133555094e-01 -6.404617197780801408e-02 3.154505654443572407e-03
2.622584827449109812e-01 2.313794131135455123e-01 8.748193051307615598e-01
5.910351044605516996e-02 -1.889136703764607850e-01 -6.173335425957960504e-02
-3.460288589596344222e-01 5.480070459666847027e-01 4.060453565076364013e-01
-1.581963364143227843e-02 3.805306971539011429e-01 -6.634936128752712270e-02
-3.358067201207001751e-01 3.632640508031610427e-01 9.084730270665629659e-01
-9.807967675641149352e-02 -8.484645084976957796e-02 9.558325413464731357e-02
-1.880808329378021726e-01 -8.678475526620036407e-01 -3.040974973091924993e-01
2.743971848059029509e-02 -7.720165499193912817e-01 -5.315621989636374334e-01
1.246272063724161716e-01 -1.812521102791334604e-01 5.626664895239618103e-01
-9.157130523798523436e-02 1.788924939104696299e-01 9.998183805647710143e-01
-2.971221086697296010e-01 4.696331468819802679e-01 2.539398418682971004e-01
-9.035525702814552196e-02 2.412062024400874194e-01 9.972847623784062421e-01
3.027142702213194148e-01 -2.584348893997622243e-01 -9.269678137713530663e-01
3.791591293413890673e-01 1.289269273303678652e-02 1.871483686985264960e-01
-2.038588306761031921e-01 -5.841549202919845696e-01 5.163270608966621378e-01
-4.060194476775194072e-01 -7.709344584858276450e-01 -5.184324892381450001e-01
-3.188366184741004417e-01 1.756873686789767464e-01 1.298293587532508564e-01
-1.370351540332294393e-01 6.054730753013697064e-02 -2.702669587474364477e-01
-6.415060854972197413e-02 6.903469630037448734e-01 1.569445189533060780e-01
1.111799950092850486e-01 8.240404340812924888e-02 -4.774872304592316097e-02
2.080788307870366505e-01 -5.599093326281851662e-02 3.777215965040602863e-01
-6.359019212206504790e-01 -2.927120618301683186e-02 -3.831709063770333268e-02
-4.127290100627258040e-02 -7.896476367656826145e-01 -1.284849310026733582e-01
2.141788625508865007e-01 6.936344815686009690e-01 -3.104967875243571651e-01
6.948883401058350007e-01 4.115888973343892476e-01 4.519300307747012302e-01
-7.694413205124885913e-01 -3.875881951267098890e-01 -2.589793181696675717e-01
2.212186140519056265e-01 -1.259396130697002653e-02 2.894072552372554674e-01
2.490119767383256466e-01 -5.379220962256782146e-01 -2.168095833553556895e-01
4.933632002085550083e-01 4.523438211655731594e-02 2.577582514693417814e-01
-2.537968506348210751e-02 2.231143359714260477e-01 -2.674573841053610179e-01
2.523353467273582451e-01 -6.542060282499074786e-01 -4.983140726998778747e-01
-5.908163244499408107e-01 3.272402093436630466e-01 5.183171367183533329e-01
5.450671936044906296e-01 8.251112803943718710e-01 -1.011649896367670248e-01
7.493545865741747525e-01 -8.625956438676887772e-02 -3.401828898426748071e-01
5.153985569642113296e-01 -9.450262127197914253e-02 -4.783146494601051707e-02
1.945118755268366861e-01 -6.796989481664328370e-02 3.863555560772066744e-01
4.374641144732486775e-01 -1.755245597695804516e-01 -1.080669438775235247e-01
-6.433970017569670685e-02 2.532212674533266261e-01 -4.656304668263340218e-01
-1.604070785876056393e-01 6.367823165439454591e-01 2.387009295576942580e-01
-3.095796215880596836e-01 -1.003939701086124965e-02 -1.378282586179178371e-01
8.830111012265852433e-02 -1.771783403387814648e-01 -7.614122988233550104e-02
2.662867861020388749e-01 1.786906881847879353e-02 1.949405890040876721e-01
-1.564279115497363981e-01 4.540212169152495481e-01 1.247131631274998181e-01
2.207820300643438260e-01 -4.169884247745673789e-01 -8.879405407818831142e-01
6.454087641494462568e-01 9.973785867161955032e-02 2.006561133902070027e-01
-6.879693250429452789e-01 1.971310655637701914e-01 5.084156563128597872e-01
4.617816177777324671e-01 -4.714302940497588357e-01 -5.100712972037014792e-01
-2.086245528344050637e-01 -8.725427610193267070e-01 -2.825962867312654114e-01
-1.208883089362306623e-01 3.223637907887269560e-02 -2.249902521275767564e-01
-5.859868934220978376e-02 -4.384955673809932675e-01 5.065292513791493922e-01
-7.184430248033888411e-01 -7.285014375382354856e-01 5.939550348361902210e-02
5.506923711991287274e-01 -1.870953619425365089e-01 -8.013194009038926424e-01
2.810885726229664927e-01 8.601762552396386985e-01 1.643775362680825053e-02
-8.584404301449845287e-02 -1.179574846038967673e-01 7.316764169737353940e-02
-8.000584054688663141e-03 6.149668741039726822e-04 1.843164289321777838e-01
-4.056147568980359580e-02 2.622914972194582695e-01 -3.579287371033675336e-01
2.411608008355310695e-01 -9.546059015004058901e-02 -6.485835269599560249e-02
