-4.164995179020004601e-01 -1.773078977449768223e-01 -7.089109476697372791e-01
-5.470232342684363397e-02 -4.304919041132049817e-01 -6.550516664258813071e-01
5.815314298743361476e-01 1.014840750166824263e-01 -1.052708744511543920e-01
-3.617210803317120749e-01 8.990045473625032368e-01 -1.816874668128704851e-01
1.901102621067879972e-01 1.253553911152561207e-01 -2.799804661327353061e-01
1.782406515061738805e-01 -4.935041131105737111e-02 -3.669725913388179883e-01
3.040991766714838396e-01 -2.355255316815516309e-01 -3.939197441275503198e-01
7.474081462850351576e-01 -1.766098199491853982e-01 -1.560242837501117086e-01
3.937332360748856397e-01 3.940406461126251814e-01 -5.818963461533761122e-02
6.014792909373413154e-01 -6.612233723394407292e-01 -4.509785810730108646e-01
7.280731392495244370e-01 6.255403398613951227e-01 2.083420706759771535e-01
-1.049935686205417246e-01 -3.143788987339907193e-01 -6.248557321385918017e-01
-4.074213305774903593e-01 2.266828095044724767e-01 -5.164705609574495870e-01
-5.923475926533811053e-01 -4.612566478982930290e-02 -7.313052883450749109e-01
4.925941849635902536e-01 4.202600356663624415e-01 9.541519569045355149e-04
-3.734867872096771929e-02 4.323367500729123347e-01 -2.450107032693514819e-01
-5.457065233719207709e-02 -3.911737234321446266e-01 -6.366794507443137574e-01
-1.891691985491869843e-01 7.954565663256784810e-03 -5.147134839775303616e-01
1.251359189295282205e-02 -3.273561042866354187e-01 -5.751127991834028563e-01
-3.977572991693288929e-01 -3.115877710461593120e-01 -7.625446391268718704e-01
9.982893625473206189e-02 5.428189504998405246e-01 -1.284366597461993054e-01
-2.596671964425166790e-01 2.011805879756686788e-01 -4.582006245035207259e-01
-2.553253989821435144e-01 -1.800318009450279366e-01 -6.336624988393827485e-01
6.313774423120016577e-01 4.143237473838525253e-01 6.407666344306900408e-02
5.142386813462410666e-01 7.529129811208856715e-01 1.661397593647546689e-01
4.564217140935012407e-01 1.917060738876291137e-01 -1.226517125888951509e-01
-4.322210252454001256e-01 5.251473170640763577e-01 -3.892550750421844841e-01
-5.761020729927713857e-01 6.617650129082451871e-01 -3.939419795824827819e-01
-8.180886764982067683e-02 6.907496597038724762e-01 -1.457802197764082042e-01
5.998027928211583371e-01 2.409610645179705857e-01 -3.164490392877819525e-02
-1.505477074625026224e-01 3.511178940385401570e-01 -3.365736214738676013e-01
-6.191109494101600941e-01 9.189594994944431938e-02 -6.797371519209015611e-01
1.993592386105692144e-02 -1.987597125695618472e-01 -5.117042536285548726e-01
-4.572082958630033778e-01 -4.100667322006412707e-02 -6.647645090240187349e-01
1.854289352813403569e-01 -4.576212721115678339e-01 -5.536837044636672145e-01
-3.314445683433321910e-01 -1.933399568840900029e-01 -6.759971873979786494e-01
-1.473297878474436884e-01 -4.825937823451530440e-01 -7.232890925322977838e-01
5.514659207469275737e-01 7.288192850825468971e-01 1.725933152643973900e-01
-1.292821492195360134e-01 -2.156622044993047604e-01 -5.904162335800616779e-01
-1.283754622454669203e-01 9.140377256374046522e-02 -4.469911864978297622e-01
2.274007387991378581e-01 -6.865118699993114637e-01 -6.403475799866696905e-01
8.184797263561786052e-01 2.295127855770122682e-01 6.684005863984736340e-02
-2.085328144751742163e-01 4.525931590241418223e-01 -3.168468328925256872e-01
3.441470494000528624e-01 -2.334474293269752920e-01 -3.739394082679946552e-01
5.911622067508022216e-01 -3.763295048351636418e-02 -1.654827617618603308e-01
-3.501116437615650057e-01 -2.370013823099254846e-01 -7.051915931139458582e-01
-2.749948509389414375e-01 4.560350471145094842e-01 -3.467966604854125778e-01
-6.083292730971340961e-02 -1.242603497975573457e-01 -5.153561258279312218e-01
2.703949466064148877e-01 4.164649681620002930e-01 -1.063015413223083877e-01
-9.911346798080822307e-02 -4.276756511450219844e-01 -6.748242469247033304e-01
-3.599825113347629446e-01 -4.031121182055769636e-01 -7.872322673870908449e-01
2.053887137790670336e-01 1.768039113475121382e-02 -3.228692028842009565e-01
4.746102657540343661e-01 -1.427632459259468856e-01 -2.697725528832851105e-01
7.319257896888231585e-01 -2.833599663919795231e-01 -2.130859334458912735e-01
7.912787795047899753e-01 -4.530856461820257503e-02 -7.405241740013983331e-02
5.031071284740156191e-01 2.253401965173870425e-01 -8.482520480468418167e-02
6.766916103956294171e-01 8.150827672664738566e-02 -6.939620880686692139e-02
8.855261238740957941e-01 -2.062287672101518199e-01 -1.042461613650832175e-01
9.977421832108213096e-02 3.259954833901501092e-01 -2.294330710122843842e-01
2.705745690194273911e-01 -6.032186264496065820e-02 -3.282465376695102854e-01
1.630197882290218003e-01 2.562554178225086021e-01 -2.318840113611774501e-01
7.626782816957358158e-01 9.841264022474269235e-02 -2.070227076533307300e-02
-7.238942772064098363e-02 2.544387271061266942e-01 -3.444898096114646924e-01
-5.247255271564249535e-01 7.482519095683265453e-01 -3.292758717898845444e-01
8.214078257617980494e-01 -7.859522348956614335e-03 -4.230946122729742354e-02
5.033907881153018016e-01 3.946386849753379944e-01 -5.851554184201994066e-03
8.266963304095068521e-01 1.268301112499893302e-01 2.292355955397808176e-02
8.089432965185923141e-01 2.326051637870051869e-01 6.375272776682432141e-02
1.900314213485640169e-01 -1.169924953758395697e-01 -3.928745508981003054e-01
-3.208609102532619661e-01 1.950639030937783014e-01 -4.901005719986340492e-01
8.299708636860269051e-01 4.871077996312190433e-03 -3.231579453778704591e-02
3.348789891208811542e-01 -1.466154399962284749e-01 -3.379034377691341740e-01
-2.804327372994874223e-01 3.353835633228183233e-01 -4.055633088683983645e-01
4.309357453336169763e-02 1.466213288754471544e-01 -3.398730563264842908e-01
-1.564955044204844326e-01 9.246686870421347848e-01 -7.230596976574729662e-02
1.688799310356713379e-01 -1.505606506798524979e-01 -4.185481870976489049e-01
-3.194623589328282609e-01 5.046739099875412471e-01 -3.452573090583065940e-01
5.085038136566252254e-01 -2.903443035748273175e-03 -1.885517294315152692e-01
2.565978562255937234e-01 -3.074605839416072461e-01 -4.499695921892805095e-01
2.221614452079906377e-02 2.502576150698249124e-01 -3.015231670787464346e-01
-1.159527200002847674e-01 9.954394679349856667e-02 -4.373028084244734992e-01
-3.719353899812005704e-01 -4.462584510810622684e-01 -8.129992603485204361e-01
4.257694325652620626e-01 1.202067283723744356e-01 -1.704996311793104125e-01
9.893167426065516690e-01 1.120377241215573388e-02 4.628218277751667414e-02
6.684650667935612134e-01 4.017590580153573843e-01 7.583276977190023249e-02
5.253831959091898041e-01 -2.103304161463416533e-01 -2.771329658561053066e-01
2.273847097516129845e-01 4.696404868904031638e-01 -1.019577232922351251e-01
1.435008399552291092e-01 5.144346456652971744e-01 -1.209215716228811827e-01
5.456948425350622855e-01 -2.506088500117126250e-01 -2.862469504122220343e-01
4.076117298014448886e-01 -7.065274175125587641e-01 -5.641138141603033729e-01
-1.980859172754941555e-01 3.156730377708391599e-01 -3.756482143907501348e-01
6.259204240232334460e-01 1.057866815272670430e-01 -8.219369661689301942e-02
-4.339666455243130216e-01 -1.176162421320506579e-01 -6.894061800287607511e-01
-3.263130080620762485e-01 -4.095434505741311071e-01 -7.742427195808906371e-01
7.333441428746859669e-01 -5.294319543246011062e-01 -3.270034709589757504e-01
-2.774796953334148775e-01 4.713737160005078697e-01 -3.408334155941118992e-01
-6.141160322866463100e-02 -2.101784294008235132e-01 -5.556412142159369294e-01
-7.910490395024685761e-02 3.749275349671298274e-01 -2.915686877169673674e-01
1.369251710522503829e-01 -4.005947509755366509e-01 -5.501545853972167333e-01
-3.978243606032779156e-01 8.049702757434303857e-01 -2.426173031899463428e-01
1.301294735390265966e-01 3.058771775800005477e-01 -2.243907072379467404e-01
1.101531557448872795e-01 -6.442966367755116608e-02 -4.063190324190390501e-01
1.845955193018140039e-01 -6.261251335358947179e-01 -6.325483079971062628e-01
-2.801383360928543231e-01 -1.008936496968270979e-01 -6.085892802177507166e-01
5.892641246023652135e-01 5.360235306392486382e-02 -1.238973797909918434e-01
5.184424887286955830e-01 -2.367083541804672342e-01 -2.927117333880706052e-01
5.941015049639083445e-01 4.151109100625240966e-01 4.674659308087018850e-02
-3.652686387303391569e-01 8.461716236646511791e-02 -5.626158844286358596e-01
4.299736603016849346e-01 -1.311416757743073813e-01 -2.855517068166945616e-01
-3.280657709732445748e-01 5.747724392722516340e-01 -3.166982428502653213e-01
1.564330057744574010e-01 7.970997535649063659e-01 1.684952857200279139e-02
7.606796236411043077e-01 2.267837050207617833e-01 3.812875843434130468e-02
-1.500149692727688333e-01 3.227088944791896286e-02 -4.848014992387805200e-01
4.030842709210798458e-01 8.325007681367595502e-01 1.504320157157933990e-01
8.048274644756848728e-01 4.599132187057973775e-01 1.676516500751056571e-01
-6.556624545771677637e-01 2.789481709492905304e-01 -6.099833175902752425e-01
4.513858788487052909e-01 -3.195692592353610584e-01 -3.631333502044935546e-01
3.209140482158403529e-01 -5.840315551440047326e-01 -5.482293522902448313e-01
-1.662857443900360999e-01 -1.640224947184876769e-01 -5.839359769809705503e-01
5.952301170178420087e-01 7.573781360403918361e-01 2.066695293082751739e-01
-2.157409090060039003e-01 6.131763583289155939e-01 -2.454884086628520423e-01
2.299892139997834484e-01 1.076972088197837574e-01 -2.692711254138282495e-01
-4.541061501954706259e-01 -2.489097878811509790e-01 -7.601081759085671630e-01
7.860484951799806552e-01 -4.271848342082604777e-01 -2.543677643157895574e-01
-2.527948121799024617e-01 9.304300518685997279e-01 -1.153408153083564092e-01
7.409783072191582498e-01 -4.596499259404359106e-01 -2.908830535763959890e-01
-3.928045186489992346e-01 -4.650626422563545331e-02 -6.367500655487844385e-01
3.013745499808133665e-01 4.190380949292479840e-01 -9.039581528438614400e-02
-4.334323962261683177e-02 2.469068057334571076e-01 -3.342076891640349268e-01
1.699222041964363883e-01 9.293218702346488502e-01 8.482672927701677412e-02
9.715566470711389790e-02 9.664307091436201702e-01 6.756189664772242753e-02
-6.191554867671184015e-02 4.628673099409603142e-01 -2.424562665443467380e-01
-8.466240724971878240e-02 6.581251744465808073e-01 -1.623275115450243111e-01
-4.278575302513041856e-01 3.282533441871719054e-02 -6.164482061317069217e-01
1.008300974721648979e-01 -2.682238279754394286e-02 -3.932321528804546551e-01
2.735312882543076141e-01 5.575763531136185280e-01 -3.909976970750320135e-02
-1.877250410320618068e-01 9.533166405882603778e-01 -7.379130636115331654e-02
9.007944190824753936e-03 7.562232842329050797e-01 -7.217543554336550149e-02
9.608025755874985974e-01 2.263980458454819822e-01 1.329569202782063531e-01
8.649381626377755650e-01 -1.510884892543177538e-01 -8.834248714824924353e-02
2.532518350670322493e-01 3.541729104745091061e-01 -1.434483697469214891e-01
5.309286954824857796e-01 5.828476593012607010e-01 9.486720890068273127e-02
9.310885733502215489e-01 -1.612731426363034348e-01 -6.168057641099052718e-02
7.396610039270135051e-01 -3.715070217728773383e-02 -9.475884108846084619e-02
2.896064011639516711e-02 -4.832756127438397192e-02 -4.373664962916286036e-01
8.939098903507671778e-01 -3.207365707451386161e-01 -1.535900312427132819e-01
5.689245172848373944e-01 -1.218588628224823445e-01 -2.152623911058642314e-01
-4.393810626211619996e-01 3.539363062885437228e-01 -4.723838889523395701e-01
5.887634833987144267e-01 -4.542953404741520429e-01 -3.606530475099485877e-01
-1.512860927877894834e-01 1.629514779931814372e-01 -4.245495753624455304e-01
1.933121178348857268e-03 8.118650220603093048e-01 -4.962292050571673330e-02
8.041936146139657682e-01 -2.086898388634556289e-01 -1.440045926927436826e-01
5.796565387175088846e-01 3.096383753026318852e-01 -9.227600046618749524e-03
5.556069891457262599e-01 3.239801511547181212e-01 -1.396636611873591956e-02
4.779871956639162311e-01 -6.738898939835747948e-01 -5.155046239637809391e-01
3.232823094922256113e-02 5.036810432020366601e-01 -1.787081673823468775e-01
5.164891363599348750e-01 5.389020261815574003e-03 -1.808990846032124122e-01
3.958185949316561647e-01 5.950710228077924491e-01 3.641628486967073142e-02
3.020952748187477610e-01 9.331649545113490651e-01 1.493651368600713569e-01
1.074128275912395181e-01 1.631146449930789000e-01 -3.016570751346667190e-01
-5.440821534614164179e-01 5.155206149277641314e-01 -4.468437678082805009e-01
3.971704545657598895e-01 1.852900603323509587e-01 -1.537688773788828123e-01
9.998366591853402596e-02 -2.912766243926705190e-02 -3.947075171511386094e-01
-1.206110321622749643e-01 6.025369224664984813e-01 -2.052803688130036552e-01
1.039150952029917890e-01 7.806157795339854211e-01 -1.575945115498411306e-02
3.490277545629001388e-01 5.884025196849214101e-01 1.109708630344016962e-02
-3.243307093661114138e-01 3.338927496862745814e-01 -4.270979787116549464e-01
-2.213372722663808911e-01 1.057746356699823531e-01 -4.844322908447362686e-01
2.748616691221469205e-02 -3.141846630179685462e-01 -5.618709335093029500e-01
7.174302038898017209e-01 5.295780526646066688e-01 1.586016156937690991e-01
5.945037932409669157e-02 1.391816064147005927e-01 -3.355722463409080425e-01
3.173609686525001305e-01 7.324005975643912425e-01 6.312045643590058486e-02
6.773423975492872673e-01 4.971582375409136501e-01 1.244727812071554224e-01
5.805959465115854146e-01 -3.670609423014070116e-01 -3.239072130148966111e-01
8.454539399608497208e-01 -4.484211680035253833e-01 -2.360545561145162841e-01
-5.827191444303638779e-01 3.449484473739906076e-01 -5.446186718444211428e-01
-5.928729154426910508e-01 3.401183741605183775e-01 -5.516884137134516752e-01
6.698340649240930311e-01 1.269901329595275463e-01 -5.147179942520102580e-02
7.713432710104304313e-01 2.630993183656218370e-01 6.010276076113999638e-02
4.547658492872495573e-01 -2.467173072716687121e-01 -3.276029951180854938e-01
4.923336777452890223e-01 -6.077503736711842297e-01 -4.778937989214559479e-01
-3.808961643487318027e-01 7.173538666693070331e-02 -5.760337943130141580e-01
1.421623294290931261e-01 -2.827155309466609645e-01 -4.927742208435827442e-01
-1.274873420197121521e-01 -1.388188349796158905e-01 -5.537797050287236456e-01
1.632723007294417661e-01 7.807613526784065172e-01 1.248799011198608450e-02
4.693467577770538135e-01 -3.630657782635010600e-01 -3.748619536074531688e-01
7.068424254114730187e-01 6.512827250074371133e-01 2.102505782402395718e-01
-2.393664545691816525e-01 5.269542371802121705e-01 -2.968565136920735537e-01
7.983924822718705405e-01 1.944915684089859875e-01 4.099500766523784395e-02
1.399410082037522152e-01 -3.367799578448699149e-01 -5.190055290088326778e-01
-1.385454071934321962e-01 1.859330376129558760e-01 -4.077989127056421137e-01
6.347773272534505962e-01 -2.871796624993453451e-01 -2.609856246345615416e-01
-3.683843369727657358e-01 -2.302629555689717777e-01 -7.107285448886636603e-01
9.174086382144507335e-01 1.412895844703411230e-01 7.272244155927136411e-02
4.048633689657192281e-01 6.691232205167771951e-01 7.519491892737992234e-02
2.883898409886037281e-02 1.862765041180925452e-01 -3.281737422891105593e-01
-8.833542386337768504e-02 9.762500864765274455e-01 -1.592673563725558600e-02
-2.806005533738804500e-02 2.413712354644068636e-01 -3.295298508982758001e-01
-2.218036638912001812e-01 -3.835733471585988097e-01 -7.125334623888751606e-01
4.733659087604155102e-01 6.144760939306603831e-01 8.226819438718696587e-02
1.830436244475320273e-01 9.638097850896274466e-01 1.071164283946424156e-01
6.660218211856481219e-01 3.402929785804274521e-01 4.604929933859232272e-02
4.344596866948894354e-01 4.300335140797357791e-01 -2.209370512355437674e-02
-1.640360443679619029e-01 9.767757110755910521e-02 -4.609993532734136257e-01
8.438389399795018786e-01 -3.137966395766679240e-01 -1.741292711182568786e-01
4.435457973067196691e-01 2.568174473253564960e-01 -9.844342548408135940e-02
3.621938443584209882e-02 -1.169776580409596645e-01 -4.658894327609344743e-01
4.366551396078076075e-01 -2.912056899641675134e-01 -3.569183656836567020e-01
5.496596601383360037e-01 -5.587820161595782320e-01 -4.278748619150367638e-01
-1.933377290287539157e-02 -3.794548150319769220e-01 -6.144935849477749512e-01
3.472673231847022823e-03 8.151856176629641570e-01 -4.734568668977220951e-02
-1.317968668523248066e-01 -1.085198837294496302e-02 -4.962339892016276455e-01
5.525984459705693963e-01 2.434871888259277639e-01 -5.287865584870637958e-02
-5.683265546120502831e-01 1.605385502049845314e-01 -6.236619047044904551e-01
4.768482495553941769e-01 9.950240595795382947e-02 -1.558917166437903679e-01
-4.218176742401348878e-01 -2.685885893151298554e-01 -7.539433529727725958e-01
-5.394653171415591392e-02 2.725101507679822954e-01 -3.273185940727592058e-01
1.272396263775288083e-01 -2.221107650067187522e-01 -4.716362779034912189e-01
-2.759378901684725882e-01 7.346866731929226069e-02 -5.253980217629858895e-01
2.967764322824252843e-01 4.588943286513885167e-01 -7.401849153516573687e-02
9.884399052113977957e-01 1.394630905799080882e-02 4.714305242333857032e-02
1.816990356637791446e-02 -1.436995335392777795e-01 -4.869022213536667865e-01
-7.402766648970261765e-02 2.414607754246684557e-01 -3.513111358700448106e-01
6.353551324624669983e-01 5.533974494476601169e-01 1.307289537338638119e-01
2.875288618827980813e-01 -3.395754904454937884e-01 -4.502404742094655576e-01
7.293327516215504236e-01 -3.238715835666263199e-01 -2.331824354849415804e-01
7.559577447884597845e-01 1.967245787154931480e-01 2.188911567962498889e-02
3.649262213550431150e-02 3.776146055323483242e-01 -2.354378018096443537e-01
4.090761182880070512e-01 8.116415386673633270e-01 1.435628929577524304e-01
-1.909114042305447567e-01 2.386577705610833655e-01 -4.081066351314386331e-01
5.123403612373473859e-01 4.333773273354023514e-01 1.643705373448168736e-02
-2.666443620078818300e-01 -3.503148113614509840e-01 -7.183335983489508303e-01
-5.484078314707274693e-01 2.109970295271032803e-01 -5.907080284558593464e-01
7.134759290472193483e-01 6.246700699935997525e-01 2.010068224401514170e-01
9.684952975567460987e-02 8.981992252061247184e-01 3.564249679849242070e-02
5.318168145144129833e-01 -6.780439981705794761e-01 -4.918836628299214642e-01
-5.099853824284312775e-01 3.456066369391871951e-01 -5.097820361354249430e-01
2.541752566875304375e-01 -7.139292702310695571e-01 -6.404042052917149341e-01
5.782373335494701561e-01 3.853034373647258870e-01 2.533437135894526376e-02
5.953226963009541350e-01 1.842135279069215259e-02 -1.374041930175995685e-01
2.405078272523802074e-01 5.528209801630674658e-01 -5.699204009337952015e-02
-3.740071442692490256e-01 2.326067223680887142e-01 -4.978486288261986803e-01
-1.582603574603325680e-01 2.577816677052718886e-01 -3.837000274803555322e-01
6.852072721223206875e-01 -8.148498029745009086e-02 -1.412561861224925774e-01
4.654867530322205349e-01 2.318594110887867432e-01 -9.964949200080283620e-02
-1.965214499763972000e-01 -8.149528229197160190e-02 -5.598589817197459073e-01
6.276452760516463281e-01 -3.667355462611021077e-01 -3.014191580129358394e-01
-4.415272992281410458e-01 4.293210834859552683e-01 -4.382975966473833807e-01
6.998576918710602834e-01 -2.165929028747069496e-01 -1.972180528585286141e-01
-1.229584379830273855e-01 4.393670929771932576e-02 -4.665239508530721335e-01
5.986465217202965317e-01 4.856170372333888374e-01 8.173764574643828384e-02
-6.768764577147744210e-02 2.619396138566252863e-01 -3.387646373198677230e-01
7.090530340153412825e-02 2.373351468178918067e-01 -2.844258785918907240e-01
-3.081185081477602616e-01 -5.017651828037602568e-01 -8.085507878351251287e-01
9.405126482472767058e-02 2.071498343861040703e-01 -2.874941123146932398e-01
1.864532724905748340e-01 5.104229497403773852e-01 -1.023982044949613424e-01
-6.335036798114651591e-01 6.166725741538930938e-01 -4.421918797408339596e-01
-3.682589638398329757e-01 -2.696244290805904220e-01 -7.289988902380546421e-01
1.791015304739724534e-01 1.493733058605204722e-01 -2.740221559925325456e-01
-5.592364808389256314e-01 7.860990612570946390e-02 -6.574989820799694851e-01
1.907269277525014683e-01 -1.473298394393165733e-01 -4.066718672197204287e-01
5.638144570431110614e-01 2.976341542080377933e-01 -2.233870979846665217e-02
-1.177016656437110537e-01 8.018515429161643393e-01 -1.110822482423781954e-01
7.932380846038494804e-02 9.465934578042965730e-02 -3.468705401553900391e-01
-8.939129302045975556e-02 -4.537250650557105303e-01 -6.823393751860468148e-01
5.511912259587267160e-01 -6.620306110621421158e-01 -4.752286004428051824e-01
5.284851653736299948e-01 4.849506416475893311e-01 4.811843032544767251e-02
-5.743652549641505844e-01 -1.028151650063554579e-01 -7.491674167324063882e-01
1.988261766790615503e-01 5.773590878741983179e-01 -6.535336019742843394e-02
-2.483162326270798095e-02 -2.407060597278916914e-01 -5.524910996924128348e-01
2.506388945268157031e-01 2.222530915909891602e-01 -2.061213263362724757e-01
-3.610740728922275933e-01 -2.420852397078850915e-01 -7.127634252517338620e-01
-2.779465738838968886e-02 -4.729231858927934740e-01 -6.620367500888554302e-01
3.473399260622928031e-01 2.692729280148965509e-01 -1.383165939240137143e-01
6.537543680015986923e-03 3.417232436571273069e-01 -2.663727861094353777e-01
4.921404971549744323e-01 -1.962117897768841934e-01 -2.863400675550702434e-01
2.715439007115019732e-01 7.610313177331964885e-02 -2.642559074788071727e-01
2.464114437535750227e-02 -3.424604479499441384e-02 -4.328596776905220267e-01
2.574635274171027111e-01 3.220629021608905490e-02 -2.913824191455895440e-01
6.473451707994970494e-01 6.429627732594527245e-01 1.781300013837934793e-01
2.216778077762827648e-01 6.841351138192141024e-01 -4.781118527639428677e-03
7.696050371667320644e-02 -2.417480813216847935e-01 -5.046508495839888697e-01
-3.357876540624628592e-01 -3.055259265432042626e-01 -7.303018587244786142e-01
2.912723616438149254e-01 7.602598408706162658e-01 6.370847347074691525e-02
9.081553737833771844e-01 -1.503386628394981217e-01 -6.747606966728530997e-02
4.033141052076501254e-02 -2.235403882471805881e-01 -5.135614334974832884e-01
-4.660625095322448175e-01 -7.682590965164264908e-03 -6.534496485065873772e-01
-3.514064255843520751e-02 8.074083956301983389e-02 -4.076937613591868348e-01
1.175080934042010451e-02 9.569267146751002651e-01 2.259038057670216190e-02
5.041032336796007485e-01 6.517862988062637086e-01 1.142352751335821703e-01
2.013707186676137462e-01 8.557139313068566899e-01 6.547904195586859433e-02
4.403298211707761256e-01 5.876888452438704391e-01 5.411011734953243002e-02
6.590808937413444868e-01 -2.157198567073666806e-01 -2.161701518508792330e-01
3.192675288962512070e-01 6.766174212554380007e-01 3.804845942352855920e-02
-5.356206432492343072e-01 3.833329569007802307e-01 -5.043838904072340812e-01
6.053903122668755632e-01 -3.029042769985763606e-01 -2.822596640116192823e-01
-4.291572959106442209e-01 -2.069143003915746015e-01 -7.287073096093718005e-01
8.778180282228968956e-01 2.040650421763196831e-01 8.316022013275951863e-02
-2.595229616660735955e-02 -6.644708913975271303e-01 -7.503621026470704836e-01
8.914498661934396884e-01 -1.352550179367704164e-01 -6.838280054277634523e-02
5.634174144725018207e-01 5.054344281893344837e-01 7.424130557241787054e-02
6.020136392360756483e-01 5.719750788589075263e-01 1.235514198846150297e-01
-6.605349772235294958e-01 8.980525213289439201e-02 -7.003766786326893756e-01
3.556954260528604195e-01 5.501765659529567198e-01 -3.538533748390229952e-03
3.564197881444177152e-01 5.189641430985109105e-01 -1.772965794313511104e-02
9.567276367511939883e-01 -8.341410167825819011e-02 -1.325108232627327312e-02
4.459627016568239455e-01 1.103597967572842869e-01 -1.654984616384894136e-01
-2.648321083181578994e-01 -1.502758121635621169e-01 -6.243189997493318044e-01
1.183545895359792710e-01 2.203787472642873280e-01 -2.697957385297201638e-01
2.937341176871393622e-01 7.498425191664801481e-01 6.002604227106493606e-02
-3.083671444608205858e-01 7.382475771836446432e-01 -2.312192165212485773e-01
4.046597789365216635e-01 -7.253231240541949121e-02 -2.702761636356168506e-01
-1.876156680733752011e-02 2.067584700372946879e-02 -4.278889339688663473e-01
-2.597266867629438036e-01 4.960610387646498531e-01 -3.209088275992778017e-01
1.396889430266456122e-01 4.986001816956884825e-01 -1.301050571271375744e-01
1.954286073462672413e-01 -4.467516777091117830e-01 -5.438746340863669371e-01
-1.279590264731911564e-01 5.711456474813069589e-02 -4.627612961486617937e-01
8.709550282982084779e-01 9.682656948578695355e-02 2.996317954759258537e-02
5.519655422638908293e-01 7.376664547382774106e-01 1.769504623508695029e-01
1.878330741379400370e-01 6.513762242950080217e-02 -3.091037873913977663e-01
-5.170293752940285231e-02 8.630890525290901838e-01 -5.123244849993675853e-02
3.170837955170164868e-01 -5.306216390788479620e-01 -5.251758030797634147e-01
9.112971927829389696e-01 -1.577635929241082979e-01 -6.944214501059506328e-02
6.820929943854147082e-01 4.056509716947012123e-01 8.411497430239131545e-02
-4.701966494850153833e-01 3.796486016416640297e-01 -4.750397825951635511e-01
2.172769808458539786e-01 4.998980939800743394e-03 -3.231307685602821667e-01
5.215614416952146781e-01 7.732584871091602308e-02 -1.449914537951566551e-01
-2.063001203332699707e-01 -5.991484197309387277e-02 -5.544517877850331233e-01
-5.613612867394196515e-01 -1.470099814311278952e-01 -7.635744816374064881e-01
-3.883159868538910708e-01 7.747973094293277851e-01 -2.521541903598321643e-01
3.434716865302420707e-01 -3.004414997856680314e-01 -4.054578587591402550e-01
-3.757187660778987248e-01 -2.908090310998557859e-01 -7.424056618737731039e-01
1.774781138139845948e-01 2.031184491400002678e-01 -2.497648094261490648e-01
-6.760590022124142173e-01 1.359829429062213990e-01 -6.862426172475568631e-01
6.165593146571487493e-01 -4.840054004330253123e-01 -3.612924540827148756e-01
5.073907187703129151e-02 -1.648707526204820362e-01 -4.812991301996454307e-01
4.242181236523869664e-02 -3.195228342816140432e-01 -5.572661633914940404e-01
-2.780605380647149794e-01 4.363943102548616393e-01 -3.573983917792362686e-01
-1.758927566812683585e-01 -2.952509560807179967e-01 -6.496073959849568702e-01
2.740848450797579994e-01 3.650978852682895126e-01 -1.284704159463231909e-01
-2.618394255252393110e-01 -8.232817166780755092e-02 -5.912563498987837285e-01
2.037127014346285236e-01 4.698953101378860464e-01 -1.130772702271439917e-01
4.988101871694339273e-02 4.820470385535208235e-01 -1.804495668507515582e-01
-6.539257357417360694e-02 8.264465863815071422e-01 -7.479523857756990857e-02
-3.610767033302149098e-01 -3.671278517236015171e-02 -6.171267518112187878e-01
3.952609616019941430e-01 -3.366823834960968598e-01 -3.977477281702852530e-01
1.296744155367001716e-01 9.673444201610458260e-01 8.342557085135163253e-02
-3.741122639521200499e-01 -1.370940322664737365e-01 -6.700609211904821061e-01
-6.074213843743562213e-01 -4.547913472519186928e-02 -7.381604482249835009e-01
4.306289638064122460e-01 -2.775628927978864846e-01 -3.534260911660787041e-01
1.088084379152550046e-01 -4.564849660058571956e-01 -5.895298944070569425e-01
7.896295885215527388e-01 -2.403671336300490860e-02 -6.492948201507940664e-02
-6.549783586164739657e-02 -9.008900827968437108e-03 -4.639004385046826551e-01
8.437793278033424160e-01 1.301910661805074088e-01 3.259879077258146657e-02
-2.286129198952953356e-02 -2.144401375607012938e-01 -5.393241664222282461e-01
4.047262737210222117e-01 -6.689077821247664535e-02 -2.676174436664933154e-01
9.175780837365775378e-02 4.469858152064012935e-01 -1.768960135329807892e-01
7.077228196414789840e-01 7.432118335903223350e-02 -5.801112604076869711e-02
1.548371867769711765e-03 -4.183359878214514271e-01 -6.226860501989986973e-01
6.179521315338771803e-01 -4.523344203027468424e-01 -3.458826645608328865e-01
3.695924976135049334e-01 1.934187496903065906e-01 -1.630760564660101442e-01
9.351897839929029788e-01 -2.706348063727788134e-01 -1.106611201694805285e-01
-1.431711072851920563e-01 -4.975444080976280103e-01 -7.282769847794854368e-01
5.976614764953823711e-01 6.644461153364462636e-01 1.645471912221753708e-01
3.094267872816190423e-01 3.688616915347872061e-01 -1.099392068917480203e-01
-1.047544354451839521e-01 3.234152206385405570e-01 -3.277339978845612567e-01
5.648912199738201356e-02 4.505277769525958820e-01 -1.919902918009275539e-01
9.230911486845093383e-02 5.278377790442809747e-01 -1.389831093988661559e-01
4.826607161514340771e-01 -6.626242668126134383e-01 -5.080397029725576274e-01
-1.157097190659086075e-02 1.869700091443802503e-01 -3.470352928979727469e-01
9.580003737560032206e-01 -2.649751905946917327e-02 1.385808135233028773e-02
9.134482191940246354e-01 7.712645495607897694e-02 4.096273441590047443e-02
8.172122345443445512e-01 3.965716995037735781e-01 1.440343789661491514e-01
9.540724400864157850e-01 -2.573006687820632576e-01 -9.548719105009133290e-02
2.693245998227648541e-01 7.988006511550650446e-01 7.123654016572847358e-02
1.647893037893789769e-01 -6.396256676673676145e-01 -6.482381817132568669e-01
6.918201497257362442e-01 -3.942889566310360805e-01 -2.837834167241942152e-01
1.984238751045450111e-01 -2.884285217546469493e-01 -4.687246528421668001e-01
7.705728619513080302e-01 4.110671213509083377e-01 1.286427138377609636e-01
6.874196270359475003e-01 -3.645803008979587312e-01 -2.720378133049912162e-01
-2.642148947339833520e-01 -4.367938368838765739e-01 -7.574518015183636654e-01
-2.689662577067810853e-03 -1.161432823134263687e-01 -4.839728307217764369e-01
1.305074935159985794e-01 6.143392200575025219e-01 -8.056652291639228303e-02
2.477730920566509343e-01 -6.509528522158380959e-01 -6.141167311154033248e-01
4.924556062453096517e-01 -2.390739254141209802e-01 -3.061505260038752674e-01
-2.608668826171136601e-01 7.318779948614470010e-01 -2.116348028491374100e-01
4.032692305150016310e-01 1.627615484014617309e-01 -1.613645882088829975e-01
-5.294900325173045319e-01 4.234793182227161723e-01 -4.827780291125607914e-01
-2.858164443993614912e-01 9.243171405503610716e-01 -1.338643964654243901e-01
-5.382185380854585116e-02 -3.913653132331673112e-01 -6.364131805574693157e-01
-4.677954568310750960e-01 -3.384556297898961286e-01 -8.083068736154397360e-01
5.328869553440215151e-02 -2.446600593419811231e-01 -5.172450187165872348e-01
3.586524840148753723e-01 4.016237522312526287e-01 -7.131281000642614165e-02
5.186045220639994291e-01 1.135038751069026020e-01 -1.295478452902635580e-01
-5.859605909346928820e-01 5.295034019177491391e-01 -4.602139176296620726e-01
1.999202627321819137e-01 -8.783610436343004813e-02 -3.746022946903647122e-01
4.534834168432911872e-01 -2.122735700526001135e-01 -3.121720534118836432e-01
3.176119475957099869e-01 -4.780422964434502542e-01 -5.004398963584957283e-01
8.159241198492028779e-01 -4.524009209444693203e-01 -2.519270402168272693e-01
8.821643360277952040e-01 1.240137363928546371e-01 4.794529406514335540e-02
6.720761176300543704e-01 -5.478816641937751530e-01 -3.646819453151043944e-01
2.255202599855356538e-01 1.073660812143416854e-01 -2.715469472116937566e-01
4.239836663074928458e-01 5.173964527507173283e-01 1.361604271963147081e-02
7.386779346503140609e-01 4.216422389632855650e-01 1.184253199927730593e-01
8.061352997727878611e-01 1.606451899969654207e-01 2.890929216431728163e-02
8.968726966486977314e-01 1.216568717472659017e-01 5.383049740060125155e-02
-5.273242273701064242e-01 4.945616539454880667e-01 -4.486481708225781850e-01
-4.054441609156273496e-01 -3.604867941751724314e-01 -7.889652686604960996e-01
2.686748539477096243e-01 4.207207615615639979e-04 -3.008617923615516387e-01
-1.982850509911296411e-01 -9.405184968061486295e-02 -5.665435929220710154e-01
-4.690091002260947661e-01 7.179486065433187125e-01 -3.169363231208900400e-01
4.032577033995118354e-01 4.354589153978447591e-01 -3.438024776358653695e-02
-7.260325516743704188e-02 8.985015910953787488e-01 -4.466388565735399108e-02
4.080926500545885571e-01 3.338594857903510738e-01 -7.939773248522050131e-02
-1.071505450340109744e-01 -6.212084022280048856e-01 -7.687642291846552567e-01
-5.161377129543851527e-01 -2.165001920745921737e-01 -7.744649566651177208e-01
-2.299141410466263025e-01 -3.521642249127006092e-03 -5.394012649127606362e-01
-5.405876051032961760e-01 6.256473414958668711e-01 -3.939008860841334836e-01
-1.938013051962610978e-01 -8.065060819258862423e-02 -5.581742532001749968e-01
2.293472871140487257e-01 4.906653169223046396e-01 -9.123514493335035946e-02
-1.277944115845719994e-03 3.472942575464063597e-01 -2.674888530429217481e-01
-1.537782506014688244e-01 7.675608678592861223e-01 -1.441779904787635069e-01
1.141429362338559211e-01 2.610115780840480126e-01 -2.528732959674633296e-01
1.388229576974498725e-01 6.281006218508120575e-01 -7.021036709176406432e-02
-1.818451747820354625e-01 -4.594717644333174422e-01 -7.289076962538508786e-01
2.681983687562475294e-01 -4.273794630583615528e-01 -5.003061534957832235e-01
-1.222559140085301976e-01 8.341062788738446976e-01 -9.822396601336708111e-02
-2.882073941484781798e-01 7.037440131828313072e-01 -2.377160698042058151e-01
5.098198433548830621e-01 -4.928240729002593690e-01 -4.160733724242573484e-01
-2.120245173307870254e-02 8.866907126890477553e-02 -3.973846262093048698e-01
-6.347451977857135885e-01 4.509758634169912517e-01 -5.199429934478663196e-01
1.511090123419795428e-01 9.573815416388380406e-01 8.896206270577107500e-02
-5.088006461921342760e-01 7.150874923442961384e-01 -3.371596018901302227e-01
-2.353275806524652292e-01 6.916451368926116450e-01 -2.182457503154345557e-01
3.004779970367602374e-02 5.429828699320925905e-02 -3.890595268214209201e-01
8.714682615631326179e-01 1.259041320537696018e-02 -9.020289626107194647e-03
7.822902375549524168e-01 2.536749818808182177e-01 6.091107087414539267e-02
-8.763949307215805617e-02 -2.656790676352449032e-01 -5.939383824137258738e-01
7.106009822378177576e-01 -1.397883987749516110e-01 -1.563513583173148924e-01
-4.267339110322797557e-01 6.842995657109491869e-01 -3.125360051614698986e-01
2.858473185083445500e-01 -1.161945048822161063e-02 -2.983160891400737924e-01
6.307831827890891807e-01 -5.315240938668400750e-01 -3.766682395613885070e-01
8.416320157650863942e-01 2.590832071703256245e-01 9.160190190969610957e-02
6.116575675347896146e-02 3.828698007683959403e-01 -2.212770657538261909e-01
4.514205796464434983e-01 6.312782981120996784e-01 7.967417369788275250e-02
3.238809791947623307e-01 7.818774867511595339e-01 8.925622783438477703e-02
3.253138738831105048e-01 8.110239833884977378e-02 -2.364007177966445106e-01
5.999587464588161945e-01 2.168347761138495755e-01 -4.280600451980430543e-02
8.018573784233449242e-01 -1.356991240574431934e-01 -1.111233699846628509e-01
-3.076306368763791488e-01 9.819018320071061512e-02 -5.289317309019456737e-01
5.006785001263137636e-01 3.396240512074944484e-01 -3.275844000413355439e-02
-1.458910472721816620e-01 5.436396814747324058e-01 -2.447092676527031219e-01
-5.598781087869362239e-01 1.016238466976845112e-01 -6.470864524323969302e-01
-5.379401992379660991e-01 -2.221273310652026878e-01 -7.874360681639611670e-01
1.330601201946319742e-02 3.783791517192482412e-01 -2.460895394709541606e-01
-5.003844033414615866e-02 7.547678170696656696e-01 -1.008853074377875636e-01
-2.659928646261940921e-01 -2.500503662384374604e-01 -6.713331172792038615e-01
-2.767308171311635423e-01 9.050808143978826825e-01 -1.385090025035379258e-01
7.412250550059077403e-01 1.014414976152873543e-01 -2.947664468090058568e-02
-4.762186625162596054e-01 7.754126236004728334e-02 -6.185841746698457211e-01
-4.970495854172694017e-01 4.652515912865013981e-01 -4.479244987505273667e-01
-2.384817309889755987e-01 1.237954655511888519e-01 -4.841796230093529663e-01
-4.439401784363675163e-01 3.001328372287963009e-01 -4.996035349620326915e-01
-5.607552509300403054e-01 1.488404867048453151e-01 -6.255150102058513184e-01
1.751976140278417859e-01 1.000494932630071887e-01 -2.988446600034156964e-01
6.762096822315665223e-01 5.590974951734495324e-01 1.527789249943954653e-01
4.122819156545197428e-02 7.554058234180527354e-01 -5.725964768964508789e-02
-3.906841555428888224e-01 2.443203730769825943e-01 -5.003111713328121102e-01
1.191289454209925464e-01 4.732626966174672267e-01 -1.516650223627664940e-01
-2.776009573434261024e-01 1.242270178085458539e-02 -5.546154660874121900e-01
5.423983389100250907e-01 -6.187654593404551262e-01 -4.592552643151878167e-01
7.027956570835020012e-01 -2.741249252342936038e-01 -2.226147968248535225e-01
-1.532174639904226032e-01 7.843208724354540085e-01 -1.361069534962533745e-01
3.305593086887265719e-01 4.249469044837593801e-01 -7.378882420916468843e-02
-2.561654969059207199e-01 2.089966477575181392e-01 -4.528984177488781238e-01
-3.590288197272316628e-01 1.498845995283116517e-01 -5.292597847534905586e-01
3.227004984019483658e-01 8.353776531877512568e-01 1.136097759322419187e-01
2.804320147666587021e-02 7.487616937326029287e-01 -6.661322199297313451e-02
3.224796521453734965e-02 6.206444925998231277e-01 -1.242786899800314704e-01
-9.545526112965296850e-02 -6.045609290710576289e-01 -7.554595275414714983e-01
2.111905620486833612e-01 -5.543157969979793931e-01 -5.864821942994011827e-01
4.466915774612885137e-01 3.162398782754657356e-01 -6.927811593476151941e-02
4.571462689785323330e-01 6.682977838340279364e-01 9.963167519275611950e-02
-1.736577355934502687e-01 -1.172248133575922724e-01 -5.656430451849820962e-01
-3.061178070949158170e-01 -4.731643403710869555e-01 -7.942821100539434465e-01
7.401225307025910416e-01 -1.321353506076632933e-01 -1.387722196448653300e-01
-5.951183268293105955e-02 3.743475930749596836e-01 -2.825370049707700004e-01
3.438699034806746435e-01 3.871461431517605467e-01 -8.507273310297605584e-02
1.005055667284340121e-01 7.864368406863788685e-01 -1.466736035172896101e-02
-2.079325368099929350e-01 7.041825361427870300e-01 -1.994016167122446004e-01
3.736622780348945461e-01 2.397036983845469427e-01 -1.395899483339380631e-01
-3.139373027980556508e-01 3.381841559699881872e-01 -4.201653172191835428e-01
-1.450327243491205120e-01 -1.847503328053719807e-01 2.666004520586918725e-01
-6.381683123453150142e-01 2.914713705260740251e-01 2.542529515576902877e-01
3.784992771076970963e-01 -4.493359083930626996e-01 3.919333482742984320e-01
-2.838126176508206089e-01 3.801700981688698744e-01 4.637874844371859817e-01
-9.467283483284258949e-01 2.063141049331700394e-01 6.810895614579370871e-02
-5.227801793868983582e-01 -6.561893407194878680e-01 -1.322738854226213900e-01
2.929422185185290989e-02 -8.883577565962116340e-01 2.170546246198209669e-02
-5.503071313418311794e-01 5.318494449854040962e-01 4.079041294790983208e-01
6.645372551178960752e-01 -5.882036856912433720e-01 4.630609993265230040e-01
-5.297071688314374249e-01 5.482899076432639074e-01 4.253398991676395902e-01
-4.068360325991171589e-01 4.244791209099280649e-01 4.260163391276958200e-01
6.065666159428013682e-01 -4.775451185221050721e-01 4.870711401001973639e-01
-5.510807659977725592e-01 6.341693352485902047e-01 4.551852139680009346e-01
4.627080866603127673e-01 2.838975397663854872e-01 7.733636507475249999e-01
7.617353391230631543e-02 -8.846568211305262386e-01 4.568472466369848106e-02
1.148945645232334334e-01 -8.654412904885322444e-01 7.301571039061977020e-02
4.159834573266970037e-01 -6.049841568396383540e-01 3.372465123605399295e-01
-2.443994632530453459e-01 -4.804886402695178194e-01 8.170687169629244073e-02
-3.543780764176408804e-02 -5.112932236313495471e-01 1.665656848029254677e-01
-4.625519248703071629e-01 -9.537281937035212154e-02 1.574805426951353116e-01
-6.382665149420246875e-01 -2.503928102297792169e-01 1.870813726668149948e-03
3.081940286703346854e-01 -1.654927399688547740e-01 4.907363418026663426e-01
-1.941001633194239517e-01 3.898119650295366403e-03 3.311557189892407882e-01
-5.666516674052911595e-01 5.820957999288131068e-01 4.235433528240579171e-01
-9.597218228115552696e-01 -1.167165909158628806e-01 -8.848871239802294508e-02
-6.095462137422163335e-03 2.821986675022906677e-01 5.500094767612682123e-01
3.874464460816985367e-01 -3.268353029340797522e-01 4.532271174584029394e-01
-1.505253989716537066e-01 2.172092146452488104e-01 4.511774956265256487e-01
-5.647959217744805693e-01 2.282044525278734415e-01 2.596241059693093489e-01
-2.478448878045588777e-01 5.408319917789935483e-01 5.556801448524598674e-01
-8.236821892236638742e-01 8.215821743504075902e-02 6.870778102152694244e-02
1.012793361263980910e-02 -4.315603419844294408e-01 2.253279187338111667e-01
4.006147689689796287e-01 1.697910591890612053e-01 6.907478902118486808e-01
-7.113289688195616467e-01 -5.386030127678649304e-01 -1.670291974984686456e-01
5.837958054189165691e-02 -5.397457512651443468e-01 1.978554173921155124e-01
-5.898771624764148624e-01 -6.838298542643116429e-01 -1.769996165113404962e-01
-6.578570927495350773e-01 5.894893274477289724e-01 3.836868784259940268e-01
2.248645396925379736e-01 -6.831749356945454599e-01 2.101014827514890160e-01
6.270009713537644247e-01 -6.560061895104744023e-01 4.136664684913283208e-01
-6.469576966181779243e-01 1.741221144648817665e-01 1.954329725091437930e-01
-1.755404856567881200e-01 4.365846426292590565e-01 5.414604923818625570e-01
-1.399983947267921525e-01 1.698589034313131851e-01 4.341250476867165031e-01
-1.742506686659894277e-01 -7.747199663301440609e-01 -2.200795898970908659e-02
3.886409738065372821e-01 -2.659848826026783852e-01 4.821310625544541484e-01
-2.830910876515089769e-01 2.548506445495822212e-02 2.989601680586824184e-01
-7.051430557222965190e-01 -5.190949200953216547e-01 -1.550079183192896726e-01
6.145329589787028313e-02 -5.790788352416817997e-01 1.809980088919067864e-01
5.603340237991552009e-01 -5.921651025516055933e-01 4.117460817408015172e-01
-8.947173554369639570e-01 7.061396855930377088e-03 1.293861849481248973e-05
-2.156531319093833721e-01 -9.488857009513070040e-02 2.749204904497947743e-01
-3.943951847744537331e-01 6.297331062815820779e-01 5.275053468258001921e-01
-4.692466315723777814e-01 -5.904682004437369347e-01 -7.625395285682247393e-02
-4.411090683596837203e-01 4.704244667559213111e-01 4.311411668571163980e-01
-7.793648494998195453e-01 1.103329786191262034e-02 5.662582228923402489e-02
2.612790212987865512e-01 2.824610509330917063e-01 6.770668770049363960e-01
-2.673601965174365880e-01 -3.787786692495545005e-01 1.181706719562239660e-01
7.752024669871811213e-02 -4.396158844477899841e-01 2.535709039793340169e-01
4.060780188716587857e-01 -3.156288814501690965e-01 4.672910099112694837e-01
-5.775508744809099149e-01 -2.230106022684170616e-02 1.369132295738515748e-01
3.792112230727896494e-01 -8.409949472045186170e-01 2.098834132397234542e-01
-1.113812094279375275e-01 -6.276258964874292801e-02 3.393837035670558278e-01
6.817477915232351693e-01 -1.598804420599944653e-01 6.706933784824925526e-01
2.334571925106698059e-02 4.307936403903118161e-01 6.331843501736345026e-01
-2.713666534059031576e-01 -3.689867140992962868e-01 1.208285402488581822e-01
-1.235402642215521901e-01 -5.424019166963872651e-01 1.102526066489482037e-01
1.482063999395161202e-01 -1.112288679874350213e-02 4.866697188243004901e-01
-6.308723413957948445e-01 1.798720431676324172e-01 2.057470743850985107e-01
-3.502384319970334170e-01 -7.711581062903279937e-01 -1.038989198720221274e-01
-6.080139054781605878e-01 2.838700654067320972e-01 2.650288848069392023e-01
1.605139648805605779e-01 2.768931137533314213e-01 6.266360973862230566e-01
-2.800944640868703317e-01 -1.381870774035788563e-01 2.241639010088178063e-01
1.712480292554368067e-01 -7.101084600057973040e-01 1.721047955950060770e-01
-9.075390879556697460e-03 -9.885671245162004350e-01 -4.317592945680225058e-02
6.737901804443733322e-01 -3.867511397512273241e-01 5.612662948753326386e-01
3.055329475142430917e-01 4.555292514480149269e-01 7.786707573412772199e-01
-9.422156170422982258e-02 -1.404767574647266815e-01 3.113402304972398560e-01
-6.329024130471317955e-01 4.833679973020270082e-01 3.461154147184845598e-01
-4.090734769306726415e-01 6.795680280840028509e-01 5.437440179989253553e-01
-2.285649846566003007e-01 4.849231138611905800e-01 5.387975521617195396e-01
-6.782922445007417700e-01 -4.768187303899923957e-01 -1.225733863018889369e-01
-9.379040036201885533e-01 1.547122604830275250e-01 4.826832022526049426e-02
5.176738208921733975e-01 1.568179416897403367e-01 7.402799887186238825e-01
5.070742359029023483e-01 -5.442613133599679721e-03 6.596863118707462226e-01
-3.733530685599472099e-01 5.360574908888604551e-01 4.938721307885609035e-01
6.194332258402678315e-01 -6.537198063275888593e-01 4.111384283756834845e-01
-2.199388870760870807e-01 -8.485206129976099465e-01 -7.806581314659201409e-02
-2.479329178216268526e-01 -6.944630905173093671e-01 -1.961432783600821836e-02
-1.651452106745772462e-03 -1.071810804230513003e-01 3.707927487011890011e-01
-3.786226214593814698e-01 -3.111018194785737934e-01 9.686495899070222959e-02
1.082958655052122937e-01 2.025831712311434996e-01 5.672410332443189596e-01
3.002362815311123145e-01 -6.380731580085380328e-01 2.668869981822755699e-01
-1.427038247872985943e-01 -2.023146149361161050e-01 2.595267484210442843e-01
-3.480272891251979389e-02 -7.573908862743216064e-01 5.226433394250282888e-02
-4.805072272483737472e-01 -7.073052361351001016e-01 -1.360086009408993379e-01
-2.963079719828041192e-01 6.910999753090479869e-01 6.026492960889976436e-01
-7.829991984030022500e-01 1.395350324156188482e-01 1.147411626329301743e-01
5.698561073889864270e-02 7.412274653115545620e-02 4.830601485349761415e-01
1.613439496210676838e-01 -9.509277195206531363e-01 5.525806048865515574e-02
-6.727024257844433919e-01 -1.267700771050132326e-02 9.622205574060573030e-02
2.070197212391034491e-01 -7.447212964091061149e-01 1.729687775763781576e-01
1.199541310308242931e-01 -8.093234728240062958e-01 1.015506905596801346e-01
1.970731634223918116e-01 5.124862049411651466e-01 7.537035441475354869e-01
-1.395436030005242911e-01 -1.842703958024534683e-01 2.694298927764221530e-01
4.769428706940651019e-02 -4.803736314723733303e-01 2.204310383698020737e-01
3.481085715006873582e-01 -8.265476210745286156e-01 2.018453613852609629e-01
-4.190291634256822495e-01 6.253955381257990664e-01 5.137905208702149285e-01
-2.012905712073100317e-01 1.073561609833420250e-01 3.759204747478965269e-01
1.629800068761372289e-01 -6.053695078614624858e-01 2.169544522197880410e-01
-9.372611402570029115e-01 -2.224277022520417257e-01 -1.270531627284137433e-01
-9.686786488173266818e-01 1.659706044767608191e-01 3.890094198195095249e-02
-2.835060961817549852e-01 4.751115142666866853e-01 5.081453590858568958e-01
-2.129562656865716663e-01 -5.680873935887027076e-02 2.939338493587230206e-01
5.578560080785142095e-01 -1.622575690008505322e-01 6.107691540755576520e-01
6.602811979513680818e-01 -2.532982980211028190e-01 6.169993167625710262e-01
-5.165722228547018346e-01 2.645270229569284814e-01 2.994328669930424458e-01
-4.771647451536314977e-01 -2.143352814117917005e-01 9.514466694606917019e-02
2.672179485422128131e-01 -9.461563407539699266e-01 1.077433532200670202e-01
-5.824722704709387466e-01 -3.915638639054895287e-01 -3.738162998324558173e-02
-6.557976250723437373e-01 4.547867584655940210e-01 3.219362611456516032e-01
-5.778071136517869133e-02 5.991486983639606745e-01 6.730694738396758581e-01
-1.252061759568089960e-01 -6.035950052692529849e-02 3.339394146905675376e-01
-7.026923477404473095e-01 1.607631306779947478e-01 1.627521017397205727e-01
2.332507080398862898e-02 1.862390215479745870e-01 5.192902600737648866e-01
5.600217611060901435e-01 -5.282290977031286472e-01 4.413715788854949973e-01
-2.224114322651865316e-01 6.645599435170310709e-01 6.253722789420995687e-01
7.632527497233178304e-02 -1.184434837888646147e-01 4.025672797298885386e-01
-3.539009441567166903e-01 2.847052918101266594e-01 3.860571799578966790e-01
-7.026230486155523591e-01 3.750501227424889866e-02 1.053861141318640504e-01
1.080347529965653697e-01 -3.236438429041489373e-01 3.220634760945293995e-01
5.168227617845114197e-02 -2.265404378835237514e-02 4.354753544828698919e-01
-2.741085246913188556e-01 -8.707978558635424138e-01 -1.141567568262454035e-01
-4.860177744308188386e-01 2.547266894463287579e-01 3.093746743684174794e-01
-3.336054628642411979e-01 -3.617667393355493144e-01 9.464305751365464925e-02
-6.137965810338656958e-01 -3.537225376624638096e-01 -3.463078694905900867e-02
-8.721101701556996377e-02 -5.292720911352823965e-01 1.336141071210472653e-01
