-7.423346292028798477e-01 6.568114085743048669e-01 1.293923724407387843e-01
3.849838336562986241e-01 5.498807271424865917e-01 -6.400860873382896443e-01
-6.923733064377149971e-01 4.720968941820962717e-01 -3.671134733784115478e-01
6.919509778812936440e-02 -7.143523069847905749e-01 6.312100697464025911e-01
8.581115161913608347e-01 -2.214960406882756361e-01 2.758063659004596491e-01
-7.970328028348357130e-03 6.696421957282064907e-01 -6.425624822216313703e-01
-8.201838187772173550e-01 3.748500088989956125e-01 3.079281942023118779e-01
8.915674318363933093e-01 3.761469334929477826e-02 -2.061492732931077543e-01
2.448344361933420532e-01 -3.565330616320901425e-01 8.382296102596861198e-01
7.223346375425759858e-01 3.845207632750877180e-01 -4.635183369904553041e-01
-2.077818603283359822e-01 7.543914160025974036e-01 -5.375158462536404613e-01
8.137983552069241178e-01 1.285044335953615391e-01 -3.807163105534468461e-01
1.310112758811068367e-01 2.845522120024379653e-01 -8.552759635892227541e-01
1.464593312334333541e-02 -5.341560856902647370e-01 7.567581927674360553e-01
3.670501790956997024e-01 1.378218605667564656e-01 -8.276510591871873990e-01
1.938731086028021855e-01 3.045985390560426165e-01 -8.279195560225379724e-01
-6.038211994519327996e-01 7.383845057336474449e-01 -1.939408641289422364e-01
9.519013396651189451e-02 -7.132745568912879364e-01 6.261220771154274445e-01
6.236621080572783971e-01 -1.903281397843734069e-01 7.585891883428833582e-01
5.751802462190024334e-01 -2.623422512667887285e-01 7.356289829160597149e-01
-3.556989200271496454e-01 -1.585654989113701174e-01 8.681785413899932857e-01
4.959630510554389748e-01 -4.897199065002149493e-02 -7.992011746412501783e-01
-6.745559501865628915e-01 -4.092826479221690628e-01 5.546223843500228678e-01
5.427248798854075185e-01 2.521872840103658864e-01 -6.652787359632079678e-01
-5.497051961771475259e-01 7.510679141918623625e-01 -2.666292570615684254e-01
-8.262168131544203042e-01 2.192912495880504076e-01 3.853496869851736895e-01
-6.313686504072666406e-01 -3.921116804059940342e-01 5.966153427706875068e-01
7.863164633314038143e-01 1.951918002542462061e-01 -4.189832539846762849e-01
-5.466770026116861692e-01 -4.977908255297594509e-01 6.196853422671672051e-01
8.929063208187075773e-01 -2.347860641860158998e-02 -1.751916486986316857e-01
-3.931416843414973217e-01 -3.770551730956752112e-01 7.547595823214721111e-01
-4.936695413613827466e-01 -4.263023933488762074e-01 6.802452763707093064e-01
5.362740878926129939e-01 -3.705332847952536035e-01 6.700074769782967676e-01
-7.643225982932133622e-01 3.436084739775208119e-01 5.083904459844745816e-01
-9.768741601188665191e-01 -1.102026996350969068e-01 7.445097982453087460e-02
2.426787954561062388e-01 -6.219388552703185580e-01 6.442296017024899957e-01
-8.463295945743147808e-01 3.654436783923202814e-01 1.447504045782650739e-01
-5.160810192164254628e-01 -4.884253223858225912e-01 6.420047726737445615e-01
-2.794973285240334171e-01 6.920484267734475781e-01 -5.536113745325917934e-01
8.070486645536374404e-01 -3.975043350092206662e-01 -1.863957520032893389e-01
8.387616796278064557e-01 -2.073083572727313709e-02 -3.215797780429856534e-01
2.695335687577524175e-01 6.063474498263083934e-01 -6.522538735373530905e-01
2.578709567424087301e-01 6.529952854978872123e-01 -6.308010738010298990e-01
8.719183082784368599e-01 2.742349538980845547e-01 -2.805466270223307967e-01
-7.525060910517020751e-01 3.789783820542380055e-01 5.282724233082122245e-01
5.539202403113363538e-01 5.717238873539203237e-01 -5.420168656328433476e-01
9.395059500298569288e-01 -2.618935685752944373e-02 4.941875501145759353e-02
4.126460026950704574e-01 -3.315043800111752703e-01 7.896780561125457121e-01
8.368482598677026152e-01 -1.415515705151126624e-01 -2.912684706435167414e-01
-8.024488286831935602e-01 2.300215742098087324e-01 -4.682703768642005882e-01
-3.069269010839652950e-02 7.551727642055066081e-01 -5.843559598652801057e-01
6.154564019353739868e-01 -7.354995955112496320e-02 -6.821046188905903751e-01
7.614198077628167582e-02 -6.504077407487082185e-01 6.733915175907486672e-01
3.713140505732896446e-01 1.616919755734693986e-01 -8.154955338264230358e-01
7.101297942323575585e-01 -2.053344107191054091e-01 -5.600809414112735141e-01
-5.229975268864753835e-01 6.664852841364014846e-02 8.305039948859394006e-01
2.701006110095620083e-01 6.240330031868605021e-01 -6.429401494616040491e-01
6.193122706261671162e-01 -2.142950847854823426e-01 7.399565951126523267e-01
-7.540598919525793864e-01 -2.439890743145410879e-01 5.137865860468794343e-01
-7.878802461634046850e-01 4.330392643409604059e-01 3.940131580900004815e-01
-3.577635639635052822e-01 -6.463179463260969593e-01 6.426767049573678392e-01
1.921457811730197807e-01 -1.653707570178536701e-01 9.783168531350842079e-01
-7.621061797975815510e-01 1.655970653708533635e-01 5.384207697119338665e-01
7.591834755332274032e-01 -5.068278485507272668e-01 -3.150040661341445003e-01
7.184906989040507064e-01 -3.701580031595424480e-01 -5.274894681074787650e-01
8.855161095395871484e-01 -1.866177658318875221e-01 1.942119705240450689e-01
8.052236045447015433e-01 -4.067375455683546193e-01 8.190370312625928906e-02
-8.616033305573557177e-01 2.305504045363599708e-01 2.619406526270690594e-01
-5.836980430381242257e-01 5.875679246349475582e-01 -3.990490819040347081e-01
-2.655806994477749039e-01 1.611890230874623298e-01 -9.436235865359516861e-01
2.001134502196819098e-01 4.730071214675245495e-01 -7.394515648550359366e-01
-9.573561031635172691e-01 5.713903570964897621e-02 -1.994136945568522334e-01
6.488773594660943722e-01 5.511880564809580330e-01 -4.821700133707571001e-01
-7.261472435443411255e-01 4.235898729253838035e-01 -3.656449912952030590e-01
8.837407947616672255e-01 -2.059750918120603347e-01 6.644915367963412367e-02
4.420503650259540174e-01 1.134277038377600605e-01 -7.886214533372107871e-01
9.314603655596476184e-01 -6.169275532820986396e-02 7.493049528901830902e-02
-6.387081624793852219e-01 3.762245471035824407e-01 -5.528019036163054345e-01
-4.087804388270225853e-01 7.315074682523359240e-01 -4.380772498855988739e-01
-7.505811110406747089e-01 6.187856140028810126e-01 5.993718763080514017e-02
-1.622045352943324581e-01 5.443042484944572434e-01 -7.029320253553368314e-01
4.132221536740344203e-01 -5.847821038745344424e-01 5.771938332335085908e-01
6.909603926426752807e-01 -3.981271386076553620e-01 -5.835905123801437000e-01
5.273530423144313639e-01 3.244543128887757977e-01 -6.519905975447515267e-01
-8.253901918093118351e-01 2.562546364733299664e-01 -3.767904546128651444e-01
-7.612185876002959539e-02 -2.700917711671978472e-01 9.085906677051729385e-01
-3.327259218849207278e-01 -1.678674123198396761e-02 9.399315625113117134e-01
5.013021113013865770e-01 -7.362942988113857501e-01 3.472059859076567223e-01
8.232014417854881527e-01 -2.029468907878254069e-01 -3.046077059542195431e-01
8.754625032182840050e-01 -2.177116799304923134e-01 -3.023088807119483565e-02
7.438348285880984623e-01 5.974040781670911932e-02 -4.939192018102163129e-01
-7.136421462713030128e-02 -7.970199775834406752e-01 5.955885891613020844e-01
-7.919487605646761130e-01 5.010636685600283746e-01 2.886574339822991497e-01
3.741264307646289256e-01 -3.078610457801360736e-02 -8.885183581708638867e-01
-2.481562429795445834e-01 -6.517524429095111760e-01 6.685970490387879162e-01
-2.063231419609306283e-01 6.842079112308767641e-01 -5.904165886792188678e-01
-7.318016899745644066e-01 -1.558106370684001450e-02 5.781170349146843579e-01
-6.683960329248483934e-01 7.200749819374956118e-02 6.747158219826570047e-01
-4.107815458213699422e-01 6.827460705904387916e-01 -4.799525009123564168e-01
-7.947264424100322078e-01 4.697000322811469286e-01 -8.465382718192816791e-02
9.500457278529191862e-01 -7.166438099644578848e-03 9.932721844988665061e-02
-8.584399317335388302e-01 3.416107748670897393e-01 3.787887333136193829e-02
1.726573635178611510e-01 5.514833183545879702e-01 -7.031043379502449620e-01
-6.492363677763525187e-01 9.852397796585529721e-02 7.032395359637578780e-01
7.902856956003744271e-01 2.265767874894054623e-01 -4.099435454429500858e-01
-5.126787559374857972e-01 4.930706244137667560e-01 -5.675044466131676790e-01
5.329548760060278667e-01 -6.402170005606448999e-01 4.088901774983770832e-01
-7.458693935590629542e-02 -6.046724161218467453e-01 7.147370113327554675e-01
-5.888263609047812430e-01 5.741716978555653217e-01 -4.067415173494033920e-01
-7.220753535891025199e-02 1.242658759081155390e-01 -9.762494436417009647e-01
-9.148756362473747794e-01 -3.579795329307168816e-01 2.751524431862366615e-01
-7.922033697858350543e-01 5.109256339253767099e-01 2.242405228642483511e-02
8.953595824374219747e-01 -1.248004793511013760e-01 -7.574449277363182187e-02
4.404740640426840215e-01 3.004871674789518776e-01 -7.187086682972531060e-01
-4.347980622278865837e-01 6.428206511519092281e-01 -4.966289934608877910e-01
-6.059923697031718848e-02 -7.908987747823456038e-01 5.987355280656254664e-01
2.684421645205302687e-01 6.690391173697546323e-01 -6.198254535011830102e-01
3.765540853252199310e-02 4.441573800292270557e-01 -7.808667665096643562e-01
9.088220338081688388e-01 1.729480113713111888e-01 -1.996915004849165731e-01
9.560036066363771790e-01 6.635154595499518498e-03 1.216026634020667407e-01
3.919689284125859596e-01 5.702304925904598809e-01 -6.277336199676124551e-01
7.197742741939135991e-01 -6.318644174374200562e-01 -1.390975885043849690e-02
7.453921422351532655e-01 -5.906328223425295620e-01 -8.869296715899356587e-02
6.007578052599992224e-01 5.924689032106152942e-01 -5.032334489246574893e-01
3.145868151742451380e-01 2.254420417014023348e-01 -8.184471927689804804e-01
2.667229996074021448e-01 2.903632595117773274e-01 -8.095756978997021847e-01
-9.578833789117425779e-01 -2.155763102734862546e-01 1.771032967217935628e-01
5.385804809478449418e-01 4.219658724767490487e-01 -6.087630939594236290e-01
-7.315880446382004854e-01 -4.466028874233793911e-01 4.912771551262357095e-01
-7.803916287322029133e-01 -2.381384711156687151e-01 4.822035264685431422e-01
5.349698397130920879e-01 3.346412542201201434e-01 -6.428510251723921209e-01
7.240695975203678136e-01 -2.076126996063985541e-01 6.222720379062749441e-01
8.109639043894578680e-01 -4.036687826266356915e-01 -1.268400281348182057e-01
-8.367591061507311245e-01 2.686694630657495697e-01 3.281871925758259034e-01
-2.729819100302630641e-01 7.512034493179722272e-01 -5.102075304009966450e-01
7.475399790501838782e-01 -5.896039032731259510e-01 -1.919256885895008480e-01
-6.268488400519049986e-01 7.509700551977165350e-01 -1.309544179949164167e-01
8.028213391705959490e-01 -1.509553750889934542e-01 -3.775832114573144938e-01
9.503635561675528587e-01 -1.748799234539948066e-02 2.071264458061877201e-01
-8.297136225805348264e-01 3.505436046516364756e-01 2.886226332895894253e-01
9.113197637612397983e-01 -7.005406930389729281e-02 -6.149750821185880761e-02
-9.018801900456994147e-01 -2.406119012489299144e-02 2.646604126285471148e-01
-4.545946388160780893e-01 3.953608205852505164e-01 -6.960530820415569142e-01
-8.679616999818542400e-01 -3.728424614102312518e-01 3.460098529128898814e-01
3.395249462744731050e-01 -2.732362231633864713e-01 8.680143629760619373e-01
-2.789269835357899296e-01 4.952722293433993728e-01 -7.038747291634952497e-01
-8.770590595791101229e-01 1.293261515970975939e-01 2.734480144851541006e-01
6.535657794543183741e-01 -4.321168865721645297e-02 -6.299983339215261546e-01
-2.891606937662030141e-01 -7.680234697269141542e-01 5.975227956966159271e-01
6.564930799868790023e-01 -4.723532865917685619e-01 4.196569470895878951e-01
2.980712898277158018e-01 7.463160847967906242e-02 -8.921850146077457966e-01
8.550393033864552850e-01 -2.699247109067621775e-01 1.530812468522467495e-01
-2.275244377233228421e-01 -2.555821348980925611e-01 8.789653953448526291e-01
-2.698967732099577174e-02 3.140039960256760243e-01 -8.615609807104546158e-01
-7.277214448282519621e-01 -7.112579900925682097e-02 5.760197215479552213e-01
-5.571272754484342116e-01 -3.394820048303610616e-01 6.716048974263006954e-01
8.662794130165220041e-01 -1.592670614495154402e-01 3.741106406033055665e-01
6.354099187608345245e-01 -7.499936053439640871e-01 8.438794324618649478e-02
-1.203988681513322029e-01 -2.133475661797819001e-01 9.308128804751639729e-01
9.267945080125047363e-01 1.491278755789961497e-01 -1.493627007298811704e-01
-7.946391060949734575e-01 2.146906849600718759e-01 -5.039364995208976961e-01
9.095673219869241377e-01 -7.696477649905265894e-02 -6.195616898102549591e-02
5.863949307807740929e-01 -5.722650098103021499e-01 4.116364137713635074e-01
8.540424121691529979e-01 -2.736313908468632206e-01 1.477965971996383354e-01
-3.320414872936385819e-01 -1.214118541852004032e-02 9.422272990595064179e-01
7.807893709808184646e-01 -4.963718525531085057e-01 -1.242078596549836267e-01
-3.029541604428224177e-01 8.312946201849600314e-01 -4.277946672993768185e-01
7.051974207818807461e-01 -5.819137383676120656e-01 1.558449579456438749e-01
-5.938779052960851956e-01 6.774995428642861528e-01 -2.845241386092176583e-01
-5.893380452669469971e-01 1.446853237211406448e-02 7.524957817336371813e-01
5.307504603668080634e-01 4.612387042188345054e-01 -5.993258492492700151e-01
6.198854012760058874e-01 -3.584059008204013574e-01 5.967073282964141523e-01
-9.211010163085174840e-01 1.557636310141698177e-01 9.131740600961618312e-03
-9.149171777049531773e-01 6.860275864495601894e-02 -4.216596358775264175e-01
9.551913589413361938e-02 -5.209958396883145326e-01 7.569763973574437088e-01
7.544699380548037793e-01 4.319120941162570004e-02 -4.794246005697351820e-01
8.066105758432932094e-01 4.115690099939985358e-01 -3.618118079402400933e-01
-7.838685188379898028e-01 4.238588297036804398e-01 4.158167654486368270e-01
-7.612385530318711568e-01 5.872806677799241593e-01 3.706557983440089687e-02
-2.185478271089078273e-01 5.612076277078138498e-01 -6.760939183052434576e-01
7.699908000936495078e-01 -3.257008116544832799e-01 3.853845407320355410e-01
-7.424893565929998607e-01 -2.604323333636259785e-01 5.241140259229069009e-01
5.275694879784613711e-01 -7.353879745077171459e-02 -7.766023049808954415e-01
5.153380158471684291e-01 4.028757429190928940e-01 -6.315617920128641094e-01
5.694775137506506019e-02 -5.146475016845150074e-01 7.659548117831873615e-01
6.531354148862363873e-01 -7.293416955403950741e-01 6.531475355349994349e-02
-9.645350710813652695e-01 4.154324859454168462e-02 -1.302381478501574430e-01
-3.738305281446587802e-01 6.655539971223667361e-01 -5.212252278928186655e-01
2.882916716321138884e-01 -2.696332257058880466e-01 8.877545209683137539e-01
-5.104672627066807467e-01 4.392377220332559506e-01 -6.182273527815070890e-01
7.475017650751673015e-01 -5.726272029401535679e-01 -2.826252047865615222e-02
6.007736367031130120e-01 -3.488450676729407118e-01 6.279220767692912375e-01
1.027316087874861894e-01 6.316728104228809260e-01 -6.662844552552473765e-01
5.064380803497208205e-01 -2.193749000098247082e-01 8.259122010739788911e-01
-8.883693676060109290e-01 2.569295210144154629e-01 -4.330128083989246909e-03
4.343712161130517391e-01 -4.053090530099269229e-01 7.162737362650669626e-01
4.181369153287520235e-01 -8.254567533223630127e-01 3.511365585551312063e-01
6.895628355351158811e-01 -3.678410061639458273e-01 4.900213896612283793e-01
-2.529818635527144033e-01 4.629574585990771096e-01 -7.362818734522318387e-01
-1.205050546469951522e-01 4.871584195543330331e-01 -7.489698448254638041e-01
-9.779323456457614805e-01 -1.856106550585591430e-01 1.135991703681140941e-01
8.933813799355935226e-01 1.290066958816849484e-02 -1.913524200475746895e-01
8.214250018288221655e-01 1.402508433159986023e-01 -3.677029706139397502e-01
9.040674898513924029e-01 -9.816028803190109120e-02 3.392009867026054004e-01
9.531871990076414003e-02 2.684600645031753885e-01 -8.717851903148404746e-01
-4.496457307330714581e-01 -2.503544838785077276e-01 7.768695529120370757e-01
7.187593534289098418e-01 2.918429991943983226e-01 -4.886010963261964157e-01
8.462919301763848212e-01 -3.096457939727841335e-01 -3.086861429198060891e-02
-7.740321512912060609e-01 5.751728074218982467e-01 2.441643874569107975e-01
-2.763157222246171441e-01 8.189291935833573621e-01 -4.540065796838423928e-01
-7.211692141583695426e-01 -1.592541362925984361e-01 5.690633310165315040e-01
7.316545312969346959e-01 3.186314415239122066e-01 -4.683907729570298550e-01
-7.933203576880827335e-01 2.652199272855566559e-01 -4.397686748864743089e-01
1.970932166566676316e-02 -7.886450178307262693e-01 5.902117314948637228e-01
-8.297714857182569848e-01 4.129054607687624445e-01 -6.641770729532147331e-03
-6.825561374170356910e-01 6.667852434465569855e-01 -1.190964926796092421e-01
-2.666458446053430187e-01 5.339906801941961545e-01 -6.796729257079381359e-01
-3.085000467825632642e-01 -5.561655100360850534e-01 7.032866400189450307e-01
-9.043456122038477929e-01 2.068524402350376545e-01 1.969085753897954760e-02
5.172051934245710525e-01 4.132085056147800639e-01 -6.264267516871833141e-01
1.871731884645148614e-01 -7.635038509432199305e-01 5.598972795870268415e-01
-7.371054591293567659e-01 1.820477859167042856e-01 -6.340137090262099040e-01
7.694691786511366205e-01 -4.088116401762013075e-01 -3.656883396536041442e-01
7.784683119560360520e-01 -4.408459113684858321e-01 1.515730274304460945e-01
7.873931271802939724e-01 8.925666001141598083e-02 -4.252187624876066496e-01
-7.174001483406926560e-01 -1.524661456556871408e-01 5.748354079743318579e-01
5.142526247152268137e-01 2.412453096234362937e-01 -6.908580642920039150e-01
7.412508193008736646e-01 -5.818626759323470843e-01 -3.035484725865553179e-01
1.119238754535310798e-01 1.185783184704277127e-01 -9.464012362428416703e-01
-8.031096040712617512e-01 4.944613328107478889e-01 7.831719530090014425e-02
1.983805860932389420e-01 1.073943670746293627e-01 -9.228675806630658451e-01
-8.317340505327698308e-01 3.935017508784791063e-01 2.090791070846743094e-01
8.416520258651696285e-01 -2.619270783231789079e-01 -1.881228506699101910e-01
-4.965507950754121103e-01 -4.608510881319181629e-01 6.645626977565428639e-01
-6.386411131469327263e-01 -5.852874405783996536e-01 5.252383666674107499e-01
-9.236967274877619927e-01 -8.158175362096550809e-02 2.256761082100292581e-01
8.213257104666507047e-01 2.101020695873683300e-02 -3.639825567203774370e-01
8.896403514295133652e-01 -9.162492242642510110e-02 -1.405711629107667393e-01
-7.678686819216041792e-01 -3.051114337751486549e-01 4.856810085025126678e-01
9.040093007488396726e-01 -1.282087047998576035e-01 2.504430403746982781e-01
2.499550739601042182e-01 -5.118048477242630456e-01 7.240272526966131661e-01
7.381324106368012394e-01 -2.229740003233296464e-01 5.829847464645530053e-01
-7.506037697514542084e-02 3.951358497908875056e-01 -8.122336411337777173e-01
-8.004422758021304540e-01 1.250177531655599361e-01 4.671231902643975253e-01
-7.051874018319258530e-01 3.806629571062794537e-01 -4.561426871893572432e-01
8.808318416687542785e-01 -7.243028229569202503e-02 -1.875355511892624061e-01
-2.265001314314526171e-01 -5.287967769004374707e-01 7.391637593071351819e-01
-6.151468683150103089e-01 -1.963340466364247860e-01 6.705271842899964696e-01
1.565476840611257359e-01 1.993318560525780547e-01 -8.923144322376086457e-01
-7.467792406882642897e-01 -3.315431608064717262e-01 5.040423910055927825e-01
-9.821235570709466733e-01 -2.050035424256623218e-01 1.095708914059063815e-01
-4.331438716999190808e-01 4.246845476435302524e-01 -6.849513059274536797e-01
-8.313916677810543332e-01 4.061086689698722996e-01 -2.023952627644358751e-02
-7.066349115497347899e-01 5.840834572241583311e-01 -1.835062048099423415e-01
6.550591587567816676e-01 -3.352342995340736320e-01 5.773003251842568906e-01
-7.428093327085432129e-01 6.507602385528403754e-01 1.088333711839815782e-01
-9.516191889129266279e-02 -1.684172538065372704e-01 9.603879987087333703e-01
-6.855032014581124988e-01 -2.487439208516973033e-01 5.884731138403959116e-01
-3.185213037804597858e-01 3.627608765677239333e-01 -7.875515062766353935e-01
5.475877180540914546e-01 -7.674935500826439716e-01 2.464847734607126806e-01
6.014326334740520696e-01 -2.243695128788353310e-01 -7.253732673838140244e-01
8.849300612421057144e-01 -1.849759815888508130e-01 -3.284583179222426430e-02
7.265492736928376161e-01 -6.459961919910625072e-01 -1.356079985601208737e-01
-2.078320060199304042e-01 -4.580966517977085317e-01 7.809540556371437070e-01
4.568558226728235971e-01 -1.023230421344804714e-01 -8.495285055139671915e-01
4.517236651332465769e-01 1.221745887786985091e-01 -7.785955276499243460e-01
3.863084320570339125e-01 -4.510596133789144396e-02 -8.853111086239040528e-01
-9.037553568815279714e-01 1.775466477771135143e-01 1.102840758678459154e-01
1.990958057229907929e-01 5.348665131944052575e-01 -7.068690675371008814e-01
-6.999820426970493337e-01 1.902989710381269850e-01 6.438668868913941523e-01
9.732890624593929507e-01 1.129763848334338627e-01 3.578248301720310387e-02
7.854871045406067731e-01 -2.589863041030930901e-01 -3.905409500779399301e-01
9.031481554985009153e-01 2.201725493929701793e-01 -2.193683019249488553e-01
6.737331806930990652e-01 5.492519240416486870e-01 -4.626611440317525137e-01
-5.527022434451986932e-01 6.698911101909145183e-01 -3.510958269061165149e-01
6.871928812843921541e-01 -3.822438719050870737e-01 -5.933975862598841466e-01
-7.002844219625120603e-01 1.945213370158954957e-01 -6.671512105340066112e-01
-3.931367443330662792e-01 -6.573854149012692272e-01 6.250947671924168558e-01
-5.670604755247357076e-01 -3.934279602810312193e-01 6.451916285309174937e-01
-8.137784834245807009e-01 -4.571717352903426623e-01 4.018923214648342790e-01
3.748982957691073814e-01 3.406519072430360673e-01 -7.384076500509640928e-01
5.289979231882852018e-01 1.169308287946700803e-01 -7.200950581264289330e-01
7.091375164031484823e-01 -3.549334976829147670e-01 4.724685911007354133e-01
-1.268121389993979165e-01 -4.170675555351990860e-01 8.189187158288959711e-01
6.333046642894003542e-01 5.288663397663998650e-02 -6.357161496591291483e-01
-4.784574753518254786e-01 5.082029479220508961e-01 -5.821030044065884645e-01
7.663331106174826601e-01 3.420775166231750375e-01 -4.234337346980252548e-01
-1.671027948028612053e-03 7.991544078599649437e-01 -5.592944136111025477e-01
5.820520973291819500e-01 5.587591904443287016e-02 -6.889236985707626326e-01
-1.803954574026290711e-02 3.461835928681128438e-01 -8.419972061985294687e-01
-6.634234547175821284e-01 2.520705551860711897e-03 6.685761368180347386e-01
5.408333328668071260e-01 -4.492398222529828677e-01 5.917125598091118599e-01
-4.607135044580117356e-01 -7.835664902967275081e-02 8.341765684083715104e-01
3.574859470026311437e-01 5.547339251038845703e-02 -8.662664859635618164e-01
9.583593983161526886e-01 4.848231687948388949e-03 2.124479688169040870e-01
1.606399199377653020e-01 -6.394705661435156063e-01 6.606266476397077980e-01
-5.334241582810796967e-01 3.584732379452142959e-01 -6.721112796197495909e-01
-6.294530139020100279e-01 -1.570644576135656612e-01 6.680112628229616378e-01
-9.905203780238910349e-01 -1.319222351151670414e-01 3.770260651833365340e-02
3.643931823248692803e-01 2.572128374185965183e-01 -7.796350474518668472e-01
-4.919654028836618065e-01 7.741840911993322916e-01 -3.163707481521053078e-01
-4.877625112610241565e-01 4.214948149858945281e-01 -6.513132078530359248e-01
7.382985899765855953e-01 -4.357165865142785255e-01 2.995513755183884519e-01
-6.554058978488171150e-02 8.179708592276172530e-01 -5.355340136860172739e-01
-7.013917775823548528e-02 -5.904029883825751002e-01 7.234504753355612827e-01
4.136445843397199562e-01 -5.928223606752239805e-01 5.698306010768841023e-01
5.932351068746785083e-01 -5.934326699435269470e-01 3.778586165076593395e-01
5.426837398746263696e-01 5.858631225980860391e-01 -5.434558412528699423e-01
7.373369851937832120e-01 -1.538553602301641170e-02 -5.097179826394773183e-01
-8.921664046370169077e-01 2.443651347182042022e-01 -6.134975149901999297e-02
-2.122980669994156688e-01 5.647019575776737188e-01 -6.754930002732474348e-01
-7.100213156909899181e-01 4.631095469305089862e-01 -3.456644518371530528e-01
7.350707372119793526e-01 -1.106464270881083178e-01 -5.169891815195266638e-01
1.964986127742868738e-01 -3.393089072990250199e-01 8.616639705996648191e-01
4.080411510010400478e-01 3.719686942446989164e-01 -7.078530640331315293e-01
2.581729490919634773e-01 -7.021618022557375438e-01 5.750990926279718751e-01
-3.144162704999068914e-01 -7.672818748301765690e-02 9.246775382973697610e-01
7.380742044820117753e-01 -5.950235985057692467e-01 -2.896674460284572733e-02
-8.342189364125731643e-01 -2.528535022502395591e-01 4.068415160347912951e-01
3.253712728342297300e-01 -7.745611331991186788e-01 4.759948147741938640e-01
7.027066056864760268e-01 -4.406336653234437795e-01 3.747777572803554502e-01
-1.781000983599697607e-01 6.442490565419898285e-01 -6.286497645318904759e-01
2.222449899354530523e-01 -2.435932862915831665e-01 9.217738747229685670e-01
-3.514497938010672229e-01 5.588953563707345085e-01 -6.223478616671143104e-01
-4.120520388311141313e-01 5.943557552708701452e-01 -5.559372752643930715e-01
1.208782302946252024e-01 -3.200518334225220252e-01 8.854304472198892828e-01
5.739508927452246015e-03 -2.814755076637852071e-01 9.110011092379457498e-01
6.120576009069984558e-01 5.789758714099846326e-01 -5.002031661369426008e-01
-7.554465142586498372e-01 1.146505691088083589e-01 5.510255920508043692e-01
5.494343489748721998e-01 -2.558589324585197611e-01 7.630842646796344164e-01
2.631880750976193784e-01 -3.120092283642110775e-01 8.647372762635422427e-01
8.320014258431561727e-01 -1.491678905377872566e-01 4.944982197741660812e-01
3.603357216392076290e-01 -7.705658365797162235e-01 4.537876302881158619e-01
-3.506020464735332687e-01 8.568699843292082452e-01 -3.723546741892674872e-01
5.054453478605788197e-01 -1.516317753714361283e-01 -8.189534196725386517e-01
-5.870746960397605491e-02 -2.352214126203674427e-01 9.307004990710880943e-01
6.733427502707306500e-01 -6.475918804854054189e-02 -6.072361799294688778e-01
-1.715951213722251983e-02 -7.996666031272020581e-01 5.885543513462989651e-01
5.580203160849939170e-01 -1.806424814984792238e-01 -7.702462532969425180e-01
-9.270409578662511807e-01 3.828157416662885532e-02 1.547772433966393968e-01
-4.064101670181561876e-01 -1.338221912358500132e-01 8.493531886698945099e-01
-3.343501656902210240e-01 -4.466776240956021188e-02 9.275137680966432097e-01
8.718999396562338022e-01 -2.380318408977054323e-01 9.039738868869649779e-02
-5.349318869883228356e-01 -2.261556437322791435e-01 7.276678797724419612e-01
-1.054949961195108810e-01 -1.565385099501114263e-01 9.643412660858386998e-01
-7.786323450911531996e-01 1.213385463717007728e-01 5.097567944391421246e-01
-6.540765897658691319e-01 -1.696383129736515616e-01 6.403345938637510226e-01
-9.393318071438819805e-01 8.052633855077273584e-02 -2.816353859307854646e-01
-3.340125505037667697e-01 1.752756790236157658e-01 -9.183233713102951778e-01
-6.293439274596656086e-01 7.349624022400967904e-01 -1.476475512928049627e-01
6.023373431317408100e-01 -4.394842036993681367e-01 5.336973725885709730e-01
-6.274917001273352390e-01 6.121530753370854061e-01 -3.076941287288061377e-01
3.369942087019875965e-01 9.687114764681023504e-02 -8.616568577396547246e-01
4.983253531929231900e-02 6.738270680303479754e-01 -6.424886523214131673e-01
2.311449601259904785e-01 2.383312804126160034e-01 -8.479612309622556188e-01
-5.997990431763829955e-01 -1.707544425051962522e-01 6.918765618461260036e-01
7.024029713294407395e-01 3.529443798131959853e-01 -4.919012884771886140e-01
2.428362585896244596e-01 -3.492606955214876407e-01 8.439213697943125370e-01
-8.656559532648054889e-01 2.684480685919347631e-01 2.025354409393711752e-01
-6.623757981442844889e-01 -5.251496807829685309e-01 5.281550545136300956e-01
-3.161194553232304361e-01 5.368849115439965347e-01 -6.571184119867981011e-01
-1.026466671394718339e-01 2.467197760505955573e-01 -9.036633024788316426e-01
8.087705876515066672e-01 -3.784894184995305499e-01 -2.110705174896995440e-01
-3.455199857388583928e-01 1.639553550888753555e-02 9.458962047099288561e-01
-7.210752554094529421e-01 -2.026410686733783606e-01 5.605573317259311406e-01
3.026939900567892153e-02 3.007127916838652770e-01 -8.644804805070849252e-01
9.026056672481954646e-01 -5.381362103501494132e-02 -1.191737536238811068e-01
-6.415613482265717371e-01 4.019344143699399852e-01 -5.225137572846606515e-01
7.043805696448670606e-01 -4.194037497331935538e-01 3.994406377469483793e-01
-1.278426054263113835e-02 -6.632295872655176172e-01 6.766086752455860998e-01
3.982566903503388933e-01 -3.020043755724325374e-01 8.205707141654490222e-01
4.902788117256485778e-01 -4.666693941816575930e-01 6.215064768105456050e-01
3.521342559342151568e-01 6.476188294583001825e-02 -8.658322073382037631e-01
-9.571153208495156717e-01 5.763618044242650035e-02 -7.082694854489735015e-02
7.227325276371585616e-01 -2.171415122192509595e-01 -5.369896086862991913e-01
-1.245125910022393950e-01 -6.089212212991024220e-01 7.097748918000267304e-01
-7.210236122027059436e-01 5.752561562808519158e-01 -1.579671406284932911e-01
5.083400189451529050e-01 -8.316174436386610802e-01 2.330969795101185127e-01
-5.312972814693284196e-01 2.376863707749479193e-01 -7.788375659111619331e-01
-4.148484385547772102e-01 7.250563530278849589e-01 -4.389308899949234677e-01
2.566804904826272549e-02 3.034653037727138569e-01 -8.634448405471366605e-01
7.891169101380149931e-01 -4.006866877079022782e-01 1.925642697678973392e-01
-2.396135037765464992e-01 2.111046203314165814e-01 -9.145242352486979698e-01
2.310630902393696062e-01 4.102094156916773482e-01 -7.633919647147405785e-01
-7.875664904611883177e-01 4.110741180351252799e-01 -2.326758324051136084e-01
6.833354781589974225e-01 5.065984838459737238e-01 -4.676462509515458832e-01
-6.059472200358976268e-01 -9.435241780606734227e-03 7.295443080205589181e-01
3.957043245924588559e-01 -6.475624690489777402e-01 5.352736026710954720e-01
8.492824660754071386e-01 -3.007052642685600907e-01 6.419092645783938678e-02
-8.287898721646353994e-01 4.165601022437767642e-01 1.687582590508726887e-01
9.073127476331663277e-02 -3.067833381358491263e-01 8.960357686571772673e-01
-7.900003119351581837e-01 5.282588765359469418e-01 2.262038375338740470e-01
7.913012454355261571e-01 -4.138363733517232412e-01 -2.626423571682487967e-01
3.258089809286842109e-01 -6.231763351627170877e-01 6.021649924600224191e-01
-8.947799293585463332e-01 1.749660653122358245e-01 1.666818014011320348e-01
-8.488893667756592931e-01 3.446226302477241599e-01 -9.791384311823012054e-02
7.119144375741143227e-01 -2.095530879452073003e-01 -5.568808190998697505e-01
-7.659800025412698554e-01 2.027657243438716617e-01 -5.684028270209113831e-01
-5.580118867403178751e-01 -1.606371079956729342e-01 7.311168775872671777e-01
8.410986631124184321e-01 -3.263246463518750251e-01 -1.205350971823208710e-02
6.141206211691794259e-01 -4.425517464644820320e-01 5.155391109116528314e-01
8.677568710008327635e-01 -1.198962201763092844e-01 4.414562095016513754e-01
4.663643168356040314e-01 1.155934094217536123e-01 -7.702450997043450709e-01
1.360212097692635735e-01 -6.900268088468090033e-01 6.316867706632198765e-01
8.497229389350146045e-01 3.729651794142849752e-01 -3.095664031192432719e-01
-8.500364479945374807e-01 1.823813475771314252e-01 -4.259374853503739011e-01
8.924434172971754120e-02 -7.018265156707810259e-01 6.354739768402285494e-01
-8.651471534807557706e-01 1.894185215734839611e-01 2.785193893080317729e-01
-3.471477873137682746e-01 8.314509999636889859e-01 -3.973224082432645909e-01
-7.551157335329454767e-01 3.135963323359408084e-01 5.367795345357636583e-01
-8.186224307869830463e-01 3.637477523918936639e-01 -2.110640162492680438e-01
-4.803297523024184779e-01 2.770747526765852120e-01 -7.782505038612690385e-01
-4.572562233953976762e-01 8.187865414684422083e-01 -3.102959600391521633e-01
7.750811261658416829e-01 -1.525822383256997816e-01 6.060717323367287301e-01
4.878583659548668683e-01 -3.029960235327104900e-01 7.674025493055636193e-01
-7.604503281718888452e-01 3.650418211032063764e-01 5.121648120540118754e-01
7.191404817674534877e-01 -5.113727221490521613e-01 2.323771171837515914e-01
9.126659462967626757e-01 1.941716333519928617e-02 -1.336720025057192285e-01
6.877381957556433223e-01 -3.384938463410692155e-01 -5.961691195248588482e-01
4.657803174208058339e-01 -5.574068737524250361e-01 5.595225103768378672e-01
-1.790460464797867801e-01 8.075494249856414175e-01 -5.089059459092967197e-01
8.428794146521887409e-01 -2.528944129804921448e-01 -1.925690551294086117e-01
7.297204957578047324e-01 4.191656784273955494e-01 -4.474054868150965092e-01
3.682752045552093456e-01 -7.424651545779513695e-01 4.725279009886396708e-01
-7.591454171717380017e-01 2.195197815278353004e-01 -5.595943670713374729e-01
-6.236201033224170187e-01 7.605897862969138723e-01 -1.246840691895237385e-01
6.696675427880283138e-01 -4.881373823985754590e-01 3.771669400843513653e-01
1.179582736572176160e-01 -2.012540602344553842e-01 9.610170925514568419e-01
-5.706594653178109766e-01 4.280583095919139325e-01 -5.749034370048210496e-01
-4.845833197425408745e-01 5.433829797472323753e-01 -5.455165432630640909e-01
-7.628039824911299061e-01 5.965256513869159338e-01 8.342287384287920549e-02
4.317719593061279948e-01 2.458066850694236583e-01 -7.455930313095030515e-01
9.125289184058051895e-01 2.038853865066264648e-01 -1.970384308956318331e-01
7.853171280790020026e-01 -4.491159782078796847e-01 9.229237567341687376e-02
7.177157956195082678e-01 -3.860865909483340852e-01 4.167697790448601780e-01
7.090622863707420898e-01 1.998814642303089473e-01 -5.186351892179961176e-01
-6.611735666265740330e-02 5.147060067158897301e-01 -7.370447248622920000e-01
6.010097558076653579e-01 -5.698141832305361199e-01 3.931789668504696578e-01
3.992912415500644019e-01 2.215329187414511181e-01 -7.749216040173031450e-01
3.031669209976821100e-01 1.245710490087565819e-01 -8.681479199752917264e-01
9.272056595366259257e-01 -7.991252624619077718e-03 -5.418350624436361895e-02
5.801308741024265858e-01 1.056166778389232702e-01 -6.774880407782966074e-01
7.427864397175766298e-01 -1.092496311561291511e-01 -5.036831272248344371e-01
4.886908377276847348e-01 -3.955196674942642043e-01 6.865240070372121695e-01
8.381477530024579181e-01 -2.477976414750726886e-01 3.074664903932612936e-01
-4.787587248323249001e-01 7.005811877878233007e-01 -4.037287461806257638e-01
7.342649396229843362e-01 -4.067844465740772519e-01 3.527447716831245139e-01
3.578920107368764314e-01 -6.477108776506693699e-01 5.619581701614451141e-01
-3.360015963469611400e-01 7.097840963543282644e-01 -5.083144719138503742e-01
8.495790636574309662e-01 -1.254466813708210449e-01 -2.604517583600518549e-01
-3.343800279732688785e-01 8.438531523635764975e-01 -3.958540319241092842e-01
1.314373766728421933e-01 2.928067695796607306e-01 -8.508213922681818753e-01
-7.244234838238781116e-01 8.667503776089530154e-02 5.991589216966722864e-01
-2.678791331608812998e-01 6.245838966685886007e-01 -6.110522049202062878e-01
-7.493324983487053004e-01 4.809362766469285622e-02 5.584216635866311451e-01
8.869877508797578969e-01 -1.733079569922771346e-01 2.316853754408531307e-01
5.343541146048070845e-01 -5.955803118980506072e-01 4.535357155050670497e-01
-7.485442344376483925e-01 3.638367716344534375e-01 -3.997146588035029868e-01
1.711774182048453052e-01 -7.372365951758935720e-01 5.857985671225716118e-01
4.152008102049738469e-01 3.060542310600963267e-01 -7.313634672850398699e-01
3.935343982300972682e-02 -2.554314929399741363e-01 9.280534824258489524e-01
-9.228767427079480612e-01 1.588409923774427301e-01 -9.783902958855809906e-02
-4.696508246918368878e-01 -2.647195921671633423e-01 7.587692797199975248e-01
-4.376293435955627142e-01 -4.885655958415076605e-01 6.841352378854389515e-01
8.652942759788910809e-01 -2.259617932389905992e-01 -1.003670420122792506e-01
6.307523230326764763e-01 -2.033026872801111384e-01 -6.831367204966297679e-01
-5.663761053877475193e-01 -3.803196210496046503e-01 6.503840006361958359e-01
-5.207625961537393905e-02 -5.406151142487998218e-01 7.539066939602293571e-01
2.084924750386253911e-01 -4.817721942801785340e-01 7.593963991339780506e-01
-8.580518966749570708e-01 1.527271846394483157e-01 -4.505233262840793174e-01
7.776276111188468176e-01 -4.250548536597559268e-01 1.899929176278918885e-01
8.972407025855163587e-01 1.711231894036212287e-02 -1.817403957493579914e-01
6.665280845566347034e-01 -6.733324690958191194e-01 1.195756563205057077e-01
-6.622061591893518839e-02 -1.334450060965171880e-01 9.852573621248851277e-01
7.534764364454815677e-01 9.439249076181953357e-02 -4.765379948728057369e-01
-7.198749169559996997e-01 6.758505758530729546e-01 3.163203937352233180e-02
-4.162318156061645680e-01 6.745699958626109050e-01 -4.829764748563145083e-01
-4.315492171379587960e-01 7.442256357455389049e-01 -4.070807130387226747e-01
5.100761051827282788e-01 -1.955823032545015716e-01 8.435759796513220277e-01
-9.440196745743794082e-01 -2.271213082536229222e-01 2.116046443162988289e-01
6.218913254970115378e-01 -7.627222843259464646e-01 1.013540101014631378e-01
4.075787910495798916e-01 -3.627595357156039313e-01 7.672821408963611534e-01
-4.553598592397432587e-01 -2.619407313901909173e-01 7.687918243436305810e-01
4.064174740271739861e-01 4.380501823126987104e-01 -6.803246056868217373e-01
-6.950040439255932290e-01 -4.650307064678817909e-02 6.214222877637191056e-01
7.090781687627327745e-01 -4.972891516966850833e-01 2.809097614670276744e-01
-3.449123165456986495e-01 -4.505351678377925717e-01 7.421803727166532694e-01
-3.857662955771615776e-01 6.347839394300018867e-01 -5.393479543057112524e-01
-2.846007362485588055e-01 -5.898989754430671306e-01 6.928832655687945374e-01
8.193419604334182260e-01 3.980468133744288761e-01 -3.478381372275230476e-01
3.944435628108769465e-01 -5.184955330137942520e-01 6.469723949095058657e-01
-7.988529379559348165e-01 5.031319214762490777e-01 2.114667866316044254e-01
-8.758472526662943736e-01 2.860038807303431629e-01 -6.794201014054601639e-02
-3.258857129514073359e-01 -6.270623044576280058e-01 6.622531162688821693e-01
8.658960120865364374e-01 -1.297841753880533966e-01 4.301266315679478924e-01
8.798853110487528939e-01 -5.221442868766814488e-02 -2.019585614212910107e-01
5.718740962740642697e-01 -9.991705400325479047e-02 -7.372860270148599016e-01
4.498187593308385912e-01 -7.073194318027762328e-01 4.335684977777377047e-01
-7.864248778447205379e-02 1.860497642222516956e-01 -9.400949000063416605e-01
-9.169159717635809725e-01 -1.939378824693961667e-02 2.216726438491268270e-01
-8.485991124322189716e-01 3.683254440886210568e-01 2.443544685531736163e-02
-3.446591776992610767e-01 -4.295043842704759363e-01 7.521971814625945107e-01
-2.554015947251046526e-01 4.730517406877778330e-01 -7.282264003968337285e-01
8.541292881610617060e-01 -1.548048998313132918e-01 4.241386539580865866e-01
-9.449490143313692136e-02 -3.950758677510721739e-01 8.358603763489818039e-01
-1.619548084473433902e-01 3.801069229441280672e-01 -8.139336673822447077e-01
-2.372177980829157373e-01 -4.101059917018516632e-02 9.772178244848843676e-01
4.029581080863567366e-01 -8.338893209699119735e-01 3.581980533357590479e-01
-1.872946836617211605e-02 5.206434985453236575e-01 -7.358937354978218881e-01
6.881420923990652638e-02 -3.293071301294631104e-01 8.828454221117255640e-01
-5.429786150928395463e-03 -1.582469105558960698e-01 9.813474906277156462e-01
-9.079311464991498548e-01 7.178544982081437598e-02 2.024701950457729605e-01
-7.146663278740684744e-01 1.366422315453149905e-01 6.176987872230343957e-01
-7.324278870736227187e-01 -4.794189846804385313e-01 4.815257913792889699e-01
-2.709154223962087493e-01 -3.834711267137527746e-01 8.013819730908449124e-01
1.660717609850264481e-02 -6.552497646474668702e-01 6.789831691043453077e-01
-5.667254990067959186e-01 7.932391523407900102e-01 -1.914421696044180665e-01
6.574358014998733513e-01 -1.813516693763163878e-01 -6.429150861657230154e-01
7.122831944044937247e-01 4.747136362918600305e-01 -4.503226864939103291e-01
-6.712563112108254071e-01 2.115244604017897101e-01 -6.826492741303510359e-01
7.323738188655182224e-01 -2.798601668433087775e-01 -5.122068221417209744e-01
6.151249591600382871e-01 -7.566354104926691360e-01 1.276283648955562067e-01
-7.301210607903692029e-01 3.831863739270063851e-01 5.801536930116228952e-01
-8.813452526248277685e-01 1.539571901202790583e-01 -3.808607135204415406e-01
8.334456251402379001e-01 2.860414848546801725e-01 -3.414638980223462239e-01
-7.997762991915748909e-01 1.955137430217320504e-01 4.580980116439170025e-01
-7.915255837328132316e-01 -2.027848821010629632e-01 4.726006268894252238e-01
-4.039621056308684843e-01 -8.120056358722314849e-02 8.714648733601593200e-01
2.147450392728969815e-01 -3.536278836554105354e-01 8.478874482909902754e-01
-6.784545459051652960e-01 2.474711397613161279e-01 6.808339237747513817e-01
-9.707299493018668457e-01 -2.313260766898485032e-01 1.494605711435261775e-01
3.422189358169782647e-01 -6.347382844160192050e-01 5.828722900482560254e-01
8.238780689900626619e-01 -2.582650060013101379e-01 3.400512196257771125e-01
8.583300910583396837e-01 -1.123660872951185025e-01 -2.395903800477262313e-01
-7.821943468884422490e-01 -2.412517275296700570e-01 4.794007891216024442e-01
7.872659329235877079e-01 -2.416264554621136151e-01 4.662559832758074174e-01
7.979961614991092356e-01 -3.554660848010861574e-01 -2.946248414205850930e-01
-5.252273494155530464e-01 -4.146768629400486295e-01 6.654718875873583128e-01
3.365043116470507467e-01 -2.938161638431766587e-01 8.538155573290542311e-01
5.703044020031687866e-01 -3.710372823283304006e-02 -7.242848352676704016e-01
4.799045363063816350e-01 -6.220768067858782890e-01 4.857791440443776088e-01
3.382425399758838824e-01 4.474358648532931748e-01 -7.071154136424764314e-01
-4.609261498470067497e-01 -3.997045658437657911e-01 7.098842405633842834e-01
-6.967993505655508679e-01 5.659370468976263613e-01 -2.341144682617015693e-01
-1.915806901087793168e-01 3.322497485295929920e-01 -8.412803112029081376e-01
4.848960340688827642e-01 -6.878429254274729399e-01 4.161530400265183727e-01
6.222838589786079400e-01 -6.237404838253071127e-01 2.931167268342009802e-01
3.508257524077375566e-01 -2.954631238115291714e-01 8.469334632730128876e-01
6.750257779570798533e-01 -2.262399356627598779e-01 6.675117845817567508e-01
4.297415653667989166e-01 -5.773435862325058121e-01 5.711530970647453742e-01
-8.108511546802544823e-01 3.729044978007263200e-01 -2.226404131564991007e-01
6.607580564034433168e-01 -2.455294153672386015e-01 -6.428770418831399880e-01
-8.018403180171338462e-01 5.014427771510351350e-01 1.440843427316443326e-01
-3.175914048469351270e-02 -2.202964841092057147e-01 9.428558238508457645e-01
-3.127325087379699831e-01 -1.095794583459867161e-01 9.113426476735408954e-01
-2.546914979562228121e-01 -6.914128752152229884e-01 6.458065339062646348e-01
7.358387241530541800e-01 -6.231871094518669496e-01 -2.051005471118712009e-01
-7.064554052780904758e-01 3.545966409141898534e-01 6.327505494326325364e-01
4.042233651122150162e-01 3.114295700739979633e-01 -7.353217806704503978e-01
-4.895415269191517593e-01 8.048899417740770779e-02 8.643076973739883817e-01
7.814682842619403713e-01 1.502004885991719552e-01 -4.303444209341338866e-01
8.674477316147823913e-01 -2.341055202688693548e-01 -6.380295606146370313e-02
6.079983264868226156e-01 3.512643649394375789e-01 -5.801111144094431848e-01
9.251017580482331359e-01 -4.584485569765871238e-02 -1.656489166169007252e-02
-9.247773941331814962e-01 -3.348991892009095528e-01 2.584398114635081956e-01
-3.547032025930227928e-01 2.578893783958528807e-02 9.440216903499596413e-01
-8.294759062980594511e-01 -2.685930659603151249e-01 4.120160527902171355e-01
8.129878005664838980e-01 -2.564649296980456294e-01 3.777141127278925148e-01
-4.444426400492100804e-01 -6.344564475248690716e-01 6.155257747731867068e-01
-2.707682339486673917e-01 5.798258719971980391e-01 -6.437839332715374896e-01
-6.042164194799139187e-02 -6.900146043513312177e-01 6.623128125983996917e-01
-8.827240965679763463e-01 2.571793647371428126e-01 -1.259016395821094536e-01
8.054159694674620784e-01 -4.259970103053028478e-01 -9.283883867864244077e-02
-8.644292634052238578e-01 1.926509644722215475e-01 -3.676563056938293439e-01
8.025192683066019184e-01 -3.705545197801499158e-01 -2.580800123521989065e-01
7.632248848970757393e-01 -1.583268930518487994e-01 -4.629749298116634937e-01
7.450759772948535586e-02 4.589796286026242567e-01 -7.690217649429043067e-01
8.339855774021810442e-01 -3.683796233803053599e-02 -3.293272118625616973e-01
-5.089189017206391386e-01 2.592918034922539472e-01 -7.753422486352398169e-01
8.554294814792404722e-01 -2.766146209172584136e-01 -5.605085659158225153e-02
7.818832939224121814e-01 -4.879890055298393703e-01 -2.854970006406066727e-02
-4.163069734188434845e-01 5.139889636287683361e-01 -6.211676310453347893e-01
-7.967333161396308316e-01 4.983116500302877117e-01 2.542712533724926227e-01
9.344941933345312091e-01 5.490308569344664463e-02 -7.869813705854787622e-02
-8.958663119508744055e-01 2.168641378584735824e-01 8.670768776436382774e-02
7.561449534590546362e-01 -5.607973834725391571e-01 -2.106423732152471473e-01
-6.315474880768028321e-01 3.304753241534267444e-02 7.116448062927401841e-01
5.621227682708187512e-01 -5.756682810465979516e-02 -7.377743344974029283e-01
4.728850639021379698e-01 -4.262582902984732303e-01 6.714710665795381450e-01
5.512810789156932234e-01 -7.222181742428818163e-01 2.936068535328819062e-01
1.895926555085807319e-01 7.742554192329850205e-01 -5.758426658089343952e-01
-8.311784767742586011e-01 -2.446708687806196242e-02 4.188385032504224892e-01
-8.240961075779261735e-01 -4.145507676344336034e-01 3.977802230258060678e-01
7.682315934492232046e-01 -1.247733576487112667e-01 -4.560724563188026659e-01
-7.868444683910836845e-01 -5.738118394069407699e-03 4.961036788528793151e-01
5.060206064631197487e-01 3.842200484989560239e-01 -6.447640832237095943e-01
5.918627554258889534e-01 1.343525602978285494e-01 -6.584260323798278858e-01
8.878207206355096526e-01 6.172279925948045282e-02 -2.236224883696136256e-01
-7.440777998103000890e-01 3.808397822129594434e-01 -3.862207156226249438e-01
-7.787896385815287204e-01 5.508984196627163543e-01 5.389776381833639302e-02
8.136049903070199374e-01 -4.041346170151954853e-01 -5.516048479032712587e-02
5.656778630807141051e-01 5.079070762049460175e-01 -5.584790945286022268e-01
8.021088287612790912e-01 -4.258464193422079047e-01 -1.537642135022666834e-01
-2.883517106707114697e-01 3.819943505069189338e-01 -7.836799681472649270e-01
8.477411670724316339e-01 -3.069264850001066636e-01 3.991841998294171773e-02
2.131456419684870079e-03 4.110835336318653388e-01 -8.024324193945059358e-01
-6.735729727841572867e-01 3.793118191254813559e-02 6.625747905726472320e-01
-9.666550117855418067e-01 1.798586218673800183e-02 -3.873824005454010178e-02
-4.311100789025961166e-01 7.115191168711857417e-01 -4.375862918483194308e-01
6.498500274749177130e-01 -5.985093778009780152e-01 2.720182125610778878e-01
-6.094114341253257239e-01 3.043262037543308374e-01 -6.554866379563348833e-01
-1.874477040082326851e-01 -1.892228878622843335e-01 9.249438340203952613e-01
1.544655286643129566e-01 -7.627020671521903550e-01 5.730149382746260178e-01
-8.052861043340688862e-01 4.839218982026921023e-01 2.052056099814181800e-01
5.057435475104808953e-01 3.191340121561026671e-02 -7.662557935929036335e-01
-8.623827954726192013e-01 2.143008664768192018e-01 2.715407337794608078e-01
-1.451278008547118026e-01 8.141738765485003748e-01 -5.162041990536805347e-01
7.674217993397295379e-01 -5.099043263178694163e-01 2.932136879033982527e-02
4.832302930085713433e-01 -6.581520960965180356e-01 4.473563079393743092e-01
7.575466987353760562e-01 -2.917846585206231858e-01 4.613708828986299859e-01
-1.487784798429387378e-01 -7.693651258972126206e-01 6.135445981472887889e-01
9.022632854137186964e-01 1.376879350821021142e-01 -2.075124784684115598e-01
-8.851014164541110008e-01 2.650534635716682019e-01 -4.049023463564491165e-02
-7.222931700605212946e-01 6.273574158276240542e-01 -6.149430402449936744e-02
-7.133189025346834411e-01 -3.269244764593248753e-01 5.405141791106031768e-01
8.425457732968937297e-01 -3.206300301732384339e-01 4.364053756423549868e-02
-1.530306313779592198e-01 1.389573721644769833e-01 -9.693278521048867002e-01
