-3.873790574274332821e-01 1.127894131301231118e-01 -3.696308107633591300e-01
2.670978941472978430e-01 3.910962873793966676e-01 -2.512325353887756019e-01
-4.956710332286044518e-01 1.044255685058279731e-02 -4.407843090378085193e-01
-7.809188032265693691e-01 2.203249547846812539e-01 -1.890579140351148768e-01
-1.169048588076038730e-01 5.890790435160701000e-01 1.019225247644772563e-02
-1.187886690670330175e-01 -1.876701891573209213e-01 -7.008430555188329691e-01
-1.652637925376155004e-01 3.296144880305669767e-01 -2.173663095248784816e-01
-3.962363459127750120e-01 8.017557063336790968e-01 2.632439683043951706e-01
-5.560189157353279121e-01 6.932381285112751979e-01 1.971780724016630737e-01
-9.762980308734450219e-01 2.038630646528146600e-02 -3.314323951805887014e-01
-2.825474995432151193e-01 5.965483826417277147e-01 5.158154536891224745e-02
-1.929212678584813490e-01 -3.339625496530173598e-01 -8.193710666428806189e-01
-4.204648375451773834e-01 1.928164440444698202e-01 -2.894329808849196439e-01
2.273352480118316643e-01 -3.289709301895523130e-01 -9.024521336611199818e-01
-4.422660951808282115e-01 -3.596496503216659035e-01 -7.908921426767191454e-01
5.346814282335584506e-02 9.699373860839852757e-01 3.234874675900211161e-01
-7.146713110157878468e-01 6.540967478201274998e-01 1.944184357496767379e-01
5.186933233122681397e-01 3.368110253230523488e-01 -3.534279243099602841e-01
-4.052857979865079341e-01 4.074715198812799977e-01 -9.599529697751377211e-02
-1.897688738645823547e-01 7.911836894716945956e-01 2.104980822090550541e-01
-3.974903298126130080e-01 -3.039929376929929039e-01 -7.492547849425441608e-01
3.801213146136201426e-01 3.899366159482686722e-01 -2.758679820791620774e-01
3.088221153061899149e-01 4.812606066723834619e-01 -1.773530404578645414e-01
-3.340678878472791435e-01 1.860302924908534272e-01 -3.136682629171343994e-01
6.133926337971478127e-01 3.416814811748365432e-01 -3.687184893557194365e-01
6.151867695707980560e-02 8.523157540547746658e-01 2.140781707111675258e-01
3.669449440733984491e-01 5.769729271156080752e-02 -5.774193186984712955e-01
5.671240418657053778e-02 5.751293832409851703e-01 -3.879566373404014223e-02
-9.486224231845310495e-01 1.894693491612940428e-01 -1.823407567763303816e-01
5.781693176265904066e-01 5.717597290719095282e-01 -1.506422299562900913e-01
6.923812247363699823e-01 5.764267128291216125e-01 -1.701888989093134075e-01
7.097647974428976381e-02 8.986080633294960540e-01 2.545048966426125547e-01
-3.684887844878043106e-02 1.207061591416109941e-01 -4.354899166305818969e-01
1.153006782519004902e-01 3.697639193145944025e-01 -2.391105999907786328e-01
-1.402424278752597564e-01 3.820432005191338742e-01 -1.745653160878001264e-01
4.266188665665603119e-02 6.177597332047142509e-02 -5.060479090625602527e-01
6.821453723355728194e-01 4.884775020865688155e-01 -2.486070957098758250e-01
-6.018389653851181631e-01 1.028441849143527792e-01 -3.340097817166505778e-01
4.023115668046233773e-01 8.255367308173823249e-01 1.184719560268021749e-01
2.295530449571138443e-01 2.239585727169542476e-02 -5.810962340718407448e-01
-4.116865156080880273e-02 -1.818026941633618665e-02 -5.617956636306409290e-01
6.785354822805521324e-02 8.890528889093114451e-01 2.464046181241816014e-01
-2.745077424392036725e-01 2.739554047915683799e-01 -2.455597072920606694e-01
3.635771601893451055e-01 2.459609992754001606e-01 -4.042853004249369886e-01
-2.365547338602283778e-01 -8.483456870304900699e-02 -5.820929634354173876e-01
1.436903118156192087e-02 8.059903473572769261e-01 1.814825195420559367e-01
-4.093893268746010006e-01 3.075700423158177488e-01 -1.866396491382195377e-01
-6.239658158320956494e-01 -9.395762949736689851e-02 -5.096464757911736143e-01
-4.028070612291766439e-01 2.169804228864526119e-01 -2.709839638611631352e-01
-9.200712671072208693e-02 4.259193651708410022e-01 -1.444393722128822499e-01
-5.069566634513289483e-01 -2.721274258819303959e-01 -6.972376187544310211e-01
3.387610786212204572e-01 -2.310665411220606258e-01 -8.360211398440144936e-01
2.408264571315279212e-01 -9.497613707224343560e-02 -6.909490824118018626e-01
-7.533468401449077145e-01 -5.076389720640955144e-02 -4.431001324340478886e-01
-1.262620437297002907e-01 -2.248136294475838737e-02 -5.479871236768151244e-01
-8.434657859050639361e-01 5.175505836582443564e-01 9.621784008962658286e-02
1.561848502951568296e-01 2.588692541909594358e-02 -5.625963420061605991e-01
2.647114653271312457e-01 3.756048469092032049e-01 -2.649234798251008383e-01
-5.404243506413760612e-01 3.414799075895846303e-01 -1.282514677995912900e-01
-4.847986377130742569e-02 5.150481400011529542e-01 -7.188439772362378855e-02
6.151564779507338043e-01 4.751147368513269353e-01 -2.468742384354825070e-01
-2.116236947074826014e-01 8.827768755703458980e-01 2.989469655901553224e-01
-2.475785611106153528e-01 7.267897833360061899e-01 1.635767740205074094e-01
4.958113545294106084e-01 2.828787441976566841e-01 -3.980522570789337133e-01
3.347956732250503831e-01 6.976341881743366446e-01 1.540721771109718370e-02
8.327127290156130512e-02 3.233505220877750941e-01 -2.749404711005649093e-01
9.847391845788822096e-02 5.799080662431830291e-01 -4.312904618172683918e-02
-5.826685504825044326e-01 1.510001361221753879e-01 -2.939018973260633660e-01
3.199692270039590780e-01 6.594004771744955799e-03 -6.144273297087502472e-01
-3.183650038464812537e-01 5.091507653825364521e-01 -2.099587848960109832e-02
-3.688746566760053858e-02 5.027566510600656180e-01 -8.556005611501986408e-02
5.332109706692163276e-02 -3.842582188825244827e-01 -9.167958802715252542e-01
6.399325216957124640e-01 1.477206775399266536e-01 -5.519035116264824348e-01
3.469028789439397575e-02 5.124947918695852422e-01 -9.156982216229835048e-02
3.578756180988413860e-01 6.709742448918920577e-02 -5.669181049356001312e-01
3.410217563361145343e-02 9.360720074211696939e-01 2.965091710280707837e-01
1.208250966157698031e-01 6.815337473116070965e-01 4.528859917476674851e-02
4.484396996716653039e-01 -5.868679471269378639e-02 -7.010134062677281230e-01
-7.377909113428865462e-01 -1.644754044384806602e-01 -5.504935283239722477e-01
2.687822270965671834e-01 -3.123833377531906041e-01 -8.959040787331081779e-01
1.912533268282072541e-01 -1.597036031637002196e-01 -7.398937986398838040e-01
6.282755525990113554e-02 5.442912768049864569e-01 -6.831586527902755446e-02
-7.387164324454547071e-01 4.931127609165078529e-02 -3.544922829842435674e-01
6.942687776745274375e-01 5.244021707975183855e-01 -2.182321045227095802e-01
2.541191494519632887e-01 1.688503705949226386e-01 -4.520816211916806604e-01
-2.644482818996879425e-01 3.846400138200274932e-01 -1.462812640034507616e-01
3.990708059545815534e-01 -1.421867303615719225e-01 -7.671945118096207272e-01
-1.523551998788917894e-01 -5.902887566756494925e-02 -5.760189092210737938e-01
-7.221815786729264275e-01 -1.064937290301374608e-02 -4.128591936494420134e-01
-1.973035975074190485e-01 1.969629792728418427e-01 -3.321798967534922431e-01
-7.180509732872722983e-01 5.927182820604511848e-01 1.389065113729774648e-01
-2.118134491215358517e-01 8.104307962886185823e-01 2.327244340884120077e-01
-3.855365050471402100e-01 4.326256096144290852e-01 -7.707566049577992129e-02
5.530069924332887688e-01 4.633472259124384873e-01 -2.446896360291396511e-01
3.977093801109216065e-01 3.298872051634524349e-01 -3.345358584800975366e-01
2.911244678178635525e-01 2.466573260697806774e-03 -6.121915110117392977e-01
5.822848180615231017e-01 2.778602076478111083e-01 -4.206845308474277401e-01
6.772588725286009248e-02 -1.761289062656521687e-01 -7.291736878609420547e-01
1.811294728885270711e-01 6.005580874492123522e-01 -4.145506777677834820e-02
-1.032300290163649936e-02 7.286863405049155418e-01 1.158294404699672792e-01
-6.005885662121188129e-02 7.815590520551393139e-01 1.746292100253825919e-01
-4.521353353976521605e-01 8.814543533948014653e-02 -3.786961251134179363e-01
2.727422407336495547e-01 -1.335690003652344471e-01 -7.329531403404132561e-01
-7.620109695631057667e-01 6.539706678149866115e-02 -3.349006905819757463e-01
-7.288097786047705862e-01 3.840584587066665501e-01 -4.996202145046965692e-02
-6.324676150072180425e-01 -8.289068645915351197e-02 -4.977369909683167504e-01
5.032861610433336796e-01 6.896930109932616348e-01 -2.700820939152292349e-02
7.166261892752526230e-02 -1.234689845804451680e-01 -6.817633063042728425e-01
4.716296075513637387e-01 4.110582315654980889e-01 -2.756084841132581120e-01
1.970294802368214027e-01 -2.354135931660858161e-01 -8.104416611044611418e-01
-2.086499853119632986e-01 -4.199959043826795302e-01 -8.948888750291282834e-01
-2.919082566646491461e-01 1.301030876275679482e-01 -3.736854840575298820e-01
2.092910962638237782e-01 6.373986975494432272e-01 -1.358625326169428035e-02
1.720361680946965177e-01 9.281615541665952929e-01 2.604950532830719867e-01
3.239917414304581134e-01 2.610009588321315910e-01 -3.822537999118529317e-01
-6.881101170455186100e-01 1.819812163738205868e-01 -2.435342318854418209e-01
2.899663642827499666e-01 7.876701529415738312e-01 1.072216245588231975e-01
-5.910705739693445926e-01 -1.287285058742490829e-01 -5.483542438675441666e-01
1.138208614061859691e-01 7.399333861260170009e-01 1.002379719916475648e-01
-3.170216101607015342e-03 6.612893757472867451e-01 5.260839180291154715e-02
2.554137087047401167e-01 -1.057405778979794014e-01 -7.038507470520990461e-01
4.502983296139874692e-01 7.234437014048633596e-01 1.495587766175485687e-02
-3.554441275549966028e-01 -3.339232096877073896e-01 -7.854376371688855940e-01
6.291573409396927774e-01 6.994382164276069513e-01 -4.433548650743281139e-02
4.237612557013016590e-02 3.816862697534782467e-01 -2.129809879044122778e-01
-4.518534050551626935e-01 -6.700277915130503636e-02 -5.208558944838468374e-01
3.320540996756478069e-01 8.763322587805987274e-01 1.796494170652116751e-01
3.950449948119490462e-01 8.276371311048505985e-01 1.219113115063697322e-01
-8.646901433852758334e-01 4.890157315093499740e-02 -3.285931910585988547e-01
-2.339869097504353734e-01 8.472888581460255031e-01 2.711076227589078180e-01
6.452989918705440142e-02 7.437157884051652790e-01 1.139829092288709850e-01
-4.117530017439253731e-01 -7.388547632792452635e-02 -5.355235310027600670e-01
3.207388992659956362e-01 3.361272529612292503e-01 -3.127668343003497942e-01
-2.808208215423202425e-01 -1.691356099513685041e-01 -6.500720977114228250e-01
-3.368310184114328143e-01 4.990306619522186238e-01 -2.641347080022741697e-02
-3.164907772168398803e-01 -2.870839074713373851e-01 -7.506618051274156489e-01
-7.689814537834696595e-02 1.375682915315211419e-01 -4.116927347656261227e-01
-5.482173344255960590e-01 5.267955496046947683e-01 4.310536859867494103e-02
-3.479522998715854909e-01 8.118922494770374199e-01 2.624574700872072119e-01
5.533353640321760913e-01 2.339361656008466794e-01 -4.548767755769403953e-01
7.802816041685348702e-01 2.382420963780445267e-01 5.789971487423785090e-01
1.048129192677759169e-01 -8.236140140984653524e-01 -4.626989842607934778e-01
8.854284525591674671e-01 7.506890198065191422e-02 -2.296143653250553029e-01
6.225966526868408346e-01 -5.760470695763572069e-01 -3.919604064884084638e-01
-3.478928652077573069e-02 5.912157445244902165e-01 7.505669775991034021e-01
-1.386783966299195148e-01 -8.091653729588128563e-01 -4.672191851563521903e-01
-2.731787260959566699e-01 5.281076161982197759e-01 7.563092582997944513e-01
8.162318213157718771e-01 5.185061088006032159e-01 -1.736209691241764885e-01
8.821117339261369539e-01 1.224592941146047109e-01 4.406948563892346127e-01
-2.748695879981128895e-02 4.270079388163560696e-01 9.273439310817069847e-01
8.394964482714665222e-01 1.676435179801025535e-02 -3.986483875820864275e-01
-8.091313237308078721e-01 -3.127591724798630280e-03 5.972174287643818857e-01
-7.353544322813790890e-01 3.273706353140692915e-01 5.157423112907925100e-01
-8.705206807646670431e-01 -4.324663989892162941e-01 1.041525523285341537e-01
9.124069273365379429e-01 6.791572808297202668e-02 -5.572254771192369782e-02
8.744955835124624821e-01 2.384082567255224328e-01 1.892058334981036316e-01
3.639851974660940348e-01 -3.875044766813889319e-01 -7.917709347348886872e-01
-9.236865430448635284e-01 -1.927169116906126550e-02 2.438147024204008195e-01
1.885556915634678532e-01 -7.514317590431212057e-01 -5.200844741913935865e-01
-4.000139862047986106e-01 5.361952902544040445e-01 6.802623915464662829e-01
-9.826084245204799172e-01 2.870911096011848906e-01 -4.347115379605968888e-02
3.764333193551896439e-01 -7.391994576633416081e-01 -4.508968361401318736e-01
-4.971051721706207238e-01 -7.102882838365845997e-01 -3.749058369885075459e-01
-8.856754676538207693e-01 -1.483983447327094363e-01 -4.960837428051964593e-01
4.365539079900316866e-01 -7.356632274599188559e-01 -4.162688008916483606e-01
-9.158799956467192915e-01 -1.696720699750427774e-01 2.616160592859171352e-01
-8.663811554340717924e-01 5.891954180591172513e-02 4.200099657303451028e-01
8.368071382605605235e-01 -9.400414865706863132e-03 -3.967278699304858658e-01
2.720349115333882128e-01 -6.678222754487959101e-01 -5.739224551128883078e-01
3.958944621875564174e-01 -3.623707786803037068e-01 -7.918434158357736674e-01
-8.643453658674881135e-01 -7.652171958441904287e-02 4.819920787869967915e-01
-5.454977616635647841e-01 3.977417713298725954e-01 6.904333574042521571e-01
-7.763240061716442098e-01 1.872972374138277829e-01 5.466385506912144754e-01
6.819703614118285406e-01 -5.146457027731231593e-01 -3.691428939970257117e-01
6.547337713218243094e-01 4.896365450535746233e-01 4.493692767879196026e-01
9.467842706664686414e-01 -3.825682842053348964e-02 1.880111494774518166e-01
-2.441695592792188230e-01 -4.877502651418250679e-01 -8.093846704569757078e-01
-5.516698231442929146e-01 5.773312397972666377e-01 5.266962010992904952e-01
-1.000000000000000000e+00 1.880322122616839287e-01 -1.480505760698601070e-01
-1.633006097270555540e-03 -6.160009589947470499e-01 -6.949760074314337288e-01
-2.877651955807156714e-01 9.236131795282634949e-01 3.533544165070600096e-01
-2.650113780816359954e-01 -8.826743144197033430e-01 -3.332180501000934214e-01
1.386100255968801265e-01 -4.103905403548754882e-01 -8.838727613823790241e-01
2.453813419424902831e-01 4.521742379869911899e-01 8.679593433182341000e-01
8.807139050887852205e-01 1.746142437913211221e-01 3.219859537440789010e-01
-9.324823089345122273e-01 -1.374787331032883697e-01 -2.709936274075867013e-01
9.453402287136863924e-01 -2.230281786526844279e-01 5.677671885142630132e-02
3.034660920711975685e-01 -6.828230382854699743e-01 -5.445312264875653563e-01
8.491818932523070851e-01 -8.456258263626130478e-02 -3.287690298092535435e-01
-9.562144171127902048e-01 1.763507113292295259e-01 8.227392322714081885e-02
-4.302147690454787288e-01 7.598905331827966458e-01 4.489164371853390789e-01
6.519513128608401820e-01 4.622460511161066155e-01 4.951136627712663385e-01
8.617644889159845611e-01 1.266057122501520471e-01 -3.430656784040592155e-01
8.233084575738365274e-01 -2.837683384284052646e-01 -2.915622507528331520e-01
3.483617012181610129e-01 -3.759562875702038287e-01 -8.132572913234855649e-01
9.305121426324827194e-01 4.166174252721251831e-02 1.581966449049179158e-01
-9.405931281067407834e-01 -2.625196888087281619e-02 1.557574336442245078e-01
2.241192645014491169e-01 -5.390120265131039812e-01 -7.225262669143596161e-01
8.906353710071688301e-01 4.495219211225316702e-02 -2.051479905258776215e-01
8.242977520566342475e-01 1.529171254306352645e-01 -4.950506316469971968e-01
9.242726356186886649e-01 6.080522613076987104e-02 2.670833372787876359e-01
8.466654962086967995e-01 -1.782528596229751849e-01 -2.927832304745413006e-01
-9.516151175369852444e-01 -8.172604378645945133e-02 -2.632945105742038883e-01
2.658164674416579887e-01 6.883968414298784477e-01 5.785153987449068724e-01
-2.387485432807850971e-02 -6.059811113224886636e-01 -7.066066524199520194e-01
-5.749698286918720758e-01 3.306918238185803660e-01 7.181876244759451966e-01
-8.759264770267725098e-01 2.915689262358810430e-01 2.761929792817753859e-01
-4.419103246536722207e-02 5.723669762743359701e-01 7.701749361064600397e-01
8.740784046682729125e-01 2.328344000246810319e-01 2.096757957228884417e-01
-2.258763757923033452e-02 9.270052009635283419e-01 3.832528680530961074e-01
-8.864507037864621797e-01 -3.187852727662929958e-02 3.934459913419971477e-01
-7.660111885069634807e-01 4.358798832335637474e-01 3.881231912407746565e-01
9.332671853026867914e-02 -7.563678401596780621e-01 -5.355758053336289182e-01
-2.176039166905828770e-01 5.817910070141761869e-01 7.240172178667856340e-01
-8.171192341232241807e-01 3.909238497468624507e-01 3.344925559382477265e-01
3.580666981053873821e-01 7.526953315908173625e-01 4.417937762004779390e-01
6.483788784375144054e-01 -5.999295826924252450e-01 -3.423915924583739168e-01
-5.941228878478670428e-01 -8.049216617526270268e-01 -1.168635604317790483e-01
3.229865055181266875e-01 -4.455622890417575976e-01 -7.635439770903486023e-01
9.134130162816745946e-01 -1.708038414863741472e-01 -8.520210775071783427e-02
7.670894631177299638e-01 6.156360591492894274e-01 -8.374721267460570606e-02
-6.338702019815511957e-01 7.479742581862860451e-01 2.996291226065749269e-01
9.414178069234905299e-01 -2.921521047178719521e-01 4.872958278316471409e-02
-3.961986873735758863e-01 -6.610075970600378659e-01 -5.259956889472829911e-01
7.362569129923840494e-01 -1.921525020673865991e-01 -5.235706594806329717e-01
-6.865672411486947180e-01 -6.242828878053037212e-01 -2.211451021440712650e-01
4.501731793632236522e-01 8.613774177173449953e-01 2.143127576545927060e-01
4.171562406986956684e-01 5.401466746393067675e-01 6.656412218503213740e-01
-6.706995587708826367e-02 -9.092535776773394973e-01 -3.677437114059979306e-01
3.880318887890756713e-02 -9.260391494975386273e-01 -3.572786140693734458e-01
-1.135895330428141614e-01 5.104025883902176819e-01 8.258013221268911686e-01
-6.058490299285057556e-01 1.916644153457311150e-01 7.985953160328680411e-01
-8.745530051408483274e-01 -4.190795870375750853e-01 1.018588854678969952e-01
-7.473354327651970941e-01 -3.179243711381745108e-01 -5.735178623364868278e-01
-9.235520675603567931e-01 2.228794595399007095e-01 1.832432562187085723e-01
-9.127665363040947666e-01 -1.782496019229579398e-01 2.789267269264851801e-01
4.943801979856329853e-01 5.741064368744379642e-01 5.511183262234325975e-01
-7.316481808709145440e-01 1.890845750010883286e-01 6.228317530825755455e-01
-4.406372551368549217e-01 6.985898434062577378e-01 5.006198310391476447e-01
-6.423715265831477783e-01 6.692017757078406737e-01 3.588117062144809966e-01
-5.505251370450181536e-01 4.645713040993270093e-01 6.272167298179647243e-01
-8.967600275946949751e-01 2.860981556842603912e-01 2.285544317524030311e-01
-4.798489026935676138e-01 -7.204276109139364781e-01 -3.790915575768453172e-01
-8.025422823575255604e-01 1.849500193492051581e-01 4.980786663659165225e-01
4.086246568090745046e-01 -7.895291110050631778e-01 -3.835406353283858372e-01
1.325604123581473892e-01 -6.605354583106727295e-01 -6.285789007178371746e-01
8.498777110205936181e-01 3.925845651797996161e-01 -2.526699796928846276e-01
3.680423890937348230e-01 5.222875418350756416e-01 7.230679566460527230e-01
-2.562883999944755020e-01 -6.915704958242224754e-01 -5.660904020739950804e-01
-2.110851942726113817e-01 -6.847937019613642429e-01 -5.905848193360414555e-01
5.227436423605167359e-01 4.328230412894588097e-01 7.093556225861780140e-01
-8.446574474505457175e-01 2.537111129324735592e-01 3.682723622127109242e-01
9.182379431584705154e-01 -3.505000014434632716e-01 -1.288922159863972912e-02
8.690160629460665920e-01 1.553017705018210903e-01 -3.075177085925502318e-01
2.207397005726249306e-01 7.303801990173672820e-01 5.491360525822230887e-01
-8.757804705849359106e-01 -3.806574279798616844e-01 -1.684612615948791192e-02
1.615627924636946211e-01 8.012211696859230514e-01 4.883727867277665724e-01
9.260015237098061514e-01 2.180593438407726556e-02 2.434257863692217833e-02
-9.169803085700216627e-01 -1.220415466921645903e-01 2.708118026491385111e-01
8.062002406753288053e-01 4.794145168982520966e-01 2.104745959242828798e-02
5.141667936673626205e-01 8.499767519868316468e-01 1.489967969149044169e-01
-8.429593625746801822e-01 -3.374751207085167071e-01 -2.883688693361008415e-01
-4.431428255824277906e-01 6.195975998083635972e-01 5.732983037030353612e-01
5.913905044960212631e-01 7.813071356984925275e-01 1.253734619919298077e-01
-7.925036814741314162e-01 6.186420145881852406e-01 2.115927868244384391e-01
8.491128582839188588e-02 -8.898196289630927458e-01 -3.943649100809262786e-01
-2.693496442270917543e-02 6.208973201068160863e-01 7.188821800208475832e-01
2.911393583114302297e-02 7.968236634724263912e-01 5.232919332583449989e-01
-6.641556497189455843e-01 6.300087478813677366e-01 3.684600045106011246e-01
6.641503093606369035e-01 7.490377412633543175e-01 2.082679482666111373e-02
8.427418427864246109e-01 4.266895490534345914e-01 -2.667266380888054234e-01
7.759460092704669743e-01 -5.045236258813621255e-01 -2.370939885159632776e-01
8.555378092979484261e-01 3.083379227388351462e-01 -3.364999934473571486e-01
-6.927030640897322566e-01 7.155922365691297360e-01 2.648143723500647195e-01
-8.689489395191223320e-01 -1.299805472081391189e-01 4.835456125051298404e-01
4.946321438391462211e-01 5.143013686805689710e-01 6.301572013518721427e-01
8.821617425283880820e-01 -1.041755653632123468e-01 -2.167113832476185165e-01
4.338283474006626728e-01 5.036680240274199472e-01 6.988181642880290090e-01
8.108196395233120413e-01 3.460203245027723140e-01 2.891758320779544422e-01
-9.356649031741213207e-01 -1.721733038293616069e-01 -6.973708460429993428e-02
-5.749069382799264494e-01 -7.687800350138314087e-01 -1.984245650632311952e-01
-9.672684666921823604e-01 -3.122371740013387895e-02 -1.142055962915273781e-01
1.342600116499641505e-01 6.329666352739951041e-01 6.907357879084913277e-01
7.866889153276944713e-01 4.078600101636817854e-01 2.594118994812518730e-01
-3.018649328673830290e-01 -6.414154527113378190e-01 -6.056525797338756512e-01
-1.533895081578928732e-01 -6.447097963167186530e-01 -6.518454787924724547e-01
-2.216212261088206792e-01 6.595482291308037981e-01 6.435952287844057818e-01
7.149662343219105320e-01 -6.440423802241080908e-01 -2.231640828078561289e-01
8.379923446022058409e-01 3.734332433968783893e-01 8.732107185752607803e-02
-4.587118175660075126e-02 8.736227645777138173e-01 4.432816827305200991e-01
-9.063863496297088762e-01 -2.326160893632951698e-02 3.177719040355370117e-01
8.394447889121169348e-01 -3.946476109499313933e-01 -1.903046875740554422e-01
-1.669361346625479747e-01 4.188316919636458913e-01 9.063721011843280939e-01
6.937918587904409184e-01 -7.147562624629907879e-02 -6.818971154569488657e-01
8.334424636462568481e-01 4.692726532139289142e-01 -2.577729603079339515e-01
8.279141066013765426e-01 4.305483877039372742e-01 2.999549004462184754e-03
1.015783480875458861e-01 -7.249815142735183127e-01 -5.674350753915258228e-01
1.812595677284798978e-01 -8.608842850065906438e-01 -4.091021591286796433e-01
-6.020317531128586280e-02 6.116376107111026750e-01 7.266859498021337460e-01
-8.658976000658945571e-01 2.204222961539967773e-01 3.393288845933044584e-01
8.958410946499559824e-01 1.240161204492969960e-01 3.519964891375716998e-01
4.183861374962060675e-01 -6.265868391499646028e-01 -5.307666355878903897e-01
7.370984534164465307e-02 5.719519982277233572e-01 7.695209493890444730e-01
1.681937596478977615e-01 -3.879163014854075664e-01 -8.960636013188620907e-01
6.812843632185496823e-01 -2.543142104090625466e-01 -5.702034008452355751e-01
7.349750053172858788e-01 -6.431013590025906612e-02 -6.108029092442308627e-01
-7.647321227560944790e-01 -6.506765769364479812e-01 2.851823781286418058e-02
9.150576913647087141e-01 -1.949468817329233494e-01 -7.355745710956683447e-02
-7.721262238377443188e-01 -3.247157312971476473e-01 -5.114160337924172905e-01
-9.303275146302366627e-01 -1.892161651922330268e-01 -9.296973120433756066e-02
-7.629368425187914304e-02 6.871910194336517952e-01 6.442970754508802189e-01
-3.542130316747991725e-01 6.517917566788361539e-01 5.958618722795459011e-01
9.174208372863706940e-01 2.059727708291746520e-02 -5.088791616403082196e-02
-8.328477927982520512e-01 -2.449301543461907260e-01 -4.914234806103425779e-01
5.753243053327073975e-01 -1.574095615696904649e-01 -7.918128484224897790e-01
6.668582407116449007e-01 6.230734258955614724e-01 2.195762538602072933e-01
7.747755520700928544e-01 4.623909008506059126e-01 1.980698363516102123e-01
8.702679414448306616e-01 -3.486705055922463270e-01 -1.455480740699414965e-01
-4.828289630544989608e-01 5.868010159910657109e-01 5.751399438515805151e-01
7.648993656565356014e-01 5.506779780833240823e-01 6.300405581662867072e-02
7.958702294622804763e-01 -1.290345780764173556e-01 -4.430730619369431800e-01
-6.917275229091852662e-01 9.639884409047226599e-02 7.540741034326027270e-01
2.425830844554557886e-01 8.312207707807242052e-01 4.178375425307387925e-01
5.109037201552718566e-01 -3.127393975397725345e-01 -7.347282596757723772e-01
-2.919106348543046292e-01 7.143317079828160887e-01 5.629685647851909724e-01
-8.917383443577053814e-01 -3.663751210232787381e-01 2.189658079851607708e-01
4.710371374597785432e-01 -4.198604117274042924e-01 -6.783195217517288267e-01
8.411407637674359616e-01 4.356114029928733755e-01 -2.425022945332507007e-01
8.278685684529875077e-01 -7.170054054341849781e-02 -3.945455081651337292e-01
2.787049176838754787e-03 8.087692849695581332e-01 5.124627189475515765e-01
-8.484282211371882987e-01 -5.009329069436611048e-01 1.147805942748136854e-01
4.035811496261190179e-01 -8.553265670136878107e-01 -3.236978951615314126e-01
6.689904310460282888e-01 7.315624413332719733e-01 3.771542107587665810e-02
7.237435638615599132e-01 -1.827399789856637979e-01 -5.523473620254981675e-01
4.942460553966569470e-01 -5.539083128645395648e-01 -5.383279473891581235e-01
2.504149863552195265e-01 -4.882294209101604165e-01 -7.611809066567126747e-01
1.168917343413121562e-01 -7.586166583210272041e-01 -5.293826767375873210e-01
-8.533394115422746617e-01 1.638053464002830473e-01 4.003463667073589582e-01
3.726586901759942894e-01 9.214925252852227411e-01 2.135255974079578734e-01
-7.038784642270304315e-02 -7.314758923430573212e-01 -5.666396930982449121e-01
-8.185519778284687797e-01 -4.693864488283092107e-01 -1.225216442551177454e-01
8.025948305922032677e-01 -5.458370284494810099e-01 -1.626220757265555705e-01
3.922045069467886558e-01 8.916236340391521242e-01 2.343058405548194278e-01
-4.047733287528775814e-01 -4.980354281933805916e-01 -7.231006686598517863e-01
8.179410312057857624e-01 1.492960997231789211e-01 -5.154568383150881505e-01
7.189350170429303910e-01 -6.519898341460367286e-01 -2.115928090443362497e-01
8.649569682422119099e-01 1.829786361836122366e-01 -3.256853729252838781e-01
8.980975726350507449e-01 1.732636788750300805e-01 1.552788034799336137e-01
8.804947848741209171e-01 2.104387096026913151e-01 -2.064039617767440271e-01
1.762443710693523125e-01 -8.973232212451143219e-01 -3.723870064019867976e-01
-4.404589322113839356e-01 -8.435379585518432144e-01 -2.557522596701991557e-01
-6.617639400952378681e-01 6.465940021822336181e-01 3.571871567646071610e-01
4.575726863810413159e-01 7.717115761435616728e-01 3.266283405536154483e-01
-6.632834038085833051e-01 -5.014778550951504155e-01 -4.480710708886578852e-01
8.220174990611404109e-01 -1.684513307918675817e-01 -3.599297462989053398e-01
4.012996995902431974e-01 -3.515895666374775907e-01 -7.975800703971287486e-01
7.785908504623256787e-01 5.734885412345421818e-01 -4.748397833029688320e-02
6.773532085977200801e-01 -2.802757100402115675e-01 -5.566315059849559210e-01
-9.656464542550433627e-01 1.646985351744950643e-01 4.264869280339687180e-02
2.361714598168493107e-01 8.168847853989119612e-01 4.384229257887766185e-01
1.718302702977771990e-01 5.043438384393613694e-01 8.292356676343126676e-01
-8.630769974018822621e-01 -3.935553404040311731e-01 -7.222464167289124881e-02
8.531496405677433392e-01 3.545512329099100857e-01 1.047266964779280246e-02
-8.601918523472904532e-01 2.329565876282072359e-02 4.535442293699820659e-01
-4.506331241739278681e-01 -7.222068750910793922e-01 -4.044233013470779903e-01
-4.294906479177168501e-01 8.116136520598731252e-01 3.998726829597084587e-01
8.868206022417666201e-01 1.686860718264024117e-01 -1.882936814182735452e-01
5.403362048779044580e-01 7.099129295581292354e-01 3.099321769463820875e-01
-5.748149830290120166e-01 -5.514812758368318191e-01 -5.014736317443188041e-01
-6.373179443660951238e-01 -6.846163254161925504e-01 -2.217795975255897611e-01
-6.675101138881655016e-01 -4.271333370338378232e-01 -5.492988108604113240e-01
-7.191891817962905442e-01 6.350880340857634199e-01 2.991581663854966933e-01
4.505270938366378597e-01 7.029880888108234194e-01 4.252860742919456483e-01
-2.064248903007101163e-02 7.942993077498957666e-01 5.296950019556003753e-01
6.360159276883237123e-01 3.535368284784200510e-01 6.783633862283159344e-01
-7.955428971015465756e-02 5.762261499454648384e-01 7.622607196114637995e-01
5.339229015386023347e-01 6.220385097548614128e-01 4.407264376944831641e-01
-6.217879753494003348e-01 -7.357115105495687368e-01 -1.726723006526279525e-01
8.299813662459482044e-01 -2.019468600130395475e-01 -3.225480023378483607e-01
5.640904856236267362e-01 8.296690131770185772e-01 1.011100310197188545e-01
4.162790476531781914e-01 5.864494116355397635e-01 6.073833942695805455e-01
2.297911545307803893e-01 -7.119414607811213047e-01 -5.468308918738878921e-01
2.460167540537950420e-02 -8.448103927900807442e-01 -4.459359993076650874e-01
-6.717770722216619417e-01 -7.215486522500155209e-01 -9.972487086340667273e-02
5.383450894141820209e-01 -2.827967508759183790e-01 -7.315038159759870151e-01
-2.114656268314092924e-01 -8.825383461896715298e-01 -3.581352457047445870e-01
7.534471954925573423e-01 3.168757035436028935e-01 5.151900503709198054e-01
-9.874214025383788451e-01 5.278724473677041257e-02 -2.622924980006180462e-01
-1.822689910438776151e-01 3.983323992908769928e-01 9.221175406055301949e-01
6.770531912099549965e-01 -2.443537130383222622e-01 -5.840522105869855318e-01
-7.162674217950969202e-02 -7.877442481150462861e-01 -5.036572153328255919e-01
6.813009951027824140e-01 5.660832521923706562e-01 2.785755748945860089e-01
5.537226044830402261e-01 6.987403999878007976e-01 3.068131335030736540e-01
4.783165041691917474e-01 4.227461662275112664e-01 7.651567878904738107e-01
7.273284936717240301e-01 5.388891505190249731e-01 2.093887363187115214e-01
6.071638883473058357e-01 -5.077897373284832039e-01 -4.663597208021932339e-01
5.396435471954409424e-01 -2.405271984290219545e-01 -7.656312574146705296e-01
6.685373668304196437e-01 -4.526786307002968468e-01 -4.358991735734073503e-01
4.084716869824152052e-01 -3.292001723991509476e-01 -8.123802002663969013e-01
7.574172901284218495e-01 -4.823379808361150101e-01 -2.833894915108787771e-01
5.224447011845119171e-01 -2.419392597662964883e-01 -7.832363781622052601e-01
8.347927419945330163e-01 -5.044827411712354825e-01 -1.310334199562382673e-01
5.071656261580045344e-01 -2.522691049917223372e-01 -7.905077713740731316e-01
-8.772777038493794199e-01 6.684570161303950153e-02 3.855802943590436183e-01
-8.962954257180391071e-01 -3.206972883115342121e-01 -1.395238550096716650e-02
4.971881043620795526e-01 6.709028557201988097e-01 4.181264868188883654e-01
-7.251008925114135195e-01 2.907460524449919648e-01 5.586449296034960987e-01
5.927052560549826987e-01 -6.475414124256132498e-01 -3.635361909554971627e-01
-3.683337161309738761e-01 6.695860961670054845e-01 5.710995539370333773e-01
4.538049779508652182e-01 -6.795746281039534153e-01 -4.562259470694983166e-01
-2.895923642023151001e-01 5.530137040114383451e-01 7.243045660598690372e-01
-6.743019952785734850e-01 -5.949077450614929097e-01 -2.900442507746746612e-01
-9.931916240191833722e-01 2.421734305570272250e-01 -9.021720172136191152e-02
8.056858945172775677e-01 -4.965584827713225846e-01 -1.910168579643329589e-01
9.486921208254216475e-01 -1.364362797142713024e-01 8.904784993947538474e-02
4.094675085918088597e-01 -5.214033308117974608e-01 -6.349738264542208466e-01
-6.663438331104943879e-01 -6.109451373259442430e-01 -2.804633018753458495e-01
-2.389161317135938822e-01 6.851716282201660846e-01 6.118924342981308939e-01
-7.954372238898566039e-01 -4.267292368236547118e-02 6.512392444005798975e-01
-7.018628598716451783e-02 5.367484213998254816e-01 8.054134342487728748e-01
7.531616968765596498e-01 4.522557135324031252e-01 2.864660727337584034e-01
8.697575359275317997e-01 2.228116402323275236e-01 -2.834127499096801284e-01
-9.897516694456790498e-01 1.549571211094683543e-01 -9.245205013071466915e-02
-9.159057600505443597e-01 7.734075566776632549e-02 2.580972083460481570e-01
8.433093310622150618e-01 2.992597908680739160e-01 -4.252329485836011114e-01
-5.555058948719335810e-01 -5.625039719761397716e-01 -5.091948712099400032e-01
3.978696994210249027e-01 6.425203827658237943e-01 5.506912895504899597e-01
-9.990665866246725146e-01 1.256151599414722653e-01 -2.093922922849467960e-01
1.878813362773590345e-01 -7.974093089368599063e-01 -4.730069456171331899e-01
-9.514407587187304616e-01 -1.506730164197924923e-02 9.034707807915862143e-02
8.706651840759647154e-01 1.735798152405452488e-01 -2.953936266322740867e-01
1.058239000202121222e-01 9.103209311412672200e-01 3.790050892454401299e-01
-7.397333770341539827e-01 -6.324729333249669017e-01 -8.205222167027827196e-02
8.334608192653836234e-01 4.582033402709549952e-01 -1.605144459663267742e-01
5.944932090282296633e-01 5.977928621630047568e-01 3.904892007583540825e-01
-3.772264531616850713e-01 -7.335997817903175955e-01 -4.484581203819087425e-01
8.778936116974349613e-01 2.742314149341330554e-01 -5.166367062604970695e-02
-8.705395060783472916e-01 5.462964267294805332e-01 1.313452559959623345e-01
5.441600064671571202e-01 6.005823030237992244e-01 4.573635966091079696e-01
8.816391625642520102e-01 2.512272533301987965e-01 -1.102175153419610310e-01
-7.230008769125679802e-01 -3.192680807864805570e-01 -6.163516364765645461e-01
-9.809703108811996808e-01 2.493977145091597764e-02 -2.172661939964307121e-01
-9.808120047712480805e-01 1.412860306755612527e-01 -3.960300947984191772e-02
-7.549564046750013580e-01 -5.555200974875633690e-01 -1.724180397810707033e-01
6.996639068739729517e-01 4.176989073713155975e-01 4.733449027146844901e-01
8.455687220038604623e-01 3.545472375188045144e-01 8.322020432481815055e-02
-2.438178936594613544e-01 7.873634465169787600e-01 5.061965385509277215e-01
-9.373857034460199023e-01 -1.586979088914092229e-01 -1.238925840337750661e-01
-9.561628638834837046e-01 3.443877391814063188e-02 7.899806665901483449e-02
8.896600590630981964e-01 1.718764552977189997e-01 -1.607515687362443546e-01
-7.471511587445688329e-01 -5.968235540900531655e-01 -1.229174407013846060e-01
4.688321552308090112e-01 8.373053674979316074e-01 2.253176316368842858e-01
8.519807133920627162e-01 3.463099222951339096e-01 5.227984975606849577e-02
1.737255960067549121e-01 4.598494231203207883e-01 8.797382629577674695e-01
-5.769024884606961390e-01 4.037445446419821726e-01 6.538530349119727747e-01
-5.405981311536780520e-01 3.609345128974375538e-01 7.272390021412492578e-01
4.316629429082662339e-01 6.981900681687075449e-01 4.498214160743106427e-01
8.352703854041759746e-01 -3.738589692457504610e-01 -2.118030655993732858e-01
-2.807394766656343132e-01 8.395142341561139254e-01 4.411168303243997446e-01
-1.367602692215495186e-01 -4.417576939390032154e-01 -8.829194591883998688e-01
8.859957188612351819e-01 1.688041140232073023e-01 3.004663257969298340e-01
-8.151201224274112755e-01 5.171178633331500185e-01 2.501820469898731192e-01
-9.470041062923937325e-01 -1.162730947959692424e-01 -1.711612863552494090e-01
8.777793266755979928e-01 4.790977552541168111e-02 -2.656010666637355078e-01
-7.218109944635937580e-01 -6.559829962703763728e-01 -8.991350392406867453e-02
4.038455168637816173e-01 -6.622089710117408101e-01 -5.071630128900289636e-01
7.207615301006261577e-01 6.024694273568871328e-01 1.171280828412670227e-01
4.957428221243361244e-01 -5.002447849247502187e-01 -5.849010865075559007e-01
-8.546916781911609862e-01 -1.202367247046764454e-01 5.287516767645701332e-01
-9.583574636476399622e-01 -4.309059482529521701e-02 -3.306522476666142740e-01
7.884394891731495436e-01 4.250716354545796549e-01 2.198066150173919042e-01
4.804910116264297093e-01 -6.749873428930747155e-01 -4.401629226938639783e-01
-9.757358626003396207e-01 3.165089761945768035e-03 -1.759363839549692443e-01
8.918955410351818713e-01 -3.782779735575950153e-02 -1.951505791676541035e-01
-4.629115741564683584e-02 7.037046915337192843e-01 6.284524163518107054e-01
5.656193330142990083e-01 6.009442979698648157e-01 4.282565322290139975e-01
7.530090591582930815e-01 6.436020863101182821e-01 -7.764916594144558037e-02
-7.599562737585657812e-01 -6.473490300308422096e-01 5.949125608750595491e-03
1.555815419722880455e-01 -6.879646206504688166e-01 -5.944651105936926694e-01
-7.332739998093062983e-02 8.250515864828891210e-01 4.959868619016288283e-01
-8.845290352575793102e-01 -3.914880881950328906e-01 1.338042683890072748e-01
-6.771662177176339392e-02 4.387329640870760161e-01 9.095001265207655061e-01
2.022558567657087580e-01 -6.181524396960990098e-01 -6.514484552635256831e-01
-6.252404996438338802e-01 -3.944512640656292479e-01 -6.546809972603571115e-01
-6.885401034134452924e-01 4.414038358729184264e-01 4.934929482156636404e-01
-8.667399332758118913e-01 2.657715024089637446e-01 3.120299167196857737e-01
4.722430418559774301e-01 6.590449339199713208e-01 4.613073628209047317e-01
8.799534649267829467e-01 1.682643847033948314e-01 -2.392858485619522579e-01
5.014224481819853363e-01 7.447947215468945226e-01 3.123654182268031376e-01
-8.045729187821950568e-01 3.698230073597046919e-01 3.714097584301691013e-01
8.602691903598373990e-01 -1.310752288586191361e-01 -2.765277050435794304e-01
7.518030812413890596e-01 -1.418138126537081545e-01 -5.277877615149082491e-01
3.264019967845599446e-01 -3.762241256814027879e-01 -8.273566421886366928e-01
-9.000976809900299580e-01 -1.548789113578666887e-01 -4.237114789199848963e-01
8.852297183733467412e-01 -7.812453515105049345e-03 -2.272145227913801857e-01
8.396020221543075701e-01 2.891298234230827435e-01 2.818737241672206739e-01
-8.871682235440958575e-01 3.982941810447136743e-02 3.666462464543759903e-01
-1.412020802891096882e-01 -8.599618832325989226e-01 -4.081645466834170066e-01
4.564273091144223637e-01 8.169698143931035661e-01 2.671388577528181485e-01
-8.159250953289407526e-01 2.518552453451598505e-01 4.287000739459688181e-01
-9.215100736211264687e-01 -1.371106921684758229e-01 -3.519959052657546938e-01
5.044561638335146592e-01 7.341192270025137523e-01 3.232752561640349631e-01
-3.867512989563576808e-01 -4.467510123023784030e-01 -7.969692025560946025e-01
6.348184379843595515e-01 -4.527789681441334313e-01 -4.789835491829039782e-01
9.079010784069282414e-01 4.531604644933409642e-02 -1.053877078463946043e-01
5.629041783796968623e-01 7.591475751890917056e-01 2.062743048129153378e-01
8.123266197102502195e-01 1.525593389739628436e-01 -5.349447130686598717e-01
3.520094983212587181e-01 8.848096485886909335e-01 2.786322650480997920e-01
7.854394392510682943e-02 -8.052761365296050577e-01 -4.854298307855917649e-01
-1.685967501136099722e-01 5.899144591162983620e-01 7.303609938860723405e-01
-8.897720023736426231e-01 -3.551653722136532410e-01 4.106057992802968071e-02
-1.769186150916720879e-01 8.387190211237667281e-01 4.696026197633521027e-01
-1.381917614095594105e-01 -9.071127373826981533e-01 -3.545643745937511748e-01
8.404883658474083807e-01 -3.866956928196219057e-01 -1.928479112845131738e-01
-5.903591756597232898e-01 7.751423915578431467e-01 3.163788519198731386e-01
-8.903254929043009636e-01 -2.037627975502134259e-01 4.034333373721554206e-01
3.237849823334981170e-01 -6.646827767795081554e-01 -5.519825885983703495e-01
8.179331407054228897e-01 4.999758001787893424e-01 -1.250046853462888630e-01
8.905880729146766761e-01 1.656976649964574111e-01 2.726641388996066673e-01
1.130565785125181577e-02 4.575627555933208246e-01 8.972527680545896445e-01
8.317083082568278440e-01 3.651317765234846635e-01 1.488413238316017018e-01
-7.191131071965095600e-01 3.819619260405143213e-01 4.984751953549550474e-01
-6.160716947414254241e-01 2.146712212083378424e-01 7.673589010124798326e-01
5.380859001338852421e-01 -7.133384394606316903e-01 -3.577041819571675219e-01
5.385160621703035666e-01 -1.780927144449299671e-01 -8.190118762626028559e-01
7.720084371230124809e-01 -5.317478364502298271e-01 -2.240424623539987725e-01
8.570308869811189556e-01 8.577806523369239933e-02 -3.573427202342079334e-01
-9.872813916113442056e-01 5.330018926825322995e-02 -2.376699400677913521e-01
-2.299755999332010747e-01 6.151354683566995218e-01 6.859832066669484529e-01
-8.330052629200402903e-01 -3.113937740636553153e-01 -3.722123779726345671e-01
2.351956557890956256e-01 8.261187149555837550e-01 4.277769097489189654e-01
-6.037727131486992915e-01 -3.936621113510260228e-01 -6.821355566849518492e-01
6.115828179349075411e-01 -4.099309958955771882e-01 -5.421426692336867026e-01
3.258724136163099749e-01 6.679448653342722197e-01 5.697540721344563908e-01
2.311345932549863091e-01 -6.287945801862466766e-01 -6.299303084552042575e-01
9.272342620161486693e-01 5.667936080859271170e-02 1.502070613220437834e-01
-7.289805990387782098e-01 2.601621914888468390e-01 5.753356362884582964e-01
1.368484901576759727e-01 -7.460064268824193601e-01 -5.386687222853123735e-01
-6.012654721018886317e-01 -8.156236916552461746e-01 -8.935814894224389238e-02
7.447778529334559972e-01 4.698333282724245774e-01 2.799172785243121964e-01
9.139097843293941814e-01 1.072920695234332311e-01 2.116142038401006564e-01
-4.153529783503258632e-01 6.291229858583206047e-01 5.824926312656846239e-01
-6.101427716594034489e-01 -5.496497801718179810e-01 -4.584065620185218681e-01
-1.932612708969827162e-02 -5.156043050491848634e-01 -8.043125813644135258e-01
-9.125085699665469452e-01 6.166603045535817840e-02 2.745962524329451648e-01
-7.243092685682834819e-01 6.596216483402319586e-01 2.729570861437209950e-01
-6.863258818038289188e-01 6.367157559197720307e-01 3.375878226333421939e-01
9.488227690673471937e-01 -1.718055673764373459e-01 7.886394663946738603e-02
8.435803259809618870e-01 4.018184198871255219e-01 -5.616769510263629195e-02
-4.851941092282399670e-01 -6.520724417651345695e-01 -4.637103613504301447e-01
5.990094403683650093e-01 -1.897407948084585128e-01 -7.356661996599360709e-01
-5.481741733404956740e-01 6.033207907234008349e-01 5.066691091422190762e-01
-9.294510891371136063e-01 -1.797804607792345133e-01 1.250436272500008716e-01
1.208950766854414577e-01 -5.217895445807249066e-01 -7.750675296952227455e-01
-5.540200018212206867e-01 -7.330113643329485562e-01 -2.774519442927758095e-01
2.990998406416958133e-01 5.660689409071318901e-01 7.093285625028712404e-01
4.630088519658133173e-01 -6.553560094863056795e-01 -4.716561051816293149e-01
-9.997047432373322717e-01 1.402486084637517560e-01 -1.912485918969046017e-01
-2.374122825270686132e-01 5.318354661465333200e-01 7.673168391504673336e-01
-9.235527878408119618e-01 -2.258018349686524984e-01 7.611413837303838970e-02
7.038048208448196563e-01 -5.558370044721834269e-01 -3.074129463554932662e-01
-6.362690376229190869e-02 6.879689202052275965e-01 6.444830590366947831e-01
-8.912450653592525196e-01 -1.176197638495214137e-01 3.950904832575569681e-01
-8.695327297443766756e-01 -4.084103808259586521e-01 1.405749928896914483e-02
-7.474032721754649833e-01 5.466247924298806016e-01 3.316997912103275548e-01
9.161764335344195764e-01 6.668025212937336854e-02 3.524332666157321547e-01
-5.491532044145006619e-01 -7.603235327575451619e-01 -2.458633168855297313e-01
-7.409455667173092674e-01 5.255640136450893118e-01 3.570126922855348939e-01
7.623538622950746246e-01 3.423139566450156823e-01 4.504646973140969402e-01
-9.217104795321618971e-01 -1.999471251602814303e-01 -1.695289133904372136e-01
7.801149242841055598e-01 2.383775023835893112e-02 -5.653145895150023525e-01
6.884153553286030958e-01 7.177400709754729879e-01 8.990274687494000452e-03
8.655163630138882347e-01 1.485897863372312999e-01 -3.258845055637848431e-01
8.432495628266615251e-01 -4.383352613339561721e-01 -1.556290693308954864e-01
-6.139045997093238449e-02 7.253167407758117635e-01 6.043797978302968277e-01
4.423366960182572027e-01 -5.448302448671135112e-01 -5.888882149321994497e-01
-7.925638629642565158e-01 -2.938462861042667740e-01 -5.142647207270196752e-01
8.161687606232005399e-01 3.225382071761467850e-01 3.148069958255488854e-01
-2.736193600343699295e-01 -7.329081498656475624e-01 -5.092587121099355629e-01
-2.751977756881300308e-01 7.247517708048835106e-01 5.590189761498309817e-01
-7.921473629667740157e-01 1.573621771070199404e-01 5.363175572934184565e-01
-2.092379241036280701e-01 -6.499734724049225365e-01 -6.316596947054288202e-01
-8.328818748156687768e-01 5.769204751826925159e-01 1.779276952518927257e-01
-4.009594358489029231e-01 -7.342395034047510816e-01 -4.302719146757368884e-01
9.621162703136867389e-01 -2.057717083573911143e-01 1.493969589763981531e-01
-7.889216728900338982e-02 9.018035497639236286e-01 4.125329389571932848e-01
3.638699967614796860e-01 7.113679226724385352e-01 4.896196113710072906e-01
8.933926003385175285e-01 -5.271399356752950321e-02 -1.867337815651286814e-01
-4.511489834852334124e-01 -5.536601836897416806e-01 -6.203902023940591759e-01
8.094069421870896397e-01 2.227891767901140907e-01 5.251242717261777049e-01
3.588633390501369536e-01 7.644075349380521356e-01 4.263773620040279821e-01
-2.442668185032108863e-01 -5.797613632295687269e-01 -7.022013060294834963e-01
-4.842325725309408191e-01 -6.511195581706061830e-01 -4.658798936022815473e-01
-3.338180719612017233e-01 3.726230553285878044e-01 8.766470980490511655e-01
8.288427902720435503e-01 -1.055451889408432764e-01 -3.754922252625120804e-01
-9.838783094732550527e-01 1.301893650702132255e-01 -6.379751027764368754e-02
9.100705688145299677e-01 1.326075376217637491e-01 1.143327922255094192e-01
-2.413756230120464030e-01 7.468723977463946895e-01 5.482947324969720260e-01
8.583088801597972273e-01 2.919635573183212984e-01 1.632976700896687783e-01
2.006161549709244707e-01 -4.633020947417033630e-01 -8.077537890729237224e-01
-6.273483455623422075e-04 -8.045274793256061985e-01 -4.898817130093336414e-01
7.807455571045084364e-01 5.828915880392168125e-01 -8.103805831124992476e-02
-9.178135212287984457e-01 9.939265745297895527e-02 2.450125497992647894e-01
8.485860502200319733e-01 5.853700504358002460e-02 -3.822112347959786272e-01
-9.118917219582489686e-01 -1.945414088868995250e-01 -2.669203211714222257e-01
-9.128895715794713706e-01 3.102547750976276109e-01 1.746628707020406179e-01
-9.244008730453799894e-01 -1.628972342852210153e-01 2.008888924097145257e-01
-1.654392600210108921e-01 5.283482500663987391e-01 7.946544448924914850e-01
-8.315113873679490508e-01 1.384553917809022427e-01 4.652389873633860917e-01
9.640025120870485131e-02 -6.775072346538366652e-01 -6.182987421370871317e-01
-1.103727541308218429e-01 4.199906395723486674e-01 9.207050229411735121e-01
2.502633173786300569e-01 -6.927764596152964360e-01 -5.582612671273528004e-01
3.012580956122150044e-01 -3.861622277542389181e-01 -8.332919366054973853e-01
4.725070602645581319e-01 4.662929938698570087e-01 7.139569615491885290e-01
7.655926264029516704e-01 6.374534464836478787e-01 -1.256047625479011498e-01
-6.671392769107820087e-01 -5.152822195356230317e-01 -4.214986831122823907e-01
-7.908589411774766820e-01 -3.378717822303254348e-01 -4.458320394921775343e-01
8.487204052063294091e-01 3.613224585443876036e-01 3.433126898059483262e-02
6.367504232102062511e-01 4.878102308344224869e-01 4.830419999155206590e-01
8.514427885779308758e-01 3.364517015511575004e-01 -3.472311389803623416e-01
-9.436345881823552384e-01 2.397832690944630973e-01 1.127892076454839743e-01
-8.125594502637423222e-01 -5.449950331561385086e-01 8.166823242534527322e-03
-6.500429325127210500e-01 -6.264825140567580330e-01 -2.861376371563625898e-01
-6.115756212171634676e-01 1.952370713276256886e-01 7.886644646866318720e-01
8.649666297234721579e-01 3.261274402952870077e-01 -1.814498086013509592e-01
-5.694534783753302243e-01 -3.807929732046341220e-01 -7.374526310479172508e-01
-2.836085936866276636e-01 -6.958415464728197053e-01 -5.490068795330372842e-01
