-2.341784061007825546e-01 5.567318613169469632e-01 -6.300275430217807671e-01
7.367010891105155723e-01 -2.839991625751249124e-02 5.875089773994568443e-01
-3.554872529188042307e-01 -5.439227990985173733e-01 7.249423309935705273e-01
-2.353980144972400712e-01 -6.608432344725382324e-01 -5.308171556531485757e-01
3.831174436229655700e-01 1.164466926741970360e-01 7.442108269620718586e-01
-7.687917811460501794e-01 -3.318668557713465566e-03 -5.959981285172418763e-01
-4.840592987624944832e-01 5.575129213084034641e-01 -5.652859091965189986e-01
4.054923405485627054e-03 8.652171763382336955e-01 2.948672171275729670e-01
-3.023227997072076567e-01 8.725749304139308604e-01 -2.119093926070261535e-01
4.645402757499825785e-01 8.293499254870610737e-02 7.084274108628713096e-01
-5.579011639416025375e-02 -3.441521652598635017e-02 9.424185442347645658e-01
2.496352185508136923e-01 5.482879815858492378e-01 6.193297262934041036e-01
-2.429695414591562519e-01 -7.043107352703062984e-01 4.743372649299106847e-01
-4.707655368526565964e-01 2.331707590971065225e-01 -7.169009411674095444e-01
3.694912237181279813e-01 -6.565104436017773493e-01 4.811774941995722310e-01
2.793941309722101640e-01 6.869522756532400187e-01 4.284717453491616035e-01
-2.416895939744898025e-01 9.488736092565821512e-01 9.718087713638225156e-02
-3.704378702701320858e-01 7.032790731425427877e-01 -4.632875247158584342e-01
5.040034451651135283e-01 7.339491817263406048e-01 -3.401377166590738299e-01
4.478497330970825363e-01 -5.923817992210258510e-01 5.193409550408417674e-01
4.278413380287977574e-01 -7.139417316116567491e-01 4.115846758597188071e-01
2.360157971372238428e-02 8.787763411619904375e-01 -1.046951700268480313e-02
-3.037731157310119001e-01 -2.569297837619623492e-01 -7.803720421201001400e-01
5.587084492872984587e-01 -5.774497832373211015e-01 5.013826890863680719e-01
7.879213196722919532e-01 4.073046250495055975e-01 3.680083811159668983e-01
5.660916288198239998e-01 7.310614172836085167e-01 -6.872714162018128681e-02
-2.175110276755501393e-02 -5.630496088726243409e-01 6.494461348547713175e-01
-5.011845787617291714e-02 -6.781668717494032661e-01 5.158444438722470382e-01
1.111483780151102246e-01 7.609311632425029837e-01 -4.027171933982052199e-01
3.950808967416766238e-01 7.338273553000410621e-01 2.077226156080118902e-01
1.293646793285822272e-01 6.738125223073011538e-01 5.749527751225161909e-01
-5.766701652523276850e-02 -4.014368483604802695e-01 7.918510547698546231e-01
6.276540601231670458e-01 6.030249099561849624e-01 2.515307680377965593e-01
2.218917174882602955e-02 -8.695612172140326779e-01 -3.377839256124562373e-01
-2.114924399507183417e-01 3.068736912845011489e-01 -7.886366296929276931e-01
1.697553374894641975e-01 6.959370385991467955e-01 -5.242056516269879562e-01
6.409723740728870411e-02 -6.598973308357967138e-01 5.282856292740907289e-01
4.269308989596579118e-01 6.092747341904081182e-01 4.173775808477298011e-01
9.069660363474205816e-03 6.130462237097056288e-01 -6.245893066368661817e-01
-1.132243678149854049e-01 -6.828442753783102726e-01 5.126117998141760390e-01
1.487743246450078938e-01 8.479836222080586738e-01 6.353163479623685772e-02
3.769287718573750140e-02 5.203614957941821856e-02 9.115994042959747468e-01
-2.872861330950372549e-01 4.032648797764489812e-01 -7.175530048361629110e-01
-1.231621427819381137e-01 -8.394859827134485419e-01 -2.256720444723226693e-01
-3.778349268513113146e-01 -8.512769961739719005e-02 -7.789070609376750332e-01
-1.393229114975415017e-01 8.489033197273632148e-01 -2.400338070746663999e-01
-6.412764536972370699e-01 -5.442803380532917901e-01 -3.538717763096385083e-01
6.162047075534855534e-01 3.715599042463300083e-01 5.119657502323092801e-01
4.927086576776633087e-01 4.548993829712523751e-01 5.313407904727371900e-01
-6.225516119617140881e-02 1.687802451302321260e-01 9.565393372074478817e-01
-1.370754604546802202e-01 3.454400165942441564e-02 -8.896186446307847717e-01
4.193161171689707145e-01 6.630704632568683587e-01 -5.754673543937445235e-01
-4.307693720550600514e-01 -1.079820092524009512e-01 -7.494589228624320976e-01
-1.041955997725374228e-01 -1.060223553229848320e-01 -9.090442247463376146e-01
-5.836938768221418966e-02 -8.432110358481794687e-01 1.469354308154027788e-01
8.560587913159287132e-02 9.158373873397840370e-02 8.901341253458023850e-01
-1.063030163941924983e-01 -4.431935413463289897e-01 -8.139197509682729592e-01
1.956586471919277703e-01 -9.102780475007955507e-01 3.575622017701470673e-02
2.413169022866563929e-01 7.989990908147397430e-01 1.957070306376787749e-01
5.689620907646014691e-01 5.923117538783804203e-01 3.214246631652053487e-01
5.908459019643763632e-02 -1.162870375506779158e-01 8.790535108833618105e-01
2.772122798599601506e-02 -8.715052285490747508e-01 8.465630659396582158e-02
-3.287646652396458008e-02 -8.780346466473442080e-01 -1.010986746661032276e-01
4.923279798796049989e-02 8.558912389769752771e-01 2.609223628188382937e-01
-1.819955867688810847e-01 -7.598155301200588685e-01 -4.085797186600170772e-01
-6.477559837953491551e-01 9.177604501914504720e-02 -6.597455651830897994e-01
-7.218716255661141723e-01 -4.316704075090281312e-01 -4.185515843861132845e-01
-9.801861074342721469e-02 -3.195222725223037519e-02 -9.119626586686687686e-01
4.947591070992520823e-01 8.939697210111188785e-02 6.923729332732657671e-01
-6.952206471131185950e-01 -1.331034472820174543e-02 -6.311985282529334329e-01
1.095815388403219293e-01 -3.643240352247897329e-01 7.651621870146652071e-01
2.608843640355876237e-01 7.201466939605313256e-01 -4.725832092767536796e-01
5.380731855366349681e-01 5.713320658115051964e-01 3.769903690774236149e-01
-2.312907103208224069e-01 -4.269763110767895165e-01 -7.465192170165556584e-01
2.964014496065707216e-01 -7.574425465257060841e-01 3.761057885363048858e-01
-2.554021313233082457e-01 -8.151004512681611081e-01 -7.574415508974359501e-02
-4.750070400301329432e-01 4.657218399833602113e-02 -7.392106978266541617e-01
-1.865123021533209857e-01 5.258767832090496253e-01 -6.664021532704531570e-01
-3.999845703381726403e-01 -1.820913329271028197e-02 -7.732858160704695338e-01
5.178275134777122757e-01 1.706050146863650474e-01 6.628973119540352288e-01
-3.958825874319832350e-01 8.511485810191019574e-01 -2.590606159811086884e-01
2.738774628413974746e-02 -8.584460128871884699e-01 -3.889801673106837443e-01
1.723094863316620429e-01 7.990354012684978136e-01 2.944698556386396993e-01
1.243709706946411614e-01 -5.527338844974822446e-03 8.695569348439464719e-01
5.672560350732786666e-02 7.674642637392433686e-01 -3.949337912879245516e-01
-4.664864866326902115e-01 -1.516970905362165223e-01 -7.225175081398720334e-01
-1.145128409975110749e-02 5.971332520970450419e-01 7.580379402918914211e-01
4.385324316501670316e-01 7.397592167538714625e-01 1.293616920247503965e-01
3.943463344462843079e-01 -8.140437962126032545e-01 2.875445628812504650e-01
2.067387295939891456e-01 8.313068788993107638e-01 -7.007933266449188625e-02
-3.087431138137854414e-01 -7.640322438082458589e-01 -2.474168795898241680e-01
1.769912237626555251e-01 7.702223424351568593e-01 -3.690357678236658723e-01
-2.998573472787489091e-01 -5.501082035350082222e-01 7.099182852627327067e-01
-3.081916748457424471e-01 -6.848592675002936891e-01 5.080236372612209061e-01
-1.847255737560757893e-01 -5.573959391144772679e-01 6.841534278416322445e-01
6.289939408995873782e-01 -2.005743537909446261e-02 6.386460606135427875e-01
8.794426381661335501e-03 -8.881318071781786339e-01 -1.679280527990272553e-01
2.223101358617184109e-01 3.299399394110335559e-01 -9.149623192885023570e-01
-4.112465540814874698e-02 8.688203645646044304e-01 3.506536318828254450e-01
5.793101572548504663e-01 1.466492637001908517e-01 6.366134568638299740e-01
-1.004715572442781424e-01 -6.765377237782396191e-01 5.215516721728188365e-01
-4.579334731155284555e-01 -2.117946117445844156e-01 -7.105898984409988461e-01
-7.122110796182918868e-01 -3.816825072105787808e-01 -4.680711503649160332e-01
-1.910538491288592822e-01 2.171668933385345335e-01 -8.290969779657292316e-01
-2.564044374538878429e-02 -8.770779859839118453e-01 -2.874089385618736406e-02
2.805087355275453498e-01 -7.520337018654988936e-01 3.849577865239850460e-01
4.298518561786261460e-01 -1.404600666378119644e-01 7.229503023333549994e-01
1.983388223542650042e-01 -9.394313831119313063e-01 -1.658414799017877694e-01
5.233453516638354452e-01 -7.613498850675846086e-01 3.434348804891849682e-01
-4.892130406182427782e-01 2.145790540301533433e-01 -7.137720224214010312e-01
2.659526907276414387e-01 8.098028249328554917e-01 -1.569852390126580954e-01
2.317903295906827144e-01 -9.081644050967740966e-01 6.375388091481921926e-02
-1.053553761368934416e-01 -7.711154048431291264e-01 -4.640214875707902031e-01
2.533345006429686859e-03 6.686559899673585328e-01 6.797564641597393376e-01
-6.107793322896858390e-01 -7.111967898160973522e-01 3.138453925986086079e-01
-6.578803576114007623e-02 -5.688676364738644818e-03 9.511900883230045567e-01
1.302289540498164921e-01 -8.964415552418745214e-01 4.967927538866569875e-02
-1.240060568190251428e-01 -7.534179016976375598e-01 3.845857532759153208e-01
4.225162459214715227e-01 7.697282177102467982e-01 -2.104881411835412275e-01
2.527822003793961381e-01 5.936240811508483595e-02 8.128458422359036151e-01
-4.392026566822959666e-01 -7.572507759564744978e-01 2.360221961477469710e-01
-5.943179091432949229e-02 7.092122821819621947e-01 -4.944862472337929749e-01
5.153620828934727394e-01 6.373532315940187987e-01 2.960457443251453546e-01
-5.204860305325996750e-01 -1.114937325627620573e-01 -7.032042581341072518e-01
-2.399367320373099743e-01 7.082159054127105113e-01 -4.770194134212449311e-01
2.080056204966783395e-01 -4.665405451918958057e-01 6.739650763829009295e-01
-5.055531431309718410e-02 -6.874378493954258484e-01 -6.463298048023911058e-01
5.275993562152005989e-01 -5.227542709239673124e-01 5.461312320428404199e-01
2.282245360390185440e-01 8.042368192074250688e-01 -2.327035039956951989e-01
5.054078049844118459e-01 -7.639209394398616126e-01 3.430784144424365301e-01
2.123403861007340243e-01 5.947797798433051009e-01 -6.747141782864910509e-01
-6.185522766071944734e-01 3.040434412460891744e-01 -6.408027821387012324e-01
1.671882375453853653e-01 1.804641546492023463e-01 -9.728253000172758513e-01
-3.560429901904319516e-01 -7.909491751180061092e-01 3.991994345930045124e-02
1.720916939423520475e-01 8.263548396966960974e-01 -1.715154329885797968e-01
5.607855039916116030e-02 8.398567777454336580e-01 3.161270627134084577e-01
1.471348450495580940e-01 5.945066933123880348e-01 6.492352262663032558e-01
-3.477122621896286958e-01 8.561734764028881006e-01 -2.487712845454233268e-01
-7.207745254461652706e-01 -5.965061644449137779e-01 -1.987019430104887685e-01
4.282249763618951599e-01 3.480505806590594164e-01 6.432843491869999486e-01
1.443333107250709124e-01 3.927020321318084317e-01 7.897974928621248614e-01
-4.469909690638971256e-01 8.542151886159162766e-01 -2.536901162884952488e-01
2.341669362752102357e-01 -1.188175660515184417e-01 8.078718207954680430e-01
-5.645486298162899486e-01 2.388191464845730305e-01 -6.782573756020937594e-01
3.729695330290646593e-01 -8.448949657776190503e-02 7.540823278778088223e-01
2.037707726600125613e-01 7.889787946015260900e-01 2.848961884943371214e-01
1.289138721634278117e-01 8.043794465875561128e-01 3.335581474348077724e-01
-1.675283776344760681e-02 7.429451861887222952e-01 -4.438946840841138108e-01
-7.281662912174101665e-01 -4.764429226846201293e-01 -3.681104535308644121e-01
-7.243686151967104747e-02 -8.650197521404869860e-01 -1.514380373969684557e-01
-4.016916681761104613e-01 -4.599403268606283568e-01 -6.151259096719402519e-01
3.461625118788409505e-01 2.093634308333187921e-01 7.439166008864079860e-01
8.337527406544828490e-02 4.153122511453824495e-01 8.149022905505708403e-01
2.990540693421080976e-01 1.510458255489882939e-01 7.809707941745018811e-01
7.559125067358147820e-01 2.448765312560469976e-01 5.001738983720627196e-01
4.441114377040022432e-01 -2.941679515048923887e-01 6.809362220974215507e-01
2.899830938860485929e-01 6.539672356417820520e-01 -5.956217484586080468e-01
-3.072362303831633890e-01 4.363177919330434307e-01 -6.931074865991304623e-01
6.848570617875207045e-01 5.184511589158901090e-01 3.265715017542441534e-01
5.635924633411568685e-01 5.627225706944819494e-01 3.675302932911770348e-01
-4.968415960917283436e-01 4.235053599323495011e-01 -6.394017030538337032e-01
-7.998203959445503441e-01 -4.256167871902122313e-01 -3.682712966732483717e-01
-7.304160770829979388e-01 -4.128968463824422841e-01 -4.296391427013775965e-01
-2.498543307723808445e-03 -1.298265976569096432e-02 9.234238187321641700e-01
-4.932183401952910939e-01 -2.805224296739264322e-01 -6.647856253479350608e-01
-6.851486612960218103e-01 -2.740636248118261675e-01 -5.546529026408745233e-01
-3.361660373777156652e-01 -7.107693759848582316e-02 -8.005391026805136478e-01
3.229731262519436874e-01 -4.829448956365559598e-01 6.306201166390085211e-01
3.892194985022987552e-01 7.633196315726952230e-01 1.091277451631804535e-01
6.606098290585545041e-02 6.052390924793499272e-01 -6.422076198385667789e-01
-5.726935261701784352e-01 -7.317324055779586001e-01 1.886132872954219275e-01
-5.692069000587867134e-01 -6.663021107194883053e-01 -2.051937661696719983e-01
-9.134739119070178770e-02 -4.370296240829101286e-01 7.752181730663286752e-01
7.064474106829142508e-02 -1.985592522216484690e-01 -9.860676682933449122e-01
-2.177741658636072608e-01 6.784185223429105571e-01 -5.153747282873797353e-01
1.380171021370072415e-01 -7.109870443771698634e-01 4.541320679967967844e-01
1.856584004500962393e-01 7.616060223566171183e-01 3.772474726388012067e-01
-2.099805678502792983e-01 9.386258282504464923e-01 6.707420552878939901e-02
-8.616638639266654617e-03 3.441496515274552470e-01 -8.371169155013546970e-01
2.377173739660597140e-01 8.117837953199843470e-01 -1.835356884246658049e-01
1.955538326742175398e-02 -4.075568236609662942e-01 7.661094950060137743e-01
4.410713594182261721e-01 7.682612794197514194e-01 -5.271202831504719771e-02
-6.276062299158172708e-01 -6.476371444026653990e-01 -1.853952504465861406e-01
-3.227319619166024722e-01 9.330795708507240160e-01 -5.597607530692388922e-02
2.034692910240471497e-01 7.030923151234904633e-01 -5.109195260402088490e-01
-6.607952318764459543e-01 1.910649907485909293e-01 -6.467780537732771284e-01
3.607657228962604656e-02 -2.474669334567703716e-01 -9.619309047876875018e-01
5.355838660336350587e-01 3.024420768070107401e-01 6.024469752319204785e-01
-6.346032407663015906e-03 8.732046492951150984e-01 -9.606483775706343986e-02
1.647645274758368084e-01 -7.684088300781165559e-01 3.678530163618243809e-01
3.243462043722572519e-01 -2.642708427524840809e-01 7.352620266599099175e-01
-1.887584980132632484e-02 -5.934379506535955029e-01 -7.667181430862319846e-01
3.744162886243409538e-01 -7.326451189177373147e-01 3.986076502620374828e-01
5.445215401978493741e-01 -3.139328595828661667e-02 6.789600217030553608e-01
1.489827157345099962e-01 7.789217447933498573e-01 3.769128530457633852e-01
-1.358727660562458750e-01 -5.306834283823573806e-01 -7.381009709752384129e-01
6.731713329116766342e-01 5.640437388457282264e-01 2.737686284862332342e-01
3.059433876373487404e-01 7.067002128884153356e-01 3.685467915838345765e-01
8.062699180351136363e-02 4.311170707024586379e-01 -8.066811845537551484e-01
-4.731357463111406370e-01 8.000712489594381527e-01 -3.325979846166147724e-01
-7.447303271478478148e-01 -4.299476866411003351e-01 -4.038367847907980979e-01
-3.415670203114565262e-01 -3.394689793155025812e-03 -8.007303623870229980e-01
1.073834118068069665e-01 7.582032741410372756e-01 -4.090271729511119614e-01
-2.921227567774695721e-01 6.206100275116667175e-01 -5.612641640044397917e-01
-2.138287520591512503e-01 9.009063365311356097e-01 -1.155392898943011365e-01
3.006413412130030660e-01 6.859975799754819414e-01 4.107580403046559026e-01
1.257097378428957690e-01 7.431858652747264093e-01 4.738018299400269528e-01
-2.559430950721590103e-01 -3.810230771878017619e-01 8.596975000713088511e-01
5.139460637195658599e-01 -1.378622518102812500e-01 6.875681988224466856e-01
-4.186895975600594122e-01 -2.765846062491233992e-01 -7.092065946122650955e-01
-3.715831279201278203e-01 -5.092321618778983261e-01 -5.950428603327903021e-01
3.458614690171733508e-01 6.683377641282844950e-01 3.990502288679233511e-01
-5.498985694545451830e-01 -4.307037672012334895e-01 -5.385810836018772862e-01
2.510844356909264774e-01 7.979280457430026896e-01 1.844808061195031823e-01
-2.173073638942394914e-01 -5.357554739292232915e-01 7.131595728593440597e-01
1.984361603996160905e-01 -1.121840254717344082e-01 8.237587781650980157e-01
3.734254312580028157e-01 -8.093082922392348388e-01 2.958033600921949335e-01
5.096566819878267651e-01 -3.963454101493589787e-01 6.183798315114730215e-01
-9.669863591444569084e-02 -4.954532152578973170e-01 7.285326128327311856e-01
3.438640924000723187e-01 -1.333573894982453822e-01 7.600138347489158175e-01
2.133028110963609142e-02 -7.642091025034685181e-01 -5.977016366237093425e-01
5.619649004294320627e-02 -7.840025946563122794e-01 -5.963198899180802703e-01
6.342930429430656547e-01 1.310991796603167003e-01 6.115101964809256385e-01
-1.938116547886709062e-01 7.376285392459542845e-01 -4.436447275631654752e-01
-4.687657759877746910e-01 -7.606082633593426179e-01 9.880875387029988688e-02
5.578099944859201686e-01 5.237488370619511890e-01 4.190989666833533356e-01
1.164564379004471989e-01 -6.917207217196293945e-01 4.818550660987315770e-01
3.685415712411379552e-01 7.695754278748885291e-01 1.154108650481612125e-01
3.542890550788355131e-01 -5.539033452202638541e-01 5.725761315946867880e-01
-7.718133427329635365e-01 -5.683584919076482000e-01 -2.022717092835704944e-01
4.056831997329235495e-01 -1.271523235673143459e-01 7.350371264905647406e-01
7.159368065000114578e-01 5.445514327961434864e-01 2.658899303201984199e-01
-2.104917488887509402e-01 -8.058539177417979316e-01 -2.351799472788422274e-01
-1.395725927294933118e-02 -6.587421696142120586e-01 -7.077895414411259356e-01
-8.381315257620730597e-02 7.569033395225224781e-02 9.670711465396127915e-01
-6.555987641280729417e-01 -6.812286849857386306e-01 -4.970834041780941570e-02
-6.424518699945607203e-01 -5.033913966026717368e-01 -4.032172375204203241e-01
-4.205360333965886266e-01 -6.080309330153648162e-01 -4.496580837102606698e-01
3.872160028267190857e-02 7.770961677502614684e-01 4.945440823751803272e-01
-5.025892176986995752e-01 -1.916706198482133194e-01 -6.925568338363556897e-01
4.476685991110762597e-01 -3.844291382413374536e-01 6.447856652495081997e-01
-3.304477353217454699e-02 8.902920933214857335e-01 2.255812615694942347e-01
-8.382414917373640639e-01 -1.333627946764114613e-01 -5.275534627506354157e-01
2.154532410135101828e-01 -3.065223270005318704e-02 8.275980526160489070e-01
7.420977792774070547e-01 -7.771179233389922947e-02 5.878718644200152665e-01
-4.062742200811054194e-01 -7.772001222494396844e-01 4.829720547639070050e-02
7.835325001139968604e-02 2.744993771677256555e-01 -9.011929273991272638e-01
2.606298316404946358e-01 -8.802563608647061555e-01 1.540301910472701985e-01
2.892193750361763960e-01 7.402826921205057920e-01 -4.199114255543353602e-01
2.235496701987759183e-01 -6.359142822195296141e-01 5.297327860810145950e-01
-2.861379448790652980e-01 -7.970840298522007261e-01 1.746665616687039790e-01
1.115462569922624075e-01 7.611430501286885197e-02 8.783299634484789120e-01
6.117685926820506381e-01 4.358111770310424404e-01 4.657445648899375956e-01
3.162011915763902614e-01 7.637460256991054353e-01 2.171270739186372256e-01
1.553727200622399274e-01 -8.817207724496748389e-01 1.185006531949153175e-01
2.169368976010683028e-02 -6.349225181316863198e-01 5.641044225684258562e-01
4.522976692993757597e-01 -1.984293286811937562e-01 7.034215850376761558e-01
7.502783076809365070e-01 -3.600697700733471174e-02 5.816044659993305777e-01
7.482661059364631440e-01 5.185419034160132501e-01 2.751683611832855259e-01
7.410969740483848156e-01 4.763671349341745409e-01 3.325367762477452471e-01
-5.265923975096370446e-01 -2.799394341008800691e-01 -6.456512872962461014e-01
1.019035447452967952e-01 -3.966577346789632585e-01 7.489633303261240549e-01
-1.706452113891482845e-03 1.940766906978679540e-01 -9.069369562815691177e-01
-1.049760141627867904e-01 -7.503323389250677877e-01 -5.048823105264927946e-01
-7.363929407784837455e-02 -1.482344642048329386e-01 -9.207857497258364887e-01
9.801609714866219361e-03 1.058969270035274024e-01 9.251175664708641833e-01
2.649920052931701853e-01 4.670017421013703540e-01 6.730011934492330372e-01
3.341066363285618013e-01 3.737463581052907768e-01 6.864106050314443541e-01
1.732293502449429590e-01 -3.526315656400155069e-03 8.482053162296508964e-01
3.588617428840182866e-01 7.536715494034185170e-01 1.927995932859066508e-01
3.283925246592464542e-01 7.608044370040821791e-01 2.103906623984510282e-01
2.831363686970295168e-01 -7.128266297906501459e-01 4.348945454631783503e-01
5.847509346441364109e-01 6.792208093581986184e-01 1.305667904394339218e-01
9.579932703669018224e-02 8.372122009624828332e-01 2.668134093453073952e-01
5.373209508820725455e-01 3.147534332124408141e-01 5.951378315700819321e-01
-2.559337665674102924e-01 -7.252667550060755142e-01 -4.055600416161221911e-01
3.900595184086250722e-01 2.759193746724563634e-01 6.983157367414811745e-01
1.964820078945536119e-01 -6.391748263033153465e-01 5.312903351325545254e-01
3.930118600309290972e-02 8.764799755435864759e-01 8.015503562875414892e-03
8.979084758134484034e-02 -2.673246622334302658e-01 8.183901674441814711e-01
1.256392319624110854e-01 1.686453154777917685e-01 -9.623732349340641257e-01
-1.346401417721168892e-01 9.081149011583080632e-01 -3.515789441151958433e-02
-6.460030800057593448e-01 -5.419224291298510021e-01 -3.531436982987068984e-01
7.665681530590416626e-02 -2.628541686176809056e-01 8.248224250165007154e-01
-3.709999183599672623e-01 -7.857623679436713804e-01 1.025511615691379746e-01
-1.266607812941062117e-01 -7.778268373010109871e-01 3.274637867571755789e-01
-2.616123530292083221e-01 2.938097808116585385e-01 -7.763689125272366098e-01
-1.958305531981988923e-01 8.687077243788802194e-01 -2.025140080876206283e-01
2.635809147546502862e-02 -3.142593493249883907e-01 -9.417136961328345102e-01
-4.261090979989844429e-01 7.814725138518746617e-01 -3.620905089474952265e-01
2.865584944261242994e-02 -6.313190794842773457e-01 -7.662644045904029033e-01
7.300677511329379810e-01 -1.012371634253332597e-01 5.937718541520443649e-01
-2.237798721244850797e-01 -3.198979407596471702e-01 -8.025146423663320761e-01
-5.786500612396726639e-01 3.686414636730106498e-02 -6.913050339409457790e-01
5.889212696360469623e-01 7.204665549745434827e-01 -4.388100688061179200e-02
-1.573894288689622889e-01 -8.442591267413934730e-01 -2.280587571005438657e-02
4.851215403078495969e-01 7.507465333342948632e-01 -1.320528778516724504e-02
-1.463534871393300518e-01 -7.281834770769713971e-01 4.340902842898801683e-01
-3.991607384272293640e-02 -3.071339528471790925e-01 -9.081798577049690069e-01
-7.847115108195940048e-02 -7.804674715823670672e-01 -4.719572255216424872e-01
5.612523071214947645e-01 7.302017057050470550e-01 -4.795405765784155339e-02
8.027773963523110456e-01 5.507752789648577840e-01 1.796251972211045100e-01
-2.009933965354337645e-02 -5.783753570811569489e-01 6.335068272445892879e-01
3.931300599449931710e-01 2.943380460628210460e-01 6.891986611703356802e-01
-5.518019618071602350e-01 -7.259847732051041280e-01 2.939262846152546071e-01
-4.477631810650258698e-02 5.509877408633834239e-01 -6.778350318200504487e-01
-1.631000076962199896e-01 -7.965926608908830975e-01 -3.355022064840542106e-01
2.122432552566092534e-01 8.295697445373805268e-01 -7.649931725349023992e-02
1.214066393358363138e-01 3.032417520813938117e-01 -9.001799110961660189e-01
-2.508171651412272607e-01 -7.930896667727688198e-01 -2.246421034331274047e-01
-1.106339603464520371e-01 -8.469341757637789403e-01 7.683300147154877024e-02
8.251086307124805286e-01 1.542053141129421656e-01 4.998568455109055897e-01
-3.055802616920163528e-01 -3.881399230571754618e-03 -8.172368028860190758e-01
-1.630347174207302796e-01 6.636904255671168817e-01 -5.405408612460879114e-01
-2.465158620652302401e-01 -6.863867472121670810e-01 5.079698436367663383e-01
4.237268740376504139e-02 6.234726388397846542e-01 6.967255195540923429e-01
4.218965011303144608e-01 7.678826855750257030e-01 -2.280003083356161586e-01
-3.667873919544267225e-01 -7.624696884634011296e-01 2.787159799883361933e-01
-3.298208209573780247e-01 5.156117476445244430e-01 -6.364981020557123337e-01
3.780952311438114388e-01 -4.053405384748433038e-01 6.580277867363039102e-01
-7.532488089646870444e-01 -4.793747907865365532e-01 -3.455609958681784555e-01
4.218772431135606737e-01 6.011123372634791240e-01 4.324590976629089645e-01
3.391847811197049589e-01 7.018448084423185573e-01 3.452787416688342659e-01
-1.523141747869764806e-01 -5.865667224320382234e-01 -6.792469933764065937e-01
2.935285401275597450e-01 -5.255791987443888535e-01 6.094208039255228915e-01
2.427936955972729294e-01 -2.119681434999459158e-01 7.822701606841889754e-01
4.042311463232429181e-01 6.553832697724224499e-01 -5.914081141196360081e-01
2.302565015869302012e-01 -6.143203330265759599e-01 5.497527149364936916e-01
-7.983188719036969916e-01 -2.307532605487468969e-01 -5.091418275712273900e-01
-4.986840337072762086e-01 6.398107285247808251e-01 -4.984803486450571919e-01
1.715632564478018762e-01 3.116476406452841075e-01 8.073242232001366370e-01
-2.446308865090533746e-01 5.011493391892833937e-01 -6.697529595551390269e-01
-7.192150532287028275e-01 2.695526658834602740e-01 -6.094020460034711428e-01
4.270651854896726496e-01 6.719881695348320916e-01 3.167858344568764695e-01
4.944863419379673664e-01 -3.512385682612542692e-01 6.422500145194234289e-01
1.909554138819049285e-01 -5.472424684777192905e-01 6.181883329093829094e-01
-1.235629362194470421e-01 -3.714627389968030435e-01 8.303467924793085375e-01
-3.573967429295605291e-01 -2.712675200749116167e-01 -7.457919657586693507e-01
-4.618357101700402145e-01 -7.492789747175613302e-01 -6.383552976555244285e-02
-4.060489007687507756e-01 -5.643490411768372628e-01 -5.150642239706105796e-01
-3.134377418974316765e-01 8.054974235456552334e-01 -3.357608766660088451e-01
7.146244898190148506e-04 -3.011385612286908153e-01 8.329390325646864879e-01
3.090469629625335890e-01 -7.898626216585615811e-01 3.286116864242937807e-01
4.244621254437185298e-01 7.123068350302946827e-01 -4.593956945858971297e-01
-1.972844356047767922e-01 -2.423882275890709981e-01 9.267160330725537909e-01
-4.007119577433216895e-01 8.395714730565833062e-01 -2.785797617787332259e-01
4.392731513355855322e-01 -2.567790844330283262e-01 6.942082727514179430e-01
-1.031337491757402941e-01 -8.529103964028703633e-01 4.210547711263201015e-02
-2.935268946686624969e-01 8.165418797231940307e-01 -3.181708085615787551e-01
-5.481822604052344339e-01 -2.532841266049999174e-04 -7.039823283456476677e-01
7.090597149835677904e-01 6.371653715663634365e-01 9.653170563632781920e-02
-2.352739906094320210e-01 9.369834579263511820e-01 2.091561077330256549e-02
4.811817115748609486e-01 3.912594436808489173e-02 7.051966617758356204e-01
3.397945037786334055e-01 1.413697224399089458e-01 7.620049193786138098e-01
-5.258740415185453321e-01 -5.492076199730189234e-01 -4.400778648715100716e-01
-6.705129139859933307e-01 -4.775221675700567769e-01 -4.103143600549274406e-01
6.368219951272091617e-01 4.955331035885476298e-01 3.903469793860053771e-01
-2.622190028822579122e-01 -5.825146701900615342e-01 -6.034094285885778230e-01
5.277661356159882855e-01 3.895373259672583743e-01 5.566278415418810521e-01
6.616570847264743316e-01 2.416451874067892802e-01 5.571385700079216630e-01
6.248306482180214783e-01 -5.111219947538969688e-01 5.236589394664973307e-01
4.605020272715986129e-01 -2.333436993158798656e-01 6.921876462247842365e-01
5.043349667536509706e-01 2.873600407439524385e-01 6.280187623001132202e-01
-1.491451839123153766e-01 -4.364939419649398467e-01 7.901575119916789403e-01
-2.500980951863124302e-01 -7.837511192297358376e-01 2.660821082978518382e-01
2.035285082540823354e-01 -9.416765384299181640e-01 -2.197652223713607300e-01
5.715860002326861311e-01 -2.670696160847892409e-01 6.401237678687193844e-01
5.107064222734052084e-02 -8.940847916096357206e-01 -2.558396234782641179e-02
1.923925116832355398e-01 8.236608744474624988e-01 -1.647253140021521511e-01
1.083129543547655949e-01 -7.619617323565313072e-01 3.794776624082088490e-01
-1.274178354215240415e-02 5.022390302766602810e-01 8.262347313638613855e-01
1.366167742482519432e-01 3.931581266077742720e-01 7.941086847203573384e-01
-3.539981971564093444e-01 4.394885139104836025e-01 -6.769201055059281824e-01
-3.089089384887645506e-01 1.809039456599118856e-01 -7.934245446237251365e-01
-1.464765618930322366e-01 4.755329725987973988e-01 -7.143313537025690607e-01
6.862595283260984891e-01 2.300879632593122448e-01 5.480136266766968411e-01
5.405083314843784903e-01 4.979888662434021618e-01 4.590110693028108813e-01
-8.416537306926733519e-01 -4.182483539919358839e-01 -3.451296975202025608e-01
-5.096616403568284687e-02 8.930178212606819654e-01 2.493807302245613644e-01
1.572466198446805519e-01 -1.305140655084157664e-01 8.366921715639177304e-01
-1.109704860169496571e-01 -1.998555968260855298e-01 -8.956631259421190538e-01
-2.770533886628674392e-01 -5.595791047656376582e-01 6.954598614360133491e-01
6.733765513196645625e-01 6.058299013682760803e-01 2.030777690595718665e-01
1.581370801921537506e-01 8.462110916171026176e-01 -4.594815911479442627e-03
6.818080740756081448e-02 -7.333858024419821486e-01 4.265477584703615266e-01
1.961900877057520809e-01 4.095734010008973969e-01 -8.526732867971823504e-01
-7.530315542611022428e-01 -4.016873976585816353e-01 -4.237239830164942211e-01
2.409899201983098371e-01 -8.365307777013815116e-01 2.480171760204122888e-01
-5.928276091564033123e-01 5.784599398596752540e-01 -5.209702547780883375e-01
4.208565619002340163e-01 5.755528408911492200e-01 4.650474848303029485e-01
4.763007554056796766e-01 6.520780456588455287e-01 3.064683577110313695e-01
-1.769704223051982162e-01 -4.465070533027876154e-01 7.888200589127838391e-01
-4.282049142717990753e-01 4.296256027229082286e-01 -6.587722595022340588e-01
-4.986972221899509394e-01 -7.389796140787742162e-01 2.776818515086969530e-01
-2.534590988229896147e-01 -7.913677770249628596e-01 2.336688663677508326e-01
-1.888688672052840356e-01 -2.953710436016009910e-01 -8.307887790826626873e-01
-6.133690649345572288e-01 4.789728891517921472e-01 -5.738476208579709192e-01
-1.044129118926911959e-01 -3.205256093270769657e-01 -8.688437909057087349e-01
1.209059064773980972e-02 -8.613640603145575891e-01 -3.558995386963515473e-01
6.692066072060509629e-01 -5.035635048996125462e-01 5.138688813230908314e-01
-2.624695867501930513e-02 7.586803589063839670e-01 5.860675065561075092e-01
-5.995043916822061225e-02 -8.531847490950938973e-01 9.853784936040006770e-02
8.381470402339302739e-02 -2.173393472209145250e-01 8.398081943484018153e-01
1.246277372599314814e-01 6.259132217786008701e-01 6.341366510946808699e-01
6.772191205512366995e-03 -7.526243306500431940e-01 -6.032418124051505126e-01
-3.812087789853885744e-01 3.343721861184251881e-02 -7.820747490133329594e-01
7.478863752093494188e-01 3.600352679101067599e-01 4.342632267730028861e-01
-6.987349945309324906e-02 -1.256621701014375980e-01 -9.242800493583575028e-01
-3.217732446607292629e-01 7.276854641915211364e-01 -4.425040901133648896e-01
3.723814833375000410e-01 6.411880245301273540e-01 4.179802568819336872e-01
-5.360549020568770029e-01 3.540132622322176292e-01 -6.553043577441547418e-01
-6.264966585845632707e-02 2.572116547845068601e-01 -8.611176694127823383e-01
-3.562171454670659543e-01 8.940565892206614462e-01 -1.716513208318912742e-01
4.104733653803770976e-01 5.128919989985209621e-02 7.383051683634296314e-01
-5.186282464045565144e-01 3.855279282945726638e-01 -6.490361905421445643e-01
-1.552886922139885273e-01 -7.116252712549568926e-01 -5.244799985394020814e-01
-2.721799386763331663e-01 -2.854606537837461322e-01 -7.881546890283137596e-01
-6.255616849115745726e-02 4.915594769042044287e-01 -7.241613201480792128e-01
-3.882006728682306784e-01 -7.801886249588148026e-01 1.269955879791151154e-01
-2.738658604194503243e-01 9.546865171528818861e-01 8.706656303595547430e-02
3.979456261517956839e-01 6.426597085577905322e-01 3.935874654721560617e-01
-2.435519441291016662e-01 -5.583084765428000251e-01 6.921923398351748080e-01
-2.217182367173054502e-01 5.778892418262728814e-01 -6.150236471803277594e-01
-4.351306024952793922e-02 -4.495428185024096801e-01 7.534919151016585825e-01
2.255865026035177578e-01 7.848642541981566412e-01 -3.099667335865465834e-01
5.811266462072108840e-01 3.611585031074029950e-01 5.412618598433232009e-01
4.958877660294979117e-01 -5.352062346291035499e-01 5.473747079534557747e-01
-1.720657590579549590e-01 9.353596928736456206e-01 1.622479273629508778e-01
6.277453774751007298e-01 -4.606649650330245094e-01 5.490361252830137095e-01
-3.901772605915486136e-01 -7.789244048248071817e-01 1.383212106187979573e-01
-1.190217462883097904e-01 8.728857829281867486e-01 4.426195430546418508e-01
-4.489528831482543225e-01 -6.166870465816437497e-01 -4.135137676811913576e-01
1.421369096278368993e-01 8.099230818120260744e-02 8.640134355153866741e-01
-2.101161052837078047e-01 -8.189545545517623593e-01 -1.681421536071018297e-01
-7.999858654507428779e-02 7.729414406307518748e-01 -3.922881269737971133e-01
5.707769527820739236e-02 -5.569648512148897002e-01 6.395434393948474794e-01
3.822712962102828294e-01 -8.551970817367156030e-01 2.197004627083049555e-01
2.535007069050499925e-02 -7.359023072280172773e-02 -9.690614665707962816e-01
4.637998723648438237e-01 -2.378214915906124161e-01 6.897725469943410959e-01
2.711435505144409452e-01 4.109420632727133205e-01 7.042700720074551723e-01
8.838898745010774494e-02 -6.569067134397149621e-01 5.286492887422874487e-01
-1.345936208932684286e-01 -8.472742771007107931e-01 2.712145958235770427e-02
4.417732882327571331e-01 -5.692545564335369512e-01 5.384585479920240836e-01
1.594892101299340559e-01 8.453025971883163514e-01 5.367301274874279604e-02
-3.728332982855411259e-01 -5.776461779622122511e-02 -7.839394982168270687e-01
-7.343474099248813169e-02 1.626679279308200221e-01 -8.900764958312751274e-01
-2.653637421148600239e-01 -5.044430957648856628e-01 -6.718098397179822490e-01
-1.801629131881780921e-01 -7.432819680461171252e-01 3.995443651597372914e-01
-1.685499955746245504e-01 -1.273310670141131751e-01 -8.766836428578054230e-01
3.431367788483125764e-02 -1.410901713915315714e-01 8.823856191283538930e-01
-1.329177258642354753e-01 9.094655717802085926e-01 -2.585905013404307673e-02
1.230099993660130481e-01 -8.459067939895776878e-01 2.105096100573591034e-01
3.333098087975575052e-01 6.188849933652024182e-01 -6.524632156623892953e-01
-3.877474459904526882e-01 -5.071512746338058264e-01 -5.855860156509669068e-01
2.589979519498074589e-01 -4.521661138299548632e-01 6.686239575114930611e-01
4.866290016275789387e-01 5.746481743180106294e-01 4.142732405033029419e-01
-4.044886174162137249e-01 5.622624913550811065e-01 -5.831266817187097384e-01
3.289504401946181655e-01 8.002807960304098023e-01 -7.843400175575175604e-02
-3.594981542994823420e-01 -7.350663734992719522e-01 -2.699475481264450583e-01
-1.835411087983874479e-01 -8.130849061877979400e-01 1.888070972114031520e-01
1.844818780549342119e-01 -1.635209850494665773e-01 8.180555048556776843e-01
2.686957314558087173e-01 -6.013788999378206768e-01 5.537141712534687787e-01
2.912194575914383091e-02 2.446171821698698290e-01 9.013714404030853666e-01
-7.701419861934060140e-01 -6.036443447405885898e-01 -1.328315607656831154e-01
-5.095659358008925999e-01 7.677215720211801875e-01 -3.687122281570341942e-01
4.915224830914940446e-01 3.422123548740975130e-01 6.081078483456651140e-01
-6.003854216048161163e-01 -6.534129309571997668e-01 -2.016054751377801824e-01
-2.028273954847401375e-02 1.278026537048707889e-01 9.386611461997165229e-01
-2.847236772339558075e-01 -7.854792348269045155e-01 -2.026396130833556797e-01
-5.073095721752725051e-01 -6.864426188995087497e-01 -2.250776094322284315e-01
2.960188587913404334e-01 8.459849737927641056e-02 7.907695898098932030e-01
-7.020770598241028726e-02 -1.832157636437556358e-01 -9.185833407183157107e-01
3.762116942767175232e-01 7.770818087305397803e-01 -2.302693734004561121e-01
-1.646688554310518915e-01 -7.537855483312437821e-01 3.781493003457744861e-01
7.314219399476011851e-01 5.089900391806776447e-01 3.012732319856641916e-01
-4.613964143802515849e-01 8.254579241789052890e-01 -2.979921142585169047e-01
-1.904324822542925455e-01 -8.335563823312389653e-01 -9.231868877358596903e-02
-3.393372505150197838e-01 -2.023373894964465014e-01 -7.770110945591630625e-01
2.172204527967117882e-01 7.653468571750965399e-01 3.338005864275331858e-01
-4.261452990650929640e-01 4.193782773678571552e-01 -6.646325275952199574e-01
-3.412888012246417802e-01 -7.870867330919690819e-01 1.658087198679570329e-01
-2.015137757039619504e-01 -4.077882765725812098e-01 -7.753764264265609052e-01
4.219093506190532139e-01 -2.659156146448436731e-02 7.355000269665175061e-01
-5.899584088094734780e-01 -7.144667847422089269e-01 -6.635203149876325868e-03
2.374299952057659646e-02 -5.184077932170763070e-01 6.814105522193770748e-01
-5.668634280128193731e-02 7.274516408416357161e-01 6.560302603118961517e-01
-1.679176210330378047e-02 -1.130326376728243987e-01 9.097125303066848634e-01
7.517902605061951293e-01 -1.805103642672105380e-01 5.803442856843313846e-01
-4.981485670704489666e-01 -5.238816359995600580e-01 -4.897029443036058916e-01
-3.243947133784221282e-01 -7.145289927088388504e-02 -8.061779730269609257e-01
-3.751574561577346589e-01 -6.368659102829455909e-01 5.932660488952616884e-01
3.585234320910257733e-01 -3.226758217562325504e-01 7.016661689337900798e-01
-8.060597154730388958e-01 -4.975281902514625543e-01 -2.811900902712246020e-01
-3.640537014450402897e-01 9.128801943000974806e-01 -1.280271175237948367e-01
3.021478278040685139e-01 -1.780670651519472292e-01 7.680819419553738259e-01
-3.274517511928387581e-02 -4.491214051015927633e-01 -8.552069714095588138e-01
-2.603552754778307721e-01 9.346677903448394886e-01 -1.334175718582054741e-02
-4.080181012339252900e-01 -7.043267869899781930e-01 4.510853250958001825e-01
1.011257215399643389e-01 3.000880125444643221e-01 8.496518587475561102e-01
-1.014948531954979888e-01 -5.251065259704931210e-01 -7.649814377114607655e-01
-4.291490891696232990e-01 -6.906643384247361794e-01 -3.005438741787478385e-01
-5.467976310253620520e-01 5.532968186738929095e-01 -5.506733891952940718e-01
2.398581612776242433e-01 3.935668670959533988e-01 -8.759653241100409105e-01
1.311235232767552633e-02 -8.649552827753097528e-01 1.032828863627549693e-01
4.947116861568950363e-01 7.470608257340506375e-01 -2.710274987912324463e-01
-8.112876404629946192e-01 -1.457151123633156631e-01 -5.381361631021612801e-01
5.145394563393200504e-02 -8.989456204950709850e-01 -8.035495479026528998e-02
1.529607281438234712e-01 3.993155764813476338e-01 -8.489370809563774323e-01
-2.595671470010218473e-01 -6.508257667104461186e-01 -5.244994138541266837e-01
-3.495003582813828724e-01 -2.178137011086824781e-01 -7.674288171313375928e-01
-3.462838637033767708e-01 -3.394989138424884811e-01 -7.234935676805281934e-01
9.577574132512180205e-02 3.454869639389201441e-01 -8.681443497949759003e-01
-4.639113489849495675e-01 8.386347843850758821e-01 -2.780510584923643336e-01
-6.255889519521198316e-01 -6.317947069865241516e-02 -6.585388907360101296e-01
-2.051433882508849615e-01 -3.347654511506353847e-01 -8.072028913951801998e-01
-2.775857651928598235e-01 6.752705329251411648e-01 -5.092660667432837851e-01
-8.335457164400231767e-01 -4.261599260586544924e-01 -3.430434857937352255e-01
2.415846998016887848e-01 4.499514447478171197e-01 6.992017681400305440e-01
1.831334380555965646e-01 -6.042052892849462953e-02 8.383473582360162490e-01
4.036632168606270332e-02 -4.423727073627239381e-01 -9.020141692958010271e-01
-4.968072286487285605e-01 -7.222139752383898159e-01 3.605560596474630675e-01
5.871637833432200582e-01 6.513413227855316956e-01 1.971851505658449855e-01
4.970259414499975104e-01 5.538648125230398733e-01 4.313737560801234605e-01
3.296504668086611134e-01 5.580249291155764402e-01 -7.351044488053404269e-01
-7.923386995440178104e-01 -3.722106448951852387e-01 -4.215376647780005870e-01
-1.650586685968575273e-01 3.633335044579863449e-01 -7.774752346221946997e-01
-5.121485305865020043e-01 -6.228543172487295276e-01 -3.483609377337347768e-01
2.083143365909834455e-01 5.223587413099560761e-01 -7.559714734391498325e-01
-5.989880011503215806e-01 -1.585220350211467844e-01 -6.503498006477752558e-01
-5.110430221893146330e-01 -7.429176010286514531e-01 7.582154130612596063e-03
-2.851549120453569786e-01 5.370089553655413850e-01 -6.328832400930551882e-01
6.644714408053442600e-02 1.295265243756770768e-01 -9.531260270174338745e-01
-1.376537183483722837e-01 3.951105517730508221e-01 -7.685582904595759102e-01
-4.817223649541126917e-01 -6.727510058292460737e-01 5.138331861571850956e-01
1.807818881656484133e-01 -4.946163885030021579e-01 6.617300269821321246e-01
2.679936742291293972e-01 4.454971295694702405e-01 6.853548312945191290e-01
-2.000765720566072825e-01 -8.286753192699042314e-01 -1.165545813720505197e-01
7.677005013890779717e-01 5.905240961996260918e-01 1.398767224443036583e-01
-3.076561896415814235e-01 -7.761162699672320420e-01 2.613777169097131203e-01
-6.559273545553189200e-01 -7.092895008998383322e-01 2.273885800254001055e-01
-2.789594083681214837e-02 -1.606219463718053519e-01 -9.418278196115826839e-01
7.134369744072974751e-01 6.675822034895987356e-01 -4.339930300629887827e-03
6.295490194489579139e-01 3.394009035895727555e-01 5.244770245357227578e-01
3.353668058839965327e-01 7.871146116848409813e-01 -2.180215755933171407e-01
1.131154497165887812e-01 -8.968827253383924170e-01 -3.667435433133627853e-01
-5.527928884609218524e-02 8.607214351980905231e-01 -1.800800793729518678e-01
-5.541798812564611154e-01 -2.796503894356211495e-01 -6.296507809017515278e-01
2.325186387743426453e-01 -6.835093191655870759e-02 8.163053541224172260e-01
1.312353882129855577e-02 -7.874600097268112942e-01 3.276684778906042705e-01
3.048479750004742250e-01 3.339547790484984069e-01 7.230185755997733388e-01
4.822348329490819818e-01 -1.240253072715234994e-01 7.027575852453012972e-01
4.008225086911454405e-01 7.797975563736279092e-01 -4.641137909792485833e-02
6.772885574737114167e-01 -2.755840257620155720e-01 5.962855459977558503e-01
4.891492397772465722e-02 1.828886767554830373e-01 9.012303298237821503e-01
7.772633513697603247e-01 9.347967356407678452e-02 5.454874131502034373e-01
-3.942646491760010141e-01 -6.039679742254892014e-01 6.467951263764448733e-01
1.340674561685474275e-01 7.358481209714579085e-01 -4.522855694372659441e-01
-2.183560099565429458e-01 8.695468937564733158e-01 -2.052663322673113078e-01
5.320791477605464337e-01 1.383660274173371674e-01 6.636221436574977206e-01
5.496119748657786463e-02 8.741641028496970334e-01 7.324080445030546616e-02
4.225704481101633658e-01 5.353631659103262885e-01 5.076619314899323276e-01
-2.846679860425104791e-01 4.928981717489036574e-01 -6.644853239195973593e-01
-7.158160187266519037e-01 -2.858215595230081396e-01 -5.296689450076423888e-01
5.103303564280731175e-01 6.243141206579405633e-01 3.229089398965547253e-01
1.145561289226618568e-01 7.786082089990483679e-01 -3.615221565672640525e-01
8.414002364046814508e-02 -1.439012523554607792e-01 8.623137100404529853e-01
-2.970294915011678083e-01 -5.033200043272190172e-01 -6.513296418847672742e-01
3.448655242548667472e-03 8.880813428782069474e-01 9.151140593504648868e-02
-3.319335684852781632e-01 -7.818698258485301533e-01 2.129095319314366352e-01
7.161416585177760030e-01 -3.837371970621422657e-01 5.502457656036751077e-01
-5.040617069685338070e-01 4.957306846337646289e-01 -5.988528958010026493e-01
-2.539958608362652415e-01 -6.382730484479804955e-01 -5.455906703152452186e-01
3.582640525281898664e-02 1.668927119332790088e-01 -9.300014386996677818e-01
-3.069697844352217708e-01 -6.768124210644708150e-01 5.234312778370686647e-01
6.807436284092439616e-01 -2.927480034084816718e-01 5.908302129384971346e-01
7.803199196066082366e-02 1.452024558039236024e-01 8.909151482075682305e-01
4.586231066829459246e-01 7.613701758249454832e-01 -3.292315963207969459e-02
2.460414028414799059e-01 -6.487826988042525445e-01 5.123873416710156281e-01
2.804683522787813632e-01 6.721562574517141453e-01 4.509422401114931978e-01
-8.156383414748538674e-02 8.058707201925134900e-01 -3.289036707002966353e-01
-5.490606543198893741e-01 -7.292722901784067790e-01 2.753739560822704990e-01
2.650707635937254447e-01 1.152291308162991523e-01 8.028667644284390725e-01
-3.055500723175206823e-01 -7.192114289595401555e-01 4.351256181127172717e-01
-2.236228279179018619e-01 -2.406004291220220359e-01 -8.284014557970955650e-01
5.073704637805209750e-02 8.269142496371548745e-01 -2.460574201371927838e-01
-1.410058005674983961e-01 -4.481818279666902605e-01 -7.898730815924654980e-01
7.057591867846271239e-01 4.545830507259487896e-02 5.931534731067511501e-01
-1.528066239997932507e-01 -1.442936843355248633e-01 -8.826126337806536881e-01
-3.917964816751417501e-01 4.739972169100342136e-01 -6.454962247465648728e-01
-3.351008896646960888e-01 -5.978375588649053052e-01 6.520395125205200593e-01
-3.364439017896788120e-01 -6.403376030720717704e-01 5.871266103373184997e-01
6.787891576427137474e-01 7.052224385659008332e-01 -1.808500260116621128e-01
-5.526250371433348851e-01 2.997480024817196220e-01 -6.672588513796198217e-01
4.954845879851749180e-01 -5.680535082820187265e-01 5.251010085665478444e-01
-4.837679619145592858e-01 -6.435645984567035516e-01 -3.390808832250319371e-01
5.559504727721040207e-02 5.110546484540534617e-01 -7.356862115461275664e-01
6.188292643815375138e-01 -3.060478541082066739e-01 6.113343289861687957e-01
4.748545781269739030e-01 -7.248294659483873748e-01 3.918733478506197243e-01
1.088992228450129662e-01 8.500697932951603031e-01 -1.003834092160078156e-01
6.133375908928073716e-01 7.187739812369128289e-01 -2.938607790229091354e-01
-2.510553126933975365e-01 -2.549433394748237824e-01 -8.096474498432392197e-01
3.978533013720684242e-01 7.745387354997834706e-01 -2.154606429072951357e-01
-2.642758477074397261e-01 6.193256518425038770e-01 -5.682672116882665492e-01
2.432217803557092106e-01 -5.313878941388516797e-01 6.180408946314631669e-01
-2.019598683654602600e-01 -4.550483156611839775e-01 -7.478042811161978998e-01
-1.922870638824056011e-01 8.285668598990271194e-01 -2.925781098406775027e-01
5.382716920986669873e-01 3.215669252034346060e-01 5.909667336387000036e-01
3.601058031662354164e-01 5.926283950528847821e-01 4.921630470910603461e-01
2.537550573764891793e-01 3.957780029528311649e-01 -8.778597053609159540e-01
1.785449734136091982e-01 -8.881650878014755168e-01 1.071854866277196783e-01
5.994455585947925519e-02 -8.172015441759049592e-01 2.680583804785693358e-01
5.047913222450153281e-01 -6.863615721283191640e-01 4.252623734041792170e-01
-6.628950503739905464e-02 -4.852934842548818906e-01 -8.141389541266846885e-01
1.307542171095704420e-01 6.253486597560290461e-01 -6.262579467038038583e-01
4.514493900895560907e-01 7.363011921995623599e-01 1.233362564406087492e-01
-3.046631068827986843e-01 -7.607706183007746370e-01 3.203771597143018068e-01
-6.521033417602559168e-02 2.270964575560453780e-01 -8.719807917649357032e-01
-1.498053287995248783e-01 -7.232772669218449080e-01 4.433291472739686045e-01
4.118452275110416894e-01 6.130981069777742265e-01 -6.647378234707882472e-01
5.420896857007849734e-01 4.812627743443191330e-01 4.739876798044788675e-01
-2.105301793274000910e-01 -8.244756259705126045e-01 -1.253231358042680987e-01
-4.109845677495316818e-01 2.643848835704167843e-01 -7.315986228329851571e-01
6.977173497816761827e-02 -5.324880414184357535e-01 6.587771863856727306e-01
-6.291631245694591090e-01 -2.349805764859086987e-01 -6.061082830610570182e-01
-4.422565880585544451e-01 7.180337556848780806e-03 -7.542353980846671080e-01
-4.014411254969587062e-01 -7.769949430962199699e-01 1.270770505746365020e-01
1.288922512319144453e-01 2.776399924681740017e-01 8.412292972735430086e-01
