1.792663858363741092e-01 -7.848213612860981403e-01 -2.762695435916844300e-01
3.962760094710691128e-01 8.040752449792989420e-01 7.961120016811253086e-02
-5.645917188476611281e-01 -5.770536188416646173e-01 -2.611193160603608732e-01
8.456604915999492711e-01 2.216239733335075013e-01 2.436774066075272915e-02
-6.180643146598645554e-01 -6.397295904939682698e-01 -2.790105729014050271e-03
3.115176263969121062e-01 -7.167451302599415763e-01 -3.586429593566374252e-01
-1.245958943291721605e-01 -6.912321469748494707e-01 -5.438490202768814230e-01
2.880824503022558214e-01 -6.728230772727765707e-01 -5.144849285708864572e-01
7.619461407928571628e-01 -4.557092651882510559e-01 2.695673818844127601e-01
-7.976292256551353876e-01 -2.332788965360191868e-01 -1.838047291466144428e-01
-8.248329150946454025e-01 2.289950315930376623e-01 -3.058174662615658485e-02
-7.946012518934209012e-01 3.008765284280121022e-02 -5.643971700190087981e-01
-7.949697292231565626e-01 -4.801937809723712536e-01 2.194077610316387816e-01
-5.355037803268244412e-01 5.301301758053613700e-01 5.869948421565249763e-01
-3.886161949891833167e-01 -4.932930140458468560e-01 -7.745602270262009759e-01
7.884498367512799977e-01 -3.038151014636282232e-01 -2.476788367955157222e-01
-3.407440359266652452e-01 7.657626759298248320e-01 2.154897071043988255e-01
-6.503201378566491053e-01 -3.234590329765404948e-01 -5.822718651974060355e-01
-9.544587120828989385e-03 -7.767111759648319680e-01 -3.494792029135574962e-01
-8.489955118420805524e-02 -6.053277903189603348e-01 -7.869138765500279797e-01
-2.812730566343693561e-01 -5.453277129716953553e-01 -7.888593526582325932e-01
3.352935863145756201e-02 9.175817676145430202e-01 1.837775431774406679e-02
-9.398963017792731633e-02 -6.028619376714360323e-01 -7.892633823280836847e-01
2.713065811527260451e-01 7.600447206495869468e-01 3.225838402608268152e-01
3.412178687161537827e-01 6.325038829314558742e-01 5.653984009245057729e-01
-1.654700966297384113e-01 9.028160937088968163e-01 -6.965630004306930245e-03
5.775508892977924136e-01 -7.142017737133274924e-01 2.036222896804251170e-01
7.607013959851772755e-01 1.724991937949356680e-01 5.410391069485432913e-01
-8.518447136014070109e-01 -2.982598921296609751e-01 2.069990093932716768e-01
-6.466309109805050692e-01 5.266685067352752103e-01 2.286692986184316045e-01
7.394068192424156916e-01 6.114223268170061454e-01 -1.962275129076657965e-01
-7.148887183103438403e-01 -5.287363258217427919e-01 2.798276728373775418e-02
1.952625671185791167e-01 8.458691513721720012e-01 1.595990544551334211e-01
-3.448827878332477725e-02 9.913873385162215168e-01 -1.938026668903320426e-01
6.977147084675687783e-01 -4.873460026215596930e-01 -1.086800772024091311e-01
-5.145543914623783299e-02 -7.371313706430026036e-01 -4.495725002165267825e-01
-8.751854367526674672e-01 -1.291222505690850786e-01 2.269074576451764469e-01
-7.257785990406097065e-01 3.586408408502100298e-01 4.816215771090993081e-01
3.425817006259110897e-01 -7.737254518004988979e-01 -1.466055641471418480e-01
-5.393438285578701086e-01 6.415618485025794682e-01 2.028698677484759849e-01
2.148173692703182203e-01 -9.347042184637588402e-01 1.865622164287828455e-01
3.789375101225453957e-01 -7.698184304768683761e-01 -1.033945585059447420e-01
2.050337993877895393e-01 7.319565694353890040e-01 4.464098802015544765e-01
-6.875204109061088253e-01 -5.274494560109599384e-01 -5.741323975056990964e-02
-4.497661929886414556e-01 -5.446725938395790001e-01 -5.556278682640172217e-01
4.324588618025611009e-01 6.950320185790286320e-01 2.921231067108915891e-01
-4.924939082755781516e-01 -7.508042291166687754e-01 -3.351609933926947681e-03
-8.466010817250040343e-01 7.485430601708055465e-02 -9.162497862884226574e-02
3.076779996236040857e-02 -7.115586469793289126e-01 -5.274542072885775035e-01
-5.798833501868014828e-01 6.407840368513548768e-01 7.621644733683542727e-02
6.751886102137218959e-01 -5.118496405393161419e-01 -1.317193680855645310e-01
6.935717264514531522e-01 -3.728782712378447273e-01 -5.765611172182266708e-01
8.165508212241300301e-01 2.261295775681951836e-01 1.845893327184293387e-01
8.747176130330576171e-01 2.835892081263466369e-01 -2.391396417280730047e-01
-4.453400362149099734e-01 6.404158536079873620e-01 4.303703042931962264e-01
5.901806867965380121e-01 -4.738886995572746397e-01 -5.931927336246987092e-01
-8.688070871757730407e-01 3.861116464525674724e-02 3.734487300529611420e-01
7.729790879688752669e-01 1.939420405805799830e-01 4.497407195067437691e-01
8.248117546838398262e-01 -2.411800114179005472e-01 3.919399341264297454e-01
-1.125647529628330708e-02 8.143590933995249470e-01 2.989449296170182957e-01
6.832964045291693989e-01 5.288418010684149406e-01 1.384532054223804320e-01
-1.669604586597888893e-02 7.579222937896927803e-01 4.529159431335459951e-01
7.726750233455044192e-01 -4.079043451635491757e-01 1.342034280431162185e-01
-1.510979711165697480e-02 -8.963401447885132045e-01 -2.445734082331733200e-02
-8.856751786713966679e-01 -1.257278382392504334e-01 3.469149071809476403e-01
-8.329695065828914835e-01 1.944235682205476545e-01 1.367609462960309684e-02
-7.515289816726854477e-01 4.117949292646826409e-01 5.441574030689474983e-02
-2.401732736064745022e-01 6.738969482000579658e-01 5.999609946715974695e-01
-2.016556438098875970e-01 6.934464488355626122e-01 5.716215564085548317e-01
-2.815412687956428961e-01 -9.255623659342497866e-01 1.615207476985770219e-01
-6.385721871031740937e-01 -4.785344497312000733e-01 -2.958054673524516676e-01
1.915839711090584208e-01 -6.054755569877308119e-01 -7.812140292610065817e-01
2.391795350934588227e-01 7.819481114220063755e-01 2.937906802388916550e-01
-2.742275288063286687e-01 -5.721753758211873819e-01 -7.301474891754973218e-01
-7.109033492426256595e-01 -2.225827369831936964e-01 -5.754785364219027199e-01
4.370368564397336120e-01 5.360783671613141843e-01 6.601804006366198685e-01
-8.662441273696026567e-01 4.730180516496820115e-02 3.116767745110611831e-01
-1.154492558992752382e-01 -8.978562229598561206e-01 -4.712483793482235596e-03
7.763581281464380091e-01 3.830248856303431482e-01 1.084969118651622627e-01
8.257632221286527185e-01 -2.292869704970606215e-01 4.072699111699100150e-01
6.851457597680327138e-01 -4.726760200194912720e-01 -2.341545387158378566e-01
-6.231650302394969865e-01 6.088616719238457708e-01 2.381546566831482803e-02
-5.937660154035537263e-02 8.059982360290061099e-01 3.154363121761601385e-01
1.066939204901966448e-01 -7.225135405034953662e-01 -4.856118988140506465e-01
-4.832414688934245639e-01 -5.867500533985126054e-01 -3.996867899996835449e-01
-3.783166188930044971e-01 -8.201332969287469243e-01 -2.447766502025224868e-03
-1.991309684652581291e-01 -6.766002917551625639e-01 -5.353365913417204025e-01
8.171157973328504465e-01 -1.257017647716018316e-01 5.750328616363376000e-01
6.019546670952536926e-01 3.904596774864423359e-01 6.474647468290891661e-01
-7.386961797819863174e-01 -2.675888921801894971e-01 -3.864207336906900769e-01
3.035148833862789108e-01 7.258415487649051423e-01 3.774732587542126705e-01
-8.580992903040656206e-01 -2.946689829287725271e-01 2.408350218078566252e-01
8.656385882415244815e-02 -8.553302153713459033e-01 -1.206822177002320334e-01
-1.415196050864903909e-01 -5.993332888355683563e-01 -7.726392869316077716e-01
-5.445416709913958320e-01 7.260021314248951141e-01 -1.033034179193001723e-01
3.676729756012234729e-01 -5.945643948592398420e-01 -6.569547213862607649e-01
7.009279279418054731e-01 -4.679186954840348633e-01 -1.689912950164701444e-01
-8.553665686267971635e-01 -3.020989800270359668e-02 -8.239836468399481043e-03
-7.711379387836381216e-01 3.366521934581889752e-01 2.383308564088945924e-01
7.761074172884567801e-01 -4.303878164250257154e-01 3.289019031050322006e-01
-8.848415395837415653e-01 -4.216595271304539316e-02 4.612809413778239387e-01
8.354631971360529930e-01 -2.073341508511863107e-01 -7.665859091749668841e-02
-2.620806097448507566e-01 7.099307446733287286e-01 4.753719254484392587e-01
-7.604857814755023870e-01 4.483600703434860724e-01 -2.502968492897671426e-01
-7.580284589799461958e-01 -3.604229676194071752e-01 -1.426402811776757706e-01
-8.471780924818870240e-01 1.051484549580081473e-01 -3.117477181453208110e-02
-3.362427260662373407e-02 -7.804803784804502653e-01 -3.367993515674150284e-01
-4.677811164814237865e-01 -7.893893176004400658e-01 4.722656962034436218e-02
-1.357583076313209902e-01 -6.188057811658980167e-01 -7.258267290329184496e-01
5.343189711609978021e-01 -7.109244916591220820e-01 5.005660663010743500e-02
-4.115682055741061718e-01 7.066050935775292086e-01 2.846104667740840810e-01
-2.309060061687158438e-01 -6.667050610926339438e-01 -5.351445474993051787e-01
6.021077971513407734e-01 -7.258737267681537597e-01 3.433872355416979216e-01
9.050189666637345476e-02 -6.936099101685372359e-01 -5.700406329249756432e-01
8.974053055272922519e-01 9.638486828368043879e-02 -3.918688252639770386e-01
-8.386267670752924897e-01 1.514676626969046480e-01 -1.006345686351810265e-01
3.003632555045187003e-01 -8.179881990297176442e-01 -6.818162021895329827e-02
-8.029794544672993473e-01 2.449230828004336086e-02 -4.999718379618132147e-01
-6.077899790334051477e-01 6.001526972622217571e-01 1.186395656651794694e-01
-5.495730128646040269e-01 5.019067141797448617e-01 6.444661928474548773e-01
4.939490449175468201e-01 6.437579559641365412e-01 3.130682452161837048e-01
8.269102123027053386e-01 1.943364230972479956e-01 1.728262678368580330e-01
-8.561569819199833509e-01 -2.834546430353628455e-03 8.100793389759201489e-04
8.815990830581440507e-01 1.728760733844642294e-01 -1.911327925641946868e-01
7.938752834720026463e-01 -3.128346399589113092e-01 -1.365393217871820053e-01
7.303934254707770135e-01 -3.477419638243168798e-01 -4.876743215869231984e-01
5.462910642187074339e-01 6.198184554747226960e-01 2.695634470846445807e-01
-2.897742985706609486e-01 8.738153152364258602e-01 -4.371088687205608447e-02
1.927353938537564870e-01 -6.540237066169363178e-01 -6.424040609393184553e-01
2.231072684942439210e-01 -7.217399703129842026e-01 -4.279342434893307900e-01
5.497905415048399691e-01 -6.873515558435562278e-01 1.605737329355315379e-02
5.361696496279922952e-01 -7.377538030170806005e-01 1.474507457139797861e-01
3.282386270834208308e-01 9.419789214545539746e-01 -1.859794033394076840e-01
-7.851388257065140541e-01 -1.098639047242042643e-01 -4.357156187354716548e-01
8.398842960051536854e-01 -1.928470219886712633e-01 9.131595422315889887e-02
5.454731509387626964e-01 -6.068584905797524964e-01 -2.707063155663972931e-01
-5.386734479945688020e-02 -9.630244926909781178e-01 1.577898918909781123e-01
-1.360725302589001762e-01 7.210837051632457140e-01 5.283937391367602432e-01
-6.742309558140322512e-01 -2.192839496474353334e-01 -7.123274719576840885e-01
4.915663191810271671e-01 -5.398280028633176686e-01 -6.204657484955800051e-01
6.184255475099126320e-01 -6.160889061437040404e-01 6.040008275095471932e-03
-5.798338593366768601e-01 6.638665231514490062e-01 -5.611879100550123955e-03
-7.199336897933443780e-01 5.283561458555233736e-01 -2.218602002116323302e-01
-3.685493413351539904e-02 6.379903322295571444e-01 7.795411486856772543e-01
2.826340463655991828e-02 7.418586443198156299e-01 4.941535686654955906e-01
2.890933240713401409e-01 -8.685348494699342003e-01 7.003212590402224658e-02
-8.290634284901192419e-02 -6.399653241080158761e-01 -6.968474696521339551e-01
-8.121538352677354355e-01 2.168527159837392859e-01 -4.997127539801362039e-01
4.624375639733251941e-01 -7.099098539923526241e-01 -1.352733440354191019e-01
-8.373452426379822677e-01 -1.608976918498595254e-01 -5.600251489571720503e-02
7.914835324916881243e-01 -3.104951375751602294e-01 -1.786488836565023330e-01
3.537455892677328628e-01 -7.349838452622401430e-01 -2.490326236867581311e-01
8.870289332909789826e-01 9.481513717838495336e-02 -2.324377567839435166e-01
8.082990255166448978e-01 -3.203054327244144184e-01 1.941885801820302793e-01
-6.526750898673306933e-01 -3.688636163531470169e-01 -4.830683800046513543e-01
-4.272319665307239278e-01 8.147401389897305224e-01 -8.995726323888234011e-02
-4.464360469022799482e-01 7.312038146342456635e-01 1.379663836244272301e-01
5.699340230584692968e-01 6.414663206912811777e-01 1.726533299867333560e-01
-8.806725317306492995e-01 -2.943527974425239752e-02 3.901130393711947919e-01
-5.921444769378455542e-01 5.319688882104142147e-01 4.169284349419322688e-01
-6.949096098858905668e-01 -4.182532044786650971e-01 -2.547179714613715951e-01
2.179475074588869965e-01 -9.225329186859265729e-01 1.537062931280047118e-01
2.138284692830276848e-02 -6.923182234162800208e-01 -5.797580600147569374e-01
7.160950522551197128e-01 4.952310420665174684e-01 1.084018814745945636e-01
8.039557248350484020e-01 1.914252822771353793e-02 5.414444859700249246e-01
-8.615562742216702485e-01 -3.400371593267993986e-01 3.206544677216814354e-01
-4.718686459820484180e-01 7.521813253515615694e-01 1.209696853539236200e-02
6.888659246798321811e-02 9.269570623507797924e-01 -9.429659329750181979e-03
-7.904320822304869987e-01 3.701728287090130798e-01 -3.044101062155059045e-01
-4.108720526443963156e-02 -6.536339668747681575e-01 -6.746379812860772152e-01
2.870567663099795053e-01 -8.083091973117808582e-01 -1.130129237097105416e-01
6.415762932099200455e-01 4.848213325121311090e-01 3.447425470657795032e-01
-1.994769156880258909e-01 7.176241848637308074e-01 5.034996352205669545e-01
8.663917087738285394e-01 1.188922928743883084e-01 -2.066663755980149841e-02
-8.394925468869173235e-01 1.621916495406072745e-01 2.290975234494062596e-01
-6.025775189220704542e-01 -6.477318027478162765e-01 -2.106645244164067829e-02
-8.135704324628143524e-01 2.761915550267936559e-01 -1.249108654933878543e-01
-7.999266517364808093e-01 1.370042534947269949e-02 -5.094855075479477469e-01
1.948746034754146317e-01 -6.151118908147847897e-01 -7.521028337602121416e-01
1.834506339088031734e-01 -6.657193286819507172e-01 -6.141442129136610584e-01
4.223143457860908390e-01 6.265197975871370506e-01 4.699930317638542632e-01
-8.051112742207571227e-01 -3.185130083839471937e-01 -1.200933323734475026e-02
5.820696882385297810e-01 -6.266178682065381977e-01 -9.064063211537320974e-02
6.120414798533920786e-01 4.032882562140200911e-01 5.943277022783374219e-01
-5.707458453354141703e-02 6.823383896694965589e-01 6.571108325129774164e-01
8.592892201837765143e-01 -1.081797178951490607e-01 -3.039713575080078001e-01
-1.165297819376144434e-01 -7.972527308519719025e-01 -2.698553675229726223e-01
6.901596358642324569e-01 4.970016231662297557e-01 1.837729336148211101e-01
-7.422364885435034365e-01 3.025441329167896654e-01 6.137483004059716141e-01
8.866372529663397728e-01 1.587783929263328689e-02 -3.743150774430560879e-01
3.099337163338236611e-01 -6.508262959671577974e-01 -5.570475115677285816e-01
5.757684721492684066e-01 3.712068505893553194e-01 7.537841715425123157e-01
8.951454314873223961e-01 6.167805582267794212e-02 -4.279752502930405655e-01
8.308627813011946195e-01 -1.607755197904416899e-01 -5.297888385972597813e-01
-5.423261311892049186e-01 -7.457108359255324448e-01 7.370303643205053379e-02
-5.949542189525414138e-01 -3.548923092625829168e-01 -6.715164593669380455e-01
7.972592656329440253e-01 -3.327161768398055885e-01 3.465273859679775942e-02
-4.074195273185811095e-01 6.487461955975099004e-01 4.728223464841285750e-01
-1.440411787973639446e-01 9.340631292458778656e-01 -8.235720907184478079e-02
-3.906682597440971350e-01 -9.008631995440351536e-01 2.095832224120289800e-01
-3.716912678432282013e-01 6.742535563828375711e-01 4.505380449573646584e-01
1.732526838121695445e-01 -7.639570326074757167e-01 -3.396458577980863702e-01
-7.931365874016680362e-01 -4.523320610382400297e-01 1.624345907992801874e-01
-6.450250579382640348e-01 -4.059480670976517436e-01 -4.290927282609550142e-01
4.782854454990801973e-01 5.562909242808912191e-01 5.428866673127371589e-01
-5.820440713493247875e-01 4.716345504272702049e-01 6.562836219928664949e-01
8.228572815171012467e-01 -2.628450107068431296e-01 3.337013102126176745e-01
-6.012301456985295056e-01 -7.362026968836693497e-01 1.712602313305476576e-01
-1.997971259229313346e-01 7.579159931344141565e-01 3.870701139414445269e-01
8.382583986797306208e-01 -1.972907810692759167e-01 1.470110347156280139e-01
-6.380355367222336760e-01 6.841120233646289517e-01 -3.365450395533969297e-01
3.015468814927618757e-01 7.666447346432776477e-01 2.778319783997488801e-01
-9.442175578484565679e-02 7.470363779735800236e-01 4.705192987159130813e-01
7.787210040289739288e-01 2.228763057154219684e-01 3.755100612345155242e-01
-1.653635061905667780e-01 -9.375527612712259984e-01 1.188919868774125366e-01
-7.315044833291020066e-01 -2.640315052535959772e-01 -4.209580706006076922e-01
-7.748061402619470517e-01 -2.832871415047885089e-01 -2.088100248891504584e-01
-3.738463678756309139e-01 9.046624633966120488e-01 -2.699536615769071446e-01
-7.112308622900263000e-01 -4.892071051590308750e-01 -6.217415673749495525e-02
-6.836648147362687222e-01 5.656401137247594191e-01 -1.190910264050863282e-01
-6.655659396591276922e-01 -6.814415562482930566e-01 2.035535531812280863e-01
1.498889335260615852e-01 8.242364371172944404e-01 2.395473425534167533e-01
7.596690053122047148e-01 -4.133622424642116044e-01 1.715719740768865964e-02
8.221623944468439138e-01 3.227944565362991791e-01 7.793586932657175365e-03
-5.561455916336064398e-01 6.915813236694140498e-01 -2.139557530236636806e-02
2.926221948043781773e-01 -7.134645185432916259e-01 -3.894485865627062005e-01
-4.121881575103135131e-01 7.026104670392350204e-01 2.960442725036399603e-01
8.239964460543218738e-01 -1.897927232761579819e-01 -4.522865483682357302e-01
6.729609059675168981e-01 -5.104238494512447488e-01 -1.482808590497404766e-01
-3.151065984036692802e-01 6.379991341217040590e-01 6.337380039400767329e-01
3.502317158605764980e-01 8.272846404457474545e-01 7.696738113176433693e-02
2.606317829311531886e-01 -6.215888900882362567e-01 -6.894775608446614967e-01
2.787777193868087866e-02 6.334871031010202991e-01 7.849041795077200678e-01
-1.392982577238113112e-02 -6.285171601321829504e-01 -7.478621396245820341e-01
8.709180274277671385e-01 -5.565202062276230349e-02 -2.214261859541706012e-01
7.480957438630496670e-01 1.442390621256700312e-01 6.445680563388959117e-01
8.255046118260572774e-01 -1.719693395826086268e-01 4.861769370823943448e-01
3.120562678399966261e-01 -7.515971034979511689e-01 -2.535038701932229577e-01
-5.316847393773814767e-01 6.071476739553065549e-01 3.403782240688993932e-01
-8.531373641336271740e-01 1.066810156650083996e-01 2.053291499375048124e-01
-2.189111383078300999e-01 7.907949414241932651e-01 2.768547530375062293e-01
6.868273022547896067e-01 -4.156382238583636868e-01 -4.454255623538223019e-01
8.061938660963589021e-01 -3.367629055162115193e-01 3.263641890183092142e-01
4.383128158298440491e-01 -5.842163009771342841e-01 -5.813674532249639704e-01
5.306629897644800087e-01 4.487119274607088704e-01 6.856646149319346462e-01
-7.657689775443672353e-01 3.053616538037872696e-01 4.365164700684655563e-01
4.936394958441709946e-01 4.421987386384599317e-01 7.754363802177092202e-01
1.273388473785692643e-01 7.691335360712229230e-01 3.938672914193944163e-01
6.540201744826430463e-01 -5.245716318350144292e-01 -1.826173226943113570e-01
-4.508649139700574571e-01 -7.919978691478013477e-01 2.767781894692659256e-02
-9.612562039457281382e-02 -8.504013795027444145e-01 -1.364197996442406691e-01
-4.722127934951283468e-01 6.260034875553301958e-01 4.216006687136689135e-01
8.147073490419344255e-01 -2.849404436716172495e-01 5.087159460375785258e-01
8.169126764928066331e-01 4.778489480676499923e-01 -2.256333913760699139e-01
-5.025517911752218625e-01 -5.025309391171732809e-01 -5.559652125378861109e-01
-5.677172750252175160e-01 7.696415944174829216e-01 -3.403499826832213082e-01
-8.645314560866090847e-01 -9.369764168481208022e-02 1.058918662404522010e-01
3.202016056966339869e-02 -6.378176969098255933e-01 -7.280603775408507339e-01
1.736617112515405070e-01 -8.723530750563172065e-01 -2.826510008325156323e-02
-7.974434684729692080e-01 2.414822429740215992e-01 4.543225878214477431e-01
2.835606554277000924e-01 -8.023114109426493501e-01 -1.348897529487567415e-01
2.423281228137182386e-01 -6.562394929038067870e-01 -6.032321719862739906e-01
-7.361698661943025246e-02 7.059855057324843086e-01 5.895154413823170403e-01
2.092066509162946453e-01 -8.436876277113043443e-01 -8.463374615537065659e-02
1.329472283639743235e-01 -7.876466718275914047e-01 -2.930404120034997284e-01
-4.429343908954112008e-01 -5.069881496505479479e-01 -6.549100296162584378e-01
-6.635454324123948311e-01 -7.001858218244946253e-01 2.383533774831030072e-01
-8.093546514239152723e-01 -2.188500879352927100e-02 -4.047328647264911705e-01
-1.028356513919607834e-01 6.393979118901693681e-01 7.679231027914413810e-01
-8.163133228829316801e-01 1.825482114427119384e-01 5.553010465542547180e-01
-8.326878497445244776e-01 -3.051105447342492005e-01 1.071537741240776581e-01
-3.336112688623381617e-01 -6.949048563691210267e-01 -3.618263096782274313e-01
3.588005499907155893e-01 5.272182336939952307e-01 7.979947184921650782e-01
-7.813212337803553398e-01 -3.884977453301369232e-01 1.155892374182670686e-03
-7.816085099474899822e-01 3.271882480444702201e-01 1.741622446859359685e-01
8.719452114641543794e-01 1.748220774660939614e-01 -1.099504186384463733e-01
7.966844027478839907e-01 -3.056259345152176343e-01 -1.415765774894754692e-01
-6.122640286693484812e-01 6.320856757093832323e-01 -1.615669577739121260e-02
-8.892642547457758895e-03 9.545058445138645542e-01 -8.584977256936934809e-02
-2.177407758858944664e-01 7.410652991747685991e-01 4.224855176380083455e-01
7.755503522328736909e-02 -8.568697792277840675e-01 -1.192200783987318047e-01
-8.496755237237290093e-01 5.098148729357898125e-03 -7.613765925880749963e-02
-4.286956123315028289e-01 -5.474478530900432904e-01 -5.841037999143083859e-01
-7.882889835984220328e-01 3.263504391014019346e-01 9.071870762994561910e-02
-8.719500118363519015e-01 -1.708080225586450229e-01 2.170722189725865225e-01
-4.917125667671248257e-01 6.595793918070605999e-01 2.683033406878565508e-01
7.626329794123105216e-03 1.000000000000000000e+00 -2.088092454573534096e-01
-6.460742977909337270e-01 4.622342159062401978e-01 4.696564508965088702e-01
3.012668974205715000e-01 -7.211727027502020659e-01 -3.570948650393498958e-01
2.935819769022512404e-01 -6.412716831931393191e-01 -6.022035820687871022e-01
5.586540695176073212e-01 6.698010607530650029e-01 1.320357414201760449e-01
-8.612999623808523797e-01 -2.643816707290368995e-01 2.248275588169610095e-01
-2.721699303263325209e-01 7.423182956834458723e-01 3.698128790897984852e-01
4.957418345161025974e-01 -7.831777408943572105e-01 1.855617092782538557e-01
1.857039621334828361e-01 9.015157084696334699e-01 2.049134441340022192e-02
3.133076559525586058e-01 -8.388918053814128362e-01 1.149096484442531894e-02
-8.938771937167130921e-02 -9.263590869175377662e-01 6.420397355260264172e-02
7.298770454995713308e-01 -5.241521668994161276e-01 2.807539624842881332e-01
-7.071402159465746129e-01 4.575857395929011640e-01 1.855509784487098801e-01
7.713882074014503099e-01 -3.307014781357885957e-01 -2.771802465278114802e-01
7.472307315079751433e-01 5.491361376417185358e-01 -9.817668010406023493e-02
-8.222592207215517757e-01 -2.265232343173211593e-01 -6.334499372773651216e-02
-7.659566151527616440e-02 -6.597244372564654569e-01 -6.472833547120498965e-01
-8.395106959003278968e-01 4.998198386668827736e-02 -1.950936238005978873e-01
-6.543927901147167381e-01 -5.296851867232276190e-01 -1.460140072804120004e-01
-8.149311631661002586e-01 2.237491275083679579e-02 -4.087001389516761729e-01
-2.532082804682392330e-01 -9.496911047332025069e-01 2.012014125807565501e-01
3.657877250902619726e-01 8.459754139174089360e-01 1.364894429997297667e-02
-8.020915258733607445e-01 3.056316969413570006e-01 -2.025573246281024697e-02
-7.238071841415025798e-01 -4.761381185052229181e-01 -4.723244310734345253e-02
7.924138650694168007e-02 -6.162622048646840822e-01 -7.852384533340602824e-01
-5.166879213425627955e-03 9.902289093776509565e-01 -1.838726033311367525e-01
1.519331611488540235e-01 -6.867262230412002344e-01 -5.697497543946837828e-01
-1.446948323236624534e-01 8.273721569727556790e-01 2.226991751592405366e-01
-6.085559540053421257e-01 -4.756489243565446001e-01 -3.797675643991189620e-01
7.364130284133110216e-01 -3.483587924544613856e-01 -4.498192412406450957e-01
6.421941774959720739e-01 -5.290820094035816323e-01 -2.164181038681929903e-01
3.796485560675576763e-04 -8.841922853653662040e-01 -5.715308390004799483e-02
-5.463511236533825643e-01 5.184350072885712812e-01 5.978282167575602601e-01
-7.697814550658863553e-01 -3.238250244873790429e-01 -1.603174235837346584e-01
-8.188500686609203605e-01 2.278461350699861887e-01 2.233439304813621407e-01
6.224775999482073940e-01 7.241919951324488069e-01 -1.245033680244268387e-01
4.785346624949047833e-01 4.764356871467193000e-01 7.261039451450231885e-01
-2.074784000780573456e-01 8.839844491540372884e-01 1.438515069705047743e-02
2.858118812219175714e-02 -9.511124287809087363e-01 1.305544992888405809e-01
7.462767646597845417e-01 5.857293026495474786e-01 -1.669554493554545049e-01
1.041002493041295329e-01 8.106269091091787837e-01 2.932853714399658585e-01
8.260370752529256899e-01 -1.933718131397849649e-01 4.641361259479717671e-01
8.451432406801453467e-01 -1.411004623406131586e-01 -4.249957676037808829e-01
-6.111679434225482099e-01 6.476889483645024148e-01 -6.926637861359309645e-02
8.069057212487159569e-01 4.306218660910775542e-01 -1.012487587316163451e-01
7.947381269608567722e-01 3.030179392486466727e-01 1.693098107445201173e-01
-3.959861113776625419e-01 -6.272808985067307441e-01 -4.448650539101722257e-01
6.273913353735931508e-01 4.016276312865519893e-01 5.574243163695289383e-01
6.838244775046505852e-01 3.659556713407959849e-01 4.671661981036038802e-01
-8.867750826598179703e-01 -6.877995140233995885e-02 4.225031152673625057e-01
-6.726054908565830270e-02 -8.175463316477815656e-01 -2.313211359371409592e-01
5.341931844401565099e-01 4.865225435546218224e-01 5.937845851433566358e-01
-3.452633413894448111e-01 6.091541678082158517e-01 6.845057040762149159e-01
6.753035978976470455e-01 -6.186093385481659102e-01 2.968037875073215592e-01
2.741752155311083516e-01 9.060891055462151344e-01 -4.891413637679060955e-02
7.536242887435876669e-01 1.526953722973896366e-01 6.059070142444049623e-01
8.054497551512638243e-01 5.433836121261577390e-02 4.876283532716291225e-01
-7.559656063046799046e-01 -5.263708478279458536e-01 1.589086582853534435e-01
4.689000325588432161e-01 5.925114986186249544e-01 4.752927439901071249e-01
8.781754836282404941e-01 2.839159971587139619e-01 -2.632646841581348651e-01
3.385172717799545539e-01 -5.767298356086969502e-01 -7.462313336506715133e-01
-7.696049082694150778e-01 4.011667463851579241e-01 -9.471003403539540733e-02
5.549389925224356146e-01 -6.785752005720839808e-01 1.842441969838151845e-03
6.128318433593578085e-01 -6.313103331728308065e-01 3.921461511790558241e-02
-7.820346196463048849e-02 9.774431208963207940e-01 -1.702711138960944226e-01
8.843554265507528322e-01 1.044267923256623348e-02 -3.230070091203081084e-01
-3.278568748100076924e-01 8.425480684487806071e-01 -7.441930523928367951e-04
5.473888971381797586e-02 -8.904635094401879281e-01 -3.185387255948642776e-02
-1.739746946387044080e-01 8.659688433077591396e-01 9.339569732142648240e-02
-8.470686560195509474e-01 1.255851583725079053e-02 -1.063074699749339130e-01
4.760752479633469370e-01 7.970106032683013098e-01 -1.561565443192698514e-02
-6.569378721634357987e-01 4.893299540965231897e-01 3.231364394975981824e-01
-8.076952469533246193e-01 -3.458605590452574763e-01 4.458508727691943424e-02
-6.717621202753252252e-01 -2.587935632202361669e-01 -6.437088073317270842e-01
8.337463842033452366e-01 3.321688444026130727e-01 -6.502508190308489699e-02
8.552217879728768457e-01 2.487579355919721513e-01 -6.979219548351667246e-02
-5.830341047182582281e-01 6.034490018486287077e-01 1.970699625675679800e-01
8.381316418626917342e-01 2.561372518534963949e-01 2.273301842883767784e-02
-4.183952896045516900e-01 8.481681194715653405e-01 -1.787130676353015923e-01
5.929649286271309050e-01 5.749699355695007119e-01 2.699582710968593813e-01
1.824927442895170060e-01 -9.404032602664159635e-01 1.752780009201468092e-01
-5.834775040591454465e-01 6.359779449265079432e-01 8.053446926897404878e-02
6.643896424990944904e-01 -5.593604557809176425e-01 -1.080164984142777899e-03
6.758563552394103446e-01 -3.728726268708165148e-01 -6.527424162512747152e-01
3.380096673229248672e-01 -6.200952031839039869e-01 -6.170647597588959643e-01
1.463686581052354163e-01 6.399413240156994753e-01 7.207619428285274576e-01
8.283620232246047266e-01 -2.113134279518803227e-01 -2.428892774401538723e-01
3.323295169030456297e-01 6.591337298889970997e-01 5.108070975088681021e-01
-5.348738979050209341e-01 7.583377253856276035e-01 -1.843969561489010589e-01
4.729221450062098264e-01 -7.517652078058304488e-01 2.435781563977301029e-02
8.505516795342793479e-01 3.006071275625176176e-01 -1.101657509629071635e-01
-2.800469548924378604e-01 7.723974959271637797e-01 2.720666290183320069e-01
1.459325457164201700e-01 -9.235803742548707174e-01 1.008291198399719202e-01
8.590300653282608723e-01 3.244101631412706355e-01 -1.919922854820589331e-01
-8.680266902938750251e-01 4.276412935505756463e-02 3.806964940306306611e-01
2.922665381459169653e-01 7.391670188612581294e-01 3.554461220013109268e-01
-7.482265143219439529e-02 -7.886864484426903132e-01 -3.063713963686189312e-01
3.791569772996455367e-01 -8.601929334446543063e-01 1.788798391815170641e-01
5.176314849620040626e-01 7.684141101657835371e-01 -1.697157651349339227e-02
-7.999428173185096913e-01 -1.655534924943909691e-01 -2.741825362932386323e-01
-1.341197439327194152e-01 -9.394010238263663659e-01 1.113730039380308318e-01
7.520030557218497780e-01 -3.391077103922661706e-01 -3.884125603438325358e-01
-8.719643895135743561e-01 2.690543920652152185e-02 4.936652408153837102e-01
-7.563702296450466322e-01 3.724908367578155799e-01 2.010612318878617910e-01
-5.640191374063012741e-01 7.318159643484009047e-01 -1.905964608865765020e-01
7.064082613549823586e-01 3.627142897116844011e-01 4.008268554048027843e-01
-2.443985801985590900e-01 6.117816441941704708e-01 7.770769622167853496e-01
-5.967391049338657272e-01 7.274825876825241622e-01 -3.042227773983880446e-01
1.357786148057774922e-01 -6.296626547252730521e-01 -7.360986443067011331e-01
6.801074114129259662e-01 5.505773416011066068e-01 1.025524985497147934e-01
5.900046455207997864e-01 7.252935441286588736e-01 -5.671637804525908599e-02
3.718922667081277500e-01 -7.338199650975001376e-01 -2.257968712322674931e-01
-4.949751133871336389e-02 7.714249137706887804e-01 4.128703887783726212e-01
3.512409324036780411e-01 9.366440592739211368e-01 -1.950393423194782816e-01
3.167414229105293133e-01 5.757859759783029441e-01 7.332543814836263163e-01
-1.741635966116560075e-01 -8.725752500383108234e-01 -4.642441678417649764e-02
-8.310891395539435900e-01 1.723620326233230304e-01 -2.242314899018872931e-01
8.038793896818131612e-01 1.823084588800328310e-01 3.169238991295504348e-01
7.810337205659251270e-01 -2.549141101677692145e-01 -5.487946142837961672e-01
-4.894705701736182246e-01 6.740989214764507853e-01 2.260430655107240339e-01
7.319885191055765239e-02 -6.914055952063135058e-01 -5.792176782803833968e-01
-4.835535413320024012e-01 7.157228716148805736e-01 1.035728274813897259e-01
-7.993852475622600373e-01 -4.923637416359715191e-01 2.589293584417371452e-01
-4.310194442807148696e-01 6.786363790687943709e-01 3.367581436417800278e-01
9.188601420952972887e-02 -8.551802460636985792e-01 -1.192870041932430486e-01
-9.589361679909921832e-02 8.909280112197142110e-01 6.629722948606669997e-02
2.575556065385603000e-01 -6.246102341658976709e-01 -6.831673457926975557e-01
7.334647251758559250e-01 4.486253347742072406e-01 1.433070226697285565e-01
6.817677823671817183e-01 5.085960182391729978e-01 1.844648455847705260e-01
3.720742795199619146e-01 7.580799501442487820e-01 2.215635592557403943e-01
-6.685037885577631567e-01 -6.127570700866692421e-01 6.608411130958302682e-02
-5.370616947054303036e-01 5.687346759711183752e-01 4.545006049693751660e-01
-8.048280670087986088e-01 -1.938296944915035847e-01 -2.063536632367226065e-01
-1.103767455636038702e-01 -6.855731550680880249e-01 -5.654210939940608194e-01
-2.031073855179769266e-02 -8.897594156719370595e-01 -4.235153898131598788e-02
-6.133797777199323509e-02 -7.657793991514765253e-01 -3.708190368218596822e-01
3.607935973970493593e-01 -8.441896202291158113e-01 9.770958347075987815e-02
8.864474873108123543e-01 1.704250972195583969e-01 -2.350167502131205455e-01
7.696962524854583654e-01 -4.107363587141573125e-01 1.126871256216418066e-01
-7.266432222166083754e-01 3.520276400528515870e-01 5.036336417930538101e-01
-1.728774239801360579e-01 9.263714265329819897e-01 -8.063966505650040084e-02
1.268978815408989824e-01 9.515740886641163021e-01 -8.733297917866972293e-02
-3.367599132682123075e-01 6.041257499374173001e-01 7.100018262565088722e-01
-6.231853284146084970e-01 5.788445175390268815e-01 1.348779176199711438e-01
2.224985083361313565e-01 -9.038442860965020254e-01 1.030183364822637310e-01
-6.622059945530878178e-01 -2.996088183148759021e-01 -5.937439175129349822e-01
5.588050973429339319e-01 7.175428637600262949e-01 2.375984923043881689e-02
8.130159362907565246e-01 4.009821060833437811e-01 -7.710277447467168976e-02
-5.811449860600067518e-01 -3.476230674474345417e-01 -7.222871411919482565e-01
6.560366515694646683e-01 4.665848320386806192e-01 3.437717540640162217e-01
7.648285019687943720e-01 8.750900011570278414e-02 6.609205148978636313e-01
3.275428441436953331e-01 6.330867807759092969e-01 5.802303527893162283e-01
-6.783772442425428650e-01 4.757896154427183055e-01 2.731113648523093573e-01
8.557658064688999922e-01 -4.252013678491292636e-02 1.320141348950656379e-01
-8.307356989352575605e-01 -5.376530621233287927e-02 -2.163010916154219643e-01
5.335224596553351795e-01 4.358067634143706348e-01 7.083499776239563506e-01
-8.293658624288855474e-01 -3.066368508360520773e-01 9.154496059381099504e-02
2.910711746291266139e-02 7.770573512852411158e-01 3.992100289510419620e-01
-5.137498964348180541e-01 -6.023490785152286753e-01 -3.074842987665006855e-01
5.814303621551561996e-01 4.006505114206689866e-01 6.765133190776110306e-01
-7.548931071273849991e-01 4.257593262085490049e-01 -5.106137202220821514e-02
-4.420130282382002118e-01 6.998545140220268079e-01 2.476772635487392016e-01
-8.269568866673764340e-01 1.791686816795039217e-01 4.200085946595839004e-01
-2.603821559855458156e-01 9.167606746422031216e-01 -1.368140414619150314e-01
8.134723790884919037e-01 -2.838224523185769455e-01 -1.970721392729979978e-03
-7.843586686672304742e-01 -1.786088998309632095e-02 -5.696365418082685039e-01
-2.032331331551690545e-01 -9.045381849259589435e-01 5.259664183043245150e-02
-7.173444283236801722e-01 -2.657012297970759440e-01 -4.714885578122767762e-01
8.427733562446728666e-01 -1.287406062407241147e-01 2.605110337839908197e-01
-3.543352843158424359e-01 7.662187316892147271e-01 1.941033164461520022e-01
-2.066722499816278369e-01 7.869237970374228786e-01 2.979498714879291743e-01
-7.656785842416479193e-01 2.978922335689890843e-01 4.714550031908014138e-01
-3.485685462268039991e-02 7.258715931612164107e-01 5.396520313480901443e-01
8.762199791166233043e-01 -2.641674667539258350e-03 -1.587198288930269929e-01
-2.438073000833867743e-01 -6.854948746446438701e-01 -4.766293372699392239e-01
-1.255970705035102941e-01 6.514439763568122821e-01 7.279908200034977961e-01
-4.300503250128983601e-01 -5.139618515250641284e-01 -6.603048074714907845e-01
-7.836437155352865558e-01 3.991199354995402238e-01 -3.809755120268394357e-01
3.433231793639948126e-01 -7.555485865980516857e-01 -2.009727218576092267e-01
8.550127531944142767e-01 5.692902449177891788e-02 1.208774655827499489e-01
7.553520391721383342e-01 -4.793447576156960599e-01 3.197284872641527609e-01
-8.103168685224474421e-01 -2.349846557757096291e-02 -3.962799866586951825e-01
8.365245581842786216e-01 -1.200717789091347992e-01 3.589837024317962255e-01
-4.670018984953601682e-01 6.574620014887296859e-01 3.314212072294593914e-01
5.517446528977665125e-03 -7.911775830470648696e-01 -3.107502458060946160e-01
-5.869051559705042997e-01 6.249020023686993053e-01 1.076521614193350629e-01
-2.379106082420024693e-01 -6.220913324848048598e-01 -6.413380307702134520e-01
8.239492880415160148e-01 3.084603430140475666e-01 2.127414004607010647e-02
-2.710858336149529757e-01 -9.024926846512851819e-01 9.459077907804214203e-02
5.733210412054643434e-01 6.814644987019707889e-01 7.602551136645960272e-02
8.382491384010216651e-01 4.484841067949610349e-01 -2.710921090282862322e-01
5.062343712190826572e-01 -8.083084754871953104e-01 2.993678440308564781e-01
-2.230671339871596187e-02 -6.280235796327293674e-01 -7.474491415656223658e-01
-5.382282440297311288e-01 7.451015380978334157e-01 -1.492454344241414543e-01
4.495124908450070511e-01 8.780332906011675265e-01 -1.694598936207697137e-01
-6.332658775523756223e-01 6.182503747998477905e-01 -5.671277794176584480e-02
6.741149915666969639e-01 -6.248794372987019896e-01 3.155363229443431949e-01
8.140757291344530300e-01 -3.037612793187757787e-01 2.536375381851260769e-01
8.625944829685442405e-01 3.076602575572157661e-01 -1.908730219757548141e-01
-4.636312698896452589e-02 -6.879421824273004304e-01 -5.819374642780790197e-01
-7.483308818542658836e-01 -2.727974411672988708e-01 -3.385896119305185081e-01
-4.070616016004218740e-01 -8.082671345322998135e-01 5.153594586913163959e-03
-7.804792962942218651e-03 8.179352616098167772e-01 2.893449893011766361e-01
6.790767889192103057e-01 -4.260816656015666282e-01 -4.412498271921279636e-01
1.228325903063168384e-01 6.453093152331625948e-01 7.196164716742923240e-01
4.622674082920575356e-01 7.208799026590790859e-01 1.855373923893014199e-01
-7.973774340940705807e-01 2.655059487653122496e-01 3.248365736916379864e-01
8.104166616562658021e-01 1.406812132417132044e-01 3.418189150734479154e-01
1.134056071562182244e-01 -9.586098966036119551e-01 1.822079968236424985e-01
5.486099516193863046e-01 7.951590421144120180e-01 -1.339806252876639681e-01
3.429065727294587917e-01 -7.143190272219646086e-01 -3.268337420391207448e-01
5.521604294841707672e-01 6.058447634609026577e-01 2.891775764182709652e-01
6.353243046128859151e-01 -4.624546317458053113e-01 -4.847262211558492906e-01
4.314899712544345567e-01 6.362395041996058431e-01 4.330760439995897659e-01
8.331184861854228352e-01 -1.624128572877724663e-01 -4.886276102083236816e-01
-7.656329789826590293e-01 -3.816125236845654967e-01 -7.444710110531586877e-02
7.404589377878165735e-01 6.410547031796447470e-01 -2.588232691211784231e-01
-8.470467860557443496e-01 1.009957580681130895e-01 -4.422514308348962642e-02
-1.839702871234453752e-01 9.450422424225271012e-01 -1.438586044996163216e-01
-7.621224439795422079e-01 3.439778138312922229e-01 2.864785981767716816e-01
-8.634626931676421258e-01 -2.279429379316156024e-01 1.996279550546597725e-01
8.399205760499195428e-01 -1.629178241253859127e-01 2.562403848089944147e-01
1.262346869138241123e-01 -7.391079597830287895e-01 -4.326005181043641734e-01
-4.151290916036951550e-01 -7.000041631616076288e-01 -2.437130630806782217e-01
8.508978003614714458e-01 -1.342373598275607149e-01 -3.372640396423297604e-01
-1.841345550054597491e-01 8.220395927181440854e-01 2.130315892504538178e-01
8.360668923248050222e-01 1.951992191276011035e-01 1.174156406420078236e-01
7.659677196556112788e-01 -4.234605169623934517e-01 1.380757114773497607e-01
8.734295551348170150e-01 2.000024275777096960e-01 -1.436297887033922693e-01
7.703463571872726234e-01 1.816114751489206480e-01 4.822212662709551845e-01
3.030102648891720984e-01 6.959417759044403962e-01 4.522434510552099662e-01
-7.269151160915030552e-01 3.825626727200077126e-01 3.752732142040625662e-01
3.611541093200336672e-01 -6.938639255469656320e-01 -3.640370329789464621e-01
5.266737214715162541e-01 -6.945585039781165815e-01 -2.745145791876498279e-02
-8.088533020098407356e-01 -3.514360070797145283e-03 -4.283175052172842889e-01
-5.490394696978592171e-01 5.504367805769150301e-01 4.834405297499977383e-01
-6.206149005650190009e-01 5.950884148001707175e-01 8.564541862720734255e-02
-6.740286338030679891e-01 -2.931206261934367618e-01 -5.689376427202507136e-01
-1.696076610330576884e-01 -8.205988000440883612e-01 -1.839003182858728047e-01
-2.482619229997015675e-01 -8.909260351183260207e-01 4.756646319716660576e-02
7.444110463642217290e-01 -4.442405720427481941e-01 2.717278393260992228e-02
7.742159304047857571e-01 -4.023452278981208274e-01 1.223016158874167258e-01
-2.916465333540780303e-01 -7.271141283263256039e-01 -3.275459618066103862e-01
-3.127430422526183973e-01 7.933781538284371271e-01 1.697781523552258087e-01
-3.315392510967115625e-01 -9.157848844445427572e-01 1.820833454662251216e-01
2.948870150608892682e-02 -9.657306021997801304e-01 1.712560951495824824e-01
8.399433773860941477e-01 -1.552680101436161864e-01 2.718995521918311509e-01
-6.464724948023756745e-01 5.376093961569435864e-01 1.882471013751702837e-01
9.602928831582448199e-02 8.495306475668813473e-01 1.924610498499408073e-01
6.310525424130515315e-01 7.643762504237012756e-01 -2.321545769238099743e-01
3.713659044370519746e-01 -5.851133425894659013e-01 -6.807154529680012889e-01
8.258038369033461334e-01 -2.067281246775046488e-01 -3.214794261812414233e-01
-4.800451034834681274e-01 -4.412609126877624632e-01 -7.387609726319773751e-01
8.805806237393795088e-01 3.256195393580817166e-03 -2.429461731462500274e-01
-7.647894849955448882e-01 -3.729858213005102230e-02 -6.516821580126228586e-01
7.755411709796903308e-01 3.684871603919823158e-01 1.377869596122274498e-01
3.181483306781372755e-02 -7.638276370200708376e-01 -3.846298507000328604e-01
8.118380281001451593e-01 2.609617886098976047e-01 1.558869041999977056e-01
-5.321329239875991490e-01 -6.359520344308613460e-01 -1.956320419517395548e-01
-4.964369955539357782e-01 7.700640460951651001e-01 -1.103926403680098728e-01
8.237913357162053307e-01 3.166506600344213274e-01 9.334387285853378707e-03
7.908083577904595485e-01 -2.895161805396575527e-01 -2.967000924702586917e-01
2.494838938477324242e-01 6.532062706678262165e-01 6.107155627121170216e-01
-4.224016097641378753e-01 7.697874074593973326e-01 6.401937946447698591e-02
-8.505775517609981407e-01 2.094103337876318180e-02 -6.448276196040036989e-02
3.741508205697027245e-01 7.147236278883462024e-01 3.245288850842414363e-01
-2.842758920244588539e-01 7.298362176416141045e-01 3.941152803079691624e-01
8.788626349875482413e-01 3.541084824096518147e-01 -3.510453418111782464e-01
-4.634353336387321831e-01 -6.966678198038230851e-01 -1.778677450332937227e-01
7.159644498100797838e-01 -4.649852337393957646e-01 -9.061855674622962264e-02
-4.752013068141514029e-01 5.352704865114873423e-01 7.060144396864831418e-01
-7.491001141825290865e-01 4.209690519123636676e-01 3.223774340307872244e-02
-4.478989712034401882e-01 -7.546755882348745725e-01 -6.534798462308269440e-02
1.653127676002879298e-01 -6.679582956885364853e-01 -6.168199805021664650e-01
8.983270339054726383e-01 2.314124266474784086e-01 -3.790249075061710715e-01
-3.577333276924710148e-01 -7.988789609385807955e-01 -7.886730717412791802e-02
-8.591990206036907995e-01 -3.508964180222872153e-01 3.211675492295845702e-01
-5.614106672519465491e-01 -7.058170335180652399e-01 2.033564479246474307e-02
-8.359303707079807078e-01 1.146638317381239031e-01 -2.216579367897411057e-01
7.277147316855727688e-01 -4.679410194154844937e-01 2.951797626628111307e-03
-7.126416702454055896e-01 4.865091404253583107e-01 2.600112424073245179e-02
-8.275930853909398976e-01 1.592562941143245148e-01 -3.112170578994560843e-01
-2.807295913919043429e-01 -5.629635916794736294e-01 -7.459411937814685034e-01
-1.647748356164504754e-02 8.151580156546259781e-01 2.964163875496912404e-01
3.422599355928967468e-01 8.236357825006974664e-01 9.459117891129512068e-02
5.806420496619487670e-01 -7.450587506331891596e-01 3.263573408404284448e-01
3.518262890758900863e-01 8.068649996790134837e-01 1.255623514377235406e-01
-8.126206059506301260e-01 1.679118617750916254e-01 -5.096838893901382006e-01
-5.807886742822334636e-01 7.417129667928467063e-01 -2.902333414412512913e-01
-1.847283241758838901e-01 -7.028399594931171723e-01 -4.784710093639995554e-01
7.732813051660761827e-01 1.066047409364321991e-01 5.892099507542241099e-01
-3.557981212088848211e-02 7.490596562078120080e-01 4.760562398708381715e-01
7.554543516589026231e-01 -4.182381612674064275e-01 9.602604069080009986e-04
-7.960342010478180796e-01 3.407032942318031776e-01 -1.762075115561965721e-01
-5.713235566094199136e-01 7.403219128982206909e-01 -2.481849145605169726e-01
8.692150463409176187e-01 -6.797700352546477698e-02 -2.821505860350158046e-01
-8.014365553120056385e-01 -5.096611600434323153e-01 2.980494198534694994e-01
4.390191678846538936e-01 -5.443852378277757031e-01 -7.044774590771004652e-01
3.572885862876522545e-01 8.945968254622916893e-01 -9.700143820908063708e-02
1.343075321005806622e-01 -8.122510317638832467e-01 -2.227997886391513138e-01
5.717137763789639227e-01 -7.483748408418872122e-01 3.044580324218221223e-01
4.032249460022949150e-01 6.310599241658148006e-01 4.871183882752095906e-01
-5.366320082061948327e-01 6.295534465566151594e-01 2.513128367629530735e-01
5.640817147451172575e-01 -6.181974521300507286e-01 -1.777621568030960109e-01
2.805680124789849406e-01 -6.253524263242010717e-01 -6.613531468127762381e-01
-5.656628748428204068e-01 -3.947491557608807100e-01 -6.587750909573617530e-01
-2.313122077454650427e-02 -9.291668042273104611e-01 6.490442995022425998e-02
-8.832995351478348800e-01 -3.584246184475452929e-02 4.417736387178974322e-01
-9.407069995151438879e-02 -6.635102950341914552e-01 -6.303997081980171613e-01
-7.142148116755909770e-01 5.371914319147897965e-01 -2.143948745119839683e-01
8.346588439152933248e-01 9.327229863467952076e-02 2.497467562482581782e-01
-1.065772300059035643e-01 7.999960162577773870e-01 3.180693733328174844e-01
-4.882740497661171020e-01 -8.333608433335097931e-01 1.830583792948394239e-01
7.282611516719995626e-01 6.322538089803199091e-01 -2.040931649668983328e-01
4.646966843277665626e-01 8.682633955234260181e-01 -1.676310231651963745e-01
5.147069838674880882e-02 -8.470092854963312545e-01 -1.531162070036572731e-01
4.864054285730751159e-02 9.358395584487101404e-01 -3.167261627805371266e-02
2.472805674540032861e-01 -6.824130998372308632e-01 -5.232383087615609663e-01
7.406701465164658993e-01 3.983564525644340826e-01 2.145996883685086232e-01
-5.174044501343276758e-01 -6.604702476655236465e-01 -1.678795882631267944e-01
5.362400983014887768e-01 8.144513992692783422e-01 -1.561260505733497728e-01
2.119764938527549381e-01 -8.870906881995551663e-01 4.436499184553065883e-02
-6.098505978692126961e-01 -6.950470560560370048e-01 9.930352187006065423e-02
-2.924313821256323553e-01 6.131113825850281751e-01 7.314198553179845907e-01
1.299040002169888075e-01 -7.677073164311188913e-01 -3.506386894280000832e-01
7.264152838142481916e-02 -6.158766007305668255e-01 -7.869299764544891440e-01
8.344215178964800028e-01 -8.950640237774015739e-02 3.857157144730610221e-01
7.167252412445153098e-01 -4.892674465356305902e-01 1.812052198173037115e-02
-2.417937366587266379e-01 -6.435494920130344632e-01 -5.839261988430534123e-01
2.331959967153763302e-01 -7.905039862099104697e-01 -2.196709521994838488e-01
1.577117049907329760e-01 -9.384669373758116606e-01 1.513321116568235869e-01
3.358096484518135472e-01 6.475786206149423130e-01 5.350340744698236506e-01
-7.992551560178731140e-01 -3.236560184103268178e-01 -3.110414063537301696e-02
-8.624606114774134857e-01 -8.910516285246997126e-02 8.341161909679403741e-02
8.254536709179632892e-01 -4.960616445391316520e-02 4.529651171121087949e-01
5.674201760750187118e-01 7.714742138917072278e-01 -1.153926674234276029e-01
-7.846670949559351183e-01 3.051304167454972974e-02 -6.301439339198061651e-01
-8.425913599122085706e-01 1.361266464962012923e-01 4.132582318547816103e-01
1.369697885809138260e-01 -8.645636052065009958e-01 -7.293171355196827188e-02
8.098646411592864691e-01 5.400455446370875379e-01 -3.068802407176675073e-01
6.937259389309375912e-01 -4.282022382283348638e-01 -3.640809189336851603e-01
