8.464850663955877930e-02 4.117250035021139953e-01 2.778715634121295963e-01
6.411523990894676950e-02 -6.908277645153068636e-02 -1.961141134576977196e-01
-8.696710352151707513e-01 -6.031194073741872330e-01 2.444232499108487666e-01
7.010234820114169541e-01 5.828892560027860714e-01 -1.999099425783620876e-01
6.913363412106864336e-01 -2.733657982735182915e-02 -8.188571964231948774e-01
-4.686223235695355926e-01 -2.507619606908377263e-01 1.820446582346901543e-01
-1.356764680982505689e-01 -5.100259570302217993e-03 8.193805142830384858e-02
-4.738465414386032748e-01 4.431071795195013485e-01 9.030683839384697764e-01
-6.855428436091600686e-01 -5.570059752394552754e-01 9.652242316162329416e-02
2.890903450216836812e-01 7.969888061324649220e-01 4.581205000681575212e-01
3.134480066777443619e-01 -4.248229291515406847e-01 -8.275974796034754055e-01
4.484384080403230888e-01 -3.053529993194204484e-01 -8.476979630799258425e-01
3.560731317291490061e-01 6.007666464442013021e-01 1.846857984028555111e-01
3.718128766470013558e-01 9.614951609639597052e-01 5.399408671106535884e-01
-2.136140824222011181e-01 -5.276625014927065482e-01 -3.741682619063794180e-01
5.782201802859270323e-01 6.161946556194219937e-01 -3.521274953988177275e-02
-5.619655226863621289e-01 -8.912041265976911042e-01 -3.792598214653266631e-01
5.826491762454090173e-01 -2.796600709961015729e-01 -9.636683664639132951e-01
3.846395865002140146e-01 8.613071637174095629e-01 4.230172873427219815e-01
1.897720323847415236e-01 5.401431062580612785e-01 2.987013366242454171e-01
-2.705900880583151855e-02 4.431726343139079649e-01 4.288750570813042451e-01
-2.135304246000321593e-01 5.219427725212915092e-01 7.080360067495331533e-01
5.726452464343576576e-01 -7.355573748261440281e-02 -7.405262588860791473e-01
1.716494081534069294e-01 -5.978394091716778824e-01 -8.554843053326358637e-01
4.511581964504589592e-01 8.392647415308283065e-01 3.296795120407302049e-01
6.248811212950757810e-01 4.932936336170539726e-01 -2.114714269075049502e-01
-4.355726198382051106e-02 -6.126843103545953628e-01 -6.423516369908828239e-01
-7.123849399721696729e-01 -3.974986275468619379e-01 2.894899352227827682e-01
7.845827839127883507e-01 5.286320548089884497e-01 -3.445542962801822484e-01
1.991562289530207919e-01 6.489626258065370745e-01 4.009485786270678420e-01
-5.467449409228862800e-01 1.854899910283057951e-01 7.148092127934643214e-01
-5.935948848538646905e-01 2.940169697775171231e-01 8.764468217538701200e-01
8.770863519416675913e-02 6.033856364341845246e-01 4.722527743400442013e-01
2.445980425499598154e-01 -4.079328718374636287e-01 -7.370978181500886794e-01
-3.642879849469891074e-01 -1.934515663737942370e-01 1.303899345439723523e-01
-7.865912470413369828e-01 -6.942177763315092731e-01 6.229938545038102987e-02
-5.080150493950829071e-01 -2.204957245843520708e-01 2.550684869254580822e-01
-5.714439459530034071e-01 -8.352660802152676034e-01 -3.115184413772821292e-01
-3.683955554208395711e-01 -6.430139738278085604e-01 -3.288130211496221311e-01
-8.506257569598537627e-01 -6.026212610727927910e-01 2.247205238087350287e-01
1.132718017055030363e-01 -5.238668219895893374e-01 -7.172407065718644503e-01
8.680158090655009095e-01 7.081763379003603864e-01 -2.479818579300378800e-01
-5.661632935739164818e-01 2.015750697684381421e-01 7.520076293694667458e-01
-3.739029388210127758e-01 -8.484498392528487531e-02 2.525850298585929354e-01
-2.722889100286237166e-02 5.272839107372938594e-01 5.157861345215386528e-01
-8.194616832718912974e-03 -1.618913772767225367e-01 -2.150568052358895754e-01
8.393922725291506071e-01 8.591261254853098661e-01 -6.194743136461574456e-02
-2.617058126675875229e-01 5.505904115763845530e-01 7.887135449888358352e-01
-1.341397291631240274e-01 -2.558235312003800943e-01 -1.782247147411284705e-01
3.284655892347542183e-01 8.990860758388703466e-01 5.216009228037281620e-01
-9.268026923408885231e-01 -6.189861548386341727e-01 2.887070891522172111e-01
7.149177689022113702e-01 2.973480481996578773e-01 -5.090924003914116813e-01
-8.657350208615061105e-02 2.584010403418693369e-01 3.015232143683122534e-01
-3.643060196852225263e-01 -2.964677924748720383e-01 2.418462374929699829e-02
-3.462342871798217425e-01 -3.314856669211588280e-01 -3.110678671078354746e-02
7.081116199427250901e-01 8.171958144806326096e-01 3.416961892323711059e-02
-6.790876953372114722e-01 -7.895174360263491620e-01 -1.500822086602821848e-01
-4.327247750517614899e-01 -3.836681058519133547e-01 6.894509988692561035e-03
-5.550774157512817775e-01 -2.091115910006278167e-01 3.167634211172383196e-01
-1.806666627578908391e-01 5.045354892606328245e-02 1.869786431485446765e-01
1.744684421012547004e-01 9.074290023971280927e-01 6.936702153719613850e-01
-4.658583075894342507e-01 1.892147447865657195e-01 6.327895556148198652e-01
2.110871977967047897e-01 -2.506239088075703503e-01 -5.393183403823559319e-01
1.717275976059905174e-01 2.143495034398879284e-01 -1.808443753543658231e-02
9.107107891716282877e-01 3.274502619149837201e-01 -6.858851894010058459e-01
7.415826394276040512e-01 1.025644426719964225e-01 -7.382466531731145531e-01
-3.724107732251825675e-01 -1.224050344417383779e-01 2.122713289164550043e-01
-2.761225148409972643e-02 -6.645436235968529837e-02 -9.603596185129102680e-02
-6.439765351386314007e-01 2.099584236487525291e-01 8.432500994418272722e-01
-7.540939166857022480e-01 -6.105946879568112662e-01 1.140311282270823900e-01
1.208075637417333403e-03 -5.861784930217703860e-01 -6.625383410174682242e-01
-2.820175190899755213e-01 -3.453601251713372400e-01 -1.135788398697591406e-01
-8.616228467590326678e-01 -6.756233247842037271e-01 1.611182698072310127e-01
1.095186431384373264e-02 2.569983559111094218e-01 1.965545747304337787e-01
-8.283820601867646349e-01 -2.941907418750008829e-01 5.191449991924447227e-01
-2.582481393411579784e-01 6.072165104943239022e-01 8.434328590946154058e-01
5.095801718440445827e-01 -1.628443849373485963e-01 -7.656526260590347244e-01
1.788980731900108312e-01 -1.562294899792825154e-01 -4.078157445167799322e-01
-6.172105221009539511e-01 -5.600159332234132259e-02 5.405954304930292720e-01
-6.623440429223449444e-01 1.221366045141672116e-02 6.588439215430325069e-01
2.761066967894522106e-01 -1.810953272603167408e-01 -5.366420290801443560e-01
-3.174072327519852355e-01 -7.531481930747785380e-01 -4.965007754359640479e-01
-3.872918019491886077e-01 -6.380079354391677837e-01 -3.035928896457341097e-01
3.797504626634874980e-01 4.317977640239015896e-02 -4.153992345262031427e-01
3.679682153390630983e-01 9.285923194026810545e-01 5.100944065515944370e-01
6.064239890256745841e-02 6.376690648331345690e-01 5.363344482500125299e-01
-3.393233327556120504e-01 9.415309236550542527e-02 4.004517019669450728e-01
-1.984504406077070293e-01 -4.756076433629941036e-02 1.047891909392171389e-01
9.974822539594910276e-02 8.395431530392423181e-01 7.029850176111673843e-01
7.127260023857850957e-02 -6.615100084075621334e-01 -8.145887441804626761e-01
6.914237294540926532e-03 -2.082303449171386267e-01 -2.788768131383440596e-01
-6.254171331059480421e-01 -8.026000685549629088e-01 -2.205430766551587374e-01
-8.829053505648528644e-01 -7.090119261726263167e-01 1.492810294348199951e-01
8.263789701027773882e-02 1.176550700127460963e-01 -2.322232962733791067e-02
-3.416880179597907574e-01 2.813719384011941771e-01 5.960111851523873794e-01
4.692704164863024663e-01 6.744291877243409061e-01 1.404845405652590251e-01
-2.898675327818229785e-01 -7.927593723809390758e-01 -5.665786993945152172e-01
5.589226005732064184e-01 1.824268942060571774e-01 -4.620051135826169220e-01
7.775260050866406036e-02 -5.978019837186616670e-01 -7.557751243032386768e-01
-7.615461176065949633e-01 -6.316019043924910870e-01 1.002801273867702375e-01
8.352721897750521318e-01 8.421140022219617549e-01 -7.511593259086425667e-02
-4.573008606878986027e-01 3.995049117018248386e-01 8.405451266154989609e-01
-4.987315333670942485e-01 3.625344138401631611e-02 5.099592112725771509e-01
-4.287208964966554015e-01 -7.223591980391206313e-01 -3.465944993247250805e-01
8.145810175000112174e-01 6.182552276258042045e-01 -2.839828407465695426e-01
5.333559184384538687e-01 2.337623988406006548e-01 -3.819320744311862081e-01
-9.010562306220046835e-01 -3.298009396068696253e-01 5.595687526885738672e-01
3.408593377873294084e-01 9.350045056419549194e-01 5.454821091132570077e-01
2.321144132350769218e-01 4.733683564197150306e-01 1.849009802208407827e-01
8.000298806925356665e-01 7.609372567358099748e-02 -8.275829504529406133e-01
1.070092077329711129e-02 5.534869629061711649e-01 5.025430835899973303e-01
-2.368704981070724747e-01 -8.247661365166712999e-01 -6.558381088865545827e-01
-5.345763387383954957e-01 -7.599348637427083553e-01 -2.729758121257638281e-01
4.868055892436963239e-01 3.930181276233556953e-01 -1.683039111567249113e-01
-3.279231713370163170e-01 1.616800508669486158e-01 4.579804830881475386e-01
-2.331034069997182379e-01 6.787250311701267247e-01 8.904774654543926582e-01
6.503462012052201313e-01 8.644394412802318683e-01 1.442020072525366237e-01
8.465199083238468258e-01 8.143634318435205577e-01 -1.156700862564724319e-01
-5.805494890981400813e-01 -5.761074303561887211e-01 -3.462337904283355194e-02
6.670573213040257299e-01 9.215907318877755161e-01 1.853944582935777574e-01
-4.537887269864588902e-01 6.322945886916545022e-02 4.900689693732486751e-01
2.374531237708904230e-01 2.565842985089634154e-01 -4.430136282488450483e-02
2.176203540656604929e-01 -2.776996958018462455e-02 -3.164589585085763601e-01
2.483555690452829978e-01 -3.922339285299639711e-01 -7.248985430629835136e-01
1.427184537427051425e-01 3.286653710331376987e-01 1.305844995757200477e-01
6.547818881805778091e-01 -1.783122724129641290e-01 -9.357325036150776487e-01
-5.949596765012418187e-01 1.962987973132989672e-01 7.771341315379370895e-01
5.762069194251888682e-01 -8.383667457050711369e-02 -7.549080574367037499e-01
2.504296435776074414e-01 5.234827716419907517e-01 2.171346587324371746e-01
2.852204504482465097e-01 -3.020250172210452166e-02 -3.907241219015107347e-01
-1.093209580693567939e-01 -1.491771622728046455e-02 4.383872094321846630e-02
5.250532083733504551e-01 1.297932543289578577e-01 -4.803258743344495096e-01
-9.105101201310829284e-02 4.580658359726831885e-01 5.121589944789889381e-01
-4.818181526620852750e-01 -3.826300724525251162e-01 6.007703559382443492e-02
-5.736178501034326915e-01 -6.440398280800596620e-01 -1.120292619930689376e-01
-1.458282693567506949e-01 -9.023317729633746620e-02 4.929886981308966888e-03
-5.321269830456517580e-01 -8.693623009842275581e-03 4.990613229932962525e-01
-4.825449570822008538e-01 -1.039945542620158807e-02 4.446715054522088484e-01
-8.462264757269380988e-01 -6.004032716024333416e-01 2.223377917901260270e-01
1.716138299627444075e-01 9.185444620175413633e-01 7.081619874084552624e-01
4.114009203565061057e-01 9.729042246082904022e-01 5.096829015109818339e-01
-7.259151089110101873e-01 -6.223465258839881997e-01 7.200176050860923604e-02
2.958305680817168160e-01 8.239583445207041557e-01 4.787752650032597312e-01
8.202344114351363125e-01 4.307947662090997332e-01 -4.832823977285982120e-01
3.654081153835122414e-02 6.779753821313445616e-01 6.034796342144504999e-01
3.031141583762895775e-01 -5.392461226187690304e-01 -9.346148639165523520e-01
4.272568107793442427e-01 5.392088013708979943e-01 4.565004611130566575e-02
-1.247856869278009678e-01 5.665103799854247502e-01 6.597898650796890641e-01
7.809870287612744599e-01 3.786750647539628978e-01 -4.953645275184885288e-01
-1.697325691296565076e-01 -4.237268819100594719e-01 -3.135756004839386768e-01
8.295178236774340963e-01 2.873981107549858360e-01 -6.409991029245983851e-01
-3.154371878212579028e-01 -2.225773879444802386e-02 2.550605737855672350e-01
-3.793723730660840676e-01 -6.442986626677235096e-01 -3.184859289046331199e-01
2.531018589660761348e-02 7.660517767029224601e-01 7.062201917820651875e-01
-3.564996330116296797e-01 3.691365045770828579e-01 7.022313901010132087e-01
-1.208966401209298630e-01 -8.330096334450391715e-02 -1.438670261761311291e-02
8.564216775679052152e-01 7.117666923138565860e-01 -2.319726263139975653e-01
-6.222730043542663569e-01 -3.690273107992145252e-01 2.231949490480366893e-01
6.469845291465392556e-01 6.702084389332649272e-02 -6.744821679243611090e-01
-2.170230021881487670e-01 2.894597868769730464e-01 4.720201555645121561e-01
-9.077919739792406073e-02 -2.873287207585544789e-01 -2.567378707269288296e-01
-1.597404560576336230e-01 7.190045035885569424e-01 8.541372674809148968e-01
5.906942053964394646e-01 -2.734514067346637267e-01 -9.658060699219324086e-01
-6.025772393044700470e-01 -7.043923727903627086e-01 -1.435212396099729559e-01
-2.424449348316013442e-01 3.035338764664933034e-02 2.318295662630599496e-01
-4.233436000983086811e-01 -6.587364026522646299e-01 -2.866982531130352063e-01
-3.976348595067616398e-01 -7.757967720590653871e-01 -4.346938164515759540e-01
-3.694993797477838515e-01 -5.236885215598039434e-01 -2.045997239082473218e-01
-5.560493026015538298e-01 2.518040892581873136e-01 7.930650207540105301e-01
-5.906931222082570931e-01 -5.991290883448382315e-02 5.084143311783193564e-01
-3.073105223393892138e-01 -6.563151512425609013e-01 -4.073696321693556222e-01
-7.748150935551726404e-01 -5.294885687847454836e-01 2.196584675740785586e-01
4.365714339598222166e-02 -3.148632911731131800e-01 -4.278328769886713956e-01
4.386855058787895167e-01 3.764606126023563037e-01 -1.342980539340357382e-01
2.060714017264787257e-01 6.220530538789597053e-01 3.658605717171028449e-01
-7.840824416074131387e-01 -8.013290924715710251e-01 -5.081076593264911845e-02
7.313795925684398735e-01 7.666914916757927578e-01 -4.260629413669846099e-02
-5.624757467044155107e-02 -6.197669807367020001e-01 -6.361842334068400495e-01
6.364264864685454937e-01 1.307271624868829030e-01 -5.975845827835146729e-01
-9.928802868176551943e-02 2.359632666416025260e-01 2.918830143749570616e-01
-2.143847564333586642e-01 4.129999816166457505e-01 5.966072820910482966e-01
-2.633572896887646508e-01 -8.805881662383805430e-01 -6.852831173767769402e-01
-6.878398217625307787e-01 -1.902801503031543717e-01 4.771073903547877748e-01
-5.261973770735109968e-01 -4.048132842646820495e-01 8.431110820660701888e-02
-7.036935370716819182e-01 -8.943599359229686963e-01 -2.320709398162623671e-01
3.757070162025529791e-01 5.972295017684038365e-01 1.601973104501104306e-01
-2.090859354247349977e-01 -5.222410533153363232e-01 -3.733845599011371141e-01
-1.920681380929787352e-01 -6.685999182682473840e-01 -5.423657045202592286e-01
-5.766694149389668400e-01 1.580555525661765104e-01 7.182849366892416487e-01
-5.767124154795123525e-01 -8.997567280279189506e-01 -3.724250862075599300e-01
5.780060660623017599e-01 -9.538479688735343465e-02 -7.687255997231153826e-01
7.156306515375119304e-01 3.094357690850981224e-01 -4.973849506125512243e-01
-3.916385678021910288e-01 5.263316331532629233e-01 9.016216907425927962e-01
-7.260165529992743672e-01 -4.028443072146019044e-01 2.984476061000561065e-01
8.484740552706888650e-01 8.070040939311104999e-01 -1.253329244573200552e-01
4.519310493655100402e-01 2.719558652550506661e-01 -2.561174081182541196e-01
-4.687345707081642665e-01 -3.866439186522598881e-01 4.205008557257906843e-02
2.313722408253187646e-01 2.250975291449679172e-01 -7.031392201347685944e-02
1.173746288851739566e-01 2.325510469148393267e-01 5.837912751133368661e-02
2.076535226102771414e-01 -5.430352195569370100e-01 -8.371913854051309389e-01
-7.725506145412177617e-01 1.724600569796347696e-02 7.810162419843494908e-01
6.617656063898367247e-01 5.621664385304162570e-01 -1.796062588678617178e-01
7.916560274876094372e-01 5.974612519428614821e-01 -2.810897378424714876e-01
-4.158277536362994797e-01 4.862547161621688097e-01 8.859732569412629433e-01
1.517312552015551985e-01 -6.726412416550509032e-01 -9.114727524442062245e-01
-4.363608654258024910e-01 3.066091312261526869e-01 7.225286875280769738e-01
-2.086948476567156707e-01 -4.892954546097361690e-01 -3.398280743478788724e-01
3.584905391288293885e-01 1.200035604594398286e-01 -3.136157202242457753e-01
2.205145415604962966e-01 2.003496861686374642e-01 -8.430713861937770559e-02
7.109259612778450199e-01 5.912253159758088517e-01 -2.018256630246234307e-01
-4.774488469288900583e-01 -9.210672067873934554e-02 3.550101618997034136e-01
2.520189583191247973e-01 5.545033630082651932e-01 2.474342797396769378e-01
6.355679963084182038e-01 6.920762607881586481e-01 -1.784214248049474649e-02
-7.818750247179200308e-01 -9.304746077096045717e-03 7.635363965552511845e-01
2.721418936731074822e-01 -3.130625803716969302e-01 -6.685105290422405089e-01
4.162575653505468654e-01 3.439270124522324501e-01 -1.440377953615515905e-01
9.681095999365728344e-02 6.919700400491697323e-01 5.539339236254444687e-01
-8.461363009547590019e-01 -6.527666565499251616e-01 1.682479372747970048e-01
-3.661438384360074516e-01 3.934858894179603106e-01 7.375763210011784254e-01
3.040310249052012304e-01 7.661589127149782685e-01 4.104710799938386945e-01
-4.874339702881815839e-01 -6.180239010515676812e-01 -1.766865111619676798e-01
1.519057774450847387e-01 2.588465555202258406e-01 4.883906184931774419e-02
-1.152349697355463387e-01 -3.513565749499916735e-01 -2.968001652876577912e-01
3.113885928279163107e-01 5.329688332564591624e-01 1.622087852324197721e-01
3.667204661456878734e-01 3.580454242783455698e-01 -7.689652350186149121e-02
-6.885715828419792794e-01 -7.681505930354943779e-01 -1.179828807233903737e-01
1.994119801552161619e-01 5.446725974153267952e-02 -2.123325999381064366e-01
-3.267762966133195834e-01 -7.762442209822615347e-01 -5.103709072590060236e-01
8.081651165846038820e-01 3.903256674599307474e-01 -5.122003787993908430e-01
6.635252221177954102e-01 7.603424175455629763e-01 2.287368748914496083e-02
-9.309082996330406146e-02 -6.604759049942493521e-01 -6.390521797283745808e-01
1.153222062725395847e-01 -1.132783044331266281e-01 -2.960417398645067699e-01
-3.758188467047262060e-01 2.458459366751670483e-01 5.956083572087297329e-01
-5.672109022779249221e-01 -3.026573085422867293e-01 2.331839980380094601e-01
5.368280889531162892e-01 8.267221423601894825e-01 2.258085034733047225e-01
8.808667123459774650e-01 5.417614222038475980e-01 -4.332205383564104451e-01
6.074893412919951663e-01 -6.500481165226921348e-03 -7.083693879500000401e-01
6.660658150979428260e-01 5.016373882481656166e-01 -2.465849935212246768e-01
4.832608954972346660e-01 1.584595491534089018e-01 -4.064046744168000047e-01
2.290115699615217770e-01 5.866474617219722409e-01 3.050015695236247826e-01
-2.994202869587823598e-02 -5.925123711686227646e-01 -6.360039280618660085e-01
-1.294118017975951218e-01 2.214117724281629285e-02 1.033779815926273576e-01
-4.942733656880546889e-01 2.538893419293054565e-01 7.296406305200646703e-01
-6.510618742852373186e-01 -8.366925567037195588e-01 -2.284756503984426701e-01
3.208965620955168685e-01 -8.606028579887260721e-02 -4.861913432047758055e-01
6.217474728628109570e-01 2.025060663929827143e-01 -5.079886358693903592e-01
-1.170064523963485759e-01 2.352682148169556453e-01 3.099742589534578152e-01
7.934872832828776534e-01 8.074373684480320446e-01 -6.651820825938127568e-02
2.450618272140175358e-01 8.094394963198966453e-01 5.176948044916708236e-01
4.364032427379402335e-01 -3.928617460048319104e-02 -5.605698182578441324e-01
5.530428802453462023e-01 6.324355013240768875e-01 8.259354258452552763e-03
1.540041212811651405e-01 -3.362179018796127017e-01 -5.669848262126602201e-01
-3.300445215461784154e-01 4.549589483526196299e-01 7.626447419628454849e-01
8.866533607650920468e-01 3.061072086304481576e-01 -6.823561911432753924e-01
7.944843911669076109e-01 8.710220498921351917e-02 -8.103451490251794009e-01
7.084759286817287061e-01 2.743804167833283070e-01 -5.259373578115481562e-01
-3.127885476666851239e-01 -1.506857409911183665e-01 1.198214387604124298e-01
6.620923468890779207e-01 3.177341109038607225e-01 -4.319977604147096084e-01
6.468952555765377088e-01 8.449988374461068208e-01 1.278191125752109192e-01
5.977314387318856115e-01 9.565203675614618595e-01 2.950006866698416941e-01
6.590572143393519378e-01 4.007464061791891075e-01 -3.431784529667199490e-01
-4.483159168039571596e-01 -1.896399884030524341e-01 2.235150862312492714e-01
7.223538728262224318e-01 2.811263812505438928e-02 -7.946059486625173252e-01
-6.715096148822158328e-01 -4.108570578959658826e-01 2.323267057490648047e-01
4.546956560934772851e-01 8.312988072398745931e-01 3.177105145299468081e-01
-9.025276983647368967e-01 -5.947992676336243401e-01 2.878795463377483155e-01
5.129322533685315433e-01 -3.866631796028431878e-01 -1.000000000000000000e+00
-5.578703323501349454e-01 2.851714366836313186e-01 8.294045317406496531e-01
8.805079120805393844e-02 5.399448847000797302e-01 4.064730954918531758e-01
-4.492275637756233952e-01 -4.835569301075020032e-01 -7.858758907262784754e-02
-4.283874708806037490e-01 4.018425948840249617e-01 8.122643171401082718e-01
4.850405962987231479e-01 7.493836005249494558e-01 2.010333547921795694e-01
-4.559521042359973020e-01 -1.022889088768961230e-01 3.216922775022523218e-01
5.329485978483964326e-01 9.818570727608483262e-01 3.898928358929225069e-01
-9.081768153090871154e-01 -6.981969760635821087e-01 1.872582142424347729e-01
-7.660162696775001390e-01 1.038242860645264276e-01 8.633546783137515668e-01
-6.088000986597460473e-01 2.231293735705400239e-01 8.194917705821420650e-01
5.066061070914353870e-01 5.047279067798362551e-01 -7.413322674138903001e-02
-5.267207845466571614e-01 3.369170287464428593e-01 8.496966778452864633e-01
-3.755956941729893250e-01 -2.318796867725655131e-01 1.027680778212686358e-01
2.086875478607962686e-01 7.802611420926380825e-01 5.262187104710369656e-01
3.334503380589314836e-01 5.167911140861674024e-01 1.221089064353052811e-01
-4.096625516034198972e-02 -6.741321979449033108e-01 -7.084635223090208767e-01
8.595458247809047991e-01 6.220686297807662690e-01 -3.277804037237816992e-01
-6.226613270310393800e-01 -5.786999295534105414e-01 7.404708912741413997e-03
9.931309234548493792e-02 -6.820027471978378220e-01 -8.654844093366652613e-01
1.678906900893873955e-01 1.564154170904276386e-01 -7.374992007612263256e-02
-4.691632230490173916e-02 -5.152229300466502071e-01 -5.382894111631124634e-01
2.173283218842109177e-01 8.846936106766017938e-01 6.247314119667209953e-01
-1.274929388760578375e-01 -4.584472301229436941e-01 -3.942142180717852495e-01
-6.016748571417075420e-01 -6.092915552098077114e-01 -4.641657303303879656e-02
-3.267893986335506651e-01 -7.571423225193426587e-01 -4.906602117986696432e-01
-7.321362471565376340e-02 -3.568540999293126625e-01 -3.470741671896606650e-01
5.416255435677158614e-01 6.760444663775602159e-01 6.534582774167432828e-02
-1.254521074226598865e-01 5.907114760264076114e-01 6.854520536334188785e-01
-2.169752680715187898e-01 1.214842364297252369e-01 2.987626828947982927e-01
5.864125025933750734e-01 -2.962839348885590862e-01 -9.848046823909805125e-01
7.572013329188647113e-01 7.120267989761061012e-01 -1.263829439948178646e-01
-4.867239544479378343e-04 -7.326179069110752562e-02 -1.318488893038949616e-01
1.568340970360131148e-01 -7.124124089221507477e-04 -2.240347015958727983e-01
-2.621072230274049675e-01 -6.862678077032119406e-01 -4.862379852604240549e-01
9.380791855316425454e-02 -5.555764552847902715e-01 -7.292771397928706767e-01
3.524596065067504003e-01 7.485286805665135601e-01 3.408853005434780425e-01
1.874745280844895001e-01 6.406568126868933399e-01 4.047841151237916990e-01
8.198675793284371238e-01 8.017335915215720310e-02 -8.444337982098759632e-01
-3.137878555043057127e-01 1.535968581514234599e-01 4.346410493735628489e-01
-4.667648038807263311e-01 -6.258512223611606418e-02 3.741101372262654601e-01
-5.117623723943525160e-01 -1.665289759742071829e-01 3.146936674737493278e-01
-1.830145202321843412e-01 -3.993550748517958882e-01 -2.743461157901868619e-01
-1.922803645594397537e-01 -5.184099294058414076e-01 -3.872730810532598045e-01
-3.997088963155857044e-01 -5.211349282787952619e-01 -1.698994826988499685e-01
-8.498225965477712585e-01 -3.147511574739371154e-01 5.207032021522320919e-01
-9.494694837737549520e-02 1.229308947195047880e-01 1.707224653372771683e-01
-1.470974108378635958e-01 -3.912970745357453040e-01 -3.041628439778918391e-01
7.768030491778010749e-01 3.294399825605299204e-01 -5.416916795388749817e-01
3.739480869075645919e-01 -2.376596096401213110e-01 -6.988256173818155892e-01
-7.094404750523031211e-01 9.318977584077330067e-02 7.923342971275484370e-01
6.660058728964076691e-01 9.552677721048848936e-01 2.212364033642550687e-01
4.990609644906816023e-01 2.446820548031761883e-02 -5.613405294209349305e-01
6.681933034087604861e-01 6.267041545640713585e-01 -1.198815892003002176e-01
-5.085151520200605069e-02 2.358842587965835624e-01 2.403866363813327300e-01
-2.583453127773012725e-01 6.774444280481823899e-01 9.159510293440247253e-01
-2.473817294656587007e-01 3.097445824605435938e-01 5.251621866731652766e-01
-3.304364248246871583e-01 -4.584900933311255589e-01 -1.788357889634722142e-01
-6.331741824760318549e-01 6.739101357527151927e-03 6.222353323764390209e-01
-2.258837887350616802e-01 7.113744691097932948e-01 9.164801451644192243e-01
-4.484515152844861796e-02 -3.023332998172694602e-02 -4.039433645511656540e-02
-6.771265053564686776e-01 2.156725260918633813e-01 8.843305416330438096e-01
-6.910577229207633121e-02 -1.873570680758544771e-01 -1.766589462582187076e-01
-3.595857219037968538e-02 6.513996100786948462e-01 6.530336375216985179e-01
-9.497493839672489779e-02 2.556423170008953472e-01 3.075966229510575523e-01
2.785265734055852316e-01 -5.819060701081692905e-02 -4.124783707748400641e-01
7.450215596819006469e-01 6.983421524852868600e-01 -1.275650543699650419e-01
7.450661905595944434e-01 4.475797364299323178e-01 -3.861843251797027476e-01
4.147921008134625720e-01 3.659523727583665620e-01 -1.197709235190294180e-01
5.879830714880989184e-01 8.290202373820995119e-01 1.738776286472007160e-01
-6.531630593870798585e-01 -2.781214092769507262e-01 3.497214346154049469e-01
2.236195110148137821e-01 2.302132429611252473e-01 -5.680943906080446887e-02
1.795894716288274351e-01 6.567185390176140114e-01 4.297159651347885467e-01
8.366982902643164133e-01 1.787077415988825302e-01 -7.606964086459597763e-01
-8.729095787190988692e-03 -2.242582678871227198e-01 -2.787986398806654997e-01
6.836407154877832681e-01 4.996331264653810361e-02 -7.309811225501638976e-01
3.406351662019124066e-02 -6.677040782794122498e-01 -7.814786186195055162e-01
3.317158703808839038e-01 8.531371970192390686e-01 4.707709174184184775e-01
-3.200572604625727680e-01 -4.113068195870727695e-01 -1.412004759017533861e-01
-1.022867967731981714e-01 3.992094853883729200e-01 4.633963652205518313e-01
-8.148027000642531215e-02 -1.806446921634461966e-01 -1.566021127094051058e-01
-4.755572199154955437e-01 4.930909152755378333e-01 9.564246296302704176e-01
9.907827289809770233e-02 5.467840638660317332e-01 4.018196973320264376e-01
-2.932183626186786463e-02 -4.547063748020912510e-01 -4.945645759950995646e-01
-8.604399120004537771e-01 -1.341372792525951929e-01 7.182121098226615930e-01
2.645187162097070721e-01 -4.738487843918468556e-01 -8.262121564197264512e-01
-8.513745082310334444e-01 -7.825967401627730302e-01 3.993487125766103513e-02
1.118238989393564170e-01 6.377904774814772138e-01 4.821309546743398067e-01
5.538327814383887659e-01 7.684135791193815734e-01 1.476337167181558108e-01
-1.901640668364429076e-01 -7.806957804928889022e-01 -6.599737157018086275e-01
-8.030225940809135876e-01 -5.475845126287371967e-01 2.309409628604179310e-01
-5.845157457434414505e-01 2.822900681609383233e-01 8.547172879955937663e-01
1.267104387203098759e-01 -4.703451404020483895e-01 -6.763171908276632838e-01
8.557705155898098770e-02 -2.363325293852180375e-01 -3.913540297421402858e-01
4.325946681789342718e-01 7.844626963063210390e-01 2.928757828831635712e-01
-5.808949486420847963e-01 -5.987651499733093186e-01 -5.762002461769334671e-02
4.102808845461256015e-01 5.232921435411928002e-01 4.725748489817058196e-02
3.320654428854679652e-01 3.495450650267186155e-01 -4.887562332893879286e-02
-3.387731199436984086e-01 -8.320934921206959434e-01 -5.552249723888279531e-01
-6.722496829162407650e-01 -7.152148508637851121e-01 -8.072410909841587490e-02
5.270796402614875698e-01 -2.113326985835668470e-01 -8.342265318125514639e-01
3.323009334985709343e-03 -5.700024671011258981e-01 -6.481035285478083940e-01
-4.369638283853780614e-01 -8.205841298577319920e-01 -4.391286488291780143e-01
5.773501384513382018e-01 2.313637619316270544e-01 -4.311048682685771349e-01
-5.795199352680460159e-01 -3.395823237358094882e-01 2.081749535236953330e-01
1.914470193896136985e-01 5.573092714972498474e-01 3.146241235962548011e-01
-2.592496909839317465e-01 -7.108252519480108278e-01 -5.145934643268991193e-01
4.089306686001571989e-01 7.214120168895931107e-01 2.529806357583351817e-01
-2.126767037625841295e-01 -5.006043088867213608e-01 -3.472624163144233389e-01
7.352754270709673801e-01 6.011627251335981414e-01 -2.174255057037639827e-01
9.360233045588559619e-01 4.573251785741967446e-01 -5.788345858929199172e-01
-7.268643913978408699e-01 -8.730973379785469390e-01 -1.855505151450214385e-01
7.173652851480383230e-01 7.221576889483175554e-01 -7.365095323290765661e-02
3.304874888039276981e-01 2.433956804401029017e-01 -1.566558284752709862e-01
-7.550968024090433384e-02 -5.368839358355071978e-01 -5.302734202800323260e-01
5.486906892629673793e-01 7.728364618625598315e-01 1.576526241743249068e-01
6.734914675201463148e-03 -7.062930388411877702e-01 -7.922602955793051072e-01
2.095869828449477279e-01 -2.373119564218799105e-01 -5.239993503789647233e-01
4.223517028672706952e-01 6.454000059456914684e-01 1.603550837925844796e-01
8.651810447814800575e-01 7.672535346409277146e-01 -1.840557474678234662e-01
1.841921077033047416e-01 5.735733718830254846e-01 3.390957573603605169e-01
-6.558469796949074615e-01 -2.055780222101448174e-01 4.273729927131753037e-01
-7.613970242159506796e-01 -5.660066881143797080e-01 1.677599104597116975e-01
-4.596004490218927874e-01 1.777645225145063068e-01 6.143400809273100727e-01
-3.175525029165498503e-01 -8.440183946415055205e-01 -5.900467395287973815e-01
6.736303303512310992e-01 -7.915436020397455252e-02 -8.534939687203912939e-01
3.461139256517602458e-01 8.752863571646332108e-01 4.783264655144010002e-01
-5.670629996988549859e-01 1.572198612546910068e-01 7.072260988527814263e-01
4.648733278280543502e-01 8.783640988689053186e-01 3.554380537208872148e-01
-7.733747065355595085e-01 -6.409416124524165426e-01 1.032054907257496934e-01
3.596472284465518365e-01 5.955927595230374461e-02 -3.771702325829556779e-01
-1.015064219500148995e-01 4.679260440758296058e-01 5.334245991069386239e-01
-3.255749027651856919e-01 -8.432171255525361397e-01 -5.807048135639734099e-01
-7.757057161112377308e-01 -7.872877292783856396e-01 -4.522392975939062282e-02
6.121760107229686776e-01 6.878928244927871027e-01 2.674512350880259293e-03
5.016252289334250936e-01 4.581486420643132718e-02 -5.420510158425363434e-01
3.918655721333815234e-01 1.175806818163878248e-01 -3.515413422817272870e-01
-6.287517513702624017e-01 -9.101307898264254792e-01 -3.278829546454545274e-01
-5.543481706289031807e-01 -8.146838008195855796e-01 -3.084421761121269867e-01
1.337043550981638629e-01 3.291885346388452316e-01 1.406923381040099119e-01
6.187229248672929671e-01 8.612747383057519635e-01 1.745065605128277852e-01
-6.464206387065296600e-01 1.264916104640943229e-01 7.597782773559297320e-01
-1.645526763706585960e-01 5.406328070476688064e-01 6.753186786691721677e-01
-1.377834706017930753e-02 2.970857510225617948e-01 2.641412991803999133e-01
1.790091455931621667e-01 8.624677453278252193e-01 6.424888178382196502e-01
5.370365410092607927e-01 -1.366763545163693638e-01 -7.678143272712885103e-01
2.571552543832913984e-01 -9.641391751944412836e-02 -4.292066108071868058e-01
-9.396118026722295458e-01 -3.309437958099460952e-01 5.993166865510980434e-01
-2.526972692044357482e-01 3.403086646607041965e-01 5.623205204356462872e-01
8.639389074390962930e-01 3.937694540080395322e-01 -5.678527040668364112e-01
-5.056677902995246887e-01 -2.130586065910401034e-02 4.579701155700627302e-01
-4.535940279006898668e-01 1.144276404563989852e-01 5.426549417102873862e-01
3.163362998344659283e-01 -1.893575704256468539e-01 -5.878649331469208983e-01
7.912921076560527345e-01 1.827535995266355573e-01 -7.083263092871365796e-01
2.263267007677006448e-01 -2.262482569498560636e-01 -5.303601499965961974e-01
-3.324702482030753581e-01 -7.605552297815612039e-01 -4.881492379304259166e-01
-8.323294549283474231e-01 -2.912962130587005705e-01 5.263197950430368310e-01
3.266328699857961038e-01 -5.508263186458486338e-01 -9.715205954632343266e-01
8.466292687711921561e-01 5.650990920813554474e-01 -3.728133361067895168e-01
-2.115886814155798490e-01 -3.677021765312733503e-01 -2.113762461250257574e-01
-1.149284066632494557e-02 4.775955537933110340e-01 4.478466645208576957e-01
2.096686843006962953e-01 -3.329651114072033902e-02 -3.137169891636560903e-01
2.450686887643257206e-01 -3.788345023500729880e-01 -7.075928264057415040e-01
-6.041516992964169885e-01 -8.381051277513280606e-01 -2.797269285316337228e-01
-6.477500104291310234e-02 -7.934147276118531655e-01 -8.061880981019099446e-01
6.745447004820307457e-01 3.195106315577945777e-01 -4.433839714726571235e-01
-7.594046662744756704e-01 -2.347032075273108864e-02 7.250775872195581728e-01
-9.359728566159335184e-02 1.737330511166343752e-02 6.044484734195727793e-02
8.254463809688836751e-01 3.408061482544585963e-01 -5.816059833310806004e-01
-6.663961892685418276e-01 -1.933888380869165646e-01 4.511396719713788861e-01
-4.809429207352399205e-01 -1.854825518431345299e-01 2.624352595227341101e-01
-2.600474359034536664e-02 4.912614894465412996e-01 4.773424479182083457e-01
-4.732169008339288108e-01 -4.463855756923280627e-01 -1.479415061801862309e-02
8.038300460516161206e-01 4.848463293056949897e-01 -4.101344282761817950e-01
-6.883682520712722241e-02 -2.266087094955941128e-01 -2.174184841228513632e-01
6.686022942151410575e-01 7.836956315229023362e-01 4.156492434469750974e-02
6.867997296396227691e-01 6.368956912010637073e-01 -1.291232069176392327e-01
1.169113727291553884e-01 4.286317763037389983e-01 2.610581298821706975e-01
-1.176196432750768739e-01 2.994631707430338644e-02 9.890892959358753289e-02
-1.843089140439868323e-01 1.574657090075608223e-01 3.011896927163161819e-01
-1.800968472541129850e-01 -1.532423004419480872e-01 -2.366574820353592457e-02
1.711177900653687578e-01 -2.474818817314525521e-01 -4.936513059108821322e-01
-6.527631204197048564e-01 -5.539843424792002535e-01 6.484278645754057435e-02
-6.815725920792781167e-01 9.373942325477360726e-02 7.633195629921520897e-01
-8.905459292340078825e-01 -6.457909430650051741e-01 2.225813033406623398e-01
-1.380625482869649034e-01 -5.158003340345637122e-01 -4.421339240845705842e-01
-5.512321379096321028e-01 -3.949654326689029937e-01 1.210398172055499044e-01
-1.253377429293006107e-01 3.877981122373210798e-01 4.760979737850024596e-01
6.714601306527302471e-01 5.224514800343423859e-01 -2.308487055794504195e-01
2.339077809157164567e-01 8.519674734853560638e-02 -2.172630780845552223e-01
-1.311873758846037741e-01 -4.390307520787551376e-01 -3.702714431657384009e-01
7.903085292236864401e-01 4.414437275843010045e-01 -4.405357500797367210e-01
2.273548668451081181e-02 6.247158779882590052e-01 5.632156966303726309e-01
-4.425063918348701858e-02 -1.051647231672205723e-01 -1.182903830439286930e-01
-2.629530293931014451e-01 1.418027508699841455e-01 3.685189426718614714e-01
-6.375639884223985865e-01 3.841491311821954024e-02 6.595573603985022126e-01
-1.215135248952573105e-01 -1.644660892606761016e-01 -9.742473191532581567e-02
-6.443896971771799764e-01 1.127451317901595335e-01 7.434478672996531756e-01
-1.397495719415708104e-01 -7.546426279403743997e-01 -6.866237098488117141e-01
-6.653111241124620712e-01 -3.984081009079444846e-01 2.385837194524079719e-01
1.184113278693443155e-02 2.003153727659312544e-01 1.371623664706879964e-01
-3.140051466869112629e-01 -2.825741727952542637e-01 -1.488297831419181649e-02
-7.373416860936614636e-01 -2.823839293182991428e-01 4.346809983054182314e-01
5.163089240861888918e-01 9.221990594111346695e-01 3.460397557642721500e-01
-7.016819789166568455e-01 -6.125086527135107373e-01 5.642277136953489924e-02
-4.815198618572359979e-01 -5.135414935132733838e-01 -7.522798524055124281e-02
-7.339649233737192136e-01 -4.594036794217574160e-01 2.485639300180451372e-01
7.762185710241234493e-02 3.294564145115779219e-01 2.004996117719591575e-01
5.552187062526485750e-01 6.517258800762706361e-01 2.584087304890626130e-02
-1.440825302250567930e-01 4.397514043120862581e-01 5.495666620247564582e-01
-8.658032045358803053e-02 -1.519772478114189418e-01 -1.216282235619138841e-01
2.021137067598250681e-01 9.120018451204254806e-01 6.690402779609423423e-01
8.620630408866986061e-02 -6.686554330763133658e-01 -8.378086864640942322e-01
-5.818384293109355454e-01 -1.024796296310535038e-01 4.551227830987100709e-01
1.573300684238963104e-02 3.341544101169267589e-01 2.710383570626714866e-01
5.134271634409658114e-02 6.758286886345917788e-01 5.855540017626279514e-01
-2.741407390801859911e-01 -8.128263986730271951e-01 -6.039645175154622070e-01
7.025858492675405298e-01 2.808899718494496933e-01 -5.129728114030631669e-01
-1.498151502473512031e-01 -2.442343046464257317e-01 -1.496352515443520881e-01
2.125027731117375696e-01 4.254634449867770313e-02 -2.385205228109791853e-01
5.182342122915295501e-01 7.685665959420887594e-01 1.855790497619116131e-01
3.213094226205747694e-01 -5.522784822511740410e-01 -9.673671937347310124e-01
2.245173763525529220e-01 8.795775444815404631e-01 6.118249018063386391e-01
3.463518378651311291e-01 -5.072795700483408998e-01 -9.475491744100384972e-01
-4.989228622605606511e-01 -1.801843342044639196e-01 2.869840203399859346e-01
7.428627894568659018e-01 8.660308384538918658e-02 -7.560639630565131331e-01
1.232458180940426973e-01 6.632304261835280101e-01 4.962389170371052649e-01
3.645099053003587608e-01 -2.677867091742691108e-01 -7.198724212446611093e-01
-1.169757670730529331e-01 -5.224944180506436719e-01 -4.714199041662754941e-01
-1.708464931925283425e-01 -3.742646892361840005e-01 -2.613905895336347540e-01
-5.112694158227172325e-01 -7.532727068566763551e-01 -2.908462584791161043e-01
-6.777267319309324689e-01 -3.437215075166349387e-01 3.081524667682143948e-01
-3.590832236816419165e-01 3.043558466048703615e-01 6.381757293485350591e-01
-4.521407639722059835e-01 6.878881813570097981e-02 4.940521659974542734e-01
-3.532732952173604501e-01 3.123852999852245182e-01 6.402880583794525737e-01
1.205904537377153612e-01 6.299334795788841257e-01 4.647236501654585794e-01
-7.303425680987087887e-01 -3.174043984241023963e-01 3.911403899395067274e-01
6.104353957456284396e-01 3.864497132501685805e-01 -3.063087777100107489e-01
2.660813695367468812e-01 -1.478654090664248966e-01 -4.917354416035212283e-01
3.667321386058444710e-01 1.065793333497136175e-01 -3.362063986365672053e-01
4.134359963282403516e-01 6.509478881651128424e-01 1.755396831501922494e-01
-2.645403360362704182e-01 -5.608985727201974969e-01 -3.543816565254997997e-01
2.846352443288312495e-01 -7.122268510221776983e-02 -4.324006036263438602e-01
7.053100300004783163e-01 6.640083715530510355e-01 -1.208146699960269271e-01
-3.214051555990549702e-01 1.203380579805805352e-02 2.967550003966422656e-01
3.805670871550966283e-01 -7.454468919366938166e-03 -4.684772185563253477e-01
-6.793011683806951528e-02 -1.395956040467535575e-01 -1.286579970589412925e-01
-3.880757874491677639e-02 6.106151204765413593e-02 4.733486809905353143e-02
-7.410398742913466563e-01 -3.434930615012252719e-01 3.755943403917566537e-01
8.537930310103735154e-01 2.660818229638323706e-01 -6.887471499716805168e-01
1.441539055911766898e-01 4.008303930343568577e-01 2.034732338865683499e-01
9.086715339005937420e-01 5.549026784748268826e-01 -4.491845847743533571e-01
-2.713241465007289466e-01 -3.125074164324967430e-02 1.989619183338789399e-01
-9.067226274154026600e-01 -2.298018795682561510e-01 6.686969053161954113e-01
-2.096755600518714902e-01 -1.823557831093894910e-01 -2.228838121502616301e-02
-9.292938803944118809e-02 7.808094521526490750e-01 8.469476752460916025e-01
4.571957653374638664e-01 4.408408091611471513e-01 -8.756133727584961002e-02
1.075234718029712960e-01 -1.138663839255076859e-01 -2.883698496084134977e-01
3.510754150113581384e-01 8.375378370847540443e-01 4.341357705290097568e-01
-5.873005348906545908e-01 -2.670246890964391162e-01 2.912512807054395969e-01
-4.141875681414698418e-01 -5.291333793960460719e-02 3.282728814763696268e-01
-7.130739886079746626e-01 -3.213421344244119515e-01 3.687495843609026047e-01
-1.438938651574503680e-01 -5.147192572327780047e-01 -4.348292906214759612e-01
-7.023089035239057365e-01 -1.546527914706434526e-01 6.430401031971968440e-01
1.062711944396501074e-01 1.833394092599914538e-01 1.332581044856387398e-01
-1.847465725405817161e-01 -3.717647155618107324e-01 -1.302209368807777656e-01
-6.565067336214539528e-01 -6.847335604150353028e-01 4.783248102285349995e-02
-8.745456795561141750e-01 -2.944081145204135441e-01 6.817601277216680522e-01
9.234526374975586815e-01 4.221605094926502155e-01 -4.879137226043828157e-01
-5.840721515348524795e-01 -4.673116552281599834e-01 1.951369073326628401e-01
6.894643311834494082e-01 -2.757086592542159001e-02 -7.032746404119860628e-01
-5.135180480085501653e-01 -4.437917990173211313e-01 1.444967148568516158e-01
8.411658007272819759e-01 2.847190688576397566e-01 -5.422887804309307613e-01
3.127406270218407447e-01 -2.374872926407446960e-01 -5.198397660106908180e-01
6.459153541541136079e-01 9.351792112752330688e-01 3.356851420583187307e-01
-3.661786591022018755e-01 -7.888408103955024675e-01 -3.676975321732699475e-01
8.741035181463453485e-01 5.978621567679444082e-01 -2.543565767633883534e-01
4.053045157954897615e-01 8.315715941739861838e-01 4.842570511675524103e-01
3.289719984310434525e-02 -4.773772380095279988e-02 -2.712963601165462035e-02
-6.244555496261713912e-02 5.372374302042814964e-01 6.772688150814207830e-01
2.825412870534179666e-01 -2.710308586128920560e-01 -5.223716581734916264e-01
-4.447618957281281871e-01 -5.153653605723477193e-01 -2.289875657540729574e-03
7.007292705718368708e-01 5.373551643850721371e-01 -1.327127798833513672e-01
-1.256720284542346966e-01 -3.419160500376655643e-01 -1.621497764734521341e-01
7.089226889879520765e-01 -2.285149214159184206e-01 -9.311315513118626486e-01
5.253306736246006470e-02 1.957877795498530471e-01 2.031366769063742972e-01
8.742034486164664830e-01 4.627252511049854689e-01 -3.938081185690549546e-01
7.750840503643771084e-01 7.326845747620172045e-01 -1.022714572507584657e-02
-2.799388215259805412e-01 2.089351355939733090e-01 5.696093053205354417e-01
7.003475938368199927e-01 8.863091240171322438e-01 2.275137791438504586e-01
-1.920790293211372401e-01 4.463688113569776461e-01 7.211750102173007937e-01
2.416371770604056612e-01 -6.648982772154757859e-01 -8.850859339220342736e-01
4.906137570879294807e-01 -1.968944788639034049e-01 -6.667934496342882156e-01
5.810912983536219434e-01 -1.639065758726431787e-01 -7.288192767826052743e-01
5.894378052498128184e-02 -5.204351899199860521e-01 -5.421964958194723794e-01
3.793517959787106597e-01 -3.593357730023344909e-01 -7.161901043402696398e-01
5.703938040506334461e-01 -3.510983777838736497e-01 -9.104854912683025825e-01
-3.373940762783449177e-02 -3.617356701513309014e-01 -2.801722618315529711e-01
1.348142719106127652e-01 5.502142792571104168e-01 4.812603255638976951e-01
-5.171641031274085698e-01 7.124471604012568016e-02 6.794432361389848296e-01
2.011582199782109281e-01 -7.676587483165650538e-02 -2.356693206430424403e-01
-1.311807750322629695e-01 -4.253534128310991758e-01 -2.423381408781416779e-01
3.226131471364661607e-01 -1.551974242114244618e-01 -4.454667374382939027e-01
7.610701583999301967e-01 -2.828628111673653009e-02 -7.800212568905718902e-01
-7.651371668958554251e-01 -6.727678513442633124e-01 1.754810344114373366e-01
2.266097618499284261e-01 6.608096061389554521e-01 4.978598555544037074e-01
9.242510490726715267e-01 4.528754124374251289e-01 -4.570897736832869040e-01
-4.644021708392379599e-01 -9.679404760459222601e-01 -4.481115421201327664e-01
2.154091463425675257e-01 -8.768839724225828414e-02 -2.620592286405754034e-01
-1.741585393715881780e-01 -2.988225886347189997e-01 -6.624627645415052946e-02
-7.727096652091094420e-01 -3.728260561365112080e-01 4.928020363793070846e-01
7.054871374397612138e-01 -2.275971191404045912e-01 -9.265383598833007994e-01
-3.759380175017656978e-01 -4.238660130914852497e-01 1.900312262204113117e-02
2.281685287303276133e-01 -3.837220478703087245e-01 -5.808562042225180466e-01
-3.147728637191534729e-01 3.231959384441222827e-02 4.244694484782089439e-01
-5.055616623846134194e-01 -7.685474970120995675e-01 -1.988184606626652584e-01
3.034851196957114028e-02 -7.980043521387075733e-01 -7.980563662496761301e-01
2.381124255803297729e-01 7.589558342172317840e-01 5.868526751498799321e-01
4.173403763242881093e-01 5.341340610236442465e-01 1.647804837703809033e-01
1.132790492154963219e-01 3.464635404895818199e-02 -2.750446280457478562e-02
-2.585814748194554258e-01 2.472125762447774378e-01 5.864081927504998237e-01
7.729792780316328826e-02 3.244735306831988408e-01 3.095424114190514775e-01
-2.530004313944623773e-01 -4.267509012097616128e-01 -1.144687163044430939e-01
-5.108252975361849968e-01 -6.945229644440205075e-01 -1.169012864652959199e-01
7.981854051928211069e-01 2.938140239037650980e-01 -4.872872906824902151e-01
-1.704347575529185088e-01 -4.116988080338147005e-01 -1.865905533051692433e-01
1.250824345138268623e-01 -7.097404505341442515e-01 -8.076028467728429971e-01
-6.562062393260068016e-02 -3.968762585525717479e-01 -2.825656162763069967e-01
-4.976035930236819560e-01 -4.643713534826405809e-01 1.063832062164470627e-01
-3.407835203123664169e-01 2.365494871684396261e-01 6.626697322349897057e-01
3.002577774460837290e-01 -3.559309878420166551e-01 -6.287217174000465647e-01
-1.790035195653552347e-01 -8.811623006627571364e-01 -6.615788591015913100e-01
-3.136241159282658342e-01 4.607569321134887264e-01 8.650302009957588911e-01
-1.480893362628874776e-01 3.742036254539092832e-01 6.000677370858925608e-01
8.721495580776955636e-01 7.150669199697609058e-01 -1.314276018844131311e-01
-6.487319531399631245e-01 -3.647036755241243877e-02 7.080316398550883239e-01
-3.317440076846981944e-01 5.442753480969418911e-01 9.703837231649894424e-01
9.809445352217550235e-03 -3.818059684246529195e-01 -3.470943115934098100e-01
-2.584745926268081084e-01 -2.474907178809396535e-01 7.618492795025420816e-02
-8.014151421258526309e-01 -7.849931911673720952e-01 9.826940136870482290e-02
-5.128302336127437133e-01 -6.661898600608234799e-01 -8.555758480158388857e-02
6.256944876848340442e-01 -3.178324418385671674e-02 -6.399271073766517048e-01
5.519205214420519479e-01 3.281704643937313759e-01 -1.904530005569587126e-01
-4.117775561426217923e-02 3.190292379223206853e-01 4.296894059627118789e-01
-4.598464707502739057e-01 1.772029425325963858e-01 7.278591786685516540e-01
3.749322919042944458e-01 4.730773717947345802e-01 1.468380976858746911e-01
-6.857082370684275396e-01 -8.631994596678458365e-01 -1.051942465141960242e-01
7.950737315512780290e-01 8.375189422706250109e-02 -7.005883604776595996e-01
-3.483671097028855912e-01 -6.600830581964216570e-01 -2.538366791198011785e-01
2.723712436700456152e-01 -2.368183320671468917e-01 -4.762982461997938843e-01
5.675179530074293544e-01 1.260910236443724963e-01 -4.153823185765360138e-01
-3.191393733525839105e-01 1.792093393974755200e-01 5.805687823821683580e-01
-3.774594027107422423e-01 4.814496202287728566e-01 9.541278848921682654e-01
-1.964577238340852461e-01 -4.867807907323035699e-01 -2.363876726319469324e-01
-2.609985391116875775e-01 -4.760127359542812991e-02 2.849786634692847431e-01
-1.915452935374645504e-01 -1.288203782765777738e-01 1.275061811713170679e-01
9.443304486592380975e-01 3.871170188372357601e-01 -5.462101734934914354e-01
1.276232247672648770e-02 -6.947464802969278985e-02 -2.817052652968759022e-02
-5.085525327251961825e-01 3.270361128657189864e-01 9.340596276407504561e-01
7.431828059342899806e-01 6.503509238604897602e-01 -6.126203383041855383e-02
5.749450469936275843e-01 6.202951340737045127e-01 8.632897067281967984e-02
