3.218978548407482321e-01 1.494289628737555942e-01 3.173819426504674301e-01
1.501795268498496705e-01 -9.830653658876374879e-01 -2.621247123279589752e-01
5.589587661113482042e-01 -2.618046223224639035e-02 -3.830925253909347461e-01
1.717605685045123579e-02 4.923567934381227473e-02 5.246779208585081733e-01
1.288330632449059820e-01 5.110450635514928175e-01 -1.321614050715564093e-01
8.547899673230061612e-01 -3.544185640071698118e-01 -4.234621498093618652e-01
-1.510243661105170887e-01 3.535961177701716918e-01 6.663672504632287552e-01
4.806906974337986083e-01 -2.483605432596786011e-01 -6.724573942504404878e-01
2.010983495839739621e-01 -7.071115247125235870e-01 1.337231281035394792e-01
2.149371730315754736e-01 -9.250783257530440506e-01 -6.459584486103692180e-02
-3.424704307106655188e-01 1.530107360642981584e-01 6.182737702413685366e-01
-5.369469543673183187e-01 -6.411758662743277659e-02 -1.665391063078901224e-02
4.702532637634005419e-01 -1.682051462261323904e-01 2.366798595534808647e-01
1.631250769515292243e-01 3.353849609483274818e-01 4.407339814970255842e-01
-1.654725447970123442e-01 5.015009012490095897e-01 -2.799398315110181445e-01
2.796459375665626412e-01 7.790335413383904506e-02 3.756760501211560688e-01
-4.624988345304208159e-02 -1.989990039101219854e-01 -5.607623707218662990e-01
-5.459584130388369649e-01 1.573046885194578359e-01 -1.804656235671693587e-01
2.828408897973390679e-01 -5.752114597044406530e-01 2.261234953039942541e-01
4.268017937651520932e-01 -4.511599350931470020e-01 2.407240037782732156e-01
-5.118558752535463663e-01 -1.196230139642745632e-01 1.144092090049025068e-01
4.816040489664668023e-01 -5.304558502749527893e-01 1.995733249654861041e-01
4.015605650508030644e-01 2.461421613517738860e-01 6.716266497376573164e-02
7.768412200869391215e-01 -4.658001993724479872e-01 -9.760516271022067966e-03
4.213317537736182006e-01 2.242741779524680401e-01 3.632633059016138199e-02
1.262688934215642766e-01 -9.475555899620657918e-01 -2.347180614684138411e-01
-4.041048962377306042e-01 -2.055329401114329782e-02 4.654735419413607023e-01
-5.419296104364207389e-01 8.630305334247567739e-01 -8.253556118570230804e-02
8.050914057058543571e-01 -6.188316073040730503e-01 -5.429830871690060484e-03
6.539074990092974549e-01 -1.662877284132570355e-01 2.361133109161312003e-03
-3.978439946512183495e-02 -1.063703389052808729e-01 -5.478622836848764388e-01
5.855427724482633600e-01 -1.293283275485973272e-01 9.237878507326512112e-02
-1.947625171756523985e-02 -1.744089981562625680e-01 -5.707702523027283759e-01
4.370482213967997326e-02 -6.969396585500992058e-01 5.822405950557109355e-02
-2.014644133717350127e-01 7.055312583463126952e-01 -1.477380894846903325e-01
-4.139680018235398218e-01 2.878122640917708530e-01 6.931899277884639998e-01
7.793142124668656079e-01 -3.933191749037391882e-01 -4.514042741342924603e-02
1.251887926687824948e-01 6.199158201739602969e-01 2.530968312837889589e-01
4.519411604439297347e-01 -7.842605539733734643e-01 1.123115730968567427e-01
-3.950495529568488484e-01 2.646937572604944333e-01 6.807467097305677228e-01
-3.710220923492858758e-02 1.734771661596753653e-02 -5.151607069581095599e-01
-2.888322922937519577e-01 -3.105233759372047486e-01 2.220086949999137971e-01
1.871123175097254010e-01 4.105877884306786130e-01 -2.053441130621736221e-01
6.804708085301852671e-01 -1.939476244271854388e-01 -2.446572296211363060e-02
3.374685755477565552e-01 3.189215575555924276e-01 1.471675583303988233e-01
-2.629871651375397801e-01 6.372401421386421072e-01 -2.061919945815066935e-01
3.902999389404392394e-01 2.700409518312579804e-01 3.818636153035540048e-02
3.445206443580486888e-01 -8.102351756453880782e-02 -5.844690829249057362e-01
8.930161012949944244e-02 -5.374269009953606124e-01 -6.659694616864579864e-01
-4.922759257749207253e-04 -7.039787795928507119e-01 1.821182803759932274e-03
-7.948274563899206113e-02 -3.861328260862539885e-01 -5.365047998960638109e-01
5.289823931607277874e-02 -1.237799030182533261e-01 4.568056961565511442e-01
1.313486091918378007e-01 5.621153463610745193e-01 -4.366208063302830233e-02
3.636440646436950863e-01 3.064584203564719167e-01 5.279213379417733998e-02
-9.881257906936503823e-04 -6.898010627582603638e-01 2.209190164258552358e-02
3.813093281309182792e-01 2.863495932253571907e-01 -1.083656818097270685e-02
6.539943703279530451e-01 -8.910463487341921396e-02 -1.241218435428439737e-01
-4.647649003806043067e-01 -5.092397230261844557e-03 4.398415688968116966e-01
5.883450226089773777e-02 3.165868343641984467e-02 5.047610012083508790e-01
4.561345009360617264e-01 1.543007127256227629e-01 -2.192716629237587422e-01
-2.681569600793469732e-01 1.591815343825973006e-01 -3.905727170475903343e-01
4.020308939824260852e-01 -2.249879767566184685e-01 2.892016936019226603e-01
-6.267421938512253154e-01 3.546148468182460517e-02 2.104342586655027769e-01
-5.420193037958089821e-01 4.238817493961479221e-01 7.651062913912498598e-01
6.489246430811265176e-01 -1.071958942912936974e-01 -3.678072735788031622e-01
3.639698341168216139e-02 6.799077174997462114e-01 7.591256269022765221e-03
-6.048814895756241539e-01 3.183320509519962371e-01 6.746218812646601615e-01
4.618454238255334521e-01 1.755999905144011164e-01 -1.124579565783626472e-01
5.779666817794553157e-01 -2.831939797209137577e-01 -6.678063730874030934e-01
4.506366778174316495e-02 9.871928577727429044e-02 -4.975131797742332052e-01
-2.446610412370928411e-01 3.605203783055745959e-01 7.025165100147561237e-01
1.751946718526875835e-01 4.831827701435729705e-01 -1.123433320655856521e-01
-4.414929963031936633e-01 4.616549391039032613e-01 -2.499563036309102870e-01
-2.635104929852993272e-01 -1.759788309206860302e-01 3.945170660708461896e-01
8.373690553250707769e-01 -3.331565157010675238e-01 -2.617557768732871604e-01
4.648394995107683059e-01 -6.084075373408230902e-01 1.824853579998606812e-01
8.039016483646473921e-01 -2.890500293771673390e-01 -3.995875186502158005e-01
6.781890002964597874e-01 -2.052278249467010263e-01 -9.402452272512729775e-03
-8.358332636090926027e-02 7.827221388325800167e-01 4.019313055228151098e-03
5.598065988179222741e-01 3.793378748583355053e-02 -5.971855479624917779e-02
7.394850958953365083e-01 -2.037255666976287571e-01 -3.567095706013116430e-01
-3.621756361799888246e-01 -1.970482249500843386e-01 -2.624431763511553828e-01
4.344031799270068883e-01 1.333761437253833670e-01 1.555750264950246653e-01
5.124225390308524419e-01 -6.861209866457789186e-01 1.432871851531472285e-01
4.297590776457489992e-01 1.827710389838624883e-01 -2.170385949096213241e-01
-6.077333021795207867e-03 -7.149655008836548475e-01 -4.864580692087013269e-01
2.668565401449201624e-01 -9.707240368575645317e-02 -6.047187599644497924e-01
8.898237532430246510e-01 -4.498656389554265278e-01 -2.036374543455454211e-01
-4.547575723173076512e-02 -3.429457505768264691e-01 -5.689111466169752829e-01
4.245664017436967530e-01 -6.928528520574604999e-01 1.578469308812780192e-01
-2.473330638899835093e-02 -6.753331872833623351e-01 1.356747163708810384e-02
3.123658230683919457e-01 -6.521859188226752924e-01 1.850692339582680201e-01
5.096208294473873052e-02 -5.330302650003427845e-01 -6.345840572738382646e-01
-6.607803206152562669e-01 8.074054233809158099e-02 1.494118028257319097e-01
6.981004905496580870e-02 6.648231792926372341e-01 3.640977328502590926e-01
1.789352565359914604e-01 2.568710520198811964e-01 4.424129265063782013e-01
-9.486286098503060593e-02 8.255420658921153176e-01 5.243563311810388317e-02
-6.056184750905014846e-01 4.074091601736005708e-01 -1.634035817396116419e-01
-1.899900472112608096e-01 -4.626181112710441024e-02 5.107681469070622926e-01
2.496614499279745381e-01 -1.138119026388091093e-01 -6.143926641551804568e-01
-3.840618038444945648e-01 6.596070521654126551e-02 -3.212993490378540651e-01
5.448534161646829271e-02 -8.174102245499038633e-01 -1.055194048651270228e-01
-3.096321097451729676e-01 -1.288894080713701429e-01 -3.598599066077021735e-01
-8.371402426042383327e-02 1.116594214825799986e-01 5.749341179472303720e-01
4.196414169671309757e-01 -3.672292032142943086e-01 2.617088166325545751e-01
1.988033724659402923e-01 -2.701019927748385951e-01 -6.764762444599309310e-01
-3.780736991000884784e-01 -9.817808510369988376e-03 -3.163185817721632653e-01
-6.307157363922791804e-01 7.436442219949747079e-01 -1.055647357636463335e-01
5.252740957909914910e-01 6.063842806304468175e-02 -2.722923904478739554e-01
4.829804290071930128e-01 -8.619489483620524917e-01 7.143075437265097860e-02
-5.634347828086717636e-01 1.714957594293265719e-01 5.596702549888674660e-01
7.786744779974072439e-02 4.071512928620754090e-01 5.127429117835002881e-01
2.564141195396791879e-03 -6.636665280792952704e-01 6.118902749175504641e-02
5.041650953156828763e-01 -7.353608969331025536e-02 1.775365756978641019e-01
3.916403142165705842e-01 3.524132949841455448e-02 2.736515204241313781e-01
-4.289102387753508938e-01 -1.207954591973229158e-01 3.267895444265556670e-01
3.173803742123665339e-01 3.583457902102537007e-01 1.294685063260896107e-01
1.823046949399406702e-01 2.846592833737531247e-01 4.333699781885053115e-01
-2.577090336928558600e-01 -3.989657404977030031e-01 -2.818546847838975244e-01
-3.726670778551554597e-01 1.570814312655454403e-01 -3.314445934313930420e-01
-5.784982777181685298e-02 -6.189980923658465750e-01 -4.720632833492194314e-01
-5.384411396507997605e-01 1.040923295371380397e-01 5.052177902996460856e-01
-8.194389312028741434e-01 3.196989754811521700e-01 4.552113670770049358e-01
-3.187851447313883035e-01 1.929606982414188987e-01 -3.596309853423487746e-01
-3.047261741261199641e-01 -1.789500982329982337e-01 -3.507164937151400763e-01
3.693047878017420294e-01 2.690846489420616744e-02 2.997021633514560524e-01
-8.739285507710576120e-03 8.064600996423300083e-01 2.391019257536050602e-01
-2.752473622502138798e-02 4.959627813254279260e-01 5.972778855315912239e-01
-3.306089171517930803e-01 -2.194157428318452008e-01 3.004467089492923737e-01
-8.514380596978158092e-03 -6.648092940868352008e-01 4.826885407358696284e-02
-2.319297532231550663e-01 2.763654959808424239e-01 -3.746463904280341595e-01
-3.375630244930098445e-01 8.539165859945054837e-01 -7.462448223590902041e-02
3.763487005461689239e-01 -9.745539674468255420e-01 -1.919549296207204159e-02
3.773357868442945295e-01 -2.959650348650177398e-01 2.948783823819180472e-01
-6.113986233017999483e-01 2.919003280640375952e-01 6.485736777264196062e-01
-9.214553400170502617e-02 -6.225393788097870473e-01 -1.899525365851988676e-03
-1.468130522544777369e-02 7.958851176670400651e-01 1.548402118242177550e-01
4.595916355396040820e-01 -1.419745596731235640e-02 2.099284647113674740e-01
-2.115231558897888720e-01 2.568006309017768773e-02 -4.406514321212097740e-01
-3.133021284530080330e-01 -3.784252096135098942e-01 -1.335152620552597091e-01
1.498631822935723723e-01 5.819783262922778588e-01 2.523135620881485908e-01
1.775359786182834909e-01 -9.625446215318896881e-01 -1.596170444843044989e-01
-3.860712003350534882e-01 -2.138924239113473291e-01 -2.039266840954379600e-01
-4.876043617835615351e-01 -1.534414311361203542e-01 5.746394692628267048e-02
1.118182920709101247e-01 -6.345094954282641808e-01 1.608614039996234535e-01
-3.315745590513459462e-02 -2.347496436614495141e-01 4.099414324124064923e-01
-7.529865552770262926e-01 2.026795941203908269e-01 2.851346995128147266e-01
4.333256489991882954e-01 2.125777834562078139e-01 -1.003519960816658535e-01
6.476598137912626951e-01 -7.965708983363135876e-02 -2.849271972421311139e-01
-3.228731573020194312e-01 -2.453774243122264498e-01 2.742719549888102404e-01
7.516880997070197745e-01 -5.237154847047534867e-01 3.008365882813173950e-02
1.228786720408721889e-01 5.982589453920857947e-01 3.178915777542546950e-01
-8.835739141671831998e-02 7.593249304683497014e-01 -3.123847067725311552e-02
-1.768385979247473205e-01 2.138850688343178208e-01 -4.108487981155680702e-01
-1.142381211821222459e-01 5.108223848463623318e-01 6.648202408386510998e-01
1.817360309151053177e-01 -2.709819674834106906e-01 3.730047921136703803e-01
7.415938581785335160e-01 -3.097846963456011848e-01 -5.771829289316705580e-01
-3.378929429694331465e-02 5.135917948364483454e-01 6.006753074268438297e-01
4.301023560613482372e-02 -1.671902475086189388e-01 -5.958197697832332551e-01
1.378904292781846230e-01 -9.523141092286000475e-01 -2.154209019386809643e-01
7.841580974107999202e-02 6.577374762835996869e-01 3.501031875189930531e-01
1.751374777085821233e-01 5.542113783564109886e-01 2.123406891982906886e-01
-1.956650813424044011e-01 -5.395852136817604894e-01 -8.928260253034249472e-02
-8.832561311328337439e-01 3.773703201559071019e-01 3.196697967500050641e-01
-6.091978537189729481e-01 7.909518282367492548e-01 -9.830077307763129824e-02
3.536414486396289858e-01 -1.497031009545230218e-01 3.248657190880818169e-01
7.427754156229689209e-02 -2.456222370503729213e-01 4.016866424481576048e-01
3.895546031785467878e-01 -4.640080973832778621e-01 -7.917274839223534810e-01
1.568511676125081966e-01 -8.903499628743914984e-01 -7.728272759347545873e-02
-5.742183729127278147e-01 1.415866263301625814e-02 -3.933480108050958768e-02
-1.382085689599047706e-01 1.851661642146360254e-01 -4.309650985710459237e-01
-2.404999760069408132e-01 -4.766938311004589313e-01 -4.030255556536643802e-02
-2.406200972778894942e-01 -2.711748978221016904e-01 3.147824584309817375e-01
-5.387728454963777169e-01 4.679590284250742527e-01 -2.031429291957128624e-01
3.453275131856290564e-02 -2.874942949538762393e-01 3.823726101919578957e-01
-4.154272956091180080e-01 -2.457645924741647114e-01 6.841177868964308517e-02
-9.085715303149106692e-01 4.602561038355043044e-01 2.044803599789623560e-01
-6.940369596586037915e-01 7.757627149345196482e-01 -7.269979208588836506e-02
-2.510010415753767821e-01 -1.748599178542518950e-02 -4.199804214242281453e-01
1.122522525002074834e-01 5.836142454273992586e-01 -3.764267395981331366e-02
-3.020743907383384719e-01 5.244135433243674038e-01 -2.642849800437794272e-01
-5.934871424354931646e-01 4.364591170865531056e-02 -3.037044056563043340e-02
-7.485853353280741418e-02 8.848390372750574162e-01 4.079180027937494568e-01
-2.323425049715419910e-01 8.435880881261315078e-02 -4.211133265680557236e-01
3.641886945862827241e-01 -6.843646887765473252e-01 1.670708316694591022e-01
3.309082717526481421e-01 1.804609026273055750e-01 -3.562929953804778727e-01
-1.542623331006535148e-01 1.446157953968453536e-01 -4.395584478694063435e-01
-1.424736679689649899e-01 -1.797105833660044560e-01 -4.989306681158017787e-01
-1.683376828951947957e-01 7.192930763363583058e-01 6.942171570500667022e-01
5.278596726727715627e-01 -4.423739384321090928e-01 1.936642215042557180e-01
6.407537691389961765e-01 -9.968068560762344266e-02 -4.825627108985943575e-02
-2.106563885130256775e-01 -3.788588691818451926e-01 -3.853507581707567020e-01
5.872463215134270387e-01 -3.982633446448233805e-01 1.569204872416267715e-01
3.721348382434173097e-01 -2.211244952602605396e-01 3.078074105777357516e-01
-3.603412708728419012e-01 -4.634768244442218077e-02 -3.265358507048790604e-01
-2.795347944385039307e-01 9.890404727203824242e-01 7.619480348441559636e-02
4.394107085163160842e-01 -2.327492151024933564e-01 2.639405717175417054e-01
1.670120531514143469e-01 -8.724427361371688283e-01 -4.377782526189886309e-02
-3.214869319097720113e-01 7.089052707265454389e-02 -3.691193326296143828e-01
-6.687689940993666315e-01 2.828724928335988320e-01 6.044688231549933954e-01
-3.904881748270282449e-01 6.560051924741314711e-01 -1.942148224608107876e-01
-4.992801853230049991e-01 -1.361096473908035842e-01 1.089021604536111881e-01
-4.652983224435652820e-02 -5.938692194978728578e-01 1.019400164918893986e-01
6.909999653405389519e-02 4.843228163059765667e-01 5.015569509760449129e-01
-2.379298187084656901e-01 -4.530939005641200223e-01 4.783199112728217517e-02
-6.381995099982752384e-01 2.003631339638155817e-01 5.335448913739915255e-01
2.171875619983962835e-01 -5.680391461355818183e-01 -7.534570991578890542e-01
1.723117306768727833e-02 3.487248641319705689e-01 5.697490638026792009e-01
1.147251866399606329e-01 -6.822309587978158119e-01 -6.704188585299776237e-01
6.494104683995150125e-03 -7.382561101811945248e-01 -4.890531888059975185e-01
-2.433408502388373362e-01 2.677504167622824505e-01 -3.738739234398500977e-01
-4.738634669884804196e-01 1.267485352273732269e-01 -2.485286094342189500e-01
-3.756000738419540408e-01 5.596462312946075268e-03 -3.214194258617450450e-01
8.233580920864824737e-02 1.416755663311735358e-01 5.147579155583542621e-01
7.484247712663290031e-01 -2.202888144658546321e-01 -3.812079082867873558e-01
3.619825013309350137e-01 -2.553405524006877592e-01 -6.909655584322358379e-01
-3.455661124016143892e-01 6.295947849674174979e-01 -2.107016589726677103e-01
2.444466496785906162e-01 -2.501889575821203415e-01 -6.786905135841412307e-01
-1.637291019916677914e-01 6.148488506662703745e-01 7.004100623414266646e-01
5.094843910738110493e-01 8.435736316134376245e-02 -2.541360982495974863e-01
-1.688832362450658764e-01 -3.902618978901699620e-01 -4.377817471753866485e-01
5.360139705133447618e-01 -2.624782850608474161e-01 -6.668658868985619659e-01
1.789582867818051148e-01 -5.047835054390222842e-01 -7.243654475043038721e-01
-3.372215579361771964e-01 -2.732172390981523757e-01 -2.454274685412939361e-01
8.060292141758623741e-02 -1.617376966966381502e-01 4.364038509844389013e-01
-5.824998282647879666e-01 8.208824624144417381e-01 -9.412139021255329363e-02
-4.905671102276430995e-01 2.887759016631203934e-01 6.853016233239764832e-01
-4.747408224914734243e-01 2.790467942983335115e-01 6.815368581001871595e-01
-1.063818313145223696e-02 8.018678515203950807e-01 3.505656520229548101e-01
-1.632705585230808665e-01 -2.860326064213039587e-01 -4.738814905476475547e-01
2.173476903591896048e-01 3.718190287645509184e-01 3.537121564861489542e-01
1.824327058268284396e-01 -2.388000545447778733e-01 -6.613209581432307749e-01
-1.685841303951964854e-01 -1.638194327069882605e-01 -4.800533212038470832e-01
1.935917899042452761e-01 -5.064155911769909618e-02 4.278181858976454199e-01
8.814722124480739440e-02 6.691642124977817963e-01 2.811327580129803216e-01
2.934786204419329581e-01 1.170401529026736248e-01 3.569716116284216145e-01
-1.910347024149362111e-02 7.656880265665078067e-01 4.551493948776440535e-01
-3.963253863147666034e-01 -3.951064959858236955e-04 -3.000047278683012908e-01
2.867651770096832919e-01 -7.786327057717158384e-01 1.035250639043792525e-01
3.128626879499200597e-01 -8.243318759330416912e-01 7.689325181363453054e-02
3.410798457700394692e-01 2.654297630588912105e-01 -2.251893455292907353e-01
-6.178574841054793598e-01 2.329913821253167538e-01 5.872954795349873969e-01
3.665871408295900968e-01 -4.710309814957959196e-01 2.555702111110644270e-01
-1.990103487208229327e-01 5.289901394152796144e-01 7.197678840463979100e-01
-6.778485323355101233e-01 2.546323803514963791e-01 -5.186463544104111950e-02
-2.671023122756284174e-01 5.923867188094659175e-01 7.654777673143963179e-01
4.268988918925515907e-01 -3.793935263187812185e-02 2.551731166381041582e-01
-1.603407066234096845e-01 -2.976633089701635204e-01 -4.746131900860478536e-01
2.073453090472996418e-01 1.378102843385849985e-01 4.309477585156631929e-01
3.736055834586065050e-01 8.097030106848021602e-04 3.006858548260785136e-01
2.270060836844723096e-01 4.253729181309958696e-01 2.903815103131781594e-01
1.957789867437132250e-02 1.199144431066281602e-01 -4.852272537071439795e-01
5.087023287149450290e-01 -9.455521319574148112e-03 1.371695768096065082e-01
-4.126955293401298741e-01 3.814213078538811752e-01 7.426051865148499687e-01
7.768220892561753521e-01 -3.786921464852689989e-01 -5.010887879579613985e-02
-4.983917440424839307e-01 -3.253427304356604904e-02 3.701914024877728804e-01
1.194954730553488415e-01 4.895695628975873515e-01 -1.712658442623525012e-01
-5.234381119148726613e-01 -3.456284313318706836e-02 -9.968916701091225241e-02
-2.991772811926290965e-02 -1.063379197344149485e-01 4.770631445677364635e-01
1.454490065149869060e-01 5.508031950370833041e-01 -3.862159585792691863e-02
-1.083165272661790468e-01 1.924623901258980599e-02 -4.903390792057211733e-01
5.676085514061275372e-01 -3.475754877231841955e-01 1.702998516522092887e-01
-1.998367096641657237e-01 5.816737066986195082e-01 -2.341116289043425058e-01
-8.084404849616479982e-01 5.150453285088687494e-01 7.587647815594624270e-03
7.172968826924174257e-01 -2.190367991373390333e-01 -7.872100025190834072e-02
3.611854962598373686e-01 -2.199557021197552642e-01 3.142651227487283649e-01
-4.650361455009074940e-01 4.613379350783722993e-02 -2.381439141464626319e-01
8.909342419867073704e-02 -9.251308022672817266e-01 -3.529412176615348562e-01
-6.907163189512298684e-01 3.484183446094513692e-01 6.585617930690493838e-01
8.487385748999991542e-01 -3.578158551883576233e-01 -2.402887319954014334e-01
6.324321845721940782e-01 -5.175275674715421048e-02 -2.283942110972148054e-01
9.057080779883013300e-01 -4.488948077063413256e-01 -2.493247125086569538e-01
-4.604456653862235016e-02 7.588039543830082945e-01 5.191891406978080825e-01
-1.234207790951096090e-01 2.942239038699019996e-02 -4.818445778196431273e-01
1.339146683235090118e-01 -2.009414919856353232e-02 -5.618070433376300965e-01
-2.816263450144831926e-02 -7.679305272339149724e-01 -2.529798132556492773e-01
-4.158678362766689007e-01 1.829370056487809870e-01 6.272015776989631197e-01
7.358979334875963285e-02 -8.310179057633918509e-01 -9.738663474237146955e-02
-3.190591511544611097e-02 -1.992973303326849299e-01 -5.685784183449631435e-01
-6.616311126247346186e-01 5.960271787280856381e-01 -1.184481850070789322e-01
-1.328877457721139854e-01 -3.884777411867664232e-01 2.641626490360118873e-01
3.344989358667827539e-01 1.161039000599710103e-01 3.136788798323147942e-01
5.644728091652293500e-01 -3.853182820756034244e-01 1.735555447072074375e-01
8.204864179346458286e-01 -4.623537490496165137e-01 -6.732292773702520938e-02
-3.896011579659108826e-01 -1.832202007976494740e-01 2.837406217825452215e-01
-5.011267570049310338e-01 1.409730317948115208e-01 -2.243823580201604606e-01
-4.854448652779659867e-01 1.653845318707465317e-01 -2.438222238950719101e-01
3.105792007298994184e-01 -8.354831539426152975e-01 6.812696671089930878e-02
4.814133862355702287e-01 6.621767549025039945e-02 -3.461573725464745510e-01
6.586264267834605057e-01 -4.471210346110425782e-01 1.029648433254401058e-01
4.091415009256955670e-01 -5.680358025089974339e-01 2.109854376299197254e-01
3.171160236484782402e-01 1.890246465025617884e-01 3.077351885919292207e-01
6.689812641540168192e-01 -1.046971481395615466e-01 -2.829727261450242226e-01
2.284616721713865484e-01 1.901728058938498625e-02 -5.375800144045818074e-01
-1.917104359970487060e-01 7.999778901880661985e-01 -6.215209933976723750e-02
6.552178089110527459e-01 -8.187154567217137802e-02 -1.722243876506062421e-01
7.881948176953806895e-02 -6.112202425947919071e-01 1.669632980650008480e-01
-3.876969740940451881e-01 -2.670300124035158151e-01 -1.169941050950511346e-01
4.008496356213437917e-01 -1.647354707681779884e-01 2.920171546804788965e-01
3.307491963693207637e-01 2.040678876890452409e-01 2.811951540449107445e-01
1.255050688548660365e-01 5.842815204694262743e-01 -9.555452169687188649e-03
-5.394881575501245252e-02 -3.089685720680482306e-01 3.598901937729273026e-01
6.326926759464122085e-01 -1.103115003790769433e-01 -1.177953515553774484e-02
-4.760779168670010303e-02 1.103135223555767042e-01 5.640330276600215020e-01
5.491185972634147205e-01 -2.677786718096089591e-01 1.788494604026565349e-01
-2.185218359003692767e-01 -9.028296806458965817e-02 -4.439392270968360865e-01
1.793689277207655697e-01 -1.926621413701223307e-01 -6.434458672208089869e-01
1.275218937126839334e-02 5.307952125939231491e-01 -2.059538160711281984e-01
1.380889664436028841e-01 6.066705543550678925e-01 1.074760295649860170e-01
-3.847734072225366675e-01 4.785396538248615217e-01 -2.647409026939532839e-01
-5.687393085406670101e-01 -2.602188841603990388e-02 2.432166099625834577e-01
3.234496129603375847e-01 3.619153978915029546e-01 -2.234661819760765111e-03
-5.412084973338754379e-01 -2.913435359579845049e-02 3.083947173568524769e-01
2.019792394107213784e-01 4.587299797908954146e-01 3.086466637262257340e-01
6.058680003894301169e-01 -1.699413248455464709e-01 8.527200522942508798e-02
3.891683395933803746e-01 4.560865427786566645e-02 -4.602263575447687605e-01
-1.907734677666187706e-01 4.278107925557596558e-01 -3.201440001384426859e-01
5.236492126583092155e-01 9.568053753532924921e-02 -1.236392540704017301e-01
-5.591600157917533398e-01 6.543745548687592839e-01 -1.556130080311739494e-01
3.618199813861192604e-01 -3.526284567107683121e-01 2.905454145454534065e-01
5.898498936855395280e-01 -2.798255225025463727e-02 -3.246120236122161384e-01
7.204504474897120980e-01 -2.159628256002817659e-01 -4.494842152704229821e-01
6.109205477782529981e-01 -1.947219377124349560e-01 -5.596394440139584869e-01
5.581441767797387654e-02 -6.254533357726672627e-01 1.426061276054656490e-01
-5.782559737094198349e-01 1.227994520600054484e-01 -1.247422770785495960e-01
5.957718219329640741e-01 -4.166345196104357385e-01 1.508511120508607972e-01
7.994962397380392938e-01 -2.972263260933739049e-01 -4.461334177551251057e-01
3.612242099656513133e-02 -1.180889782772445717e-01 -5.797637894508274048e-01
3.154159196992766256e-01 -7.163691169022862182e-01 1.485527991840615292e-01
-1.794362496794920658e-01 3.904810124177466868e-01 6.866906866195459092e-01
-4.088101600913265354e-01 6.117906530178817137e-01 -2.106790604911646658e-01
-1.942285106693902030e-01 -2.589636657221066618e-01 -4.487986754158984071e-01
1.223220422822614700e-01 -9.690442601168983705e-01 -3.572022388091622425e-01
1.252972220515900514e-01 6.196883428605616251e-01 9.524446775381499586e-02
7.525701200875459795e-01 -3.807520143792390011e-01 -1.349404637987367504e-02
5.440100620300784007e-01 5.019894768796069606e-02 -2.044684316939312380e-02
-3.764583459217520356e-01 -1.646099759152639119e-01 3.251606763138982781e-01
-2.778241676405208138e-01 -3.908112144215841743e-01 -2.416324685006702722e-01
7.972025175294691901e-02 -8.866247999219144527e-01 -4.688379975017017420e-01
-4.288233895619038005e-01 8.008263099572146548e-02 5.448811276098037837e-01
1.471812855985655810e-01 5.880836447640008791e-01 2.460387954100048957e-01
-8.147320983944371653e-01 3.363242332207690977e-01 5.053698331896074869e-01
-3.706187764802242879e-01 -9.869747224957230169e-02 4.073607917213747376e-01
-4.304344753667174728e-01 2.762338524529083239e-01 6.853216640183420472e-01
-4.437827739140138839e-01 -1.467040123815330221e-01 2.628353286177902981e-01
-1.361970619203064226e-01 8.012406740595211518e-01 -2.299952145854821869e-02
5.267601370885204304e-01 6.250807722731764604e-02 1.664153294225727969e-02
7.006259506860092190e-02 -8.963752669586119159e-01 -3.850548343629229819e-01
-7.782991794387520423e-01 3.074400311673665120e-01 8.372808374038141765e-02
5.375742925275601714e-01 -1.448795616352114290e-01 1.632008185906785869e-01
-2.694814466452369883e-01 7.564023475596672041e-02 -4.019202664842340678e-01
-1.802856331130185952e-01 2.469911593650623571e-01 6.469381789895832791e-01
4.608766375849665531e-01 1.795959251019699499e-01 -5.108631338260016808e-02
-8.196604325409825309e-01 3.080432327665651449e-01 4.192889144907737675e-01
-4.455061740750801413e-02 -5.394659655861605563e-01 -5.346329066889395909e-01
2.420633682909478779e-01 3.421788150654839766e-01 3.336138958380284181e-01
-7.490723431410644534e-03 -6.756914944218816999e-01 3.445492234052566910e-02
6.013202083907494971e-02 -8.694865140957434013e-01 -2.190040767923425724e-01
-7.652483799469246284e-01 2.293935691263728205e-01 3.578773306226554762e-01
-5.838461113800837987e-01 2.845497393928047430e-02 -3.429608974015183054e-02
7.265008931742769072e-01 -1.818821534919767835e-01 -1.941090380486390210e-01
6.173252292121239604e-01 -3.682379985580441217e-01 -7.232890457259157913e-01
-1.202901897826818139e-01 6.473041886278882995e-01 6.607050069890785249e-01
6.039040497517703665e-01 -3.948795153473960706e-01 -7.481997253326517772e-01
5.419521243467121385e-01 5.129989908797940928e-04 6.625135722431949037e-02
-3.647950333544132118e-01 7.439218567220221567e-01 -1.497906948868320265e-01
-2.497643100407921368e-01 6.908737721606271753e-01 -1.702662089464689332e-01
5.956952483256381520e-02 5.144583355848219020e-01 5.021365070745589243e-01
7.146218832080724059e-01 -1.637514330125070527e-01 -3.037458641238575119e-01
2.960045612981910268e-01 3.373274070625485455e-01 2.354349535399234694e-01
6.433776046974267748e-01 -3.862879846534996164e-01 -7.283501375036237624e-01
4.292710904822851781e-01 -1.555464846254175915e-01 2.700752949520063839e-01
3.599957371244702498e-02 7.458167412928574658e-01 2.830266732075927827e-01
-8.360928780103278335e-01 3.559901506545892769e-01 1.627745046132581530e-01
1.747070502514561086e-01 2.302353891332425129e-01 -3.977526659242142659e-01
-3.567604803722637663e-01 6.983110644179878479e-01 -1.749547021033193150e-01
-1.769118518025246389e-01 -2.439703758053596017e-01 -4.676685149792343954e-01
2.354269279298316364e-01 -3.620428586959703043e-01 3.269466985921306024e-01
4.580719702238418845e-01 -1.344069430915383612e-01 2.431833570991876192e-01
6.814125704476352574e-01 -2.018954206410283059e-01 -4.918012233773527697e-01
7.174954340786685036e-02 -8.767878223215507250e-01 -2.014209424066715493e-01
2.500843986004986919e-01 4.516495593604160641e-01 1.670875903649806649e-01
-4.929761137205523336e-01 -1.265882770216220088e-01 -3.971702339264113896e-02
-5.812746550837247055e-03 1.129833095157261463e-01 -4.854472236491233494e-01
5.904815984644155025e-01 -3.904617284565427560e-01 1.542561336250406756e-01
-1.854638887176820183e-01 7.845714617820171988e-01 -7.338412834396509932e-02
1.078166356941737958e-01 6.500849740286651635e-01 1.506287509752724518e-01
-5.890193958232378124e-01 -1.127996253562524830e-02 2.073066598936896265e-01
3.658384442692289018e-01 -1.369871824278978689e-01 -6.187822184634839129e-01
-2.073785512694148736e-01 -3.350567523341299037e-01 -4.114583991826665788e-01
7.407555174364223172e-01 -5.127137350773038893e-01 3.853835413435182516e-02
-2.980977034480242205e-01 -8.969281833209483135e-03 -3.858966050663840686e-01
2.103049169913223659e-01 -8.913453803611758319e-01 -2.979967081687963718e-02
5.306399835419239874e-01 -3.874498570286087906e-01 1.966716596581889187e-01
-4.941955152012357799e-01 2.828574305129274435e-01 6.805501525524219053e-01
-1.578049615255194271e-01 -5.516565118069227669e-01 1.030518272366483766e-02
-6.236911389082986507e-02 8.568849809199865497e-01 1.806843022137354093e-01
-2.446430594106770995e-01 -2.763667088479688783e-01 -3.880102838381447317e-01
-6.976479737883394261e-01 1.516621489710256176e-01 3.527315841183213951e-01
1.039390234765102394e-01 -7.328994362237672977e-01 6.457761483003938985e-02
-3.162863222263457286e-01 1.446557804299871408e-01 -3.673522424193358393e-01
-3.731060353450018630e-01 -1.119375691812220935e-01 -2.920414994137066067e-01
-5.859290397088343649e-01 1.610811737719466258e-02 -9.949210715812116176e-03
-6.234293311545650029e-01 2.745480284714079122e-01 -1.283778430897496714e-01
-3.839604662012210401e-01 -2.880104300554189312e-01 -6.205997120874454792e-02
-6.432864713399205625e-01 8.156489866244743814e-01 -8.037183947631613978e-02
2.226679108469667989e-01 4.169886097083110310e-01 3.085564588588035062e-01
5.490855989432814610e-01 -1.956827700408311083e-02 7.205693912865024364e-02
3.121500515502865017e-02 -8.131124391636068705e-01 -1.467963585091239531e-01
2.678488555850410680e-01 1.089873004355696867e-01 -4.624181084250951757e-01
1.017750404556764798e-01 -4.992751847210682992e-01 2.594927741760432172e-01
1.346576737291163561e-01 -1.435495372680304360e-01 4.289837905254336725e-01
6.149954509992796581e-01 -1.263205753507332940e-01 4.116827317673340397e-02
-2.193291412629356230e-01 -1.928289393181985001e-01 -4.361786416241054121e-01
-4.339259224891808264e-01 -1.382514399411814976e-01 2.932994199494549092e-01
2.493863990381699480e-01 -2.103087001085242602e-01 3.700132100224396980e-01
-9.066192005375656171e-02 -6.771502071774800902e-01 -2.911262845543932110e-01
-8.102905057390548393e-02 -5.068125933098043268e-01 -5.018068285230068426e-01
-3.648558847039825442e-02 8.271859118821257573e-01 3.990316059518095870e-01
-3.540240483848975384e-01 1.644556725660795415e-01 6.241771735638548257e-01
-9.135486392709019077e-02 -6.202045839464742638e-01 4.011399232241985753e-03
-2.296154839952102567e-01 4.879076053387678691e-01 7.292367985351119186e-01
-1.004785574594103947e-01 -6.567289038211359120e-01 -3.101386851115701671e-01
1.893435769952880598e-01 -5.660296517912992709e-01 2.286475308207207569e-01
5.507129104376277950e-02 -7.481278817869512210e-01 4.598368919009403546e-03
4.226529081785345143e-01 -4.471391502907008375e-01 -7.898196022009666972e-01
2.689458025390336071e-01 -2.153506344654511628e-01 3.607659120382464280e-01
4.753335156360961600e-01 -8.120555403684813767e-01 9.709816989534431064e-02
-6.848338313229155316e-01 1.783720073562192754e-01 4.420643031698377468e-01
-7.440206128434903032e-01 2.712475534497865159e-01 5.088687715280866275e-01
1.071204060993567048e-01 -1.059142470984638373e-01 -5.949637587967988583e-01
-7.506963579568958211e-01 1.988372730320098480e-01 2.400499178673957956e-01
3.392393690747882440e-01 2.148367798671128592e-01 -3.050416824436953944e-01
7.887403389250625674e-01 -3.677103894972494347e-01 -7.746047474384920584e-02
-2.903552906086844243e-01 -2.663745499680142403e-01 -3.309899522293200946e-01
1.281638040263983480e-01 4.510428273839398039e-01 4.403129844821446204e-01
-1.408276709459418408e-01 -2.124048347675689119e-01 4.088903741897524924e-01
-5.466312080294976478e-03 4.172120509917630615e-01 5.852903188123359524e-01
-4.884230773525925495e-01 -1.408618936830909052e-01 1.580030043114026284e-01
4.923335023561888901e-01 -3.219171808824660697e-01 2.250834860192524600e-01
-1.001887414123600745e-01 8.374094609375140053e-01 6.369130010320740720e-02
-2.950946598187212944e-01 -3.164343584590833536e-01 2.048854967140395777e-01
2.304887643155324739e-01 -6.814158398004583894e-01 1.595658224785085344e-01
2.559860719547336072e-01 2.924747499241980853e-01 3.416022069062018551e-01
5.107830788181050297e-01 -3.124013125876860288e-03 -4.131648992426443234e-01
1.875998583884991577e-01 4.162352516736994579e-01 3.722685848738790937e-01
-2.394739564505874926e-02 -3.835166091550906015e-02 -5.364609083420730506e-01
7.609231326476317836e-01 -2.664847981449023906e-01 -4.708986860284259390e-01
-6.261279635736727300e-01 3.985322213731349456e-02 9.411620993318502160e-02
-1.519626853106109399e-01 5.123115970373035566e-01 6.900163245475490204e-01
-4.217510584469955637e-01 3.980293252632973733e-01 7.513328473620864978e-01
-3.695032290951252157e-02 -1.557258579553369437e-01 4.533510841380202216e-01
1.118801584069615412e-01 -4.659754300925365023e-01 -6.807719168672731191e-01
-2.019022632906141423e-01 -5.350668466154981928e-01 -1.195653746283666802e-01
-5.308988782179452359e-01 -6.945900477592685529e-02 -2.713131708816977558e-02
-3.069923578098421868e-01 8.148491716276726748e-01 -9.541154966204463961e-02
-5.381418103668443864e-01 4.188799154631243638e-01 -2.089645905494884881e-01
-1.950354930896092132e-01 3.851140268000839417e-01 6.919577178865885525e-01
-2.023889238725739281e-01 -4.557703937143315898e-01 -3.408997980645192549e-01
-1.423201787872644675e-01 -5.379337647547245416e-01 6.624814784541564749e-02
8.581438806663142793e-02 -8.750379624865732842e-01 -5.084316027406774463e-01
-2.035265065792413175e-01 4.993837251412100997e-01 7.182884488091012543e-01
-7.872761023029114513e-01 4.575984151393659993e-01 1.857913813787575186e-03
-4.276950987603504450e-01 -2.305980401724277706e-01 6.839630978499564029e-02
1.751981655086189138e-02 5.766877101449335852e-01 -1.555604963401711338e-01
4.892511028666742257e-01 -1.803328141713415600e-01 2.212109681763037849e-01
-4.545836525506091741e-01 2.027201779757776268e-01 6.326730260020313468e-01
-2.499853374816258800e-01 -3.292498130212986873e-01 -3.551006527270610946e-01
-1.364081916539546246e-01 -3.443668546721443957e-01 3.040179940474166953e-01
2.974451924188508123e-01 8.289343836455492776e-02 3.591208198087502135e-01
1.297014209690854347e-01 -9.709570228417185866e-01 -3.030976135925215753e-01
1.530971519746913700e-01 -2.336207417518058882e-01 3.933881322797361246e-01
-4.067729664965823999e-01 -2.201476009237364195e-01 -1.453328771446466550e-01
-3.824151456528017690e-01 -8.875998037744038671e-02 -2.895181365665392414e-01
1.795537590300022666e-03 4.902165601207723045e-01 5.712901833807165763e-01
-3.933920043676620293e-01 2.732401071754843036e-01 6.856292285767687789e-01
-5.959615337918593436e-01 5.582402918685290538e-02 -3.961698941337424978e-02
-4.731060358635106322e-01 -8.355212236286471694e-02 3.253540994661332508e-01
4.993712148507574722e-01 -8.559432785745620109e-02 -5.232819733683508057e-01
-3.535604348721011619e-02 -6.874146805013798822e-01 -4.532594556937893926e-01
-4.915694979104283102e-01 5.772425570985915966e-02 4.891721123146665628e-01
7.310280351794942177e-01 -5.785691835770981895e-01 5.250542514820084883e-02
2.397281106947863616e-01 4.751051375077244288e-01 1.160945147991317844e-01
-6.573994477788341895e-02 6.453918738874493410e-01 6.053245312863663186e-01
6.453543967981788254e-02 6.958314750428344908e-01 3.150514469563255870e-01
-3.044701369351996423e-01 -3.793754526353927403e-01 5.265444946042958235e-02
2.736417736874475204e-01 2.961431043072392244e-01 3.131818728775437877e-01
-1.390354852133334970e-02 -5.828380670349336823e-01 1.417882864431499745e-01
-8.282262144772091494e-02 -1.865336374663651986e-01 4.350653468684763103e-01
-2.111875236871940398e-01 -4.935065819697478928e-01 -2.662460814358854067e-01
-7.009735480748904290e-01 7.272949604838377935e-01 -7.918437093823743611e-02
5.012893747969793257e-01 1.255636662819138716e-01 -8.128101014983599160e-02
2.614927701953472794e-01 4.379170804436234299e-01 -1.233700910654671580e-03
1.073500520705517047e-01 3.626218542829926506e-01 -3.129936405066833238e-01
-1.271380563761985993e-01 -3.981444639270337316e-01 2.580448349929131413e-01
-5.649983685860080485e-01 1.675589171381102749e-01 -1.616890492123827239e-01
-2.643372083819514051e-01 4.871272344470673477e-01 -2.855874964907850200e-01
-7.027243810693390991e-01 3.041271829475298838e-01 6.014263024905799337e-01
4.046546718015350264e-01 2.085206911531342078e-01 1.347629699631637257e-01
9.073718049241961958e-02 6.604452093942778657e-01 9.774117329679281319e-02
-1.615712218989709403e-01 2.588418152651122961e-01 6.453272299686516611e-01
5.691869294223672604e-01 -5.674515345576496006e-03 -3.224177332107472926e-01
7.077049293018694565e-01 -6.991102629943402036e-01 6.148178957161849062e-02
1.929586472622944471e-01 1.050724863398570519e-01 4.424842349255570517e-01
5.129242965890811190e-01 -3.334419797688557563e-01 2.106703889201231583e-01
1.181537350637369699e-01 -9.637703631282624750e-01 -3.607190183782614246e-01
2.458514204658208135e-01 7.008626788815805475e-02 -4.993659771950691439e-01
-4.474177892822776559e-01 -2.068363764970851393e-01 5.357268772293636433e-02
2.058763309156008692e-01 -3.386239261806691103e-01 -7.007062524902825107e-01
2.721868265059220748e-01 4.149057255747696238e-01 1.736288339544878045e-01
-3.643869210565519046e-01 -3.032711466300541669e-01 8.199184541037987661e-02
-7.167671490645758370e-01 1.790371998647674878e-01 1.078443668273089406e-01
-6.004660028922892412e-01 3.701168459403163941e-02 3.224997259243180259e-01
8.123742057070237887e-01 -2.909108725972044951e-01 -3.013085296394399371e-01
-2.430237758326515285e-01 -1.847188391254078466e-01 -4.151806049687102318e-01
5.424815802697009470e-01 -1.616103383952157690e-01 -5.733272336264682023e-01
1.752925158347173190e-02 5.125109192009453807e-01 -2.207818052482703186e-01
1.075924140501779112e-02 -6.579853156358616006e-01 7.592488703074452838e-02
-6.475896259762838891e-01 1.759136994016753386e-01 -4.949905257929865937e-02
5.632505845620262575e-01 -7.273687826888367569e-01 1.153958737342432178e-01
-1.665757217555498826e-01 -5.694944586710656287e-01 -6.705851632462948853e-02
3.775666804462702864e-01 -3.283096970812436899e-01 2.889090984245477611e-01
-1.842987628991312465e-01 -5.587505470881006797e-01 -1.745197277575540051e-01
2.716459171233768025e-02 -7.652464918042587438e-01 -5.739619796286667824e-02
8.154474978905734694e-01 -4.329576350349526037e-01 -7.647150652110525082e-02
-5.623630679961987289e-01 5.574638170346482013e-01 -1.767120950590727324e-01
9.718779316965499293e-02 -2.075227724722771838e-01 -6.262218851475129799e-01
-2.749854970895962425e-01 1.662793759701178264e-01 -3.860012742565437915e-01
-9.951156416805552463e-02 7.677151017635645003e-01 5.991857363317624197e-01
-2.208989662101211449e-01 2.997343087083353397e-01 -3.697123570522257152e-01
-1.004411625265298202e-01 8.433365929222006452e-01 7.282765113417369318e-02
-2.358256197645822519e-02 -4.270746681254495858e-01 2.803117222072927794e-01
-4.834663656237150886e-01 -3.780374565873936832e-02 -1.725293915944176859e-01
3.401437448025580457e-01 -2.055316191786924762e-01 -6.637119302154071976e-01
4.260902647793230469e-01 -4.250513157301455958e-01 -7.800347761030909099e-01
2.764047580594201081e-01 -6.403655547141072768e-01 1.908031270864029849e-01
-6.070687744978764400e-01 1.284191115299458674e-02 8.706502868272722462e-02
-5.869694312175748330e-01 2.747815957498295214e-01 -1.660442677878245787e-01
8.113558209927107523e-01 -3.347915467416981428e-01 -1.609387691226934758e-01
4.270914415865324498e-01 -6.566584740962986277e-01 1.730167822291973079e-01
4.469060570423956102e-01 1.730623227672754560e-01 6.671513110597447616e-02
2.777139204508546899e-02 6.923411183356568133e-01 1.547348478025340965e-02
-5.649117329268978915e-01 1.094277390447007392e-01 -1.367977194188419177e-01
7.792510754941539552e-02 6.787510165106550586e-01 1.114127461945638303e-01
-2.855334646485846450e-01 -4.715957124094028591e-02 4.927670548286653407e-01
4.047258603624840356e-01 -1.216765271395209708e-01 2.877840318287855914e-01
1.068351299272752436e-01 2.671906122738943457e-01 5.039751947652194586e-01
-1.331742667789636014e-01 -5.988592092356085361e-01 -3.207845503073880611e-01
-2.980947984679131468e-01 -1.333436968038930193e-01 4.162289313782850386e-01
-9.015453659658903551e-02 9.095622296123936357e-01 4.027049324728134705e-01
-2.295346985631010195e-01 -2.235630863175101235e-01 -4.207564551442840028e-01
1.233416845508944204e-01 5.636276645295521526e-01 3.659397374384582569e-01
2.642630624974538767e-02 -7.946530669642954958e-01 -1.153239934431246339e-01
-8.270816434435536157e-01 3.086553595477821155e-01 2.398954777687921092e-01
3.911450991180055459e-01 1.847744556474445188e-01 1.930659296832653304e-01
3.068546192666408712e-01 1.399356155437408988e-01 3.375670659300334386e-01
3.480223621527649414e-01 -4.522404227699491908e-02 3.288006347850365718e-01
4.380076939802832886e-02 -1.044912813062957441e-01 -5.780706480593319485e-01
1.337923680133215609e-01 5.661517130918037877e-01 -3.069846242734050254e-02
9.899974291203289534e-02 4.623061778017101831e-01 -2.203987228278072030e-01
-6.961730757605002484e-01 4.214933074482277164e-01 -8.709315080305031487e-02
7.715960771797346629e-01 -5.202043347530236339e-01 1.032776549916962668e-02
-4.827518212354275223e-02 1.549964312327996863e-01 5.770964872484847241e-01
-4.717524456864786719e-01 1.045253319803047393e-01 -2.462646757318172897e-01
3.160838341868428270e-01 -8.032064012043683698e-01 9.258895269368233594e-02
-4.145615743994993108e-01 2.129257154918773598e-01 -3.011232101433600761e-01
-2.930393409237005420e-01 -3.631889330417346629e-01 1.245541301336422352e-01
3.763634050093007666e-01 -2.172868454279995309e-01 3.056729346642896861e-01
4.273344412811883597e-01 -2.387721048212817776e-01 -6.762003704335397547e-01
6.366647920472348066e-01 -2.327509615578261248e-01 -5.824439237601773955e-01
-3.935519540609941358e-01 7.834866124254581399e-01 -1.283485081453331067e-01
-6.095905155692410426e-01 1.932124851261895343e-02 2.373559119610907653e-01
-8.191409005881687966e-01 3.046181716253351657e-01 2.107803863442930248e-01
-5.248234811216651030e-01 6.200079048122208308e-02 -1.690127585812223054e-01
-4.136411322457559381e-01 7.298003866721303190e-01 -1.569053928381922425e-01
-2.484766212476344216e-02 4.483936300567906708e-01 -2.914882970643583593e-01
-6.004022429019751500e-02 8.467230045124013449e-01 4.432770199429105218e-01
1.388808309221458981e-01 5.281181056415638064e-01 3.701734450901814633e-01
-3.277500084888832488e-01 -3.627858013081494692e-01 6.812262967663365587e-03
-8.343423970798999889e-01 3.138704595018668719e-01 2.685498935547097066e-01
-1.743890045909568809e-01 7.082595484376504880e-01 -1.359742153608220205e-01
7.616548377513635004e-02 6.085932930699747834e-01 -5.249839742489446903e-02
6.646921075370942900e-02 1.706749722000598657e-01 5.272001848347068753e-01
-4.700722352243935087e-01 -1.672256061045951647e-01 -2.574573814151774262e-02
7.668993370175239965e-01 -3.125968871232227553e-01 -8.406953429769431496e-02
1.064961011150021286e-01 -7.099166015173511424e-01 -6.545716569693101894e-01
-2.574382724176610404e-01 -2.987620241970183055e-01 2.705552766012508936e-01
3.718472892332835289e-01 -5.171835872816976654e-01 -8.070648797355954862e-01
1.887697720819151437e-01 4.921469902111958450e-01 2.985178569851588692e-01
-2.900651785659152937e-01 9.879568528640527703e-01 6.682578600264461877e-02
4.185633985323969908e-01 2.111040519765290391e-01 -1.742733938913657854e-01
-7.525846003171208221e-01 2.016776381061983758e-01 2.782260507314021081e-01
3.582397069883158092e-01 -4.840454597937646208e-01 -7.921207558768557089e-01
-1.131435268373152253e-01 7.478844135313963415e-01 -6.492773698472836807e-02
6.574898764571293075e-01 -5.457834369752151416e-01 1.053941558850113036e-01
6.330746444783283966e-01 -1.957931760963193546e-01 -5.408019285392406950e-01
7.656025437351234864e-01 -2.828900375912161702e-01 -1.147163801631405217e-01
-1.109938018129333626e-01 1.433496512536563405e-01 -4.525539030282321740e-01
4.464178327053980322e-01 7.078356976802499534e-02 1.843352733029715307e-01
-3.054069465589149823e-01 -3.706172763906873668e-01 7.603387662661566238e-02
-3.878894189314966989e-01 1.849928797007774073e-01 6.331318300410294642e-01
5.853826642091024268e-02 5.763819291455226645e-01 4.735667982719084512e-01
1.919802179611756199e-01 2.341890237993807938e-02 4.385878837799724317e-01
-1.049848578587235237e-01 -5.631349556603896245e-01 7.903973952899423505e-02
-4.043859308763025906e-02 6.475962441768347011e-01 -1.208268058273399281e-01
1.582185922887349439e-01 5.847348158794095641e-01 1.625849429639166788e-01
3.252159323107658984e-01 1.852660431089989401e-01 2.986504975037502785e-01
-5.116387841041030171e-01 -1.209380640174656657e-01 6.536645746366377685e-02
3.967408683632216437e-01 2.522284304373447750e-01 7.180740258286635869e-02
-4.632550548153068631e-02 -6.374638425834945332e-01 4.279264419801291630e-02
-4.376518351789694394e-01 1.769696290619884316e-01 6.181667026864648973e-01
-2.629897463410849762e-02 -2.470594655354979019e-01 -5.776990103724272130e-01
4.156845424023416502e-01 -1.128616213746027885e-01 -5.888029867199724432e-01
3.505704994467373492e-01 3.025579768973611361e-01 -1.236585352727088971e-01
-6.918119045110956988e-02 5.290617426706474280e-01 6.296874537994560095e-01
1.764832010527881134e-01 1.732033818122147573e-01 -4.415780153805081154e-01
-1.078092579111605415e-01 -2.360159211993061446e-01 -5.240940296091064488e-01
1.825022511453696927e-01 4.822506490605594776e-01 -1.021290050024736273e-01
-3.866527124790222203e-01 -5.469023537754199443e-02 4.421687882816635051e-01
7.039014741699090028e-02 -7.865428028103070845e-01 -5.679601288753222121e-01
-4.715621936779189616e-01 7.223164297186090987e-01 -1.542245141967245048e-01
8.981901957876415876e-01 -4.178126892137442039e-01 -2.940899395645438785e-01
-5.168666756919648025e-02 8.448804106031532202e-01 1.799916229195920869e-01
-8.322027986976713310e-01 3.205444816116455042e-01 2.250844871598894625e-01
-1.700172585798609137e-01 -4.615278278408030954e-01 -3.963731410699474766e-01
-3.740206569863884223e-01 6.630385705219636883e-01 -1.923617724996005973e-01
4.130262482985105899e-01 1.223355943091731513e-01 2.038385590325562657e-01
