-3.540873486353372512e-01 -5.134965981234141941e-01 -6.239741189551194500e-01
-4.574262704805409641e-02 -3.970676870560110316e-01 -8.875173316217348507e-01
-7.262413012513235788e-01 -2.783916368721375267e-01 -4.675494512679176373e-01
-7.717727196746969609e-01 -1.030232613426601274e-01 -5.115047140753820054e-01
-8.022821683238964274e-01 -2.998683020237022934e-01 -4.056711303885467967e-01
-3.723357835386919001e-01 5.994524872972781943e-02 -8.581309739844932283e-01
-3.489888562759814183e-01 -4.700352795824073171e-01 -6.462074642391549828e-01
-3.403994793225738058e-01 -4.951576629214383130e-01 -6.413412811118436307e-01
-4.790786708447360431e-01 -4.039839137213445674e-01 -5.845852883469311312e-01
-2.644353596319825028e-01 -1.014884803318105849e-01 -8.633445491619976542e-01
-8.139685091665536110e-01 -1.220684713735369631e-01 -4.741003921499349349e-01
-6.652012591895785087e-01 -4.951609076393556075e-01 -4.165118361169994898e-01
-4.917573446507575441e-01 -3.196030940203745674e-01 -6.121235246086050852e-01
-4.958597763636322098e-01 -9.677029980487684979e-02 -7.051829177477493271e-01
-2.784564074148328933e-02 -3.694038901572951339e-01 -9.118111279353260379e-01
-5.564999385805021737e-01 -6.440481077391916331e-01 -4.276793606499967315e-01
-4.281523130584990455e-01 -3.844509285717946923e-01 -6.282428371458080862e-01
-4.511144818016384339e-01 5.679813322879359583e-02 -8.022458932001631515e-01
-4.405715529305279099e-01 -1.995746515319520853e-01 -6.992102298044575726e-01
-7.061416334170659281e-01 -4.450605233516277126e-01 -4.097342531064225857e-01
-2.729167270074795426e-01 -2.612872490060983988e-01 -7.887021837460392870e-01
-4.264209974130883651e-01 -6.319320364783840294e-01 -5.229344212220300436e-01
-1.493481192568309746e-01 -8.878536721797562759e-02 -9.484749839858395148e-01
-1.182455488203584260e-01 -4.973620045666533596e-01 -7.941677391165418154e-01
-1.705598227151682855e-01 -5.906298927261605103e-01 -7.178166632961889837e-01
-6.993688001975133517e-01 -4.746356586750999362e-01 -4.016943550753948045e-01
-4.388801122638054664e-01 -4.652441660187609518e-01 -5.860465862060435516e-01
-5.422132599676363629e-01 1.526796508474923542e-01 -7.804511518039776163e-01
-5.760985885869137624e-01 -4.592501588185882166e-01 -4.936434503795956719e-01
4.083604918710040388e-01 6.722264480125529351e-01 5.334809077746254236e-01
5.726331294179960452e-01 4.320300332710029223e-01 5.231430262919110064e-01
8.630191404357858698e-01 2.317218098043710012e-02 4.980950934259570362e-01
3.141566384125547007e-01 2.722680156114077876e-01 7.708163974620385606e-01
7.032811287615394757e-01 4.156794315543116958e-01 4.397450800095976664e-01
5.794746725550220523e-01 -9.706012123871878006e-02 7.461083915873106820e-01
8.023660667815585290e-02 4.113877112750691789e-01 8.728639900712726885e-01
1.389291709316823886e-01 4.649782929039983914e-01 8.091735208466239726e-01
3.879771735086556261e-01 4.998401333443572847e-01 6.217790333238234490e-01
7.125830295251299740e-01 -9.987492493770692981e-02 6.551820705007760370e-01
4.781482119711072953e-01 5.970128211901259974e-01 5.175429919351210994e-01
5.763446652159286421e-01 -1.591626955031326396e-01 7.750016659072312963e-01
3.335070056905101721e-01 3.162281930930376239e-01 7.385032024256497074e-01
5.580376412324935531e-01 -1.151091618030353758e-01 7.687147697395172452e-01
4.125501197559554023e-01 4.177434013231237087e-01 6.401010568547595980e-01
1.089992796193127028e-01 6.344805124208416913e-01 7.569434480396308729e-01
5.769515703712558841e-01 4.133718838814373631e-02 6.882937353577397444e-01
4.183932540271288469e-01 -1.442298408096318041e-01 8.779092019966460159e-01
4.089525936937996042e-01 5.814002823663704245e-01 5.721593203031162256e-01
3.082563674637646689e-01 6.322739197079826345e-01 6.199671713863158518e-01
5.789431644577466285e-01 7.014174457946980024e-01 4.028407073043309694e-01
5.559986716713414268e-01 -2.128570957261537999e-01 8.121932883297414696e-01
6.777782781364473097e-01 6.780158422046526079e-01 3.444981594017985094e-01
9.610040387025856057e-02 1.580653799670220516e-01 9.709037404099176705e-01
8.523247137139656759e-01 3.991413734284553205e-02 4.982926572352830430e-01
7.397650970597112741e-01 1.791714172167879759e-01 5.162752634414814468e-01
4.887401385952917787e-02 5.413702863042462177e-01 8.386334466114083730e-01
8.693017773671887216e-01 2.593213298172085679e-01 3.921162746828985579e-01
2.594943935181698302e-01 1.637936364803251055e-02 9.187787805625394766e-01
3.660362289089237331e-01 3.300639811581658756e-01 7.100320303425919910e-01
4.785490889880079646e-01 2.088772005334260107e-01 6.843049059025630987e-01
7.588600427501707157e-01 2.133843720503627028e-01 4.883337202128613108e-01
6.164405024602203076e-01 5.288152396319961701e-01 4.511667086151649464e-01
5.958998486896416313e-01 2.415415821102620819e-01 5.890170599980877331e-01
4.585270218333780123e-01 3.907743926718790783e-01 6.198822856777205237e-01
1.041792176174861917e-01 5.106532625181122720e-01 8.135706265268467519e-01
4.292524304071114183e-01 7.857615094858680926e-01 4.701581458153378801e-01
5.050000114984997124e-01 1.086123455458915393e-01 7.091458896366528153e-01
3.031315091904988601e-01 5.128027408055397807e-01 6.749306361631589590e-01
4.167312326838452097e-01 3.084974556067790474e-01 6.842223539474687755e-01
7.769730536568261181e-01 5.605569597272298532e-01 3.263854723461490637e-01
2.048529150277265121e-01 -1.827149404917174924e-02 9.715141192795803127e-01
2.352598067026877848e-01 7.037404853829880569e-01 6.397388475888705628e-01
3.242479283795771661e-01 3.295478965385969516e-01 7.391800289572383331e-01
4.085637854931062907e-01 7.376123454582956818e-01 5.052004845693857105e-01
4.703517621088880163e-01 1.563149678843919754e-01 7.125999680714495410e-01
4.931539346826410153e-01 1.622514279744575461e-01 6.942614505055737517e-01
3.844551310298984226e-01 1.966472996140706392e-02 8.308669576282343705e-01
5.311393835502458138e-01 4.878561803588901680e-01 5.278394943118213112e-01
2.326145943609662578e-02 4.676440186532405119e-01 8.880915710663700446e-01
2.395534779933886638e-01 4.567021024787928929e-01 7.430830662326144420e-01
1.822865554345850514e-01 5.784999739657540468e-02 9.543746602855356365e-01
4.637268869528420878e-01 6.708634778465260018e-01 4.957428179658732725e-01
7.291743599698159439e-01 5.542743891218994412e-02 5.768610707271312199e-01
2.483939841919344527e-01 1.481732761818995991e-01 8.697432041490134047e-01
4.707194511565586381e-02 4.267741314120456764e-01 8.891988414911697891e-01
1.736692640777262320e-01 2.369180607242512560e-01 8.832751990011419307e-01
6.700250517353175672e-01 5.330794849784913358e-01 4.122402657590668595e-01
1.819358913617090401e-01 -2.025689960178751400e-02 9.882317472315755857e-01
5.530036636854192000e-01 -5.400814218621351886e-02 7.459036447628684119e-01
8.513850453659327355e-01 9.609069825264869580e-02 4.747667554458518402e-01
4.947145856842343203e-01 -3.271805737679337606e-02 7.770889153392565030e-01
2.871332608429247313e-01 4.562134776943334580e-01 7.103585892294953519e-01
4.423578987313744187e-02 3.485713462600648627e-01 9.248176541488415392e-01
3.521331063171775910e-01 7.643954076148842258e-01 5.327353930944076499e-01
3.126297615615666325e-01 7.273531467221509006e-01 5.760212763142317227e-01
8.527631253583953796e-01 3.416442525593372803e-01 3.681355621050683702e-01
4.101806448657708826e-01 6.356176050565505165e-01 5.479761059529132394e-01
6.724901153052327274e-01 2.512824203620497854e-01 5.318091157756212883e-01
4.798699758234971635e-01 2.598531898414283559e-01 6.614523821881684862e-01
6.337537793791711005e-01 4.236139646309819984e-01 4.844572328041355513e-01
7.708354373305281726e-02 2.197353948108423383e-01 9.575267030340834928e-01
4.764487108026316253e-01 7.180946721749793538e-01 4.666101796914373656e-01
3.855590281927143703e-01 7.085564422089237757e-01 5.336289957508643100e-01
2.104238860599176586e-01 6.739389685175904976e-01 6.697557763624026883e-01
4.031220190731232833e-01 -1.387225637813738850e-03 8.270057161199184659e-01
4.859994605884395691e-01 1.321052355300303960e-01 7.121876037975585216e-01
6.462828537298679343e-01 6.206293774470281743e-01 3.909963564624407972e-01
4.101308907175526541e-01 2.965364541750923344e-01 6.939386942227638855e-01
3.506683379497523845e-01 -5.743820750580781731e-02 8.874364919541195551e-01
4.850882413067974519e-01 6.467056270958691788e-02 7.418397718295828280e-01
5.646670614859619075e-01 2.127353462717611887e-01 6.230335722390286657e-01
4.576383298601818250e-01 8.841129103330884476e-02 7.506234794546370326e-01
8.996934788408791350e-01 1.568753511914444676e-01 4.151681240928229988e-01
7.278221031146718811e-01 -8.618546788718052520e-02 6.387421291749477703e-01
7.422886701786229890e-01 -1.005191891132760085e-01 6.348970703566071405e-01
7.118763556326296316e-01 3.607439362709571329e-01 4.574376888045053602e-01
2.511391547240304223e-01 3.569690035908663628e-01 7.779849364253553778e-01
7.297212572818165266e-02 1.852161448654530418e-01 9.752284547972897011e-01
4.622302982460492760e-01 2.881621974515741758e-01 6.614794175503955209e-01
4.895890097018638643e-01 3.992910540414032483e-01 5.947158930058051851e-01
1.524167314806041396e-01 2.471096906946168223e-02 9.893124039970566663e-01
4.042402638658417757e-01 3.750532543580519240e-01 6.642254264185534218e-01
4.588623499717531806e-01 7.833416209699632926e-01 4.507035677773493232e-01
1.003761940411694448e-01 3.097548853692224102e-01 9.026624097221517262e-01
4.821437877731373223e-01 -1.423242583763132396e-01 8.329609390690801973e-01
2.024957674742645097e-01 5.619021410997373511e-01 7.234601866707690565e-01
3.692727243255226610e-01 7.442840910768344642e-01 5.295265123988798228e-01
2.115094889126750144e-01 1.484181955606096170e-01 8.951692765573320276e-01
6.482950730228280722e-01 1.821944531888431903e-02 6.488587391187941034e-01
5.547894145848856207e-01 2.496316820966784367e-01 6.139920512721497303e-01
2.323429557995899397e-01 4.549734833098726394e-01 7.488181299739151697e-01
7.808236237541239522e-01 2.221304138791705893e-02 5.554036736647520733e-01
7.217440766153253584e-01 1.174080060887162102e-01 5.553301453634229556e-01
4.298037388273203141e-01 4.345419889773464994e-02 7.892384965483241199e-01
4.075759286892928768e-01 -2.956213382900382824e-02 8.360481682616875965e-01
7.066703719717696286e-01 6.343448242657447889e-01 3.432934410378232770e-01
6.342000054006874388e-01 1.575775266881947467e-01 5.986407254236393305e-01
4.732107328007945646e-01 5.111722923671936369e-01 5.579033487181970230e-01
3.294168725994179869e-01 5.488291970947976051e-01 6.412314152895473018e-01
4.545988471275801412e-01 7.482292672331005701e-01 4.687658430056975134e-01
5.033142114882352969e-01 7.736143953010548024e-01 4.241201969362183855e-01
6.743644326993631921e-01 6.084872337925001373e-01 3.767838006702388109e-01
5.292888779586502057e-01 5.849691972065801382e-01 4.873265186248171288e-01
1.797648972673003831e-01 4.027141644466026849e-01 8.077032066148824851e-01
7.055781807971470698e-01 5.549520815121508077e-01 3.782171946997504031e-01
8.133189159308423788e-01 -3.182487819598122519e-02 5.561663545633070971e-01
3.221020666353784923e-01 1.524347230537599351e-01 8.168884400994110839e-01
5.050307233319659694e-01 6.654923386956016484e-01 4.694638120029906991e-01
1.852705497789273736e-01 1.893020002497902143e-01 8.957369939702457540e-01
3.641718205569284272e-01 7.640316811648290019e-02 8.204889287435812584e-01
2.635255174522777577e-01 3.952119949285081701e-01 7.529526990366433026e-01
1.580116395695542464e-01 1.195647927721105175e-01 9.446179813318350549e-01
8.029380408700073080e-01 2.001866270712384932e-01 4.635027227221047430e-01
2.980388754091564674e-01 -7.773727621226472762e-02 9.326026256045223395e-01
6.551584242713273665e-02 5.550528729066387390e-01 8.212254739717770313e-01
2.172516809092917278e-01 1.320486915778298631e-01 8.982393636296210904e-01
3.101758302930418543e-01 9.527370356216624536e-02 8.497438063120654750e-01
1.862228341257292918e-01 3.218040440270206748e-01 8.380537796405537199e-01
1.251774458663025003e-01 2.154287551407880474e-01 9.260894864780966351e-01
2.314306696104452832e-01 7.648850793184585051e-01 6.160749783017102077e-01
1.938151235837743958e-01 6.597253954013339028e-01 6.873693778381003705e-01
7.289555136259863177e-01 4.701924765802969475e-01 3.985128260698529989e-01
6.996018867139423003e-01 2.202382543693850447e-01 5.264026018959798714e-01
6.944996979436789397e-01 6.630317281488181669e-01 3.393721950632849760e-01
4.783646556479223544e-02 3.852761236305817238e-01 9.065288674021667603e-01
2.754786910659432486e-01 7.454064209251476392e-01 5.939678065160943765e-01
5.090517248978067011e-01 2.100350872118688927e-01 6.626926450764857313e-01
2.631998963812712256e-01 2.359053465779246406e-01 8.217378597970148579e-01
3.555431836523803013e-01 6.817572274708831870e-01 5.659393907082089781e-01
2.148578963367719363e-01 4.294828091597764352e-01 7.718915575046702005e-01
6.762590750130939021e-01 4.200448417168173298e-01 4.565710537944500103e-01
5.333938640393960373e-01 2.485440799874570061e-01 6.292701325026194281e-01
6.477509439091216903e-01 6.863527787097200017e-01 3.616951907598019988e-01
5.084469032309658632e-01 7.096657372847145484e-02 7.229613143022377564e-01
5.715693057043178538e-01 7.160747722969583728e-01 4.016369199306444315e-01
8.614150889423517476e-01 1.155519710410386758e-01 4.594485300294613439e-01
6.441043461626164701e-01 5.526596982254240453e-01 4.217559896702336997e-01
5.162728524485640236e-01 -1.036039176810795853e-01 7.926729524810658400e-01
7.009676231226874554e-02 1.469997077878009428e-01 9.936657429651358786e-01
6.185912426751628557e-01 4.829327049226322249e-03 6.751823720151473029e-01
6.530528357884941848e-02 3.989768566374043424e-01 8.885406424644657353e-01
7.227084818214348783e-01 -3.105661057197642294e-02 6.185563342895238348e-01
4.895627627227343570e-01 2.768367770680486006e-01 6.474339115223515240e-01
1.529091211830653219e-01 2.123255078690540198e-01 9.082291232530659286e-01
5.966667189853817055e-01 2.140116790123690049e-01 6.003340970250973241e-01
1.352212556943694910e-01 1.424459940677613723e-01 9.505462693452459977e-01
7.776027788140800201e-01 1.635575996946836141e-01 4.968036072864268071e-01
1.462004810697116741e-01 6.943324578774240363e-01 7.054346547173915294e-01
7.484823799407267497e-01 2.623829646299207230e-01 4.744299411659880228e-01
2.370408620984029158e-01 -4.293709918442768086e-02 9.598487728678983810e-01
1.841921216419897811e-01 1.829106363929745849e-01 8.992340924511597056e-01
1.479846400961527808e-01 4.025067114041447347e-01 8.297908059480840759e-01
3.812151484554677228e-01 3.044598759858923032e-01 7.105442423724913636e-01
5.240638272740600900e-01 -1.433672353456548754e-01 8.043927138250178688e-01
4.351032862127455214e-01 5.110432446597875655e-01 5.843368907698195391e-01
8.445580592822000687e-01 -1.627639596898510389e-03 5.215468057854946160e-01
6.870036004963964160e-01 4.729906434119640068e-01 4.263477446253172154e-01
2.013895228187421171e-01 7.486120504882229909e-01 6.438728013651268123e-01
5.286072994576126449e-01 9.540774329443735269e-02 6.984876850087496925e-01
7.955417475188356624e-01 2.331364100713280152e-01 4.544420591258468423e-01
1.300145995184922298e-01 4.332854048538418296e-02 9.968068543762651501e-01
6.715810504526823488e-01 1.908223190120332535e-01 5.584581915718824785e-01
5.300521158790695297e-01 2.097058852888890601e-01 6.482978343403118515e-01
4.505649432898420903e-01 4.171644342038549613e-01 6.140363322880973973e-01
6.247724385761727062e-01 -9.731063891338910532e-02 7.148610558279674398e-01
1.792975315935602665e-01 5.453653105862810158e-01 7.466348720101144698e-01
6.670259803457933012e-01 -1.813054155267373457e-01 7.217614062723525237e-01
7.757331955575772486e-01 -2.974125566845203794e-02 5.812865048263957668e-01
1.430533630749202256e-01 6.898310575311656923e-01 7.095503306544631572e-01
1.963704049578390148e-02 3.452611270054551373e-01 9.432695254186228562e-01
1.607384127189801781e-01 5.819501525778895124e-01 7.437367283749027891e-01
3.259556676840530964e-01 3.908363618658707017e-02 8.630031440573991963e-01
1.022506363387905848e-01 6.047509394871879440e-01 7.744093870940266244e-01
8.788328158279433699e-01 2.176530896763012590e-01 4.034513716943151640e-01
3.171890016148682934e-01 4.995981892128870810e-02 8.643907252461515700e-01
1.854764260192227898e-01 3.609067656127644685e-01 8.217420600849374424e-01
7.550436180716357804e-01 2.017827650036782550e-01 4.959683605197446332e-01
7.060738687952881065e-01 -7.826238919322059395e-02 6.503864703300440420e-01
5.842019264003091017e-01 6.833672635416307983e-01 4.069687276124414610e-01
1.622362656133946035e-01 3.352513025755740617e-01 8.488700921554424017e-01
2.351605658745040961e-01 3.704022459948844853e-02 9.267309949972246663e-01
3.664760708627242125e-01 1.337183613129581672e-01 7.942275581317630451e-01
3.829331380244565541e-01 1.403850082174069314e-01 7.799668817963461009e-01
7.751203397175367993e-01 -2.685077101745877992e-02 5.804667650529125034e-01
6.547957217657730533e-01 5.953159145004959830e-03 6.496379466845325634e-01
3.793130817740882899e-01 4.580807351854117582e-01 6.457480449119109567e-01
1.245038871906056638e-01 1.698855069419793196e-01 9.461558756901543576e-01
5.424697928512848266e-01 6.600180866471762053e-01 4.459043767399796243e-01
4.003700890452944194e-01 2.920402566176575829e-02 8.157452465029580990e-01
7.927481100011297688e-01 1.164939783362543002e-01 5.065744615432736797e-01
5.302803698629611207e-01 5.751865546764759474e-01 4.908502993527633640e-01
1.918464905604778392e-01 1.300358673393630649e-01 9.166911025262737267e-01
8.489938326707019423e-01 4.513795658137555455e-01 3.235185967938864482e-01
5.999173692059758256e-01 6.781672817727467384e-02 6.610009640342403570e-01
2.401023248631030671e-01 -6.873419362895719087e-02 9.688317535911038503e-01
3.336671951831349237e-01 3.029446855690962059e-01 7.441090558259075838e-01
5.732286913884921953e-01 2.910905786718550048e-01 5.833859737689579550e-01
1.436387825357670067e-01 6.854948363395764188e-01 7.110112541384614460e-01
3.379314314022847099e-01 1.235086253332171591e-01 8.183800777498512202e-01
2.869067120256029169e-01 5.336907860268265136e-01 6.771720014792149689e-01
2.829271187167439194e-01 2.545214829172520732e-01 8.000709554577952742e-01
4.482377438615351983e-01 7.469201922988987219e-01 4.737323817720417996e-01
6.517309491016630707e-01 6.726148127732626270e-01 3.648525470249902036e-01
3.854375830651892709e-01 7.414114392962951605e-01 5.195734688642125176e-01
1.778281894208270097e-01 5.503329201443042384e-01 7.455140740228578533e-01
5.611424633181203436e-01 -3.672764203968102194e-03 7.186074521523648784e-01
7.628227886100583666e-01 2.503962259601599794e-01 4.696621536777570438e-01
3.916028891362439146e-01 6.725180354438864416e-01 5.449550450391695833e-01
3.414896907582318231e-01 5.899953047546105944e-01 6.151582111494287020e-01
3.785007721855250806e-01 8.018281577303877361e-01 4.983739848705135422e-01
7.615320736553725656e-01 1.871674522432223986e-01 4.977669434862116993e-01
6.871959546782961947e-01 5.422673848222284709e-01 3.964004165110233124e-01
8.081671954178507589e-01 1.269020232426545380e-01 4.914221158798823819e-01
5.490112672401302740e-01 4.483460484721503714e-01 5.324722806612203208e-01
5.236368459194363778e-01 6.247990577437924076e-01 4.740975417715538875e-01
7.451094527048113259e-01 6.162264456311909999e-01 3.244833677027695318e-01
4.468480750735506213e-01 2.646780193623216038e-01 6.822337374870738325e-01
2.819173691652503977e-01 8.155519337637437416e-02 8.752082813847253950e-01
4.784051131162700976e-01 3.829468087856012226e-01 6.094913615307496757e-01
2.887896368277304560e-01 3.605079859902111106e-01 7.504001941467853820e-01
4.194377926733210971e-01 4.575575446886976927e-01 6.181988504222496461e-01
5.261697383220995672e-01 1.687093525784331971e-01 6.686286301586751302e-01
2.228551591909162799e-01 3.640409767326858309e-02 9.355225730294964848e-01
2.760132621335416037e-01 7.736664144232872076e-01 5.814357064947139886e-01
5.235032248751794182e-01 2.338464562678959080e-01 6.424417614234093632e-01
7.654463575921949259e-01 6.718262885236628811e-03 5.727162164439786318e-01
3.385481069034629864e-01 -2.063349154925578788e-03 8.719948080093917753e-01
4.824762164735739156e-01 7.189907264282707766e-01 4.620523064667364510e-01
4.111632444601819314e-01 1.307302237220373323e-02 8.152164107159860507e-01
6.171810731000468842e-01 6.268815791913496804e-01 4.084499126221827758e-01
4.790399187043049012e-01 2.742160171808948887e-01 6.558457118425807808e-01
5.328390237682896213e-01 -9.836612488573820423e-02 7.789516808062878495e-01
3.764311850097450396e-01 2.273249949598816211e-01 7.470517424574623089e-01
1.537656128977737680e-01 4.079969784578839631e-01 8.234264015031613759e-01
7.127857174660631179e-01 5.462250820799437884e-02 5.885517148029664192e-01
5.243176317823665666e-01 -2.937654628579087768e-01 4.977421236200885168e-01
4.679358876121229166e-02 -4.939092993965695233e-01 1.863093030731584610e-01
8.152241619494494940e-02 5.065328418014120038e-01 -2.124889196569073879e-01
7.868861734352305959e-01 3.087717384887395666e-01 1.812952313002399729e-01
-2.549285239291068095e-01 -3.450623452959509785e-01 3.071845530865742191e-01
-2.488930349527267855e-02 3.563652454233853795e-01 -5.154861299599057256e-01
8.063663998174589453e-01 2.640780030095072894e-01 1.999965402197197428e-01
5.555356464005778427e-01 -2.509378697720292539e-01 1.170259477298101619e-01
2.650052666536946155e-01 -3.058357062396719894e-01 6.265002729518119873e-01
-1.299581748773611378e-01 3.942959906413032733e-01 6.788614181436378736e-01
1.856262755041827028e-01 7.554473403416037680e-01 5.856267033875159900e-01
-5.739423540299211091e-01 -6.688444953570759077e-01 -3.091278906317493913e-01
5.816660711699216391e-01 5.321962986835219178e-01 1.039807657978318034e-01
-6.205936720391606043e-01 2.557647417738644346e-01 -4.520875232114554554e-01
4.188673146532719826e-01 3.593052683573955686e-01 -1.975991742297691645e-01
-7.111378671414532171e-01 -3.834374950494295886e-01 -1.560261439337103651e-01
4.705348056003758050e-01 -3.258928357646969087e-01 8.877340994033158794e-02
1.872547296991418919e-01 -2.615972950567934663e-01 6.890851949767575757e-01
1.531397908598199353e-01 -4.970619275390939507e-01 1.124202234602472844e-01
4.813737324249366956e-01 -3.218224632273296582e-01 1.214166162218863476e-01
1.665043858640448959e-01 -1.916272806927563632e-01 7.840812679057981294e-01
-3.331381884749349265e-01 -6.392201513646875721e-01 -1.592479066738352600e-01
-1.865524629739008511e-01 3.202506184654596577e-01 6.241610668441400778e-01
-6.478822077093299159e-02 4.264737086198605587e-01 -4.017853420141258569e-01
3.966619245730333976e-01 -2.397627121098441783e-01 7.816409772775211318e-01
-1.613797083761088925e-03 2.121571107114330612e-01 -6.935535103255988654e-01
-6.051701014296674286e-01 2.543544410895084984e-01 -6.512365057886037034e-01
-7.778612560280457888e-01 -4.110056750028142081e-01 -2.451729120936191053e-01
-2.932327134643808453e-01 4.477564774192747121e-01 1.339227988804073399e-01
7.814783752656777605e-01 1.284934255308030071e-01 1.742281735527155817e-01
2.462585192345183652e-02 -5.842101191949443661e-01 -6.392897023164056947e-01
-2.866355074655021484e-01 -7.106978819524956137e-01 -3.210811942325449420e-01
2.987618742947648620e-01 -2.699535904798853747e-01 7.066990937193610156e-01
9.302577971553345482e-02 3.461470562943208540e-01 -4.659496422341631305e-01
-4.993614073852809671e-02 -6.622472582525044116e-01 -5.009329222167404616e-01
1.626562270471691718e-01 -3.524561723327901408e-02 9.613382843210970252e-01
-4.081946413136683383e-02 -3.970225895013023143e-01 3.701098529436263607e-01
9.861642257905713083e-02 -5.163727593389612069e-01 9.189315412171121522e-02
1.341671809299526119e-01 -5.341110305979115402e-01 -4.961506424974198443e-02
-3.190081254582934345e-01 -1.920043302915653248e-03 4.633758507127933024e-01
1.730965158090000400e-01 -3.687624750668770934e-01 -6.378666306332551050e-01
-2.762129260711293499e-01 4.195936895867263816e-01 3.008326451971137794e-01
-2.620649169600818285e-01 4.565148329242180170e-01 2.317340790991784250e-01
4.212063178877842318e-02 1.820782650488438244e-03 -8.299648835528596891e-01
3.406153030704155982e-01 -4.129628730517200252e-01 1.892033331074412239e-01
-5.956129625308365094e-01 2.249807163266729360e-01 -1.707788627239001933e-01
-7.981749208052284494e-01 -3.709557066189073660e-01 -2.508819140308542472e-01
7.134249666773784249e-01 -1.875351290113560498e-01 5.863705026177788993e-01
-3.015755990930915065e-01 4.329273037301172300e-01 -2.777495482443348429e-01
-6.023241019637534110e-01 2.021766335308531615e-01 -1.370011549312478150e-01
6.115818248738090768e-01 -2.503449999523870151e-01 4.928099324860235608e-01
-2.964628610047186363e-01 1.290812379715459979e-02 4.961287492022566914e-01
2.416657174722846024e-01 7.109600796951283108e-01 2.724455314031846154e-01
-2.640409852030792259e-01 -1.407191008824728862e-01 4.696770777145237719e-01
-1.732865521680614918e-01 1.660075073222311570e-01 6.837667989332981699e-01
5.172698703573015422e-01 1.362924443280935823e-02 -2.171689628743246891e-01
8.928376425565656138e-01 6.229599809297010210e-02 4.179250630548810297e-01
2.468908001972555666e-01 6.221584286969643329e-02 -5.684566942060783612e-01
7.584134181209882808e-01 2.380110922952959063e-01 1.310877245210086695e-01
3.105605245465728470e-01 1.516674573473635601e-01 -4.518118854018200459e-01
-6.414337118200955645e-01 -3.704279881264567198e-01 -7.254750583537132591e-02
1.822504502561108075e-01 -2.321140187686580036e-01 -6.945944055915496129e-01
-7.679624119891044487e-02 -3.440360040387441809e-01 4.310297746710421429e-01
-5.719830756523810456e-01 -3.948353456396740402e-01 -1.758833892223277823e-02
4.038388576358243331e-01 3.495724792463723082e-03 -3.823385478936234261e-01
5.824232896467372855e-01 -2.196036531243872880e-01 7.755836475183786050e-01
1.821427891958763215e-02 -5.026206459225340817e-01 -8.214774407486636898e-01
-5.725369359370047206e-01 -2.463751711225385110e-01 6.867764061285389077e-02
-4.439940632575979373e-01 -2.753203485864395006e-01 1.952930153211630271e-01
-5.181034314788281192e-02 -5.672671832389194480e-01 1.099978001889846853e-02
-6.817224966808580477e-01 1.087592916804584059e-01 -1.786911693480507379e-01
5.886347919598752809e-02 -5.615190174510256149e-01 -4.993568976590192360e-02
8.970441828787045768e-01 4.422725112232602646e-02 4.475772797684271498e-01
2.829779486248510181e-02 1.479431799243388357e-01 9.450434107674154927e-01
-7.528942937046934070e-01 -5.396493477655928128e-01 -3.040821210750531134e-01
-4.914756761919262806e-01 -6.360581110582151920e-01 -2.168329026142897797e-01
1.764596842048919145e-01 7.334082022162314862e-01 4.318603718050585405e-01
-8.190026823762359687e-01 -4.633716172660148208e-02 -3.070730156004193856e-01
-3.030731324173635555e-01 5.775987059565226844e-02 4.945495754306594716e-01
5.537692741350325187e-01 1.005197598703872347e-01 -1.654711175520363897e-01
-3.458030035402188257e-02 -6.300028022172677877e-01 -2.374828233819768486e-01
4.635240308340964899e-01 -2.343935097690639513e-01 7.894605748936415202e-01
4.912249174050012726e-03 -3.233136557930708227e-02 -8.900272655540758526e-01
-1.403069009986386839e-01 -6.388238241877158829e-01 -1.654092997709692148e-01
1.184264086216121614e-01 5.599507062990142225e-01 -9.554132373625638663e-02
5.633727705870952285e-01 3.903371379776408578e-01 -3.489664190163425245e-02
8.929861798519779237e-01 1.293716683975838777e-01 3.647024308792132796e-01
-1.079459585868871585e-01 5.450715709958046107e-01 -4.079794664292894779e-02
8.738532834557339868e-01 1.694197401648994961e-01 3.129119964217402239e-01
-1.441415139536570411e-01 -4.679697401636302434e-01 2.097743951424159703e-01
-6.929395039029366543e-02 -1.058717103499414725e-01 6.905252817793030573e-01
-7.805531113110963926e-01 -7.223725329535170270e-02 -2.217675375833143281e-01
1.812472903490665588e-01 -4.144734410168675609e-01 3.694276816972191235e-01
2.162300288871491297e-02 1.612834238487888538e-01 -7.273931834853726297e-01
-4.215950966276267309e-01 2.536825696100807326e-01 2.179072192691001997e-01
1.821798520976174729e-01 -5.146808155827141684e-01 -7.703660061974546003e-02
-2.148085916071585943e-01 3.928641797040153261e-01 -4.822122177599290627e-01
-6.850548256526507729e-02 -6.735179650567592047e-01 -5.024022793622410221e-01
-7.976797502169617748e-02 1.461532306795515213e-01 8.088463649845144543e-01
-3.618679084636745036e-01 3.230924702961242567e-01 2.612742149080458098e-01
4.054518686419695261e-01 5.850070292103389802e-01 4.703493176978294082e-02
4.567470824839911514e-01 6.339622738867740914e-02 -3.031667988494569088e-01
-3.201507046688533697e-01 4.068111911939730208e-01 -3.766142255034275466e-01
-6.219155453091120694e-02 6.039077234948707629e-01 2.943644413140669713e-01
-5.058921630821027193e-01 -2.143257766556529720e-01 1.608659590970926700e-01
-1.328896750097385837e-01 1.158598995821671501e-01 -8.992422973560562083e-01
-4.752749490281339417e-01 9.845725601105363711e-02 2.274250675883631723e-01
-3.633238638447550822e-02 3.256734927862610374e-03 -9.113041643319526042e-01
2.638475454066928072e-01 -8.189183961316598426e-02 -5.844682610344172913e-01
6.800469084446717494e-01 4.346699953650969839e-01 1.141800825952007797e-01
1.311955623259614401e-01 -4.657092938169646312e-01 -6.096132777955778348e-01
-4.118452616974228042e-01 3.252585260867630890e-01 -6.047943093986015706e-01
-1.376783675558417575e-01 4.750715411444811909e-01 5.645802277308349382e-01
5.000953283166986729e-01 -2.872125660199209007e-01 5.873971886390498831e-01
3.865639001824998089e-01 2.786727626411635295e-01 -2.915745230312809522e-01
-7.725762351771584546e-01 -2.815221987535097004e-01 -1.913448461477095519e-01
-4.548992142487222612e-01 3.545174747259423609e-01 -1.539963239696801600e-01
8.423215891906461472e-01 -6.810337074354516629e-02 5.172183899684126285e-01
3.983880488236950512e-01 -3.833101100434248565e-01 1.254939740756904898e-01
2.457070992577556900e-01 -2.819547176150262804e-02 -6.006464739779311390e-01
7.688913922648357158e-01 1.446069035728879681e-01 1.502815587951202569e-01
-1.251515193925867020e-01 -7.088772369777397442e-01 -6.270087429206895324e-01
4.169263425947261625e-01 -2.189169130620772508e-01 8.294752117840576977e-01
-3.158082878307365560e-01 -3.079736636456748555e-01 2.930699113917082932e-01
-1.419760791346857398e-01 5.452664594849154778e-01 4.122278498527984225e-02
1.833447182977082646e-01 2.271692375812420783e-01 -5.255253453026045296e-01
-6.687556854317057153e-01 -3.312113741484878915e-01 -8.165581486311722370e-02
4.305794338946268285e-01 3.049616372188101443e-01 -2.287573803829030250e-01
-1.229184719989152297e-01 3.034436738374681197e-01 -6.442018505688865693e-01
-3.469693418079587699e-02 4.903524192949527682e-01 -2.579541734939055919e-01
4.415414245222700207e-01 -3.332358283120496201e-01 4.544660417615778436e-01
4.084985953148203564e-01 2.430413926486115483e-01 -2.926325794835795135e-01
-7.137215552390079043e-02 -6.728702670214843362e-01 -4.512882041322215376e-01
-4.597417673885441092e-01 -1.782642497751657897e-03 2.700326837583322259e-01
3.833017968010526966e-02 -1.687475276323399664e-01 -9.028120967743724634e-01
1.047920645262156352e-03 5.428219966457462631e-01 -1.286453078328369526e-01
8.600274228283168176e-02 5.743690174496074441e-01 -6.158199768003610325e-02
-8.019537139426798425e-03 2.410767611781429454e-01 9.207911925128896558e-01
6.140110952039642411e-01 -2.431369256838818438e-01 3.421481189378547394e-01
9.121206747324377140e-02 2.339072385489210024e-02 9.448513424890754298e-01
-1.664920256952522881e-01 -5.300526651344279472e-01 9.208799771883623142e-02
2.552671400406405500e-01 -2.120086430294325086e-01 -5.818268959177103072e-01
7.114229367993611941e-01 1.691900145960112123e-01 6.126299144331579655e-02
-1.984142675082042340e-01 5.080781829553273621e-01 2.623887721487024871e-01
-5.609346868537693487e-01 -4.248917972151905476e-01 -3.051442731343436549e-02
2.275615421981856332e-02 4.836289635587826541e-01 -2.696784723460372568e-01
3.438263727560094130e-01 3.344930192723228335e-01 -2.869943446012149235e-01
-2.838986342768403670e-01 4.411348167617424876e-01 -2.673758127932510109e-01
1.011374827542451255e-01 -4.568300005077210457e-01 -6.942943422776817197e-01
2.703799141867649358e-01 -4.367049215807752849e-01 2.228551409838558928e-01
1.299160457919524767e-02 3.154273482812918195e-01 9.520491499383243461e-01
-7.607860526086255293e-01 1.313075865716215873e-01 -4.349706651754407516e-01
5.302837510317435221e-01 5.818189781427315355e-01 1.200850594410686895e-01
4.065191102810021828e-01 -1.871392983445040459e-01 -3.292394263920683795e-01
-4.533581710618972971e-01 7.582027403589923498e-02 2.704314557241966899e-01
2.933026793933002016e-02 -1.693296695600691459e-01 7.167691549667698503e-01
-3.070002523915170700e-01 8.418298113816837305e-03 4.813623773761714908e-01
-3.165692126261741568e-01 -2.862837139952906229e-01 3.113694245660696414e-01
7.784194774080495371e-02 -5.713450191609297235e-01 -4.705285315137617830e-01
3.466358473655343775e-01 7.173744112356775782e-01 2.691709347927697116e-01
-1.985082799032303058e-01 1.128822467638700006e-01 -9.516173226055513190e-01
6.488092644961686029e-01 5.981270222012535775e-01 2.260504430536265374e-01
1.336928898646858044e-01 7.197277624294525777e-01 4.681252074584450473e-01
6.369842554306305304e-01 2.444948566557399450e-01 -2.741543350889556752e-02
-1.548476750047434181e-01 5.203987286115229205e-01 3.978762905210189715e-01
5.233670496527188520e-01 4.972373161575405764e-01 2.105761737692614030e-02
3.535185694790343724e-01 4.845994338464954532e-01 -1.196975130559972400e-01
3.525330662933319759e-01 -2.905135800228466070e-01 -3.437096135979403333e-01
1.109116907681782782e-02 4.930105496220403283e-01 8.731933593542923200e-01
9.159546147987401854e-02 5.293351933574330648e-01 -1.641674366176167910e-01
-1.426800716581889950e-01 -2.773907246319450362e-02 6.664166294233021537e-01
4.825917781841364274e-02 4.852711435144808627e-01 -2.616984774163293448e-01
6.443480212826481202e-01 5.758649992540597340e-02 -2.758362571066714022e-02
-5.217261637610152158e-01 2.990410730808804041e-01 -5.784854380927384465e-01
-1.136378505238785780e-01 -6.760526287994723937e-02 6.740708660138104991e-01
7.183845614807055080e-01 -5.917302183229393182e-04 1.263732722502554917e-01
-9.824558587599833970e-02 1.522462919303051998e-01 -8.329673604362676231e-01
4.862024419950170540e-01 -3.249050772893051775e-01 1.803650886855291402e-01
-3.487299085069915372e-01 3.247998280656749781e-01 2.898774963930978443e-01
-2.631568675065797946e-01 -5.093494487862804121e-01 8.999344216023863474e-02
-2.439802101303971404e-01 4.228212899667125879e-01 3.850821246515708784e-01
6.139787851134832497e-01 1.835374963827933470e-01 -7.231683070458681806e-02
6.483804876044594323e-01 -2.200104644901145490e-01 3.773193643117504492e-01
8.577837511287421668e-01 1.793937014546346798e-01 2.835013303380766181e-01
-3.445486927968441915e-01 4.241896869599960374e-01 -5.530686484630118090e-03
-1.193089038211388175e-01 3.190437321197824860e-01 7.419577579074313478e-01
6.884048153551008964e-01 3.813953200289024181e-01 9.123180075443523829e-02
-2.699150970993973164e-01 4.060175178549813579e-01 -4.251214413509366574e-01
-4.936084752882189952e-01 -4.759545164543521056e-01 -1.920991580931173323e-02
-4.940328517097052341e-01 -2.601233268794405640e-01 1.512247484095687045e-01
-1.652708107485533762e-01 -7.253634478191660628e-01 -5.217973482636590887e-01
-1.394820010772985786e-01 -6.771893898334617745e-01 -3.026171005237790479e-01
-2.606724659093279106e-01 -7.586527005893956010e-01 -5.045039760649751015e-01
2.211814983097147580e-01 -1.751462533377993180e-01 8.386287788818879152e-01
2.047268385845738559e-01 2.470386279621064329e-01 -4.888151540302307363e-01
-1.495361988290637989e-01 3.634591927595257066e-01 6.647016384130627342e-01
5.299252488442020015e-01 5.304790679139949061e-01 6.102697265417895978e-02
8.210847539173431464e-01 1.546087948844219739e-01 2.310257125105830145e-01
-6.171772040113749913e-01 1.794353122296166170e-01 -1.325104786546357771e-01
2.649451293712412059e-01 2.382289156792760099e-01 -4.407509608283724512e-01
-2.666627206695593721e-01 -5.630472220217516005e-02 5.105210226552261421e-01
5.651809309711943730e-01 5.574532248742027907e-01 1.174539795256463182e-01
-5.659785020748065998e-01 1.030308085306509275e-01 6.413072336414221697e-02
-2.844516311293338040e-01 3.891746594256816349e-01 3.429631210437552591e-01
-2.914305626644251440e-02 5.194133426678219090e-01 7.573657406798189884e-01
3.369092003082783116e-01 -1.384847713087420662e-01 -4.705446342336668808e-01
-1.624243618190281679e-01 3.873846784725596959e-01 -4.967695654415739126e-01
6.017367592541276178e-01 -1.268807822821877984e-01 6.222160570592363306e-03
-4.376500800952549675e-01 -1.053747725499444392e-02 3.013463201351826992e-01
7.444469470899666153e-01 8.655463139255836769e-02 1.268176221500524059e-01
-5.502362595386131039e-01 -6.677567756433834267e-01 -2.945915566154109211e-01
-7.008958331870906999e-01 1.737536322321970583e-01 -3.651097493795678606e-01
2.469834400422619980e-02 4.153054604880628831e-01 -3.975120008754920997e-01
-1.407519049357915941e-01 5.075879887325297490e-01 4.868569811430180083e-01
2.653030871052607445e-02 2.337448963300270133e-01 -6.483307589842208785e-01
-1.389979395103682347e-01 3.867325438329667908e-01 6.673779817202357689e-01
4.940525212955731438e-01 2.193364426063451889e-01 -2.098559277957112723e-01
-1.798690491953344461e-01 2.573488161543632247e-01 6.624903344144571493e-01
2.092277634415581067e-01 -4.286486621375532602e-01 -4.761469780626829684e-01
-7.340725293402627916e-01 -1.655259625061357154e-01 -1.263877720052150044e-01
-2.515491025449790100e-02 4.758011090278028155e-01 8.159488361749851482e-01
2.474911518076922667e-01 7.231187351963255239e-01 3.074557217419676691e-01
-6.610429631396199657e-01 2.239053944071014643e-02 -5.967145051912413345e-02
5.422638387038034580e-01 5.190874099233133698e-01 5.868942104453828829e-02
2.286014471656814817e-01 7.172543063355628634e-01 2.993552026437365510e-01
-1.903794654761715999e-01 1.823224466542205102e-01 6.586769067362467922e-01
8.094654879595812591e-02 -5.768285603180571819e-01 -2.128507634026916839e-01
3.097771797382637415e-01 7.757178899039884890e-01 4.440400202887140879e-01
1.866138286916234901e-01 6.026453828439490845e-01 3.625994217872842169e-03
-2.605650737107505499e-01 4.749614853642042389e-01 -9.770426784936615816e-02
2.787572168046977827e-01 6.736529907661071848e-01 1.675980748071895510e-01
-4.388578167102330507e-01 3.198351787792373946e-01 6.243144328436234236e-02
-3.275601082495148419e-02 -6.303529475870767174e-01 -6.814344495013632264e-01
5.939619589463573934e-02 5.592754236852796046e-01 -9.639184179029021415e-02
3.842762994809346133e-01 5.948127432220106092e-01 5.071787380930182360e-02
-6.451848064738353594e-01 1.306699113551433034e-01 -1.248370914576346080e-01
4.997358289734953329e-01 -1.129939102335998091e-01 -2.046598683001546737e-01
-3.643835733560944479e-01 4.464848962771598116e-03 4.041598267910754827e-01
-7.600441240690397615e-01 -2.300196135475178483e-01 -1.660050004769902665e-01
-6.527973918269468490e-01 -2.558533105675143138e-01 -3.188460492408456276e-02
-8.594190832650114853e-01 -7.766041238644316724e-02 -3.610090930876950766e-01
6.413768870296222835e-02 -5.352245858144755175e-01 -6.510710411394046160e-01
-2.176536172533994062e-01 4.864095765039088137e-01 -1.490930841434634779e-01
-2.350774791194696345e-01 4.878929461913222299e-01 1.914034643216679654e-01
1.422759376901913675e-01 5.690490417651035138e-01 -7.353366136608271986e-02
2.657740651788426112e-01 -4.430631885967465378e-01 1.975345768775380872e-01
5.773008560174173326e-02 -3.850513745362961204e-01 -8.447855107932835672e-01
1.583861460628577800e-01 7.080561472931349298e-01 3.316148945658610181e-01
3.704443435367076876e-01 2.152809624548565268e-02 -4.260537406260657689e-01
-1.597684031178167874e-01 -2.300333962822309619e-01 5.009263467313662677e-01
-1.127878230119792324e-01 4.177027594949540151e-02 -9.544636413527315399e-01
-2.102076796429624972e-01 4.234314366737230162e-01 -3.999717007242739042e-01
-4.210603498152020729e-01 3.760686952328703980e-01 -1.102239610844602813e-01
-6.430139198494869701e-01 1.866099855403333396e-01 -2.171720432214576668e-01
1.225314834023445015e-01 4.541912539128709070e-01 -2.926155261450557044e-01
5.768428817828218369e-01 3.986720357837489903e-01 -1.546555426183699941e-02
2.353546683723764799e-01 7.812384852476245145e-01 5.984833298602115770e-01
1.007381909252986624e-01 -1.062445924376054784e-01 8.396146767828925883e-01
4.340832416714948128e-01 -3.567132486301141103e-01 3.040936878194951953e-01
5.937954584597860547e-02 3.121200238078920552e-01 -5.315225638747685943e-01
-7.735450387446211884e-02 1.527135431230584317e-01 8.134535518959641331e-01
5.716080977757748149e-01 3.800969076231636712e-01 -3.381508053428120691e-02
-1.376217308809360995e-01 3.728483198864819825e-01 6.805183519102883105e-01
4.666779896200050626e-01 -2.874189847566554490e-01 -6.366913087035439012e-02
-8.112427457130010344e-01 -1.635590818693440363e-01 -2.429936347256915485e-01
4.617200495366247659e-01 -3.111619690631068358e-01 -1.224058412785230046e-02
-1.104034086920267221e-01 4.794808890693866288e-01 6.244879337241077133e-01
1.119191901115915849e-01 -5.482550126589011974e-01 -4.328433974521042060e-01
-2.879576564908527536e-01 3.475706846864721200e-01 3.979532691148426893e-01
-1.500761945217566895e-01 3.721324611186861420e-01 6.573816454757860361e-01
-1.904389694522144738e-01 -2.738550878110765710e-02 6.124001397322179630e-01
8.947568520472666195e-03 -1.961238442777101521e-01 6.718845054196408428e-01
-1.933715848817578742e-01 -6.459986783757771800e-01 -1.680370765837002345e-01
7.031235421878069269e-01 -1.125751029551938509e-01 2.208641499031834821e-01
6.941683410067575610e-02 -2.978012806534970358e-01 -8.586390948960535008e-01
7.732489062965962334e-02 5.522452461353418718e-01 -1.145169435406306613e-01
-1.281670594847804101e-01 5.468988511676327047e-01 3.918902402483905867e-01
1.832691640797553534e-01 -2.183507763956449299e-01 -6.959716108992186623e-01
3.492619045789818744e-02 6.623524205371668083e-01 3.777889617945218159e-01
-6.513978542611634226e-02 -6.607882307718702108e-01 -3.579861863607558536e-01
-6.644313990509358170e-02 5.823261561214450044e-01 8.057534426511661629e-02
3.047692676616641227e-01 3.995017079184297326e-02 -5.067391309496915852e-01
-4.905516903384501970e-01 2.394974259352323220e-01 8.078531606302262469e-02
-3.911239549173006064e-02 -2.249731358826155825e-01 6.035978317739245647e-01
1.057289730876479900e-01 6.493283403861610514e-02 9.884520944314982849e-01
4.394085964630391472e-01 -3.012199277594421187e-01 5.962126007795375271e-01
-1.454048781961366776e-01 -2.999019659946447480e-01 4.401426258176849293e-01
7.059092298896391116e-01 -1.906767536129868046e-01 6.534662763833147814e-01
7.163688019042545596e-01 -1.228180509424185995e-01 2.757465948523898924e-01
2.957470247905795713e-01 -4.459967932634484322e-01 -5.588555874827061398e-02
-2.757976035154093841e-01 4.604939687809398996e-01 1.471602787993865347e-01
5.229678520403954929e-03 9.575723055734375322e-02 8.957680755982945220e-01
-3.007555648601497600e-01 -7.653887306723476947e-01 -4.877268915861240339e-01
-3.740213223528471853e-01 -1.013071712708412814e-01 3.641608704596085988e-01
6.955688926843016651e-01 -1.916992475007872898e-01 4.537148665890464727e-01
2.930043837398011441e-01 -3.463286978499892643e-01 -4.050928124914705553e-01
6.759711733852158400e-01 -1.396455155803566217e-01 2.004389845403989068e-01
5.485063694728409267e-01 -2.328162698880442139e-01 7.558923789215266087e-01
-6.482522594700645957e-02 -5.782097434649127177e-01 -1.586630603168303136e-02
5.627061168233551403e-01 -2.712644833559868518e-01 5.424488095276773780e-01
6.710262231642142305e-01 1.187419369305831723e-01 4.027008386323849103e-03
-6.182287633381817332e-02 4.911070249141729072e-01 -2.531523198328223812e-01
3.245099066091280404e-01 2.929433376998711869e-01 -3.403655477267384377e-01
1.719735342273101542e-01 5.607314322398071482e-01 -8.586105484175994562e-02
4.583908462404367445e-01 -2.139442945122817241e-01 -2.031458807812137890e-01
1.083602128667644909e-01 -4.457466658676882409e-01 3.008656053290633681e-01
-4.927068947326755377e-01 -3.871210423347752616e-02 2.221093142854956293e-01
-2.566796476069268529e-01 -3.758972067172268727e-01 2.716282986239432762e-01
-3.565854376822105709e-01 -1.708518123790450927e-01 3.519136710240485244e-01
-5.237198066607722663e-02 4.956524588068574322e-01 7.362485475177704686e-01
-2.193553712965191360e-01 -7.733106236699856251e-02 5.546230820275405149e-01
3.662864149465839270e-01 4.969850772633493396e-01 -9.568172878608878495e-02
2.115940026480358782e-01 -4.937785699734948408e-01 -2.351949606243360913e-01
-7.665983415887888709e-03 1.534717756234613151e-01 -7.596469949976398794e-01
9.261309339623237380e-02 -5.648811523210606200e-01 -4.306186389770346734e-01
6.860320347901084359e-01 1.582595204651612852e-02 5.738077820413745728e-02
-3.497887600808352038e-01 -5.875666262115651906e-01 -7.371304986569561513e-02
-8.472412319054778429e-01 1.368539679466360300e-02 -4.286185624638150782e-01
5.194836634947284093e-01 1.809978419193111754e-01 -1.941414369278945673e-01
3.540471757602203784e-01 4.015763266652271346e-01 -2.137286065387298817e-01
1.734556163800857892e-02 -3.957695995084002383e-01 3.944179811566446148e-01
-5.565309053615181967e-02 -5.373673426498686290e-01 8.961084717408687728e-02
-1.409547478715333750e-02 4.545407324450880804e-01 8.554241810916977107e-01
-8.595097967380596615e-02 -6.830403183910194187e-01 -4.912601458288440859e-01
6.758327654716009270e-02 -4.771669994090917966e-01 -7.434569763879644855e-01
1.723235768163122392e-02 -4.705038726815981009e-01 2.451722411044406635e-01
-7.067981297971392962e-01 1.181602103072609267e-01 -2.523511565034074478e-01
5.551155462762098480e-01 -2.850858945308620829e-01 3.263452698629660809e-01
-3.215445470961785235e-01 -3.181365658361604565e-01 2.787992660649734056e-01
1.368252425798381355e-01 -3.890080005334718427e-01 -6.923425542328113247e-01
2.537710222543842487e-01 -4.000205196733443436e-01 -4.135845422223152212e-01
-6.438702324571873858e-02 7.814188308880572198e-02 -8.790024470851278693e-01
9.197946113980051686e-02 6.654567660461264689e-01 2.296255054533993811e-01
3.615521508069520773e-01 3.240761532181489213e-01 -2.800570221123871439e-01
3.549329140150691564e-01 5.902712713835391867e-01 2.967147527989974151e-02
8.206431356418713019e-01 4.897288403778300436e-01 2.970214059785292182e-01
1.390958909534956156e-01 3.862538481255162193e-01 -3.841443745032799839e-01
1.175213009454665475e-02 -4.696171877479636270e-01 -8.704620270550952332e-01
-7.136088619369596042e-02 -6.355279736261147949e-01 -2.071377607812055488e-01
4.092518840796308122e-02 2.009202007472494222e-01 -6.722226714556255311e-01
2.291576086508935461e-01 -4.833586951400857812e-01 1.669814921267840854e-02
3.625381942343210429e-01 -3.346265942933803750e-01 -2.521534855258975583e-01
8.647149959034551303e-01 1.234262901039932109e-01 3.173421603554113513e-01
-7.405765365855214721e-01 -6.532170666919147328e-02 -1.563007921241918174e-01
-3.958126578205383161e-01 -7.734570103880322733e-01 -4.647910325247663343e-01
4.773302836785591752e-01 -2.841586090345126769e-01 -3.996295884492829381e-02
-7.396616755922911677e-04 2.596901146015125894e-01 9.324516049749111968e-01
-2.299774042670022500e-01 4.797004366384551299e-01 2.638901175293223988e-01
3.450156001923126436e-01 -4.039634360964170640e-02 -4.677219193678651687e-01
-2.007129539720889921e-01 -2.111092519843376925e-01 4.814068658461443384e-01
1.081619367261067582e-01 -2.169593792109876518e-01 -8.099937299405499669e-01
-5.775253365893314728e-01 1.938043163571443461e-01 -5.781011609693657849e-02
-5.186133175644968007e-01 -1.902174962491084975e-01 1.556451780053808021e-01
1.361796362658504733e-01 -1.086070048012258982e-01 -7.615958512546086023e-01
4.588952076105572986e-01 4.172021951747283408e-01 -1.106296626549136686e-01
-3.017991114277084885e-01 -6.148731116279426701e-01 -1.047018033217648053e-01
