1.424940318481322798e-02 2.759219674030740088e-01 -4.248367305843159247e-01
4.529021688441025040e-01 3.396865902032172313e-01 3.298010028822425110e-01
1.066975759186765578e-02 5.252895089914744187e-01 5.443946085794428708e-02
-3.961324419575770750e-01 -5.856531941968154409e-02 5.292452828259019970e-01
-4.365470113973210498e-01 1.719889648315391373e-01 3.121849227011294081e-01
-4.119927838279627968e-02 3.105567122868213015e-01 3.356647130686408187e-01
7.569950424749256890e-02 -4.691160505583016338e-01 -3.983969940509847485e-02
5.465577724882754174e-01 -4.404374285484880663e-02 2.010246982685625627e-01
8.332239756664532315e-01 1.278441342470062470e-01 -4.514107608220149781e-01
6.305519320348792478e-01 -1.112096441586068740e-01 -1.396693490637918589e-01
7.491569963457197501e-01 4.603923157146351530e-02 -3.899040255201609018e-01
3.099748495232996226e-01 -3.264726850403756320e-01 -2.140848132226436107e-02
8.371416424624448238e-01 6.316744072207111649e-02 -3.401534992386650580e-01
8.081530507024604626e-01 3.750290388800429919e-02 -3.162822039756023607e-01
3.396558522126505442e-01 -1.149103771132212043e-01 3.116472286312509943e-01
7.551869016639070065e-01 2.607346552307096207e-02 5.716792063096889226e-02
3.430041057772540980e-01 6.573606263427292928e-01 -4.239414783336355463e-01
-7.840529402519593738e-01 -2.340776265758919283e-01 5.977048973620444627e-01
5.720340811936457381e-01 4.565382839455261466e-01 -6.229578739335228654e-01
7.420468954749562807e-01 2.852535804959096533e-01 -6.019907335794185688e-01
4.111179079706376860e-01 6.818924273296806948e-01 1.307371453557686913e-01
-2.360095717725989584e-01 -1.522200419545350625e-01 -3.732417701973115287e-01
4.586569170597458722e-01 8.008502065951030868e-01 -1.830418490484090818e-02
-2.324782092207962059e-01 -1.533122052752135811e-01 -3.738425828112200699e-01
-3.136834683630955745e-01 -3.750959018949253654e-01 5.682374960193059543e-01
-7.980880515477403181e-01 -5.184044970030556726e-02 3.914247731094627758e-01
2.911830894064557085e-01 8.494574157154680116e-02 3.904551336055276378e-01
-8.384666657105231957e-01 -2.057602513090770746e-01 -1.257990105674145764e-01
-1.141614230810261976e-01 3.472001680222390751e-01 2.709288142404706612e-01
-4.189593123442026390e-01 -8.030401253055490240e-01 1.264570959372848802e-01
4.822756682030108211e-01 6.639691857748859505e-01 1.737184475589586830e-01
-4.837875278836551440e-01 -2.765832104852767315e-01 -3.023885512376176532e-01
-8.372500592579049661e-01 -5.211946006907255263e-02 4.784780805109811741e-02
9.315284542949324453e-02 3.236528665356388501e-01 -4.503895405917324735e-01
1.378068419471421661e-02 -4.322893595604122563e-01 3.293513556080093774e-01
-8.209483573214642060e-01 -1.337175330109080795e-01 -8.604732188292028849e-02
-1.706261626923339936e-01 -4.289796535832365865e-01 -2.595187480039634065e-01
9.211811574826503368e-02 5.116188427515573345e-01 -3.244653395201533841e-01
-4.661058911185924636e-01 -7.560236346843192123e-01 4.702677789108392625e-01
-3.659593490552910389e-01 5.053659913068641457e-02 4.672360778290980399e-01
-3.370250101801759435e-01 1.828945858620462939e-01 -2.378234494363442031e-01
4.315394107602186780e-01 -2.200765402415783001e-01 9.540151418843254016e-02
-1.135981074637749944e-01 2.722753358322990147e-01 3.490136577013615571e-01
-4.665169209923384491e-02 1.371939107134977597e-02 -4.345097803585532548e-01
-7.557639765668130449e-01 3.012627090070280154e-03 2.507063633633228525e-02
-5.251167229531106262e-01 -5.702386612325770487e-01 6.216311199042076074e-01
-4.258587003072715760e-01 -3.200884449611361010e-02 5.129766284645469465e-01
-1.796412663090853068e-01 -1.546747965701806282e-01 -3.836845022793389237e-01
2.864603953978648865e-01 -3.219740456753643620e-01 1.254618817344094750e-01
6.866300762257149248e-01 6.295161361176165871e-01 2.174889468072239429e-01
-6.773305407418022117e-01 -2.276978305144045367e-01 6.048234686916307279e-01
-1.034902866074713518e-01 4.616536651202057251e-01 3.253340932695497623e-02
6.403243910778155801e-01 -3.223664458220563966e-02 -3.481157026416312750e-01
4.215466095015307224e-01 -5.689884447663368788e-02 2.888170625268962621e-01
-3.574777697373449081e-01 2.496293755756353594e-01 2.432485750630240251e-01
7.621943016556882444e-01 1.313299013397038924e-02 2.380675423082702705e-02
-7.986220845106468680e-01 -5.207354374195036772e-01 -2.039420623525732557e-01
-1.626835777755036849e-01 3.763463803050776102e-01 -1.985075016800947334e-01
-2.459707783967443884e-01 -1.463285388931857001e-01 5.448028196327014960e-01
-7.199180485273770636e-01 2.253404777312711590e-02 4.187615820252435853e-03
-9.337930956720539299e-01 -2.575790751934254330e-01 -8.949244389698043922e-02
3.787893780687516254e-01 -2.410739227482482927e-01 1.427125231805988492e-01
-8.868715681923260430e-01 -6.830511704964227493e-02 3.072556064675034393e-01
-3.800951891215395007e-01 -7.547650596287063252e-01 3.564699881679811444e-01
6.193915715800722976e-01 -8.215534771086377419e-02 -2.740665275578781923e-01
-4.196214685221892338e-01 -3.510525878343837003e-01 6.057673503415903493e-01
-7.588761044017214852e-01 -3.403076827665340032e-01 -2.151820981791993659e-01
-2.469344997581559842e-01 -3.666180800816732158e-03 5.042585660750169563e-01
2.076063515717684049e-01 -2.768809642141545346e-01 2.974012653696793684e-01
6.825674628489693252e-02 -4.180089686888275868e-01 -1.682215411390517723e-01
4.193758350216783004e-01 7.126904093714794275e-01 -4.425468387897109057e-01
-5.339879125577731145e-01 1.786410410197623033e-01 1.234088267862841204e-01
-5.184171638436587681e-01 -6.059619692192671492e-01 -1.923422670559391812e-01
-1.776455600394470924e-01 3.227868744898497178e-01 -2.531285480249481079e-01
1.972314078240069435e-01 -3.155164524427396255e-01 -2.327252714309582804e-01
1.412277155402077156e-01 2.313621963561027506e-01 3.960981005378047537e-01
4.412501486669193618e-01 5.303384326693031392e-01 -5.635530177736551849e-01
2.901031551925664642e-01 -1.592324571198844851e-01 3.199092644755936465e-01
-5.556426050467144773e-01 -5.022178643408631293e-01 6.452093561616109030e-01
1.024786091517620040e-01 1.158189659482781325e-02 -4.643018834696580610e-01
2.433863097864526204e-01 3.733592745856010864e-01 -5.100585745965842133e-01
5.320334127441825878e-01 -1.347516115485151156e-01 1.041867087767847366e-01
-9.408780796419531356e-01 -2.907535308684668363e-01 -1.045538465556033886e-01
-3.952271703296034722e-01 2.510282492566164869e-01 -6.428569424933866516e-02
-9.115758507259312804e-01 -8.708899324566370115e-02 1.114131992648659392e-01
-5.043667403067183530e-01 4.984355603058092388e-02 4.309841829974031535e-01
6.814661205972524227e-01 3.930944488972024087e-01 2.724581431719730884e-01
7.911126302220383710e-01 3.671458746702858239e-02 2.338183470401299438e-02
-6.550748400150074868e-01 -7.164609558773504805e-01 -1.385453788234907446e-01
-4.035904431546096793e-01 -2.050438320035463113e-01 5.830033874473711242e-01
3.851381056746294718e-01 5.323528201584131619e-02 3.501575100195602475e-01
2.436883914389209316e-01 -3.612457700030838881e-01 -7.333140131505266890e-02
-3.696090033024913568e-01 -7.413588283277865176e-02 5.366004822439495170e-01
-7.657466395570680096e-01 2.459807030097650379e-02 1.800180040574294316e-01
-8.239081028112016369e-01 -5.051641835078777287e-01 -1.994050800517901678e-01
4.874292224916125793e-01 -1.849974375864317511e-01 -1.960229658234158290e-01
1.714233187881480380e-01 3.794734465866211881e-01 -4.728159403242323533e-01
6.985190433123026343e-01 -6.247436347097655440e-02 -1.868634312864586033e-01
5.285587832625112670e-01 4.643312916257532619e-01 -6.093947636983988447e-01
1.295716267793840526e-01 5.805950473277634583e-01 -2.701028802388116823e-01
1.530418561227558094e-01 -4.177545975505001508e-01 1.441597869190265890e-01
-3.747295738648596108e-01 -6.093903546679985128e-01 5.167089971635562273e-01
7.604189074300563012e-02 -1.587077182184190860e-01 4.423526022050186524e-01
-6.000893242906350789e-02 4.717758648942875777e-01 9.599840805852691283e-02
3.783084752842761911e-01 -1.841662215262903080e-01 2.246389755983533854e-01
8.474465496402232567e-01 3.369689029963070237e-02 -2.078682773775985815e-01
3.355304234691505183e-01 5.064539226503906866e-01 2.632775198014301044e-01
4.537073760658123095e-02 3.184952887692701906e-01 3.472598236940365735e-01
-4.148961462385452048e-01 1.486058340794724035e-02 -2.854105849038804377e-01
8.082082565288510878e-01 3.841380680896611666e-01 2.303944459121878008e-01
1.410330692395149466e-01 6.257042019107325048e-01 -1.563705556915018224e-01
1.279993705945598088e-02 4.900260689739728837e-01 1.441559249489696992e-01
2.756215528627760092e-01 6.838027934914562289e-01 -3.026372679819221978e-01
-5.512887626317477530e-01 -7.386235131272207433e-01 -9.621005019857042928e-02
1.857522931301808233e-01 -1.760076142946269961e-01 3.792894923857778045e-01
-5.266157693637472104e-01 -2.283223190067741257e-02 4.903961348019202915e-01
1.394746993592891338e-01 -4.368182816589418205e-01 1.003777907157890198e-01
5.421471066974685726e-01 3.746179223557075805e-02 -4.681051032142847790e-01
-7.806164995200159940e-01 -1.183759421791132777e-02 3.225379082169388401e-01
4.371519732786004475e-01 3.305809246391416822e-01 3.342849631704572499e-01
-3.482742904607264989e-01 -3.283667051350223631e-01 5.842418993241993430e-01
-6.607646913325299076e-01 -2.152837914153575838e-01 -2.331367119985922054e-01
2.705281490690951696e-01 -3.321358697056798759e-01 -1.229221246223189956e-01
-6.318440382214792761e-01 6.223719634549414875e-02 3.350128146701822907e-01
-2.663536780348074173e-01 -4.450231304909573748e-01 -2.640690789625642076e-01
-8.941460946927128062e-02 -3.536964191475500119e-01 -2.996592021655561933e-01
3.983415384191011377e-01 6.892971546147862449e-01 1.155557096699461606e-01
-1.953832117551243808e-01 -4.540293017776044771e-01 -2.453532735504676821e-01
-4.918754741496861316e-01 -1.310641770975408404e-01 5.624082742939559010e-01
-7.080195946698967235e-01 3.049682574291643494e-02 3.164552891769167875e-01
8.406361368516390362e-03 -1.785972013845052719e-01 4.679051994287636296e-01
4.656212119272198913e-01 1.588648061702857203e-02 2.969402813504373739e-01
6.129749984896113446e-01 2.564911168129579977e-01 2.897450935425320284e-01
1.725158441581144120e-01 6.468134374935147202e-01 -5.853381321812479304e-02
7.545601216213038143e-02 -3.514491970719113012e-01 -2.536134395438250366e-01
5.686679663340173940e-01 6.713725628289592129e-02 2.578307735714306381e-01
-4.946170486217067452e-01 -2.717842277249153948e-01 6.119618113173230789e-01
1.478149613217217828e-01 -2.198508354402929910e-01 -3.533153288007325754e-01
4.552634270703149189e-01 -1.310372292767835248e-02 2.898819090560847966e-01
-2.821085985775029226e-01 2.820966395333633914e-01 -1.850977661295595267e-01
1.804496191769136837e-01 -1.019098201186342395e-01 -4.255735590849213934e-01
-5.562174135358801674e-01 3.813336626754990771e-02 -1.702938316853574996e-01
6.639634849627290558e-01 3.877477436902379559e-01 -6.345078403883142038e-01
-4.399292894825181377e-01 -8.193716887162243445e-01 1.441376666826193476e-01
3.313461088014256761e-01 6.784463872743963231e-01 8.891014213365654173e-02
-2.675256915834936522e-01 2.720202512051518862e-01 -2.153941642378759402e-01
4.215456791296025574e-01 1.398799436544474750e-01 -5.351616620473255148e-01
3.160621731496932596e-01 -2.284076785981647452e-04 -4.724534594607271432e-01
5.628727331085004587e-02 1.546087443171018094e-02 -4.574273110729529801e-01
-9.672359274446795663e-01 -1.103140298899510513e-01 2.102382373597576626e-01
-6.994424212760131931e-01 -6.465770591517564503e-01 -1.801322266903666591e-01
-4.976506377119344765e-02 -2.770243507965347574e-01 -3.439195908058227391e-01
-9.876700677751263369e-01 -1.841306460189577332e-01 3.463280496988548757e-02
-3.858357768835628532e-01 -4.176487736248767346e-01 5.908215985585154595e-01
3.377248698537472227e-01 7.292269882825989091e-01 -3.084809113545503717e-03
-1.750881586116540267e-01 3.243439341434910250e-02 -3.937858557716361063e-01
9.038691365182636994e-02 -1.744681501557340253e-01 4.315704967259557101e-01
-3.812814006939829192e-01 -7.799274124622761484e-01 2.818876564916223959e-01
7.667046595178270696e-01 8.672056820994582249e-02 -4.354401775100851801e-01
-6.759528179480546461e-02 -3.703945455635291317e-01 -2.827324251659659726e-01
3.035638509390213846e-01 -4.234504918219145903e-02 3.641533482057839333e-01
1.320577620941348895e-01 6.153654979791102209e-01 -1.949559634990363430e-02
2.971028767305310958e-01 -1.352580455909336843e-01 -3.864476713186147938e-01
3.166327831665749493e-01 6.907071483106426157e-01 -3.521519780289819046e-01
-1.407117676320275845e-01 4.381391530127239364e-01 3.450966156755988501e-02
3.798472190081161326e-01 -1.170641164389150807e-01 -3.783695147091000743e-01
-3.373850971370146445e-01 -8.766244284864954661e-02 5.407846720113903549e-01
2.053821641324390379e-01 -3.939004848973504669e-01 7.246976422084389080e-02
6.938828216196560872e-01 8.263668810417987287e-02 -4.637100372124863257e-01
-2.591893820800820758e-01 -5.447790196421308240e-01 -1.836157201148903573e-01
-6.125986318337615089e-01 -4.646443132835648693e-01 6.635983349607239568e-01
3.215290041231804175e-01 6.099394971873448590e-01 -4.471117513208360261e-01
2.501025870712439980e-01 4.308370664393251087e-02 4.021044943546771555e-01
6.018628689125012921e-01 6.718567735233172966e-01 1.907465367966120762e-01
8.558977634549399527e-01 3.948893953436286020e-02 -2.119305969640102039e-01
-2.866153399213581254e-01 -5.486416144448752474e-01 -1.889478431673348446e-01
-5.431749620405089685e-01 3.270798928173609260e-02 4.335058523813433151e-01
3.721789953185845601e-01 7.696046796708378990e-01 -2.749592083164507650e-01
-1.935762022277240091e-01 -4.543830726870129455e-01 4.817678896788237797e-01
7.155640896919768928e-03 -4.270472834652561112e-01 3.418263143086883726e-01
-9.930369053454471406e-02 1.340268284268478771e-01 4.421036962575234375e-01
6.445912814314361250e-02 5.434166551555721369e-01 8.833233653636274330e-02
1.321469068256626508e-02 -2.254742347417384163e-01 -3.684159421485430075e-01
-5.441940135503543496e-01 -2.588976327201101824e-01 -2.852362613925085166e-01
-4.542367635640503186e-03 -4.813164352615025288e-01 -1.203082309945230216e-01
2.419308606716562560e-01 4.202312233385780971e-01 3.068569280204613836e-01
2.541647246454215581e-01 -3.024335505409205815e-01 -2.101064396263882528e-01
-1.364750060513351959e-01 -2.497911769319509645e-01 -3.595269934313847227e-01
-2.870880920233283007e-01 -1.100598334929634575e-01 -3.632204560781639446e-01
-6.726546780447792417e-02 -5.401530804721138557e-01 2.744515354381497629e-01
1.147754703373058960e-01 5.904619299053606163e-01 -2.204895520003639642e-01
-4.281987274444522540e-01 -4.177903514315156608e-01 6.066203392360662860e-01
7.062379789394183927e-02 -3.181297069325503823e-01 -2.897894963229620258e-01
5.572658320473766747e-01 5.432707467751829444e-01 -6.123893322552551588e-01
-3.943863762275211515e-01 1.097352177258133915e-02 4.897680565952630127e-01
-6.333878342322611932e-01 5.148692761135644641e-02 -7.350012763424164375e-02
1.589994973943098522e-02 -4.309365108582329656e-02 4.734003750949239975e-01
1.793940584384516868e-01 -3.082208245843843786e-01 2.938058872285775336e-01
-3.050554708433276391e-02 -1.131199013453005747e-01 -4.146335406562614012e-01
-5.358742651137416990e-01 -5.648346379814301876e-01 -2.166039589946730237e-01
-3.718629013083000756e-01 2.257433117712076276e-01 2.746860754089457957e-01
-2.113282639403016028e-01 -6.562674581180363287e-01 3.174047865508841659e-02
-5.617069253069438828e-01 -6.140769007754286191e-02 5.128535851767822562e-01
-4.206669377329745885e-01 1.596092734514666100e-01 3.415994274845505774e-01
6.963640476474225460e-01 -6.368161817316053686e-02 -1.876287012306513680e-01
6.437962637241247954e-01 5.607816244471222067e-01 2.461789574544663295e-01
-3.409190844196214876e-01 -2.018711344948664610e-01 5.721737116384172372e-01
1.418208253423038356e-01 3.097422794682299085e-01 3.617323207540808494e-01
-9.001249288410596572e-01 -9.419416909191954956e-02 6.652881325939528911e-02
-8.542928629709722887e-02 -1.461313966716881185e-01 5.048381214464157107e-01
-2.022170912451784208e-01 -6.546004368193758527e-01 4.473752900609958422e-02
4.576302459864184380e-01 8.698342737951995918e-02 -5.115400892731774007e-01
-6.209459498450563553e-01 1.188026321321848239e-01 8.406985536951715188e-02
-3.875929189412495868e-01 -7.882386827995233602e-01 1.511423808212730702e-01
1.877766265949301627e-01 3.477851592731401320e-01 -4.904861554969680570e-01
-1.965600694243540836e-01 -5.848863940514190674e-01 -1.035639019257143939e-01
-4.219561658907786117e-01 7.048032184929942101e-02 4.388822255399230099e-01
6.098991326649295663e-01 5.695315634097015689e-01 2.443996865738037316e-01
6.572780485276704665e-01 9.027646408455859695e-02 2.116835366678714025e-01
-4.345789530179115512e-01 1.838025623596517832e-01 2.938556422866464568e-01
-3.181681671226695984e-01 -3.474863652915363144e-01 5.730856033827880225e-01
-2.680837044275746761e-01 -7.031748460278719470e-01 2.534514663106615662e-01
-1.400847198762083801e-01 1.039289872332601478e-02 -4.074589073405247008e-01
-8.316110676757056119e-02 5.809465969281051023e-02 -4.243140077110413300e-01
3.295052713610875927e-01 -9.162181507071034958e-02 3.305174455089450181e-01
-7.061119812767822079e-01 -2.910680024433984769e-01 -2.290061746249501817e-01
7.884428420263908110e-01 9.505551343060303360e-02 1.066298830494580019e-01
3.574490824845336090e-01 7.737353766100971697e-01 -1.733547313718958316e-01
2.709558918892230328e-01 6.167137229040720037e-01 -3.944999599216857944e-01
-5.620428631687974796e-01 -2.206295052020523784e-01 6.023013817481639443e-01
2.852278644204456759e-01 2.198377116374611306e-01 3.820537780984300524e-01
9.989020794309616536e-02 4.808238183312759095e-01 2.172916440091754720e-01
-3.756077123967054704e-02 6.091142166509965622e-02 4.666290279883693048e-01
5.123325316736652146e-01 -1.725239332603873688e-01 5.369118526605191205e-02
-3.138886457066234481e-01 -2.092304267402231299e-01 -3.489945581589927182e-01
4.166366677725419354e-01 7.772082390616804615e-01 -1.561023134027184241e-02
-7.160583225133674290e-01 -1.347615749848807276e-01 5.357451774261343669e-01
2.803223272126034171e-01 1.784928381123014052e-01 -5.274383785456780993e-01
-3.080755092780649851e-01 -6.510467048926096290e-01 -8.203163233234707363e-02
8.928953064602636047e-01 3.742837885896247996e-01 1.924815723276230850e-01
-9.458201466322531392e-02 7.861568867436063979e-02 4.657438358781366139e-01
-6.747252106543607519e-01 -1.796200925075206178e-01 -2.150612923948207189e-01
-1.982388332855634649e-01 2.477680625206978571e-01 3.447452231296959657e-01
9.715040416436633575e-02 1.244666114689885195e-01 -4.788436000258968761e-01
-1.908739815767875880e-01 -3.965458983341491606e-01 -2.857056668622050544e-01
-7.198310927956422245e-02 4.814505281406323278e-01 -1.056148528228464806e-01
8.416843906316179291e-02 5.070236317889010857e-01 -3.212165304142072797e-01
5.397498195178027647e-01 1.628268922775041594e-01 -5.469849173527100428e-01
5.206630915273097182e-01 -6.948336707281996261e-02 2.014340775528690730e-01
1.663680113630101043e-01 3.785933720183886075e-01 -4.704116145240598845e-01
2.489232876646714152e-02 -5.782974476798963259e-02 -4.364693832103589410e-01
-1.709975377702950827e-01 1.942252471256272484e-01 -3.518310114382125486e-01
-5.496493709022789442e-01 1.520547641027524266e-01 -5.475703490828411069e-03
6.332189531761049928e-01 -1.109037794041693309e-01 -8.595321925585032441e-02
-7.624160072316634729e-01 -1.115545715617002193e-01 4.977009286031344737e-01
3.276095235955818474e-02 -3.402983342556865076e-01 -2.812362373823259487e-01
6.199943434633652384e-01 1.100673876141023688e-01 -5.074699690383815964e-01
-5.745134014282708701e-02 4.960059144038432843e-01 -7.146572085640591487e-02
-5.656891207311227632e-01 1.483435508920030732e-01 2.504130846098289245e-02
5.978650055949603637e-01 -5.987423951033555430e-02 1.319711261270143654e-01
2.134200140890019082e-01 -3.766698823752925307e-01 1.287734627883310445e-01
6.155448856617455611e-02 1.288582685634213076e-01 4.361375975794005155e-01
4.046198570590057164e-01 5.799647139799790456e-03 3.272945212186844088e-01
3.793015028944077827e-01 6.133200655047482686e-01 1.889101920327334871e-01
6.629905468127893498e-01 1.046629491726498162e-01 -4.936875021916452555e-01
-3.039215741019038464e-01 -7.105870357806385318e-01 3.177802746098539188e-01
7.861158304627675897e-02 -4.730737472311972724e-01 -1.510789761150954473e-02
7.411982925853247139e-02 2.189744257929168436e-01 4.036071954478070989e-01
2.620420762245859181e-02 5.188788666094505952e-01 -2.241958956647455981e-01
-4.820297222788693103e-01 -1.570797386693164044e-01 -2.991028446707431065e-01
-5.154166215219761066e-02 5.003496816472118303e-01 -6.717817496480439632e-02
6.918396256239898179e-01 5.386485458765370993e-01 2.483912601664604591e-01
-1.785924216288711439e-02 2.417974911494351342e-01 3.885639516842144259e-01
-6.536104303228050805e-01 9.537227403749702626e-02 8.139184780651852191e-02
-5.769017527288218261e-01 -7.824206407534879393e-01 -6.087036464666944341e-02
-5.972252445974493007e-01 -2.626268863046397062e-01 -2.674161247596724134e-01
-7.045504278610177362e-01 -4.035879827541358766e-01 -2.366418665561249024e-01
9.243202066824985907e-01 3.742436814299372472e-01 1.771983849252417864e-01
3.766658296945512574e-01 -1.583327329565619168e-01 -3.358173913572903846e-01
2.764276876552788087e-01 -1.812169641961494104e-01 3.157789049191708219e-01
3.580611402065912996e-01 5.480851443304047832e-01 -5.113611515067341129e-01
-4.946882113160613881e-01 -1.507240150902917561e-02 4.913392995861404766e-01
9.079965537968259781e-01 9.934872879551251423e-02 -3.341232256268040213e-01
-4.771806147903696060e-01 -2.509880338424807511e-01 -3.054380990071778879e-01
1.408981695330888129e-01 6.291274840826487358e-01 -8.957365647548716503e-02
2.047327052490173216e-01 -2.620370386725911702e-02 4.118898247032803939e-01
-3.167381100612269851e-01 1.268763502480693695e-01 -2.925477480164628274e-01
-4.909910683353278446e-03 -4.584541924855760620e-01 3.186640961154650897e-01
9.881505680372266731e-01 2.118246274035420762e-01 2.808875544854580811e-02
-9.242106539296429668e-01 -8.099161868038722012e-02 2.186988672016609847e-01
6.019442968328397869e-01 -1.180249325620196105e-01 9.635592905990237808e-03
-5.556524709515930915e-01 -5.528970118285733149e-01 6.388253767693331531e-01
1.974632643588624115e-01 7.201588192783391074e-02 4.187680783198119983e-01
6.418747929377370820e-01 3.080473100301377443e-01 2.838509937047429266e-01
6.692844204505904449e-01 6.967876450389648424e-01 1.827025246297129535e-01
-2.030604866351990168e-01 3.663413110947135506e-03 4.995196818055733234e-01
4.410251690213181086e-01 -1.907560010409948548e-01 -2.422597804260847310e-01
-3.987215798191073302e-01 1.949887570465051179e-01 3.043152366479894844e-01
-7.606617611609618468e-01 1.928063088365210157e-03 3.152365960736768780e-01
4.394995095385912931e-01 6.783530161474962128e-01 -4.907274258197769079e-01
7.375148795391182066e-01 4.941087063537907831e-01 2.497475110872092174e-01
4.335160548225779342e-01 4.645497981316769054e-01 -5.743797208816282529e-01
-1.898931887177764122e-01 -2.198581827119032439e-01 -3.663004792198523152e-01
2.208033643968417281e-01 -3.766146009556891050e-01 1.078385323539964996e-01
-1.669346365927130982e-01 2.483750323223899714e-01 3.547083993522487932e-01
3.667198814617803754e-02 -3.150316078377726203e-01 4.043926352739630192e-01
-1.265021392730892279e-02 -5.367817335996373229e-01 1.560478852818574791e-01
6.131199579628751062e-01 4.954731924191070891e-01 2.696706130325021711e-01
-5.315997733545191339e-01 -6.717224938127215328e-01 -1.488014035639200761e-01
-2.713334797369953422e-01 2.094069634067049490e-01 3.561824680571072377e-01
-2.390964894770070959e-01 -4.951323470160663986e-01 4.899395664117526805e-01
-4.133545527372143868e-01 -7.506164369806469505e-01 4.146785274702308732e-01
2.178416795505438153e-01 4.070127403278888667e-01 -4.880307518257239741e-01
-3.566638452300084916e-01 2.854807940837423841e-01 -4.734497484461645811e-02
-3.069397749617140403e-01 -6.072681499472940558e-01 -1.370719337425690965e-01
5.793653965130908245e-01 -1.085005494937298504e-01 -2.627553825346800043e-01
2.437221726751259976e-01 -3.699448108891034703e-01 -1.373568515348863421e-02
-2.520160155022870274e-01 -6.255105734105024240e-01 -8.115433555440751401e-02
-2.723142444507364868e-01 2.672396926355997682e-01 2.844208649512055542e-01
-7.602970413022271945e-01 -5.548128623349524169e-01 -2.053986187121246698e-01
-3.795745992227670951e-01 -7.770215650725946777e-01 1.156748810733250615e-01
-5.148742925187594494e-02 -5.148374552315481134e-01 -1.019124860150670137e-01
-1.394994362272532207e-01 -2.630411180963397322e-01 5.149577423512582408e-01
-4.427797322059882634e-01 6.175794581247998072e-02 4.405500046819803006e-01
3.408522323413716304e-01 7.605451613545672895e-01 -2.040559854096909709e-01
-1.645441444145740451e-01 3.871624017486195446e-01 1.658246928486062644e-01
-2.254526543518925730e-01 2.312955688268647780e-01 -2.922785892676451058e-01
-5.266051383766728877e-01 -1.193541535376810014e-01 5.549981267610232250e-01
8.964494062627438586e-02 3.721942395445820284e-01 -4.287132122832556513e-01
1.372046678432792544e-01 6.036568540664637439e-01 3.530671731669088320e-02
6.791947059307271717e-01 3.701644787784734159e-01 2.736009591555965681e-01
4.063023552283992479e-01 8.189758085674492261e-02 -5.104492811133195529e-01
-7.038113886279860898e-01 4.261050737095079671e-02 2.901276966974775107e-01
1.677213002480660020e-01 1.196145970340609654e-01 4.212669881936684790e-01
-9.361667052954260049e-01 -1.198562570758771595e-01 3.809234294539192156e-01
-5.770137887506378016e-01 -1.550671765133002367e-01 5.713920218840341514e-01
9.003586717116053295e-01 7.321291716651492920e-02 -2.543043328968727645e-01
-4.338552625542296814e-01 2.082844868864827392e-01 -9.291970847203956385e-02
-8.336315998504882641e-02 -5.321474214700737670e-01 -9.970000914077394027e-02
7.390716320341071954e-01 -3.927780064173219676e-02 -1.675278360042178338e-01
5.696060382127960953e-01 1.949116815560800464e-01 -5.617333645846261936e-01
-7.273864945149164374e-01 -4.587908236822998975e-01 -2.270798779026151071e-01
-2.607029706946377701e-01 -4.265058311460762086e-01 5.323477998738832540e-01
2.894941201453570256e-01 -3.300474004121856098e-01 -9.010026697990564104e-02
-1.186678594579773927e-01 -8.263078423728385802e-02 -4.075188728502520674e-01
7.136049278138915097e-01 2.859692195187920130e-02 1.109686599716315364e-01
3.641899147281318916e-01 6.637027694246449006e-01 1.293751190185685462e-01
-7.185510508183821921e-02 -5.268711104331351702e-01 3.050949677894069789e-01
-5.518712961322815858e-01 -5.262818455223396974e-01 -2.341187559230956117e-01
-2.539050401432095816e-01 -6.934387058527023973e-01 2.503951263210541511e-01
4.684696487657086794e-01 -9.821161711077271150e-02 -3.622881395208630839e-01
-1.047166348739048403e-01 -5.431306275548833939e-01 -9.916140473059736893e-02
-5.192223574917667062e-01 1.821426001642961756e-01 2.410828170723041883e-02
-3.649856268443509855e-01 -1.607151723628941209e-01 -3.396717519188208190e-01
3.236569518311488980e-01 -1.411258928352302280e-02 3.623447484638083749e-01
-1.490419285390965354e-01 -3.745107383213117092e-01 4.907149225236004941e-01
-5.476542456209549936e-01 1.346929465954664062e-01 -5.376369304910512403e-02
1.900347458093519237e-01 -3.194735334041202690e-01 -2.317735236927854769e-01
3.710478867777707301e-01 1.590434014413940611e-01 3.667886925163521550e-01
-1.324210010992038777e-01 2.606031081725251886e-01 -3.420585421424900963e-01
-1.572650313572621361e-01 4.249989683941367558e-01 -7.741125555774565348e-02
1.973386254971833398e-01 -9.612759915896455787e-02 -4.277229791607042308e-01
6.287729955567907814e-01 5.302949931903324643e-01 2.576361179018842318e-01
-4.712497946412593786e-01 -3.510776018292334766e-01 6.196283959441472033e-01
-4.646040923339204154e-01 -2.375170785581757760e-01 -3.093845755056265356e-01
-1.233355418105377098e-02 -1.418853437433743314e-01 4.807298567240742559e-01
-3.237585255130223660e-01 1.451758171874469039e-01 -2.766488321870480549e-01
5.988867161816283646e-01 4.915169675747511069e-01 -6.311693033028049626e-01
6.744287005704540094e-01 3.269730628325009936e-02 1.545856377228386758e-01
-2.094937958199976358e-01 -6.723480085862946209e-01 1.254060927561078398e-01
1.376824371966822447e-01 -3.508833050973024226e-01 -2.209621852577310641e-01
-8.621863636086604110e-01 -1.549269932160965146e-01 5.011800709029086143e-01
-4.534823836643974149e-01 1.827276746631552595e-01 -1.100185110148608619e-01
-3.987254684401232013e-02 -4.592147002190185567e-01 -1.810959331182083187e-01
-6.602389161941635276e-01 -2.178840692618866370e-01 -2.340460460155503186e-01
-4.067260061289765943e-02 2.417054482066731402e-01 -4.073716647897672183e-01
-5.641002770687851831e-01 -3.414678327813938652e-01 -2.772382191255592376e-01
-4.711196891628963712e-01 -6.669977808840373834e-01 -1.373989640400945511e-01
-4.973107708109394953e-01 9.449147493102438844e-02 -1.722416839968244073e-01
4.471202883627489744e-01 2.430588585457841566e-01 -5.689103783353864907e-01
6.109235329594483316e-02 3.437178032535694872e-01 -4.244345833801478340e-01
-8.200309045311839906e-01 -9.270800200860999929e-02 4.421501720343363750e-01
-2.644261896413080404e-01 3.875913188106028945e-03 -3.625246393505962006e-01
-2.347972327657681935e-01 1.684097142756490750e-01 4.048389042752220113e-01
-4.572283377311060493e-01 -3.708929154209821694e-02 -2.817425733775636432e-01
-1.950546162796349403e-01 -5.558709110416388821e-01 -1.430714768904325640e-01
-2.145463978635721858e-01 -3.546509011598315553e-01 5.297432955220492401e-01
1.315752641137936385e-01 -1.137717712965410910e-01 4.272917165386978522e-01
-3.782656701787635578e-01 1.027605738440721395e-01 -2.639902063906419682e-01
-4.495450011513948407e-01 8.939506598342103483e-02 4.112968154162575662e-01
5.917904637366508958e-01 2.598543038216847775e-02 -4.441091860667411018e-01
-1.262357885456739763e-02 -4.093344336136234274e-01 3.767114597101813844e-01
7.444512488266681327e-01 1.406164387465468416e-02 -3.389006562174256554e-01
1.816242249107855589e-01 6.481710590140045136e-01 -1.945763888210331749e-01
-3.685909895961797522e-01 -7.765220067844141871e-01 2.474669424715940647e-01
-4.298620286724421646e-01 1.471808502192253898e-01 -1.848111848612987718e-01
-6.542874754676333282e-01 3.199960108217025923e-02 -7.521727296053368206e-02
7.168557989131734143e-01 1.463332529994123554e-01 -5.147568572192469105e-01
-1.030878593693710932e-01 -5.545553880014402193e-01 -7.583980509959088734e-02
2.478368682597566208e-01 4.864152553339341073e-02 -4.913520970488869377e-01
-2.360827832945191773e-01 2.244877610398402501e-01 3.542179914873132551e-01
3.041707730675303756e-01 7.182277018618454800e-01 -2.736221150864140417e-01
3.387820922946834235e-01 -2.886942706255413160e-01 -1.369331658826606624e-01
4.104030773412905564e-01 5.730034703181722255e-01 2.291003941014379819e-01
-1.034231562750514422e-01 4.509988238627350432e-01 -1.360078210932811615e-01
-2.693792955864015015e-01 -5.055130881561582523e-01 5.043926381390884117e-01
1.713804541875104948e-01 -1.347962437534275804e-01 -4.077125015827196552e-01
-7.887141361532937767e-01 -1.831918467394261785e-01 -1.471450289445659088e-01
2.177814826221768640e-01 1.797085023996190245e-01 -5.136824990403435764e-01
3.212146007356714295e-01 7.492663306602551643e-01 -1.735181343153958944e-01
8.377083452935083496e-01 3.599650492801293594e-02 -2.577829070943412626e-01
8.731798296332136111e-01 6.499216198694443558e-02 -2.893178350212041727e-01
7.114691728571640450e-01 3.947848950109757171e-02 -4.051282194269824610e-01
-5.230230654193112061e-01 -3.277377924044414526e-01 -2.883465635708937214e-01
-1.333909899726790915e-01 -5.791918357466796508e-01 -5.745305399700689764e-02
-3.025068712159721951e-01 -4.266642301901807377e-01 -2.780819691603329535e-01
2.301050196858674679e-01 6.803001103227125368e-01 -4.689902331652977957e-02
-3.417130669535468901e-02 -4.930739661103532012e-01 3.069881236997452079e-01
-3.914124818554606255e-01 1.709329025654832412e-01 3.437458153767518620e-01
4.411067611502652031e-01 -1.948171289675236229e-01 -2.338174924409002764e-01
4.066920524754016331e-01 1.131010624581796908e-01 -5.240622055851685834e-01
3.197372443675872700e-01 -1.844347115454864350e-01 -3.320476056829613776e-01
7.874260432144363220e-01 3.877396311943390791e-03 -5.303047666890946948e-02
3.711436746480020199e-01 1.343431931166540749e-01 -5.297883182765018573e-01
9.149992668093341885e-01 2.873051343436027194e-01 1.477190781730457481e-01
-8.673799209594486026e-01 -3.579502170265635996e-01 -1.718779000253992106e-01
1.326655773717073938e-01 6.221316657788572568e-01 -1.368331914976384789e-01
-1.018387908969409783e-01 -3.410209911181656950e-01 4.771929999512055653e-01
-4.966204205412083628e-01 -2.863858740418346316e-01 6.155006726489833380e-01
1.421966452626412802e-01 5.400180647541715784e-01 -3.454452705788949585e-01
-6.784001072290408996e-02 -5.337296336265300312e-01 -8.097086027793537477e-02
-5.583232317549235643e-03 3.489885598017311019e-01 3.122265045677137252e-01
-8.371230596071257413e-01 -2.429176794618926813e-02 2.261643706834552126e-01
-2.859817035557720155e-01 -1.487660719555802535e-01 5.523909508900558540e-01
-8.600766936252113304e-01 -1.584073957064202065e-01 5.064456208825038885e-01
-1.380854695480995542e-01 4.423467440004334450e-01 -4.545610706636861453e-02
-2.255869098773578829e-01 2.304607690619772387e-01 3.520801368061849956e-01
8.474032727481644045e-01 1.831512048982152641e-01 -5.082388217346994752e-01
8.820375596966707477e-01 1.075700419809552388e-01 1.379989124083345030e-02
-4.623699861714310466e-01 -8.000480131560597785e-01 4.009775944630523115e-01
3.794401090892780548e-01 -2.412495300855586333e-01 1.413181659227151221e-01
-9.005364636281404378e-01 -9.238698144632552511e-02 7.163845005867314208e-02
2.605398027811454270e-02 7.360483054909766100e-03 4.665350839522519610e-01
-8.719618010888757764e-02 2.782010999511916882e-01 -3.629460944203286576e-01
4.891200697184399093e-01 4.935139979062141413e-01 2.790401015979199761e-01
-7.531702829112029152e-01 -6.590887673210314712e-02 4.472859147326352924e-01
-6.901481894601824152e-01 -7.859700899993928014e-02 4.918068983226528412e-01
4.377943544963238676e-01 -2.330460804343999770e-01 3.711252257253577075e-02
3.340173123156269797e-01 -2.925664355397558092e-01 -1.331946204140569967e-01
1.161431086364101278e-01 -1.990887893321371394e-01 -3.738045496266265144e-01
6.594100686386539234e-01 4.054177939085711890e-01 -6.375436045995570566e-01
1.345318589567032208e-01 -3.649772173686945398e-01 -2.023151323034397264e-01
6.894818400978998119e-01 5.168880956530139681e-01 2.540863022982998709e-01
-3.577584994612070801e-01 -1.275836398500038993e-01 -3.413762867532162959e-01
-7.236550760118867220e-01 -4.421223493195322596e-01 -2.294469984953855235e-01
-2.027120583113017072e-01 -1.673187263627070043e-01 5.380275099444642439e-01
-6.441084757755909385e-01 4.015049115150883668e-02 3.640171098508906411e-01
4.369179865776031679e-01 -1.213910662612186497e-01 -3.502204846972372110e-01
-4.789488697231967240e-01 -3.498987392880580360e-01 6.214263237839993126e-01
-5.163665894074839224e-01 1.792013441758000258e-01 1.935111867747038583e-01
-2.382311428748514759e-01 -3.573662473029724507e-01 5.397663830647911887e-01
4.676935721603590057e-01 5.869281372758913262e-01 2.283822576674817417e-01
8.222331643855625982e-01 1.157309026009233494e-01 9.447078039382766912e-02
5.954782113055411275e-01 -1.292053525411940018e-01 -1.670978995197134886e-01
5.146366749934363494e-01 2.033393804389677373e-01 3.208018176747304273e-01
-8.134578850091186419e-01 -3.646065071547750086e-02 4.016275729783132242e-02
8.545054368689622981e-01 9.890951308710618783e-02 -3.933705091633090123e-01
3.116764246657939275e-01 -2.555821722685268083e-01 -2.419818820081506006e-01
-4.632265023174612639e-01 2.178281777348405890e-01 -8.519016931910477087e-04
1.422922669214792823e-01 4.389707268115213695e-02 -4.776569407266207379e-01
1.380341741732817040e-01 -8.075762807187851500e-03 4.370762950286390391e-01
6.254789503862733246e-01 6.636687375998505667e-01 1.982464748729848292e-01
-4.903256379648526786e-02 -6.852036726604733563e-02 4.918579292697402572e-01
-6.523984490390504210e-01 -5.641759712711399977e-02 4.833974098469240865e-01
3.124362930143831374e-02 -4.949481694788465114e-01 -4.008927438371251428e-02
9.222676512358445045e-02 4.597495474516085090e-01 -3.755563901959925177e-01
-5.212536978530653009e-01 -1.452333372553378799e-01 5.686718677943212175e-01
-5.368256641086192049e-01 -1.967906877895701234e-01 -2.829520836376447912e-01
2.440586365376756495e-01 6.722829035298706346e-01 1.056500909200316050e-02
2.277657785381273503e-01 6.852649876586673905e-01 -1.685278839204411017e-01
1.283704342574397694e-01 5.363236120486486458e-01 -3.347992137200827001e-01
-7.823784724821351011e-01 -6.926948245615001040e-03 3.051908089008622538e-01
2.461140515767296644e-01 -9.173971083220951173e-02 3.780116615177183115e-01
6.232369977904214098e-01 4.341623631676301831e-01 -6.347349036873057848e-01
-8.920013926317389430e-01 -4.253597378500089676e-01 -1.743901959513792510e-01
6.439860967575596062e-02 2.581439201226416735e-02 4.557665723621740494e-01
-3.406453214367850535e-01 1.382605888190814591e-01 -2.687090426196105386e-01
7.942437826440912341e-01 1.391658591607908557e-01 -4.832773742966593455e-01
-3.064450274143687425e-01 2.409065618601356484e-01 2.998860929444932544e-01
-5.607277367434838622e-01 1.268649588267276862e-01 -4.792743786875091477e-02
-1.967243415237528159e-01 3.665985931214864602e-01 -1.642970292554329081e-01
3.492010040343305755e-01 3.479739855779822033e-01 -5.550035999646454332e-01
-7.747563978070065582e-01 -5.114355900533081034e-02 4.105115193612442481e-01
6.451563679101303128e-01 3.034631639317249552e-01 -6.080427155926342309e-01
7.224483681403135460e-01 5.431850476800532956e-02 -4.183634244000756230e-01
3.935979395528876879e-01 2.746075173313117235e-01 -5.645381987279158853e-01
-9.577418498086368026e-02 3.998352567648081335e-01 2.081845067513873326e-01
5.104724153309027068e-01 -1.881385957615261395e-01 -3.584554644284409890e-03
-6.177053058820622944e-01 1.212851247731476928e-01 8.600925630555145140e-02
4.855116967160104102e-01 7.169191747004088899e-01 -4.985960585782134302e-01
-2.054567797553875363e-01 9.416709487464192119e-02 -3.693082690735609019e-01
4.708474368605398142e-01 1.331606571004573247e-01 3.286295428580241484e-01
3.631251519364050995e-02 -2.765934151604456104e-01 -3.328473854160119982e-01
5.215389824533215313e-01 6.445906955094319324e-01 -5.664158726165851032e-01
7.888291173410858503e-01 5.103701955454574835e-01 2.365153043153911672e-01
4.469568996263501015e-01 7.309560674907126243e-01 -4.510218128333942644e-01
-1.786118207456547646e-01 4.873389515276430745e-02 4.807570198694028352e-01
4.792657690552090677e-01 -1.898959050255291658e-01 7.672196374973423716e-02
-2.028556950324989644e-03 3.732794785213544575e-01 2.906987879992936064e-01
6.664006405122629116e-03 5.210898750039972827e-01 6.079245256712327572e-02
-5.133985119286205157e-01 -1.909696106614290345e-01 -2.912246784130487764e-01
-2.858528997892951784e-01 3.313758291400595857e-01 -7.371678752442166471e-02
-5.569601292325977449e-01 1.637998123888737001e-01 9.803668655242300800e-02
3.700929024563230363e-01 -2.778187620359703902e-01 5.930997843597980712e-02
3.027216133264881703e-01 6.106401825962427532e-01 -4.303577995910599641e-01
-5.475522948296397407e-01 -7.986914483185293401e-01 -2.636067569575760439e-02
7.225069283087014460e-01 -5.162389593090119244e-02 -1.373206352644686656e-01
4.449642174682414408e-01 3.253678834363320505e-01 3.339291193711502737e-01
-6.221837428700845857e-02 -3.969438195207979914e-01 -2.586752338565940224e-01
9.064792076737964166e-01 1.615391383909127732e-01 5.763954134222206566e-02
-7.858394392877239287e-01 -1.756470649873893564e-01 5.519675967966243268e-01
-3.631501543538622756e-01 -2.875968108357280367e-02 -3.260723625110000801e-01
3.797622288679682878e-01 3.389517643539455283e-02 3.481282708861960229e-01
4.456632935688645270e-01 -9.294090770200733043e-02 -3.782445681815763128e-01
-3.973973237621258869e-01 -3.299347351356251012e-01 -3.111735017942397485e-01
-8.326680694814746486e-01 -3.201484902346816985e-02 9.645893568669387796e-02
-4.718204337528573294e-02 4.987225047623238261e-01 1.860252129307261165e-02
4.196595430046698438e-01 -4.613110189919812643e-03 3.150632865578926745e-01
5.362985017785211195e-01 6.213255807949926712e-01 2.148780421676770302e-01
-6.434880316617742624e-01 -2.948462684577608517e-01 6.344649268182085411e-01
-1.004394533332424733e-01 -4.894039007466157165e-01 3.838422471419644655e-01
3.596893772505741493e-01 1.354023810807053474e-01 -5.291040736038553627e-01
2.630996426876879291e-01 3.075496698253175065e-01 3.610791744044194451e-01
-3.394602719177954864e-01 2.753792847163263335e-01 -1.128128029409529859e-01
-4.125161874500581777e-02 3.984818637460745272e-01 2.455419693552478855e-01
1.330114438739986582e-01 5.070037293331987049e-01 -3.704153376897114103e-01
5.828493615318069976e-01 6.506839065511638154e-01 2.018486840040821795e-01
-4.918942546165914198e-01 -8.591029479304405081e-01 1.931734284152243908e-01
-4.256964907869981163e-01 -1.099669373069352696e-01 -3.147567153390726236e-01
-2.041048512844752250e-01 -1.859464842731156364e-01 -3.731558065990893680e-01
3.071200532311800790e-01 5.636489220565982228e-01 -4.688972115317587286e-01
-4.046983172076518143e-01 2.492196961743918804e-01 1.767623304651433913e-01
4.453577797294072660e-01 -2.307666563317133934e-01 -1.136104262753972610e-01
-5.935593398014588074e-01 -2.351294347881049615e-02 4.718285152095912927e-01
-6.054781133041065022e-01 -4.020234435008609997e-01 -2.610414294404918012e-01
-5.009986390410609003e-01 -7.570888072965457072e-01 -5.411722579361295110e-02
-3.353942102640200540e-01 -4.815173339595158614e-02 5.248815078208284302e-01
-2.088717908958758265e-02 -4.911406287825322292e-01 2.924518538667683631e-01
-1.970375860577188720e-01 -1.719849001274569023e-01 -3.772714370807365714e-01
-5.319499602683370743e-01 -4.491614181140582418e-02 5.063770770063195092e-01
-2.332743105230856706e-01 3.789907878056380519e-01 -1.478580079522152403e-02
-8.046430316863015242e-02 -2.448856988790408251e-01 4.934912177676742950e-01
2.968142259791533011e-01 -1.323809044877113372e-01 3.307842579024907748e-01
1.152814941524534786e-01 -6.543932138287160416e-02 4.413438794962423750e-01
4.702286532735234226e-01 5.152065075592267007e-01 2.692022352310747824e-01
-5.753008171091112538e-02 -1.710462374768078331e-01 -3.934351214074485736e-01
5.396914582574398045e-01 -1.036731909544220120e-01 -3.106814026957815389e-01
-3.265327270983118257e-01 -1.395535566819076645e-01 5.561262112105588296e-01
-4.277943749663519202e-01 -2.898565086507360333e-01 -3.138715037449191225e-01
6.123371565490057788e-01 2.143351831450281963e-01 2.834183932803038819e-01
1.625939057911820751e-01 -2.846427516150745185e-01 3.301234983969585368e-01
2.714204293894406095e-01 5.810481286887673180e-01 1.816186291918945872e-01
-1.391600623229666440e-02 -5.180532703050947374e-01 -4.816365213424182029e-02
-1.553275643196980471e-01 -4.980027351581905667e-03 -4.029755151089042808e-01
-3.646076336437388266e-01 -7.700031077548841196e-01 1.259709774805112814e-01
3.041242116123146766e-01 1.595778150382140548e-01 -5.282828842445576045e-01
-5.330039380223743350e-01 -5.707098225692051052e-01 -2.134927917490931359e-01
5.620672862909371625e-01 5.774265551385089346e-01 2.409529327880358118e-01
1.515706606111322241e-01 -4.288527806892789562e-01 9.599432590504507201e-02
1.414079502222957418e-01 6.261533175809247398e-02 -4.813989897702957155e-01
6.997848809494913169e-01 -2.116837889913837992e-02 -3.144198583883315856e-01
5.584056618375858871e-01 5.326558215172969568e-01 -6.143140495434444848e-01
-6.208277472379104545e-01 -3.224019902872093390e-01 6.414243962429689860e-01
-7.426228118250164378e-01 2.826276779475593581e-02 2.621239592408796670e-01
-3.106914555159677183e-01 1.760328230601226340e-01 3.754601541989227020e-01
-9.401034515333531183e-02 4.648496623872836464e-01 4.759796516979297037e-02
1.188430585702986014e-01 1.701758293944522493e-01 4.179294562762158605e-01
2.557209627848712821e-02 -5.068002348806007751e-01 -6.958060642210635652e-03
5.508970897820063273e-02 4.978507012944463073e-01 1.667366307917109158e-01
-8.151169075934991959e-01 -4.530188794103391647e-02 3.593313567819277909e-01
1.012617757753211251e-02 2.236204291393807664e-01 4.006789172844847369e-01
-6.244598121993254480e-01 -3.485765481699781287e-01 -2.609160183276419409e-01
5.539089671923527192e-01 2.804482267527992345e-01 -5.924827672696404424e-01
-2.896860387575775353e-01 3.288767628399202891e-01 1.310049436037812043e-01
2.375594455678145256e-01 3.422267661569926567e-01 -5.137378098713384356e-01
7.869585862982245161e-02 5.452692682059707696e-01 1.013754777590420431e-01
2.376871758214800789e-01 1.951837313570380095e-01 -5.198871418820637524e-01
-6.826008576798732186e-01 -3.032724079990449795e-01 6.396460146577790384e-01
-3.326432613292539253e-01 2.262009933517340476e-01 -1.985276871579912117e-01
3.015349683300903028e-01 -2.766031318233982961e-01 -2.139716851696964739e-01
-3.768613631971928224e-01 -7.544040398589285656e-01 3.514473932005255374e-01
-3.133653339341493232e-02 2.188855383344333605e-01 4.007721945031133548e-01
-5.898811178611602923e-02 -3.448965390359873262e-01 4.507419616708453480e-01
-2.718614805398339440e-01 -2.661636154419985689e-01 5.612364647804821693e-01
2.331103273643013452e-01 6.647619669658763053e-01 1.448809377153437161e-02
-8.313169849700762226e-01 -1.331713968813293403e-01 -7.598728002761315214e-02
-5.728572860866406602e-01 3.480643919148672925e-04 -1.866675780514416572e-01
-1.217233718245782359e-01 2.949555634251617708e-01 3.254230848523599340e-01
-2.112356496227748293e-01 1.429674631074601965e-01 4.278565790686126302e-01
2.032793335433839485e-02 4.444789977890501592e-02 4.619301572075589224e-01
-1.464066997579233365e-01 -1.301585044078631265e-02 -4.057873861874259913e-01
-1.351392374357246462e-01 -4.876007877653468214e-01 -1.946956405789528888e-01
-4.748282306567474520e-01 -1.299442073780903983e-01 -2.977725879071241866e-01
-3.049932953347621600e-01 -1.078754874072153230e-01 -3.577648107767248398e-01
-1.240884876518668495e-01 4.390431285154399732e-01 -1.234193412758627512e-01
8.474257664693144454e-01 1.103711636412913616e-01 -4.177767058094221664e-01
4.751110108634695739e-01 8.488055196895352150e-01 -1.514605063317146505e-01
-9.358267342994905369e-02 -1.457168317400190649e-01 -3.982503083249325226e-01
-5.248357769848279730e-01 -3.586021776949394613e-01 6.329661071273851025e-01
3.172135337182578896e-01 5.434015203834009489e-01 -4.877069027615862362e-01
-1.482393509871137438e-01 -6.294919711353222924e-01 8.560117506068079529e-02
-6.810301242940473010e-01 -6.608723377829854861e-01 -1.730899801045247266e-01
9.245031562345077392e-01 8.845127294933963213e-02 -1.260224529783086633e-01
-1.291495872745072049e-01 3.826602986086611868e-01 -2.334192115362685727e-01
-3.064204572222698486e-01 -2.693354894064550198e-01 -3.386696133617487225e-01
2.110545447610561731e-01 6.470752461993286575e-01 2.921802324074094376e-02
-5.245643998201793279e-01 -6.274017576658716955e-01 6.033527903773122647e-01
-5.531907930556327901e-01 -7.994676650575353039e-01 -2.860875016165289123e-02
4.152082318946929279e-02 5.629712263429593744e-01 -6.382787945610932101e-02
-6.735277420024824435e-01 -4.677821325513790152e-01 -2.373114839890813899e-01
1.787727765547915681e-01 6.281963938017340876e-01 3.182903230552523027e-02
2.216225940239094916e-01 -3.853471466878591878e-01 4.187353465674153313e-03
-5.810498419207259513e-01 -2.532686388108427722e-01 -2.724262661128357688e-01
8.754433937391346843e-02 2.578676188881531273e-01 -4.654162788106833148e-01
-1.147497862291192577e-01 4.418944921608253806e-01 9.151023789213201531e-02
-1.021678374587813992e-01 4.208919447288806404e-01 1.639987341568356349e-01
1.179281780951058761e-01 -1.582739707178879851e-01 4.226232361457945008e-01
