3.103513852305284648e-01 3.418236329670201190e-01 -4.576463113441273101e-01
7.782080636476006452e-01 8.113365904628731806e-02 1.482210621706642195e-01
1.221039700452005794e-03 5.052979146452146741e-01 -8.715778213965632570e-01
8.450805804960996870e-01 2.044470275690587757e-01 4.839623064275786479e-01
5.097345970439883800e-01 -1.023447023914473286e-01 -7.162310735721577615e-01
9.553958743947742194e-02 6.108806568724914898e-01 -5.040766070437631141e-01
8.162523289009224747e-01 -5.977682834666531858e-02 1.174643783776048618e-02
4.003458267664800063e-01 1.249532948663181209e-01 -5.997902959634782150e-01
8.208314342386315021e-02 4.687383390314143194e-01 -7.536792211921803375e-01
1.358869023532447984e-01 2.802023857869610501e-01 -9.300149807540138980e-01
2.709199128157285252e-01 4.534009689484044814e-01 -3.696797045152903083e-01
2.987438889110426987e-01 8.115750062891744498e-01 2.461373131100408895e-01
1.722698079566491736e-01 6.109028791459050201e-01 -3.383418130445047800e-01
9.127576719576636632e-01 -1.702541554938766521e-01 4.873863482330394181e-02
7.169393206453071876e-01 3.930797849245404874e-01 4.999150710048916868e-01
8.011028103586882443e-01 -1.309435972467201670e-02 5.146170315454338257e-02
1.841860538131727953e-01 1.903232275465753798e-01 -9.651655192227329705e-01
6.263860525275547486e-01 3.072716805259162465e-01 1.712267011410908701e-01
3.953238336226547189e-01 2.658163362712669398e-01 -3.920770865790881299e-01
6.404859399603067827e-01 -1.230955481229759063e-01 -4.660674621715950039e-01
3.304950449953997782e-01 8.094976553956420018e-01 3.114813685685640654e-01
2.240527537598972774e-01 2.623730670679964572e-01 -7.672825754306500379e-01
1.991706205727410139e-01 7.312781790459723652e-01 -9.347880236527648934e-02
7.537195218448206058e-01 3.419687598733227030e-01 5.000404632707236008e-01
3.184442667876197786e-01 3.965421686020287884e-01 -3.552701701212881424e-01
6.133405350149185864e-01 -2.009295358005163123e-01 -6.454530239199626207e-01
3.161908588630757966e-01 5.016014951989566928e-01 -1.971299742765013630e-01
3.353635151637991973e-01 4.878387648818119926e-01 -1.770800557329449965e-01
5.953029530518806345e-01 -4.844780330078486685e-02 -4.478200514379135910e-01
5.774068749637742970e-01 4.829161632632759243e-02 -3.363693721021974725e-01
3.728457210541350486e-01 2.645858440932549183e-01 -4.425281715542943028e-01
4.688434088161032576e-01 5.504557350439114316e-01 2.083265734494924026e-01
6.566139341649669392e-01 3.129391589645059146e-01 2.452978308724147738e-01
4.447788161220633252e-01 4.138581218975906362e-01 -5.558155692294285827e-02
-4.855581790145381722e-03 5.735052711412574888e-01 -7.788721863340453133e-01
7.604766261624725798e-01 -2.609266987916558644e-01 -4.207994976463929060e-01
3.297783071165306668e-01 4.888181776099887604e-02 -8.702120572988878422e-01
1.283575784417763377e-01 9.241518011202106697e-01 5.285527816590904204e-02
1.150674439173996200e-01 6.345154791460450028e-01 -4.252348588628667159e-01
8.645043742509687101e-01 -3.543593313438699877e-01 -3.411165620307802793e-01
5.948484071463741030e-01 -1.964324341621290215e-02 -4.041094779721068897e-01
6.066773232750064526e-01 3.677178403947642393e-02 -2.910330828517075918e-01
5.460186978858431184e-01 3.862079803904041458e-02 -4.191576267642060372e-01
6.279250585426296993e-01 4.852297775524254675e-01 4.506639325835145038e-01
1.581169835649363087e-01 3.725196254892789161e-01 -7.387724301589446707e-01
1.521529443119111202e-01 8.355842043648625816e-01 -3.317665937046126307e-02
6.998703781258618362e-01 -3.978274175659907846e-02 -2.085603701025690593e-01
2.642838992268372600e-01 2.648837020781318330e-01 -6.765072651909296297e-01
1.448765186777647984e-01 3.506846142077973405e-01 -8.012439157865528516e-01
3.694881125863613835e-01 7.895273672558927869e-01 3.647023926197083821e-01
6.154333553413825486e-01 -2.403812098587526647e-01 -7.021454133821880550e-01
5.072869898555851798e-01 4.222621130798722144e-01 9.244533396005451265e-02
6.875427609079516333e-01 1.942717268325914182e-01 1.279688535864267063e-01
3.905115571479652603e-01 4.027683487944450080e-01 -1.899792093647492963e-01
4.498154814869834150e-01 1.582004084768156849e-01 -4.413745830931549707e-01
8.999156118949666050e-01 -3.020605269836337814e-01 -1.835003037577742635e-01
8.496522428955833872e-01 -1.497933144326643873e-01 -5.579234966481032981e-02
3.858641342337897351e-01 -4.813861653649675887e-02 -8.996272878661785155e-01
1.779799018564396096e-01 8.222564283491494708e-01 1.918204696677209154e-03
3.804126179217917070e-01 1.039919486724058262e-01 -6.753593356025292538e-01
8.074626655736633074e-01 1.144532398459153083e-01 2.630944363999549451e-01
6.829400285305246010e-01 4.052830302658310679e-01 4.454271174749166451e-01
8.065568579235884439e-01 -2.823078271714246079e-01 -3.544626245837278478e-01
5.076875861861078754e-01 6.274630823303074534e-01 4.116932611658289942e-01
5.748959779730365011e-02 9.663421743648668016e-01 -3.472427670070754591e-02
5.745370662531036343e-01 4.460247493928344853e-01 2.745424008515746084e-01
4.469037265765730127e-01 6.657844705208847413e-01 3.398875647400391165e-01
8.115106334617670780e-02 9.748481753851282461e-01 2.957071230240212317e-02
3.912121809829040009e-01 1.784694862978802588e-01 -5.364806719214558761e-01
7.306673836389182553e-02 6.047302691291300825e-01 -5.621498677339304972e-01
6.555842295138035736e-01 1.846136865773538027e-01 4.396873430535792882e-02
6.441125226708794838e-01 -2.514392470471641383e-01 -6.573695006868041091e-01
9.257613596086486929e-01 -1.579882480270678735e-01 9.585170024648020926e-02
6.862651595007638328e-01 2.859673589380155589e-01 2.674816684203200068e-01
7.243907680665025994e-01 -1.073400051633921909e-01 -2.604276875560587179e-01
1.076403957501973208e-01 4.221815489730499915e-01 -7.707237964575541778e-01
9.381131599462141368e-01 -2.399750155512776484e-01 -4.682235964103727277e-03
7.996620736794766149e-01 -8.747709008265065755e-02 -6.705930404691094748e-02
1.665368587252471777e-01 3.729777569299563833e-01 -7.198787346090665951e-01
5.801925324266623551e-01 -3.390722270533212679e-03 -4.105422494599196837e-01
4.226052026112159243e-01 5.568742973685509856e-01 1.184331440124492957e-01
7.585278889681217329e-01 -9.489753147552638587e-03 -3.488683357924030753e-02
4.685058266269641059e-01 1.425764010989979090e-02 -6.243491357534756148e-01
5.181368597954458810e-01 -1.430761805038832102e-01 -7.612838070756832165e-01
5.696515593207758243e-01 -6.563534043555584174e-02 -5.298823023786781716e-01
8.536727409750423101e-01 -3.121285984257624047e-01 -2.989839059378251451e-01
1.826258213823513110e-01 3.442881130076742013e-01 -7.296481994395761506e-01
4.309789542197559054e-01 3.519801267531209032e-01 -1.813904000190191823e-01
6.941256929476443682e-01 1.411273428099512998e-02 -1.373437385744940287e-01
-1.313297207943271531e-02 9.291330532012694876e-01 -2.449674126806711538e-01
6.829068573267002007e-01 -2.211505284581680719e-01 -5.265974816724721119e-01
6.847111443365142547e-01 3.738049763991476149e-01 4.004115986215167622e-01
5.935833379213257821e-01 3.770668192429180721e-01 2.086803980679711457e-01
-1.032980603692856478e-02 7.424298151511563582e-01 -5.285963069823708116e-01
9.127466662878078729e-01 -8.282660186526179247e-02 1.843644811803031025e-01
1.108314529993821990e-01 6.980720200656521657e-01 -3.357703953936992392e-01
9.423744346587413778e-01 -6.116071259996470888e-02 2.819622444629348301e-01
8.159838064168496441e-01 2.026039272423436621e-01 4.182675989280010831e-01
5.875436313624264884e-01 -1.006445615918305225e-01 -5.455631602227587473e-01
6.628960187400514403e-01 -2.270432773928909853e-01 -5.789542420822307855e-01
6.103813927528617400e-01 4.695616491706646745e-01 3.884679312808284046e-01
5.861422058430090232e-01 2.695787557883807528e-01 2.583632041023657677e-02
1.920244503693257498e-01 7.824648894022990797e-01 -2.949153191926596335e-02
4.340049754061905962e-01 4.071695850378365678e-01 -8.922556890680663488e-02
4.943270532512049342e-02 7.668786868814846391e-01 -3.616040342482013670e-01
2.730994864988750548e-01 5.539742539257722642e-01 -2.089267931297514036e-01
6.206939066587247034e-02 9.126202405015729768e-01 -1.081872523539149505e-01
7.758217254296255472e-02 9.730616449515736566e-01 1.909170758590431408e-02
7.815476884571427307e-01 1.313478940600958100e-01 2.333437391360952962e-01
1.443644837481143917e-01 4.830241979297507648e-01 -5.970160756693980719e-01
5.968234629724498141e-01 -8.196280199897225394e-02 -4.965372124807057586e-01
5.167757755281742194e-01 -1.469753978403341155e-01 -7.702729862081136858e-01
2.022219614731287918e-01 4.800130959066284397e-01 -4.767437175550149897e-01
5.243025345517944302e-01 3.159630341688686173e-01 -3.573931496111606987e-02
1.222056302550904167e-01 6.674338039587482951e-01 -3.587448637447315791e-01
7.058955757308357087e-03 6.414247425044121709e-01 -6.477609870162185368e-01
5.734597408878928659e-01 5.028797324868734819e-02 -3.417958009568545785e-01
1.138728941218617868e-01 5.837368371133636602e-01 -5.066009217995679492e-01
5.123671006893986135e-01 2.896713137991134279e-01 -1.023074401889269291e-01
2.509130195207993630e-01 2.374192667237766396e-01 -7.479948065861206086e-01
3.701006082372519379e-01 -3.233554899454827575e-02 -9.091494094436880502e-01
2.644546174679328066e-01 2.910698591317557038e-01 -6.355090469798438946e-01
1.960653695878327718e-01 9.049792007664871907e-01 1.693239381437167679e-01
7.889808377088844971e-01 -1.585882241875377630e-01 -2.004592412121800060e-01
9.755921729347317647e-03 8.399413854593367201e-01 -3.339251804926847700e-01
6.465878786175273119e-01 3.870527370692702362e-01 3.386384830563636816e-01
6.173644708161483141e-01 2.451871521069589610e-01 5.541619152513256596e-02
7.320949310244894148e-01 4.017927260765500330e-01 5.461625914460863651e-01
6.162521598565899872e-01 5.120635875272604443e-01 4.670905196143645965e-01
7.112678017389740814e-01 -2.563549898874441513e-01 -5.199735463015525694e-01
1.796607593366137123e-01 6.377725963072704563e-01 -2.806907807326460280e-01
7.422821736777381885e-01 2.087347283429882017e-01 2.686199170472862163e-01
4.348385752282937222e-01 3.966837591360308779e-01 -1.036948450306683783e-01
2.729497698734309474e-01 2.434418361163336875e-01 -6.910616276628108734e-01
5.164919315516213194e-01 3.648495418004532032e-01 2.324418453397663481e-02
4.415853762298912466e-01 7.339472699900455588e-01 4.341615670426335338e-01
7.830529875995144717e-01 -3.041907667976224139e-01 -4.391724859665745995e-01
8.919695895917439943e-01 -2.347490643018711187e-01 -9.622171225983713883e-02
7.359854396117269104e-01 -2.315708728586382270e-01 -4.281411636899059014e-01
1.890999159130045959e-01 6.495149392639543162e-01 -2.420877302183508661e-01
3.665991062669312073e-01 7.251314097500588529e-01 2.585489571193049785e-01
2.421631786755262250e-01 4.968022792707635360e-01 -3.644404035907211070e-01
1.682652074006225629e-01 6.005390673899051457e-01 -3.630699583890565352e-01
4.463132588570836168e-01 -2.010278651684020007e-02 -7.255868589717755501e-01
-2.419827767401379337e-02 5.773224190238227527e-01 -8.147205352985336102e-01
6.082064849294913644e-01 2.882696396667717154e-01 1.024846732481924372e-01
2.546347254425173623e-01 5.962245561141114036e-01 -1.832476530830402517e-01
8.054363328961370305e-01 -2.005173070171278049e-01 -2.299790346424765430e-01
5.417338119519559125e-01 5.217828041534057215e-01 3.212467896569367598e-01
8.865951800073496036e-02 6.919751104223431648e-01 -3.931108518328188528e-01
4.055660118141167780e-01 2.309263837158440080e-01 -4.240929770193737625e-01
6.032313311171965120e-01 4.911305728138294913e-01 4.064928494066154530e-01
7.176869619000776357e-01 3.828635631702239639e-01 4.856784743916660041e-01
4.443170902206187711e-01 6.185949436199670304e-01 2.610840141604907627e-01
4.196522874032506678e-01 7.285143980861650270e-01 3.783672016115155468e-01
1.279530546144597436e-01 4.497230795751753774e-01 -6.841257376387179789e-01
6.393141431341401448e-01 -2.309293943568613006e-01 -6.359093004587116349e-01
-3.902743690246978508e-02 7.728043201906139581e-01 -5.434413186714022181e-01
5.709790067093760690e-01 5.571734037689495683e-02 -3.387289707483983059e-01
1.809741467251359259e-01 5.865636661265846152e-01 -3.573085278770563589e-01
7.334032317411137702e-01 9.950829743455714971e-02 7.997367099130880952e-02
6.876023281763350425e-01 5.610935963689859390e-02 -8.627053116020722001e-02
1.144651272088789556e-01 3.372274842589548238e-01 -8.877974962230299472e-01
3.259629574120635476e-01 8.358515128201136068e-01 3.425839897642827259e-01
9.354763668153850964e-02 7.896488200749816055e-01 -2.310076702599162812e-01
5.591813749944147816e-01 -5.684024623250988340e-02 -5.388466884499522047e-01
5.329236965962529382e-01 1.012983893656969753e-01 -3.501881064724300385e-01
7.880904427015374969e-01 4.133882439403652881e-02 1.078179309737971464e-01
4.422864216209885235e-01 -8.204165701992121792e-03 -7.158213930017425231e-01
2.658167527841872047e-01 7.193454171127338093e-01 3.193027233560886274e-02
1.295343251874518098e-01 4.302043133791521035e-01 -7.109956074827058492e-01
1.572849655589980689e-01 3.535437045003060885e-01 -7.700115807035572413e-01
3.360720724771969481e-01 4.398601335250013622e-01 -2.499919228979472774e-01
2.070898442448109444e-01 4.561363632384782818e-01 -5.032777605303261348e-01
7.327440069144708357e-01 -1.775342522160093528e-01 -3.512997174823085378e-01
8.311397052840252542e-01 -1.475449602038332308e-01 -9.228204343567338042e-02
3.754449813278359360e-01 3.230726293815022188e-01 -3.461689182097212325e-01
9.198552004130773618e-02 5.306603704861119208e-01 -6.362187436190466228e-01
-3.810578144233967707e-02 9.532008614978521033e-01 -2.615538599831422339e-01
7.519566279201027603e-01 7.081459835668885150e-02 7.551990358695284677e-02
9.627964147669561615e-03 6.804567002532391218e-01 -5.816525106953791546e-01
8.296445741275236818e-01 -3.447017852673690541e-01 -4.014126185849511974e-01
7.218247193782311166e-01 2.260604502010606920e-01 2.513236699987047573e-01
4.752712919572684575e-02 8.848764653028236005e-01 -1.826378282790570573e-01
5.833883996496670443e-01 7.175636145920150089e-02 -2.870450610982014372e-01
8.260552683951727371e-01 -3.133888245487843061e-01 -3.605796670373782042e-01
8.947557147466693728e-01 -2.631711584866478493e-01 -1.343037769415797444e-01
6.956961879985813502e-01 3.838191182528459811e-01 4.396716026264862465e-01
4.306016826466158576e-01 5.618013964631584506e-02 -6.411583061218416590e-01
5.222781446899783520e-01 2.183588074441246141e-01 -1.915504144255988916e-01
4.168663267455545163e-01 1.986276548871204750e-01 -4.498033473714208030e-01
3.833257075963482086e-01 7.710894792249219920e-01 3.659773333097480208e-01
5.632135104496625022e-01 -1.359360761294754576e-02 -4.630392072377239598e-01
4.611734020569800419e-01 7.424052810894692378e-01 4.895854289333682052e-01
6.595309886272503475e-01 4.945632688504952856e-01 5.333990437836122478e-01
5.868384370748291889e-01 4.045352848199048612e-01 2.367337965789362009e-01
8.547948127438877997e-01 -8.527478406443282644e-02 5.541787737294712884e-02
-4.946730723575990668e-03 6.325130406694392526e-01 -6.875145794872138394e-01
3.908652445583191692e-01 6.202924997221882786e-02 -7.178945907058352782e-01
7.623069834258357214e-02 7.743482053014775213e-01 -2.921438278931798305e-01
-1.987672473048356092e-02 6.105077183558118570e-01 -7.538988829465099739e-01
2.037382738131705007e-01 3.515991593027427697e-01 -6.727119019248972709e-01
6.719987334867744133e-02 6.252547526220531005e-01 -5.429743807854083837e-01
4.473080366470638669e-01 7.398393813745127723e-01 4.556617561495143742e-01
5.042439528643023472e-01 3.668016232785654140e-01 -1.767663602838326559e-04
6.207401450106089236e-01 5.125225602103079536e-01 4.774945320205705168e-01
2.616855859189691769e-01 1.848896154734357700e-01 -8.062344694525533928e-01
1.099417077513309138e-01 3.033281504488592462e-01 -9.501629545714342928e-01
-7.755035211549314578e-02 8.864691391792007824e-01 -4.502737984395007720e-01
-6.662947393362331217e-02 7.745548222216072087e-01 -6.003324032015557865e-01
7.617298581741768215e-01 3.084032174373124713e-01 4.652597791214926892e-01
4.334566612528004126e-01 6.365790193891646132e-01 2.655341983510885462e-01
7.682504984499579637e-01 -3.090791289981821843e-01 -4.787233482667807571e-01
3.037469740132658358e-01 5.299198589600881970e-01 -1.800649628965911297e-01
3.857956932923724547e-01 5.333721778940442304e-01 2.477247564822972811e-03
3.235741529556051543e-01 2.445881617250693363e-01 -5.799587466718664208e-01
5.094222367712603061e-01 2.194429667276551477e-01 -2.176308381191926489e-01
6.572057625055013341e-01 1.806301093374562128e-01 4.128968174683127212e-02
6.072110162354875662e-01 -1.061445479554670376e-02 -3.634034367329813109e-01
2.290622705846393284e-02 9.135157769688050378e-01 -1.913713366273125382e-01
6.758280888016868770e-01 3.870995022990557088e-01 4.018558111179776904e-01
5.800114360084959175e-01 6.377007214461363239e-03 -3.957780542330535667e-01
2.609374502630701365e-01 5.220368193337047158e-01 -2.847439681493604269e-01
6.902768234056407826e-01 -2.863228703660534169e-01 -6.118010902166132192e-01
4.855598522260574645e-01 -6.271965900422799001e-02 -7.069560100054185225e-01
7.375711553305072110e-01 -3.281257030164948518e-01 -5.745279661635289692e-01
4.423844902044873351e-01 1.751286337735984133e-01 -4.311566871105024790e-01
4.270349984873396676e-01 5.348463246500395618e-01 9.382151731844450004e-02
2.194992961587930447e-01 7.410323151134824426e-01 -3.444447043507450207e-02
3.330944465767761709e-01 2.202463553754686887e-01 -5.971674157983412057e-01
7.818577171187790498e-01 -2.182777174483734595e-01 -3.084539343663768030e-01
8.002403741476450671e-02 9.167753893705555823e-01 -6.296687688451477194e-02
4.525177786541849101e-01 6.310915305656505936e-01 2.981828293416454168e-01
1.144616195279468118e-01 3.652246497563021443e-01 -8.443656230823006759e-01
-7.863158005186932087e-02 8.543669483401108433e-01 -5.024173954369214323e-01
1.587734998977090861e-01 8.659892988054218588e-01 2.829606005854983647e-02
1.344982247975183565e-01 5.114931781221149221e-01 -5.741509426900904822e-01
9.058908901126443425e-01 -1.175406290419754723e-01 1.156982053704387892e-01
8.721114706778220205e-01 -1.555184274368916209e-01 -1.617412673432002887e-02
5.450416316858520682e-01 6.223725187593304176e-01 4.844616606776487866e-01
1.294505504963851805e-01 5.215609464728425682e-01 -5.694306813350360486e-01
7.642527249270272272e-01 3.498709496280023590e-01 5.350478763623169876e-01
7.681519294931983266e-01 -1.092428935343624091e-01 -1.688771157805375733e-01
-7.581578911400445320e-02 8.735900332780122124e-01 -4.665107597991094979e-01
5.023568312119452983e-01 1.782273774404649971e-02 -5.457157881684655543e-01
3.168012986118690089e-01 2.895795399342239798e-02 -9.291493326853015322e-01
3.213521608132073881e-01 7.300192496185591295e-01 1.684211565986842574e-01
-8.089922736929584801e-02 -7.264869116041529074e-01 3.908180693719016663e-01
-5.211984161564819917e-02 -5.697807353348495196e-01 6.961076429798312981e-01
-7.528058133795894058e-01 2.920202317634371103e-01 5.201044872454728685e-01
-2.787579156754483867e-01 -3.015723770414316940e-01 6.228215267165773117e-01
7.107234261653543050e-02 -8.887403137451965751e-01 4.672566041410375348e-01
-8.202914287344310607e-01 4.640736645418180872e-02 -6.716486568922488791e-03
-8.862596857854972976e-01 -5.550560614396291698e-02 -3.073008401097818143e-01
-1.147559718717383048e-01 -3.585160193552981434e-01 8.886349089345632057e-01
-5.760770618242705421e-01 -3.480404850052233323e-01 -9.134294066218237584e-02
-5.718600933625267446e-01 -6.012714676785249068e-01 -4.751408845457605890e-01
-1.755147413103781140e-01 -4.295612268584980686e-01 6.471939117472436109e-01
-5.257507451903509210e-01 8.125961430625239235e-02 6.834250672304827967e-01
-1.121591989023243592e-02 -8.708895679903257969e-01 3.172502050126089213e-01
-2.977278083399171882e-01 -5.881349403733420189e-01 1.372349872735258713e-01
-5.908443542483983180e-01 1.562687382918587498e-01 6.592358288441907410e-01
-6.198265532489508622e-01 -7.436294531548513949e-03 3.426490889617118119e-01
-2.493736909360956266e-01 -6.633717837783279503e-01 1.249216655589199254e-01
-5.004290293624574781e-01 -5.231857382781801569e-01 -1.997290381616005916e-01
-6.069302361075215035e-01 -2.737844959331802164e-01 -4.275787233194615344e-02
-5.337120025789812150e-01 -8.812156078348742927e-02 4.034265263143902991e-01
-5.766735164642696441e-03 -5.556253901060849154e-01 8.181709755477564183e-01
-4.078739260430089830e-01 -1.107179474925173712e-01 6.401163706003758502e-01
-6.741470085214056329e-01 4.084843939454623624e-02 3.002600201872123176e-01
-1.850723380389795447e-01 -7.657594188284687631e-01 1.049204473713049313e-01
-6.059911517147927862e-01 -4.630318943551943178e-01 -3.343597175983898939e-01
-9.451812619574171404e-01 -9.116009224299543787e-03 -3.625665436320600898e-01
-3.595100298505958802e-01 -7.304543005988568538e-01 -2.170027202321884729e-01
-7.457206431535761126e-01 1.009129270106979975e-01 2.388894594634765889e-01
-6.374910423282890148e-01 -5.161211784083343801e-01 -4.847558317742918232e-01
-8.552506313741592425e-01 3.662686561253012535e-02 -9.738661596330598635e-02
-4.018586994971580229e-01 -1.797068654100504592e-01 5.460655079601621775e-01
-5.322909023510824511e-01 -9.652858938441111203e-02 3.934513591242516650e-01
-7.559736623445298953e-01 3.409054078685146150e-02 1.130685393486035584e-01
-1.443564264130055008e-01 -9.105412340925983505e-01 -3.179132817051356918e-02
-5.400579366729749697e-01 -5.923662901587533058e-01 -3.926465754676658482e-01
-3.491622084807760595e-01 -5.263185120839359854e-01 1.220737232548864959e-01
-7.882801640797681975e-02 -8.621571171959165891e-01 1.847896190046311449e-01
-8.093690356511099027e-02 -7.122546186297374904e-01 4.128190477819179138e-01
-1.188045534225777924e-02 -6.809693628272639465e-01 6.104888477532198765e-01
-1.051695321373960629e-01 -8.588023008092350308e-01 1.331098527724194625e-01
-7.322490816018591975e-01 2.297214538256065197e-01 4.678364643719673532e-01
-4.336012399448715970e-01 -2.507057788924860198e-01 3.673574162389743325e-01
-4.334279022208231691e-01 -4.040370332698048905e-01 1.298281923688537620e-01
-2.973988862062053595e-01 -3.270411422366274468e-01 5.430495416110702189e-01
-4.975852371728561874e-01 -5.217274498932155113e-01 -1.913251863424003385e-01
-7.161100203857092561e-01 2.837694440039946753e-01 5.865480822578921227e-01
-5.461204750879318226e-01 -5.076275400452069375e-01 -2.742609806808412043e-01
-2.854843171841750515e-01 -5.037998664669748328e-01 2.945264575046643851e-01
-5.478702697953776735e-01 -2.030781493317530828e-01 1.944887634017213596e-01
-2.219308590054628327e-01 -2.177915864544280045e-01 8.755320150400908163e-01
-6.234074190366745150e-01 -1.785754504660880815e-01 6.938246065005335139e-02
-7.537167489763535455e-01 -2.343788117949578975e-01 -2.986055148958632333e-01
-1.510905305539395060e-01 -7.514122028167938838e-01 2.005654337083426220e-01
-4.485409361224012570e-01 -3.810960137508038748e-01 1.327858234456155417e-01
-7.846491405912253692e-01 1.925910276254762521e-01 2.970672743846345387e-01
-9.637571336885629447e-02 -5.365098503007347253e-01 6.521582500302901542e-01
1.135276334154131095e-02 -5.656886253880243354e-01 8.395270727239628750e-01
-1.789640770880777665e-01 -5.784680590144800627e-01 4.087062409537416952e-01
-8.555311331994565061e-01 2.554145441551842755e-01 2.414711425166358172e-01
-2.372568290548150438e-01 -9.288359140836995875e-01 -2.607968490359059421e-01
-3.858673844792746555e-01 -3.816716259738141548e-01 2.672374042665491278e-01
-1.902977695616440701e-01 -7.329243128434131949e-01 1.445818640799634291e-01
-4.537689461815312408e-01 -2.697693355979884355e-01 2.942265206998554428e-01
-7.845178769372305183e-01 -2.360567037684795644e-01 -3.677244741254082072e-01
-4.918389580618047763e-01 -2.237848844357626099e-01 2.833615413079667023e-01
-7.195358376821945345e-01 -3.145051284652533030e-01 -3.491124745660355577e-01
-3.229644760600424158e-01 -6.680649827785434258e-01 -4.128078862106612096e-02
-3.977923320432574794e-01 2.023186336317378542e-02 8.650650219325840551e-01
-4.017532099423146152e-01 -7.612970434877108783e-01 -3.560821892745318906e-01
-8.220565207330261526e-01 3.303433224104770916e-01 4.300171197233075837e-01
-1.079135505648322335e-02 -9.292804590604576420e-01 2.275697434977057843e-01
-3.737966924323809503e-01 -4.629474886075236051e-01 1.671994253660453456e-01
-9.238883305861714801e-01 3.086833622485498085e-01 1.765026075726378318e-01
-7.534722370119832924e-01 2.965841326788968835e-01 5.257465263770014774e-01
-2.778001134872878364e-01 -8.399031004966519554e-01 -2.103656899785046053e-01
-8.192232158677051901e-01 -2.341052496377369618e-01 -4.396434786024726593e-01
-5.199534215645092994e-01 -1.114624636439092015e-01 3.969234840862911895e-01
-1.325308195285667678e-01 -4.718764756304820729e-01 6.743635788601205494e-01
-7.894926699180190299e-01 -1.083675404394210673e-01 -1.803494754762998420e-01
-4.384937837791024196e-01 -1.791543190009309283e-01 4.678086855436167091e-01
-2.675311509062802129e-01 -2.805631246483136221e-01 6.796631707516200827e-01
-3.898568765811651904e-01 -4.745137438936122831e-01 1.145713563340318986e-01
-3.953672613672336578e-01 -2.639959827058175890e-01 4.293037649125866495e-01
-4.607065113518623578e-01 8.949559848051619193e-02 8.366679523479962910e-01
-4.739721342907946000e-01 -6.995548260129775819e-01 -4.162431564601122291e-01
-5.329760355142603157e-01 -3.869315066873945108e-01 -5.860747009940097535e-02
-6.486098325813869359e-01 9.532761889623440899e-02 4.399360573821418097e-01
-5.845672900075361555e-01 5.003894844775478440e-02 5.079687415177962517e-01
-3.422310418247390129e-01 -6.914022752930185645e-01 -1.190966376909981250e-01
-6.914372354403814924e-01 3.012268043427155373e-01 6.669156581156643337e-01
-1.275367016868852489e-02 -8.718909163959936981e-01 3.123757470919196755e-01
-6.493501838157045292e-01 -2.326745214046749277e-01 -7.057968956621663015e-02
-3.368541365332585191e-01 -1.656083320859758068e-01 7.083188546053448276e-01
-4.729749353702120684e-01 -3.548414740968258707e-01 1.207558043079728222e-01
-2.371479230274329830e-01 -3.709922872398404015e-01 6.049694995989305379e-01
-6.895247918214663096e-01 9.762371721639062031e-04 2.051870654683307371e-01
-9.476601011638059457e-01 5.746595854849519125e-02 -2.646133296811962188e-01
-3.944855972590525783e-01 -3.782605183791041825e-01 2.539187744508668021e-01
-1.248864522392139215e-01 -4.233497638595948853e-01 7.661641223836650472e-01
-1.695334885115662438e-01 -7.563560547018480795e-01 1.530668165256340585e-01
-3.333613571398847952e-01 -5.279762893477748520e-01 1.536238000211010979e-01
-8.162704616226991172e-01 -2.844937739184204561e-01 -5.114480691938366741e-01
-8.739629409720917064e-01 1.983461337242864164e-01 1.131219153560189816e-01
-3.270654316412768825e-02 -8.478739245335636943e-01 3.065510991467326751e-01
-8.294995404856918553e-01 1.398826088039530902e-01 1.184314287389147957e-01
-6.925774766887908551e-02 -8.393911384690486699e-01 2.407797062865529580e-01
-9.688477406973712291e-01 1.167598829896147605e-01 -2.183699919478407359e-01
-9.081284320601358262e-01 3.375776462206869777e-01 2.553677832033884876e-01
-6.820902576570949186e-03 -5.590828764780368942e-01 8.105299636917212558e-01
-5.376155831345403868e-01 -1.297236824410554212e-01 3.304482382442482380e-01
-8.001524358922301738e-01 2.135321050860694292e-01 2.960790868770179496e-01
-3.137597301508421865e-01 -5.974444127745108801e-01 8.816949870623348728e-02
-5.205984952188575515e-02 -8.773186419140922565e-01 2.190718598548492269e-01
-4.850377552608553522e-01 -5.883212934295116714e-01 -2.675534082352597487e-01
-2.200609786165675374e-01 -3.416645035458791835e-01 6.873730584887294270e-01
-6.092887538465002750e-01 -7.071806976617946161e-02 2.672198132556221628e-01
-4.243915815318701212e-01 -4.347345298954742865e-01 1.017131023671900419e-01
-1.524016310374912975e-01 -9.885263823255114879e-01 -1.701641935319403165e-01
-8.407462842974410266e-01 -6.450137120572954630e-02 -2.229713396703455197e-01
-3.231255381422699635e-01 -4.061624795931396137e-01 3.647303950385135662e-01
-2.271395044431146759e-01 -4.936055896557692835e-01 4.363402403541957186e-01
-2.988748956447125904e-01 -6.026563857930903462e-02 9.537818538982044680e-01
-8.689740327410016008e-01 -1.260613597020728005e-01 -3.794440593724666688e-01
-3.478616948993678015e-01 -8.439697584944886311e-01 -3.679746445189144843e-01
-7.396972702625504992e-01 -3.421840611948769872e-01 -4.355971459180417171e-01
-6.420994878321114596e-01 2.403393967264328412e-01 6.789905994623850471e-01
-5.284744923894708624e-01 1.801543802844658704e-01 8.309848345971455608e-01
-9.126576529398437720e-02 -8.073247669177496810e-01 2.430060791827818589e-01
-9.293872002509945274e-01 2.080464461297104051e-01 8.482887890513093540e-03
-4.939471864724685468e-01 -2.095556395532680027e-01 3.008863950220415084e-01
-9.429052793348804418e-01 5.558265180416951251e-02 -2.572672795461539708e-01
-1.136120900417927557e-02 -8.804068117411775196e-01 3.021698193895642759e-01
-6.417907392045854031e-01 -1.239524670658863070e-01 1.144345043805470169e-01
-3.885210320799479811e-01 -2.136860230311662945e-01 5.221475415090528482e-01
1.740540334719146293e-02 -1.000000000000000000e+00 1.787351289125463094e-01
7.469741168727450642e-03 -7.424518219665540153e-01 5.568818623359680364e-01
-2.933565367599191842e-01 -7.805332971101294204e-01 -1.518439065429804946e-01
-1.655402905357662990e-01 -6.810290949079628176e-01 2.785649448042085696e-01
-3.629510110735646444e-01 -7.740914181584479525e-01 -2.921394468856358118e-01
-8.040214153206833025e-02 -7.942030123301758726e-01 2.868255407250789868e-01
-4.979469814460114607e-01 -1.651208817400631190e-01 3.611922208197198003e-01
-5.424356232121487764e-01 -3.223022783453769469e-01 2.124088583405352171e-02
-8.790551496611181959e-01 2.147588700077965318e-01 1.275906399390690227e-01
-5.378451514442075809e-02 -4.663665627011379655e-01 8.529666566866025423e-01
-7.497146689244275075e-01 2.883939427561331703e-01 5.211534437707727729e-01
-1.648109373176622205e-01 -7.239649136066541590e-01 2.135222430730267518e-01
-4.440081936905908300e-02 -7.140359940583885789e-01 4.889554684651988836e-01
-1.788770376785394356e-01 -9.595861331379273995e-01 -1.824356138720937270e-01
-3.564580686777217566e-02 -8.093067750868417898e-01 3.600431804047337092e-01
-3.619160635850680596e-01 -5.463511195100819728e-01 6.344962876283578856e-02
-3.583537955455177171e-01 -3.328955310381707666e-01 4.023328297797600928e-01
-1.742705414830401367e-01 -6.853676511644449798e-01 2.529802521383233138e-01
-5.655941491527912701e-01 -1.759263184920286383e-01 1.983415773325110099e-01
-4.352507654012420790e-01 -6.566413214164390499e-01 -2.660405205460594225e-01
-5.424129987818089305e-01 -7.417015707615262632e-02 4.062830884926362796e-01
-2.492714897866075419e-01 -2.993373397076357634e-01 6.899658105318431378e-01
6.875485877939202517e-02 -8.670543448953547117e-01 4.958991657698831879e-01
-1.209622236547068103e-01 -8.957199174844597822e-01 4.172513043306871894e-02
-8.693953813436303690e-01 1.743038972259770489e-02 -1.577170601553412321e-01
-2.065847967729441959e-01 -5.567048991802768798e-01 3.828257688499139277e-01
-4.935493225571987996e-01 -2.183132256257037662e-01 2.881576172704970462e-01
-2.245747748752778550e-01 -7.977194557960285426e-01 -2.997389190320734823e-02
-1.296618270127754824e-01 -9.657498756962631381e-01 -8.571791918253189591e-02
-5.398836012832598508e-01 -2.115147526315882265e-01 1.986461739168313978e-01
-8.828031723359675009e-01 1.848803998769539825e-01 7.313830020801939669e-02
-2.726463070021408752e-01 -3.605279224581399156e-01 5.445462419499964568e-01
-5.721581768896264464e-01 6.837834660027103384e-02 5.632212335681274773e-01
-5.131180001042089378e-01 -6.545775748980732674e-03 5.744698598812438828e-01
-2.482797673455013343e-01 -5.248470499847220916e-01 3.422142705804345209e-01
-3.486586797230586954e-01 -6.999867184719786861e-01 -1.462965688399975872e-01
-4.138640817225472945e-01 -2.602885516767212692e-01 3.951118666924221534e-01
-1.494098279156155784e-01 -6.018801343105727453e-01 4.362038043047798408e-01
-5.575097184171386999e-01 1.612603690192299100e-01 7.389674288020221526e-01
-1.640420266371514224e-01 -6.748820223809994800e-01 2.913380613823915999e-01
-4.826011353751600841e-01 -1.460521038967557174e-02 6.278668432662659615e-01
-5.406132976690825043e-01 -2.154119199161068365e-01 1.910236692538136161e-01
-3.512452038118477060e-01 -4.856392802667083286e-01 1.806919667668032969e-01
1.737897791190111396e-02 -9.968132351037747307e-01 1.836225385324421755e-01
-4.282403930608179032e-01 -4.664243873636772508e-01 4.423262038870848234e-02
-1.643508586544070726e-01 -9.610059718824048858e-01 -1.532690379895205457e-01
-4.067531920596855755e-01 -2.305045296059935189e-01 4.566798368022267907e-01
-6.248405573355578779e-01 -2.210995654835363755e-01 3.086043377594111805e-04
-2.597642166478219550e-01 -4.369255560973233643e-01 4.538293864282766377e-01
-5.264315715103317084e-01 -5.572107941670612075e-01 -3.086741209274877495e-01
-8.844002406794597704e-01 3.016933288672350444e-01 2.509323623777173218e-01
-7.396420257889468886e-01 1.558275230057405980e-01 3.372199608941366944e-01
-9.809907675626103885e-01 1.379618569366452274e-01 -2.116968202069885729e-01
-1.462040022481014279e-01 -9.329814855271637564e-01 -7.059873150242536310e-02
-9.356738590009470169e-01 8.789325198192253150e-03 -3.142538262441598174e-01
-3.680321412473377962e-01 -7.940531189144076629e-01 -3.340841351751817068e-01
-1.684356386995341515e-01 -6.744753055241605733e-01 2.824810237873088825e-01
-1.058468307344610920e-01 -3.875083696123007848e-01 8.628908193712081509e-01
-4.616498533720087699e-02 -9.589779036766955533e-01 1.051021986991398649e-01
-1.765750366362521528e-01 -3.051401187292909767e-01 8.379517365860348344e-01
-8.112852386740119215e-01 -4.534252889329797032e-02 -1.296234658402474482e-01
-4.130470793651467853e-01 -3.788310999846598026e-01 2.129496193574148544e-01
-5.225641524334734278e-01 1.054319115336513520e-02 5.805853799224129919e-01
-8.236776872322676413e-01 3.494807222759412912e-01 4.562091185805750015e-01
-7.802708054007385652e-01 -3.398799476889460824e-01 -5.196414531702401307e-01
2.382411985601749424e-02 -8.088316287099471813e-01 4.892067958562011376e-01
-1.413173142422605721e-01 -2.818059197582556408e-01 9.502959810541031782e-01
-4.804458369783934923e-01 -5.326796741020221049e-01 -1.713054360348566785e-01
-5.850763697335948921e-01 -2.436288193181560327e-02 3.914300296048762173e-01
-6.075637181240903795e-01 1.387256744035637590e-01 5.959108365547315378e-01
-8.540722684959246580e-01 -5.613357399330089204e-02 -2.387658572522252665e-01
-3.365158419795185041e-01 -4.491245401153844130e-02 8.963170198470326033e-01
-7.996612183307579835e-01 9.696867267366897358e-02 1.162840301056380088e-01
-7.542230978383168694e-01 -2.348722967312694143e-01 -3.004646589376170907e-01
-2.764417534195297566e-01 -1.040016102860229635e-01 9.343673913674291898e-01
-5.600289808271116110e-01 1.039451339106354892e-02 4.994487143881841118e-01
-2.539741399834415381e-01 -6.374991602143581515e-01 1.551299928617772550e-01
-8.118811091248877565e-01 3.523584757262782641e-01 4.861490689745396332e-01
-7.363635352829130953e-01 3.092320222252520345e-01 5.823171151658903533e-01
-2.638581963964716781e-01 -8.434530453840186626e-01 -1.857658385401198264e-01
-6.035676594817760421e-01 3.979995197338529606e-02 4.510506180453639491e-01
8.023704365884461176e-04 -8.368603540533983143e-01 3.960024916710709886e-01
-5.705313813510355381e-01 3.910148232608694902e-03 4.667076683187582065e-01
-3.637621744833141046e-01 -6.977537114922715000e-01 -1.754481844875874219e-01
3.226545125971275185e-02 -8.061706259609210390e-01 5.115647266200059606e-01
-3.612993505371532854e-01 -3.247209376993424046e-01 4.086552703909220319e-01
-3.388572375607359355e-01 -7.926605367130217239e-01 -2.689197139322758723e-01
-4.952516350442291437e-01 -6.065312850007540391e-01 -3.178644709044623484e-01
-6.227943340804437122e-01 -5.795628880191692200e-01 -5.514520164869683994e-01
-1.882925057430089866e-01 -9.496824649055269907e-01 -1.874022951923836333e-01
-3.386255656551359072e-01 -6.010706374497116755e-01 2.884494546430181258e-02
-1.809865301916243618e-01 -3.611597393770121789e-01 7.415069009150442314e-01
-4.509766317561928473e-01 -7.734587689298738633e-01 -4.812507878368935121e-01
-6.811959137535492648e-01 -2.766718015382843565e-01 -2.076158065979236966e-01
-1.839027921071481053e-01 -4.357640172027263392e-01 6.194557244748060132e-01
-4.197976866027167686e-01 -7.459950706933289599e-02 6.704069330761711631e-01
-4.178399396507160302e-01 -6.590040371255325713e-01 -2.321074330666251517e-01
-3.042588445888994575e-01 -4.901585763775391236e-01 2.751478830746851290e-01
-2.731005523783029687e-02 -7.598714497316867433e-01 4.547465549361469073e-01
-2.256142610481694788e-01 -2.757010310357250749e-01 7.777273198845933155e-01
-1.629686007515599999e-01 -5.339133352473184324e-01 5.123783559649821573e-01
-6.979872433365391649e-01 -3.138792943575268723e-01 -3.016068680543131930e-01
-9.153278878454167433e-01 3.361508044690028618e-01 2.376065877047258690e-01
-3.389696454190006536e-01 -5.107402230236414153e-01 1.682554921275689341e-01
-5.015069019879663248e-01 -5.842206568295366109e-01 -2.967564238010697020e-01
1.291157177445607235e-02 -7.692981001397848351e-01 5.269798245816020854e-01
-8.090987632916475658e-02 -4.688406991345160924e-01 7.905501572698793167e-01
-4.805684429276207981e-01 8.505605598733398387e-02 7.868875049516875775e-01
-7.827404060206202274e-01 -3.112333533297582111e-01 -4.805275211442790462e-01
-7.768375524332665760e-01 1.340957767685768132e-01 2.231773037648740188e-01
-6.239930223660984376e-01 2.527630337736587116e-02 3.844072749977954229e-01
-5.647124270217198649e-01 8.516119859588047389e-03 4.864202752649773309e-01
-7.610832320765559267e-01 1.021042552954645882e-01 2.075620920623140742e-01
3.845445094965062316e-02 -9.313945453432114219e-01 3.306368180781896204e-01
-8.709262964678451402e-01 -1.142791504048666917e-01 -3.653791341075410815e-01
-8.764927626311038722e-01 -2.032761639166247997e-02 -2.316280206268246933e-01
-9.091198414343578671e-01 2.670808335512745990e-01 1.438463640168968771e-01
-1.003556010512712537e-01 -5.145675969455513199e-01 6.776084624544314039e-01
-2.780879574677919130e-01 -3.378467399291920636e-01 5.679862482352542319e-01
-2.729050399346354405e-01 -5.312675300344094076e-01 2.790737459231701356e-01
-4.931060215733264473e-01 -5.898497366805252051e-01 -2.873484573832814637e-01
-1.245234826789672761e-01 -5.602372034874244511e-01 5.545580746096854252e-01
-1.858085543721114397e-01 -7.168252367608544118e-01 1.792551843018076185e-01
5.499645649540832459e-02 -9.632374448819533974e-01 3.169532236782959256e-01
-5.151456602456702116e-01 -5.988074059613807121e-01 -3.488418746652420799e-01
-5.311366194847125938e-02 -6.383926418394657576e-01 5.875055734652741002e-01
-6.345867921949244206e-01 2.285061673490823009e-01 6.768543675955892569e-01
-4.782654487270144306e-01 1.057458382718802492e-01 8.239624242843037738e-01
-5.857611403775494358e-02 -7.318478362174968277e-01 4.307074129547955321e-01
-6.913917417529287235e-01 4.259955163148534951e-02 2.657366694322496059e-01
-8.676987786937956360e-01 -5.626865426680802140e-02 -2.684021412164197540e-01
-3.254680603552788098e-01 -3.228675744520552726e-01 4.889092121928225176e-01
-3.282190050960953065e-01 -6.566847247877614091e-01 -3.497081964442708829e-02
-4.772472060512746861e-01 -4.267372472690983409e-01 -2.127433041373098929e-05
-7.981201541832414481e-01 -7.597377882242073444e-02 -1.487196287756444302e-01
-5.648107135850222171e-01 -5.242784101543013220e-01 -3.404578152962156601e-01
-5.381947115248312263e-01 -4.871248841321758061e-01 -2.253339269661221445e-01
-7.175360344646909416e-01 2.332197881786308158e-01 5.050374551644437604e-01
-1.234019506493839458e-01 -7.232929485103436473e-01 3.039883053413682257e-01
-7.114068035142289137e-01 -6.696347847284567223e-02 5.251951308099227916e-02
-5.999620037699758823e-01 -2.361089294371581659e-01 3.074627811720471657e-02
-6.288474470304286079e-01 -3.175188205852088053e-01 -1.579451781830779888e-01
-8.566318767861504924e-01 1.900122986740701569e-01 1.376181709613122917e-01
-7.161681469798854005e-01 -4.334005577036571522e-01 -5.263139817936919318e-01
-4.387871313841261167e-01 -3.246012049464170324e-01 2.415047635849968122e-01
-6.200334867128839411e-01 1.052680545617559610e-01 5.170704402536995259e-01
-1.496654588769964211e-01 -5.561625726764777289e-01 5.065855754707980774e-01
-2.769541111511409914e-01 -1.841345142984072425e-01 8.089294619670220898e-01
-1.359596675999664162e-01 -8.982047347894841494e-01 5.482518049865613835e-03
-2.600639058337503862e-01 -5.183165458576368678e-01 3.268987156622923940e-01
-4.692103645994607497e-01 -7.476547147930151516e-01 -4.805901762440653036e-01
-6.656290395231152512e-01 -3.071389698435496654e-02 2.076210472497270476e-01
-7.832555240291803056e-01 9.049542671688433348e-02 1.416687591614909092e-01
-4.356582584809839953e-01 -1.061328139029499018e-01 5.872297335470783031e-01
-6.797694964519112037e-01 -2.521737313667224978e-01 -1.665250613858818285e-01
-5.789700710261813654e-01 -2.617979944209302690e-01 3.622046291163436016e-02
-5.431084350628093693e-01 -1.035888688595941742e-01 3.591362103004105411e-01
-7.436256221975749980e-01 -3.137964402734945146e-01 -4.000352284012378967e-01
-1.103222485054180906e-02 -9.651074561130188467e-01 1.714616328736076334e-01
-4.862480182138974039e-01 9.134352009555100904e-02 7.843777733143841857e-01
-9.516039650377022818e-01 6.850828994806454353e-02 -2.559972706983384971e-01
-2.232211127110482196e-01 -5.791715203283551716e-01 3.120408964161571763e-01
-6.789996331817872433e-01 -4.190714739716801529e-01 -4.238153783130153007e-01
-3.166015615317785969e-01 -8.452967647860289979e-01 -3.025267524804781116e-01
-4.562101342690202954e-01 -3.115843641734776862e-02 6.591752713833962662e-01
-8.367947280326322179e-01 2.757415013411323446e-01 3.134713663533368333e-01
-6.256857558472554981e-01 1.524573797317259061e-01 5.780816107304500573e-01
-8.267821719102801392e-01 2.942362358803432207e-02 -4.708476192538412625e-02
-6.037757295749648367e-01 -4.266966161191811380e-01 -2.731988933014798948e-01
-2.734924705591076921e-01 -4.825621698641909818e-01 3.533747560535778209e-01
-9.602407248698557884e-01 1.883487446845734381e-01 -8.870814526983981929e-02
-1.200506993631799968e-01 -3.937597504436076146e-01 8.225178757695926768e-01
-2.343020234987562012e-01 -6.225605498977948571e-01 2.207905269983803931e-01
-2.280708535363287770e-01 -6.163316103538855062e-01 2.439114628648592353e-01
-3.456142011428870453e-01 -5.217835313569189060e-01 1.367720315737783743e-01
-6.781277206356415288e-01 1.507593986641985184e-01 4.621976989862324747e-01
-2.293288185827774966e-02 -5.446885768825877605e-01 7.980695545263211121e-01
-6.807753301413952407e-01 -3.570331513466352691e-01 -3.313934808152853018e-01
-8.631323967532622543e-02 -6.591037554021041966e-01 4.836758199949666714e-01
-7.537503909904245958e-02 -7.382478039783841872e-01 3.844998551037943080e-01
-7.243256582216464068e-01 -2.494894676573248815e-01 -2.585800955921218613e-01
-7.692927312165432907e-01 -3.726176344255286571e-02 -2.640203756364994589e-02
-9.761284128902305568e-01 1.245367812722219802e-01 -2.220263663248409070e-01
-8.947262013623162868e-01 -7.559955318623649834e-02 -3.567615189310216484e-01
-8.667700178971686764e-01 3.546457849709906407e-01 3.711643775983080040e-01
-9.376750532962462303e-01 1.236034007858143602e-01 -1.404338342921348515e-01
-5.856082629920880134e-01 -1.439364260558208819e-01 2.047551595355159015e-01
-9.806397480409048684e-02 -3.925757049704013402e-01 8.718357342258667986e-01
-8.974836369550629467e-01 3.292060183303606447e-02 -1.943400765951263931e-01
-3.706653952191457657e-01 -7.214217500235859948e-01 -2.270783380803721163e-01
-6.527974599053461280e-02 -5.251467141151772156e-01 7.369412152900187696e-01
-5.764831714536101659e-01 -5.269726176029058129e-01 -3.698449420418805644e-01
-1.488285622301540045e-01 -2.896688402071022628e-01 9.218754641800823713e-01
7.278356263212365507e-02 -8.425769607450972476e-01 5.425775006615333185e-01
-2.296467317176063561e-01 -5.361055588352094947e-01 3.649843331124816292e-01
-6.667912038752356052e-01 -2.984424002196583992e-01 -2.102870912667950398e-01
-9.324917567555587317e-01 3.691683872895678425e-02 -2.637403266323270490e-01
-8.252008008887878887e-01 1.129454015713300154e-02 -7.179823042111753428e-02
-6.526016134942178581e-01 -8.458433847991166099e-02 1.521704705395174884e-01
-6.015517831450454267e-01 6.273307971538176486e-02 4.909861994738342617e-01
-4.787990266465454448e-01 -4.735593781328346630e-01 -7.602008217392922096e-02
-5.235895179162793900e-01 -3.355166677401966724e-01 4.143639860122282775e-02
1.051769858391034609e-02 -8.857692251364018832e-01 3.410975826012819234e-01
-5.045842900960002542e-01 -1.562613374327115334e-01 3.606049984644263406e-01
-8.255929783612718786e-01 -1.517029831819722285e-01 -3.255465482655386378e-01
-7.360335303376334126e-01 -4.029237454405814045e-01 -5.219268570370030336e-01
-7.893132271785233689e-01 -3.274897575208365330e-01 -5.199445314985522426e-01
-3.217146334746991410e-01 -8.324749909743489606e-01 -2.936746974927101905e-01
-4.648200914086877966e-01 -3.195250905458526525e-01 1.931620363899826665e-01
-6.661529567901259830e-01 -3.484081169572490477e-01 -2.864338886269413020e-01
-1.614769496225727796e-01 -5.321145336594480524e-01 5.183905631151806137e-01
-8.307390095798375951e-01 3.200988698752480488e-01 3.953721827517280296e-01
-1.120629258048790322e-01 -6.093617142870744186e-01 5.052469579513609865e-01
-3.942745892266784069e-01 -6.023887759164813227e-01 -9.337531754535145778e-02
-5.515443296447017918e-01 -5.457929275973164573e-01 -3.451900087252544602e-01
-8.573255764735596696e-01 2.512032619345131446e-01 2.310619274409860535e-01
-7.022628129019788945e-01 -9.577114348986816295e-02 2.756913658006215559e-02
-4.829000334510611947e-01 -1.812822752210643262e-01 3.686109127780538008e-01
-6.879232476425726217e-01 4.152777205238917385e-02 2.715640092293684082e-01
-2.916908770263463846e-01 -7.814112215732434974e-01 -1.496090415653578420e-01
-7.088622012024912156e-01 5.580611232252534991e-03 1.705715661174171394e-01
-6.044501589426783950e-01 2.769722823533715336e-02 4.303666705403691450e-01
-1.764216871897342220e-01 -3.623678809591678318e-01 7.494902515590132763e-01
-7.772119252914815313e-01 -9.398045078943477459e-02 -1.315064647370970674e-01
-9.740206793744365932e-01 1.962436608938130933e-01 -1.062167260834281507e-01
-3.957696996712083415e-01 -8.082798654918853520e-01 -4.160576351818893737e-01
-6.774276301877726336e-01 2.379923889650419622e-01 5.990572925860569997e-01
-7.010184182566523425e-01 -2.560237682830023842e-01 -2.183860827841019592e-01
-3.808496514428464930e-01 -3.759525551802372356e-01 2.869468059160704687e-01
-8.614524255299044198e-01 3.521807996092767845e-01 3.788232282812327711e-01
-6.388581922504652510e-01 -5.173342561828503383e-01 -4.895903871796256634e-01
-7.957446612918495088e-01 3.010670171996213118e-01 4.414139438185868958e-01
-6.429852269518184782e-01 -4.080692569685647753e-01 -3.289709442960604968e-01
-3.647217062770642948e-01 -1.087210919200556902e-01 7.364026315485260321e-01
-9.264694060181188906e-01 1.853168074270892529e-01 -2.048261504123227023e-02
-7.699828423200524297e-01 -2.818159051704561269e-01 -4.073342187576444728e-01
-8.902277258628402135e-02 -6.114523919777098415e-01 5.517587659842745351e-01
-9.254489245831766242e-01 6.090460932810610323e-02 -2.113125942064205121e-01
-5.619489772197825417e-01 -2.009024234071758730e-01 1.674613194168457220e-01
-8.706016381182526409e-01 4.465171644824469932e-02 -1.180863106849988353e-01
-1.079275282432306804e-01 -5.923076037786869641e-01 5.406380014084716246e-01
-5.915074918103403467e-01 -5.722984621860672805e-01 -4.726162727351890802e-01
1.398746314555995331e-02 -8.988403528377183482e-01 3.283098862670163487e-01
-7.246628595980521004e-01 -1.516026638250870529e-01 -1.074304585906003390e-01
-2.102538833508942884e-01 -8.469644810647514177e-01 -7.545456800083283344e-02
