-6.330558615566787839e-02 7.144681470254626854e-02 -2.714876793270148969e-02
2.039155662020472604e-01 3.947092674105654453e-01 -7.554426888341821966e-01
4.259546699368741418e-01 8.196756532459656963e-01 -2.231007481410157978e-01
-4.729745744139696173e-01 -5.528846087281640287e-01 1.527707018951319218e-01
2.046014234449513303e-01 4.548607545820466669e-01 -3.257591255610968739e-01
1.844419053611916492e-01 3.738160497618539524e-01 -6.829853106610334068e-01
6.252055555980078061e-02 1.520384522143798933e-01 -8.911182992166090111e-01
1.785987006217364947e-01 5.141823608101283583e-01 4.054963394147307887e-01
-4.207878862172856338e-01 -4.284312409018272705e-01 4.566442421247474681e-01
-2.032161232414941288e-01 -2.403500642808815424e-01 -6.828109368603942908e-01
3.549330487754946972e-01 7.591960409435596357e-01 1.555095129116425556e-01
2.847168673123811056e-01 6.491283050180579606e-01 1.640938320238624348e-01
-2.931595730130013289e-01 -3.893980271669396087e-01 -7.304251550174802876e-01
2.478390372236823902e-01 5.692543384915133009e-01 8.077595587190617224e-03
-2.258679453303469031e-01 -2.740555416661191179e-01 -6.669288201545502393e-01
-1.562143597945785112e-01 -8.364538727929766949e-04 5.178609952371306946e-01
-1.562704529893178540e-01 -2.314662232549732218e-02 3.562060143589075856e-01
-2.471431707697873681e-01 -1.378662913358646436e-01 5.690331063303386561e-01
-3.107550560587368782e-01 -3.887237332307619808e-01 -5.227165691612413179e-01
-1.861094764867579077e-01 -2.017577866649258866e-01 -5.992297016361173290e-01
-2.086182364336056083e-01 -1.913015414714582807e-01 -2.637298101052956145e-01
-5.389819120619185888e-01 -6.195506161109426424e-01 4.285823381329018633e-01
-3.906996419360905110e-02 4.459831295776059065e-03 -7.938007691199469029e-01
8.163512946050902053e-02 2.828203503620252968e-01 -1.600212257738843347e-01
-3.770937967167459107e-04 7.594759209305139425e-02 -7.197122289090829295e-01
-7.733178771247856131e-02 -4.839176991018551144e-02 -7.372835915352171643e-01
-9.480859391066956410e-02 -8.432309872915559612e-02 -7.972406076724370960e-01
3.673590612354780682e-01 6.818124664486884257e-01 -5.506593493574220011e-01
-3.655724433753106961e-01 -4.594689513374036194e-01 -4.055541931757558616e-01
-9.893382896250739467e-02 6.444946755585276299e-02 3.325935808969727181e-01
-5.322492817818669231e-01 -6.993048468928467765e-01 -2.292113382533411958e-01
-7.989656424370777943e-02 -6.997792397983436385e-02 -8.647567714610678857e-01
1.556567904187209153e-02 2.975009953965119802e-01 7.082850826595140648e-01
1.933452786029286052e-01 3.808778445555180414e-01 -7.342314485487780873e-01
-3.862878817116033869e-01 -4.406698545179474347e-01 -3.003150674775064213e-02
3.981610347196143929e-01 7.593266995579075473e-01 -3.417801151512995239e-01
-3.705402930853431420e-01 -3.730821480497457654e-01 2.801493389573356807e-01
-2.540960803056171446e-01 -3.441077004483392154e-01 -8.511888542297370019e-01
-3.695979758863741083e-01 -4.028154743824352013e-01 5.298499046393342904e-02
-3.171507866407169418e-01 -2.854601582875061494e-01 3.022192849373461221e-01
1.781522045069822147e-01 4.715606228670335409e-01 1.005789501144290637e-01
-4.600374649167945362e-01 -5.393913828829611790e-01 1.018194725469926953e-01
-3.582324122944702260e-01 -3.226004149030042290e-01 5.055336656345775781e-01
3.116342400395355483e-01 7.039472962684059087e-01 2.526436420603908606e-01
-5.751658335097554753e-01 -7.357168902396497012e-01 5.497508294641049315e-04
-1.962793131193786740e-03 2.261934243979639436e-01 3.915692834554621027e-01
-2.213089512312624019e-01 -5.965302881039809962e-02 8.402553092440324667e-01
-2.456220560028752886e-01 -2.883947144105292182e-01 -5.435597975888545319e-01
6.952539271879543126e-02 1.689607691334711059e-01 -8.487490562119479609e-01
-1.383242109937091006e-02 1.756759061404919164e-01 1.608733830714427770e-01
-5.254128264548920679e-01 -6.223446908655193566e-01 2.518605520985763846e-01
7.229053041303798444e-02 3.438155580895085328e-01 3.914099503776248268e-01
-2.637820162567182658e-01 -1.400746146629177347e-01 7.447452139715997621e-01
3.784281966966011046e-01 8.196040256045938888e-01 3.241621222721086104e-01
-4.276875349503300727e-01 -5.897430275521462484e-01 -6.373386045331462801e-01
2.553606484800390319e-01 6.135665913155823326e-01 2.437462475434943321e-01
-7.540863773194833586e-02 -7.315942248574301698e-02 -9.396287210267704193e-01
-3.373122059591515121e-01 -4.466369013574165159e-01 -6.379277078672226375e-01
-3.252462049696598634e-02 5.655954549563487616e-02 -4.902277382233882763e-01
-5.937715475469463877e-01 -7.414571132156645428e-01 1.732379465424354614e-01
2.283460960017522634e-01 4.384029407014732871e-01 -7.191640597619360920e-01
3.906262711507974689e-02 2.784431310284247729e-01 2.988206007346740356e-01
4.406351981645708626e-01 8.551801397336596944e-01 -1.340193788589110480e-01
-1.504981048968642536e-02 1.205837355665480698e-01 -2.258784090494704855e-01
-1.105587825960273607e-01 2.972337391188166825e-02 2.139566909659953442e-01
-4.895855662736328107e-01 -6.664797632656248583e-01 -4.821526025891345046e-01
-1.848404988942163596e-01 -3.254414352515406367e-03 8.302120254810301248e-01
2.311569265939721340e-01 6.041552512710304246e-01 4.542497946296651379e-01
-3.161047248536822396e-01 -2.400009893596833088e-01 6.208678364266537741e-01
4.951889963346989276e-02 3.106865853603556493e-01 4.128669093616506580e-01
-4.385898237908524011e-02 1.892483021147794431e-01 6.056917769151182185e-01
-4.338478775157610379e-01 -5.601789304719279050e-01 -3.512630798315545810e-01
-4.884711319605717361e-01 -5.639304603505663760e-01 2.510258984592069753e-01
-6.306865033887125438e-02 -1.277911675704775617e-02 -6.426045412010139568e-01
-1.530463305246718975e-01 -7.564983169099166738e-02 -6.290394954106000303e-02
-1.461176822025800626e-01 -2.960929498678461710e-02 1.921719961135053834e-01
-2.682160089899391919e-01 -1.768514436010830415e-01 5.283076022596442378e-01
3.070775011289942347e-01 6.743121751815062126e-01 8.957511992451991367e-02
-5.122327945442588237e-02 -3.289847147554934848e-02 -9.254965665166876576e-01
-4.970216575830247591e-02 2.124866381827931472e-01 8.420932644236661657e-01
-7.281121018106134768e-02 -9.534752921443681193e-04 -4.442841579930402740e-01
-1.334373458886951302e-01 1.372910926924282050e-02 3.612973230922849055e-01
-9.659314708015256240e-03 2.597825042658351569e-01 7.246314603513873687e-01
2.299257610652914452e-01 5.314115896877746881e-01 -6.075387902544041041e-02
3.961487472035584712e-01 7.280607993209859963e-01 -5.460392078311344655e-01
1.600499656203844268e-01 4.771462075218587673e-01 3.498568833560941616e-01
3.295071911102678275e-01 7.347881009947276887e-01 2.710023155840550757e-01
-3.931432998811746904e-01 -5.193450146376992205e-01 -5.233611064326901818e-01
-3.271264001680796452e-01 -3.412722745778218880e-01 1.117619978872416882e-02
-2.415218130053218559e-01 -1.465937714076459564e-01 4.407515956622569675e-01
-8.477255986060495963e-02 1.381405567407626989e-01 7.054588881424777025e-01
-1.385739116032023710e-01 -7.445019323794724309e-02 -2.209840642004653188e-01
-1.878854689332447037e-01 -1.574781545324497323e-01 -2.566353876392199473e-01
1.522524091884511210e-01 4.604773421356505025e-01 3.184682229488318694e-01
-3.267349760313308371e-01 -3.139253498627146977e-01 2.056074792521382644e-01
2.108550675977776678e-01 4.595537606525461061e-01 -3.636972408856333216e-01
2.236296101566501160e-01 4.963624148142304904e-01 -2.431601996283089540e-01
-1.058890380465395548e-01 -8.488631054669149023e-02 -6.736260910176419259e-01
-6.601900833563788262e-02 5.926712615337399043e-02 -8.447873699617741705e-02
2.570858283818959755e-01 6.139998636955326106e-01 2.270140085177835276e-01
1.410896578656837264e-01 3.838488792105097525e-01 -1.103263493717550198e-01
9.924710481558560171e-02 4.440712363653338546e-01 8.100496996894093193e-01
-3.477730649063122681e-01 -4.297675874760306103e-01 -3.946367097907433896e-01
-3.792167576126125872e-01 -4.767055959500459128e-01 -3.736843513512451143e-01
-5.519728183326569337e-02 2.399520479542481544e-02 -4.658039159786905858e-01
-5.060442543496668916e-02 1.389790127373724538e-01 3.177409978712918415e-01
-4.272998002815710239e-02 1.335784925944562551e-01 1.876935843307533103e-01
9.534834847613475606e-02 3.212226813180854568e-01 -3.870960366602169828e-02
3.542559156573885648e-01 6.754115317003103192e-01 -4.461995725142428593e-01
1.380318886276104273e-01 3.465287201477009749e-01 -3.465787395664134962e-01
-3.970302927440236274e-02 1.421788169240064126e-01 2.153707868075063481e-01
3.451387392028341938e-02 1.344401601601601937e-01 -6.963405843569741016e-01
6.521478516581656615e-02 3.523996513141941511e-01 5.354114345408017561e-01
2.007787359857240161e-01 5.232483812523096578e-01 2.158054166686274589e-01
2.783110883653733270e-01 5.559877696615567189e-01 -4.396506321078640367e-01
-2.056075652364158235e-01 -2.199681328993216556e-02 9.332237539621053291e-01
1.988065430589845695e-01 3.823123870788932566e-01 -7.867412947742005169e-01
-3.707908070110652043e-01 -4.803968948528305472e-01 -4.976541383670033403e-01
-2.963720354930616738e-02 1.088953153979126953e-01 -1.427766670244426661e-01
-2.284180933195532615e-01 -3.013912665188240858e-01 -8.363974529245619127e-01
-4.471171946721020918e-01 -4.749189754741711678e-01 4.219245155525837565e-01
-3.316609731583819998e-01 -2.498520846865503464e-01 7.285026067027454699e-01
-4.652514207250843525e-01 -5.537200857720957492e-01 5.767672824578366775e-02
2.227609768053902956e-02 1.481526047159916759e-01 -4.555345896563515740e-01
-4.347761278664852846e-01 -4.688639943704223656e-01 3.237316237951452513e-01
1.922637627543608285e-01 4.447499303407674853e-01 -2.571108472355315144e-01
1.122494596024848773e-01 3.219807335364114342e-01 -2.279949500638916715e-01
3.348741097138774880e-01 7.480981731808453716e-01 3.059717192470359781e-01
-2.521546829745930918e-01 -2.529310575722074628e-01 -2.102753887275154998e-01
2.104081182576547360e-01 4.601243872074190500e-01 -3.543945799323799939e-01
-5.518439872997930040e-01 -7.211794741898550631e-01 -1.624983513720868744e-01
-5.614227520035035557e-01 -7.110094259041666032e-01 2.189007895089585543e-02
2.515940127397084392e-02 2.008802324328051170e-01 -1.051854301954440879e-01
2.544443918825399775e-01 6.142458177115829310e-01 2.592481225133710931e-01
-3.095795767806357457e-01 -2.546155087395645666e-01 4.393424572220120949e-01
1.152136466249512603e-01 2.997024702979791400e-01 -4.242291843469550017e-01
-1.574613123908959467e-01 -7.698775046235013797e-02 -2.175050402074770600e-02
-5.853820073417241934e-03 4.915218513935006722e-02 -8.515188088909613207e-01
-1.569261112686520798e-01 4.919861523886079335e-02 8.900585277268089346e-01
-3.452150666072839047e-01 -3.033461891622741269e-01 4.955676348210165116e-01
1.429663562723474945e-01 4.726073574623985141e-01 5.137412187520129514e-01
2.629734437265392535e-02 3.361671388297745033e-01 8.658808815057263963e-01
-1.501480667435661220e-01 -1.435341885035398279e-01 -5.901525286971582851e-01
3.066818012382736131e-02 3.013923167233116818e-01 5.625241160896231607e-01
3.574235278700672591e-01 7.755784778706457105e-01 2.459831528436786097e-01
1.619122898242247588e-01 5.067267097146517241e-01 5.435835384712633944e-01
-3.953040132557918973e-01 -4.951607042062054487e-01 -3.225215362790986307e-01
-2.242024593874273886e-01 -2.213054404903668781e-01 -3.023797635331965106e-01
-2.571025242493528151e-01 -2.005660815971743449e-01 2.276963167448748382e-01
-3.162457843396070389e-01 -2.511590202129190263e-01 5.413214817797671330e-01
7.141521606487252760e-02 3.478857499068844228e-01 4.311084480841222422e-01
4.287379855474231921e-02 1.187347937188460018e-01 -9.069490287133420425e-01
1.823002703740305430e-01 5.634513075040668006e-01 7.212531359315740298e-01
-4.562006214063517584e-01 -4.687690074404474716e-01 5.713585569316098622e-01
-4.727499120780254832e-02 1.446779588655139615e-01 3.208249353462554465e-01
2.848077942635088844e-01 6.809352783200172121e-01 3.944344625037002894e-01
-4.831472626985415242e-01 -6.238390759953214015e-01 -2.461581541790278660e-01
-3.430541393201472777e-01 -2.882654389281065765e-01 5.803701653840723784e-01
-1.461022587370903736e-01 7.111369755416332983e-03 4.591288801696078448e-01
-4.867678852395506683e-01 -5.270518946037708874e-01 4.996778459435610165e-01
-2.731780580873209296e-01 -3.165233109102038034e-01 -4.305821748248809255e-01
3.930432135078801292e-01 7.983128704714334001e-01 8.229315568756876515e-04
1.653168157870477384e-01 4.874805604931374825e-01 3.643319686424936754e-01
-5.553118709627402616e-01 -6.643288277214275395e-01 2.910478084876110261e-01
-5.707244520760158535e-01 -6.991742546605262953e-01 2.151984968430356304e-01
-4.270347860749978408e-01 -4.747656377644456915e-01 1.915727852248741980e-01
2.660245166220810975e-01 5.256679019954269005e-01 -5.186074857327452881e-01
3.565850269930414401e-02 2.131261960208571671e-01 -1.371100507585250594e-01
9.333048760183039472e-02 2.084371881644410951e-01 -8.359413306222308604e-01
-5.506714869979235649e-01 -6.343233636718352830e-01 4.558464111371458016e-01
-5.137822877483311235e-01 -6.971962965471589779e-01 -4.267202743355365535e-01
-3.091511398703019053e-01 -3.295831058541286995e-01 -1.109682135600230796e-01
3.643746675586316264e-01 6.867035024238826724e-01 -4.806804194554989973e-01
-3.405461214164545725e-01 -4.598133447890175862e-01 -6.965097087982909940e-01
6.266417801680032595e-02 2.894315547783084530e-01 1.067305305564611451e-01
-7.715176250102191713e-02 3.557268963693661218e-02 -1.285358067108779145e-01
-3.455071942457642598e-01 -3.067913424030429548e-01 4.738719378803055160e-01
-3.450476100743158914e-01 -2.658541446104639161e-01 7.663838217420093635e-01
-3.859581818747196968e-01 -4.661058077940146704e-01 -2.188724759203400094e-01
4.266691253953358576e-02 2.098546174257693853e-01 -2.416880757308885741e-01
1.055105756049195403e-02 1.548702805417017103e-01 -2.715237084935407386e-01
-4.130943157442706903e-01 -4.181467835113031883e-01 4.427862857390333362e-01
-5.318062155539988733e-01 -6.987874593970009318e-01 -2.305541832016982096e-01
-1.168745442591964528e-01 1.473099080076104191e-02 1.776850918448838468e-01
1.290579820417969703e-01 3.190421513389851693e-01 -4.431053228952875345e-01
-2.819329375911021063e-01 -1.836575444761879006e-01 6.368942690680363672e-01
-5.394274558693129551e-02 -3.278354260878871967e-02 -8.933162718866113350e-01
-2.733929295724924630e-02 1.059759999324532687e-01 -1.904994549125196834e-01
-2.561664438189471538e-01 -2.738886069803326828e-01 -3.164978569387321139e-01
-3.811394647589232965e-01 -5.122468702443759847e-01 -6.100783292285738568e-01
-2.441655439065341382e-01 -1.232921646272600175e-01 6.407368906141810427e-01
-4.301845878996551353e-01 -5.487667700440843621e-01 -3.104647552640126262e-01
-2.340533163949841122e-01 -3.157953779887457402e-01 -8.762333061484601782e-01
3.791224745939946739e-01 7.784900508041329159e-01 1.706496102871784756e-02
2.400730974974074339e-01 6.231822447710151369e-01 4.899003067393523092e-01
-8.412331888172128180e-02 -2.714007364302512340e-02 -5.044039326500507903e-01
-2.778332573955262230e-01 -2.384047505740682082e-01 1.913681645448380153e-01
-8.917318167471061097e-02 8.941899775864950439e-02 4.017413983363263275e-01
1.818388946520539673e-01 5.119082922920237255e-01 3.516069429953479486e-01
2.324223639387499041e-01 4.870800561345139945e-01 -4.120314262945686812e-01
1.908424357461015880e-02 1.593514357702340567e-01 -3.372766943201052081e-01
1.206023561148358569e-01 3.733340695696313327e-01 4.931472747686452274e-02
3.833337499813300187e-01 7.570742772583494151e-01 -1.872686311427418648e-01
-3.721146573535549229e-01 -4.230359171898980808e-01 -6.510728182327642222e-02
-1.074105292572921505e-01 1.049677502717412253e-01 7.250564027325846483e-01
-4.993846117975157817e-02 1.759451433348002691e-01 5.789855428409036442e-01
-9.907731797375052274e-02 2.998902123034117434e-02 8.355534895364506720e-02
2.592526713742520639e-01 5.311516862643860248e-01 -4.006627701720468782e-01
2.250066147029115560e-01 5.349118343681579235e-01 2.140706180789251831e-02
-1.205117947068042317e-01 -7.281310743319055478e-02 -4.172562385609783209e-01
-8.833939549448409367e-02 -4.657416050549001429e-02 -5.971886333832122640e-01
-3.289328546176893409e-01 -3.213257091065464532e-01 1.771039774582761350e-01
-1.012448080517992233e-01 1.084265999567350369e-01 6.791534631802571553e-01
-2.129545323324074924e-01 -9.744159981209837840e-02 4.690599312772335550e-01
2.870533872159671818e-01 6.269355724449643397e-01 -2.428377620056945338e-02
-4.598202879059909987e-01 -5.409042176431946292e-01 8.831078283344952207e-02
-1.672432014983243898e-01 2.659612958675597327e-02 8.445439208385221441e-01
2.973651834137926511e-02 1.471861353865787647e-01 -5.485532763017879621e-01
-4.035034822276765132e-01 -4.588709373994975804e-01 3.598444247973776183e-02
-2.078948897183522104e-01 -1.188265964265029784e-01 2.551720641731007877e-01
-3.639689988458113534e-01 -3.707204385100664745e-01 2.215903673325023415e-01
3.606237995776373495e-01 7.886747917376216721e-01 3.043700025298015643e-01
5.517387651899908737e-04 2.671827541569452569e-01 6.607753557055601190e-01
3.870931786866822488e-01 8.087159473930771725e-01 1.450823248884425265e-01
1.691689271527100080e-01 3.499716402050370712e-01 -6.804137173053831367e-01
-5.721616756008232052e-01 -7.331992494305746844e-01 -1.576050643470230245e-02
-2.135045938843950775e-01 -1.762270326865927328e-01 -9.774659792895290522e-02
-2.509948724226678807e-01 -3.039497528871109577e-01 -5.947928532693259607e-01
4.510314359088020142e-01 8.819600054411159684e-01 -5.902750693692163098e-02
-3.914073586821544271e-01 -4.859045932676556157e-01 -3.000977254078980305e-01
-4.545363260341178657e-01 -6.142086010836030896e-01 -5.058645279269921025e-01
-8.098335661177212541e-02 1.271508730429986578e-01 5.818375247337922440e-01
3.614372021355798381e-01 7.789360079972853512e-01 2.241473490490700493e-01
2.904456305194912380e-01 5.292747394947912021e-01 -7.738431273512558217e-01
1.794248440414236978e-01 5.626408768175847896e-01 7.484992229952819320e-01
2.569924070741527733e-01 6.440924342926003243e-01 4.470075154098500092e-01
-3.598778605881522985e-01 -2.857685577101101715e-01 7.924424417433846290e-01
-3.266562293701546493e-01 -2.276854941101394691e-01 8.320755877963845748e-01
-3.670406144124022663e-01 -4.960567499507340106e-01 -6.548003263012810438e-01
-3.647048834121466854e-01 -4.310952414804049559e-01 -2.091411601926429775e-01
5.465108522263167207e-02 2.133151090497313329e-01 -3.546417850692889506e-01
5.432722353562111778e-02 1.790378316507875434e-01 -6.002685519030077632e-01
5.496365649821416399e-02 1.845439245321007504e-01 -5.675483967097405547e-01
-2.167288765242820492e-01 -2.513693057695450817e-01 -6.072272272787092584e-01
-9.320758666518463853e-02 1.006234935582730333e-01 5.297516352797855266e-01
3.455147887123840578e-01 7.065863067774010853e-01 -1.186609394205648954e-01
1.869099932690462262e-01 4.306017532039234652e-01 -2.983288326721938999e-01
8.055309360906733399e-03 6.817917211800370025e-02 -8.734165344732531810e-01
3.365150629626715850e-01 6.191389987537355699e-01 -6.510909501485830919e-01
-3.008717464908172712e-01 -2.362404330238989936e-01 4.726517195280585670e-01
1.196759457651345449e-01 4.048612166780889421e-01 2.893453820919634212e-01
-7.888988674895582032e-02 2.238691896130243913e-02 -2.044259560828627087e-01
2.617302451665148508e-02 2.672135376542427165e-01 3.656916935334669216e-01
6.019134794574409336e-02 2.599272199519533366e-01 -7.940541276634111023e-02
-1.346282770399312989e-01 8.645935868021978332e-02 9.041201973075488896e-01
3.182920909112398888e-01 6.187127125055338350e-01 -4.441564832536311069e-01
2.551882663585944289e-01 6.111004002596549523e-01 2.277921110929398141e-01
-2.781274286773743887e-02 2.390929619988591548e-01 7.833537014686239308e-01
-3.729479366129624662e-02 3.755937862785990733e-02 -5.734693229488621036e-01
1.074978045706474067e-01 4.481130033796947298e-01 7.443561623805995398e-01
-2.089191484645285674e-02 8.241472558082191258e-02 -4.362141163157499668e-01
-4.477405280557089085e-01 -5.393931140710260808e-01 -3.992601541599792581e-02
-1.379024357258862576e-01 -1.550786280885521895e-01 -8.152773035165965521e-01
-3.981907037676532535e-01 -5.135960413425271209e-01 -4.233628865175164679e-01
4.992356709314747787e-02 1.895682125584797206e-01 -4.729064063920092043e-01
-1.453882151545106693e-01 2.609453258613874532e-02 5.889971860153447869e-01
1.618005737213753792e-01 4.196584224494031012e-01 -8.853122322013226575e-02
-2.487721941227714201e-02 2.573089376238200665e-01 8.820364034430580036e-01
-2.966050867878864961e-01 -3.845210558686516511e-01 -6.552337322652762586e-01
-5.915759928017596536e-01 -7.558387168085902719e-01 4.330930703333309151e-02
3.992041267259864301e-01 7.609782096081605385e-01 -3.417882902886368868e-01
2.851742326486603196e-01 5.341171116283285336e-01 -6.778585033402939608e-01
-7.070689158301414479e-02 9.918057530937304800e-02 2.599146432591846190e-01
-5.212626037816895375e-01 -6.763712498126920325e-01 -1.890055510168309472e-01
-3.783932795948261041e-01 -3.404566472905424801e-01 6.080050870200877089e-01
-9.282305957838227206e-02 1.353528753240362814e-01 7.779681391289513526e-01
-1.397742641238275407e-01 -1.738503166341833217e-01 -9.302627039552433530e-01
1.233208612352234695e-01 2.627644584719210918e-01 -7.863876893960544123e-01
1.354400636330186924e-01 2.665059879204763060e-01 -8.988532461079860036e-01
-5.429001007905457366e-01 -6.167459776627725043e-01 4.941459912171172197e-01
-2.358282842469828222e-01 -2.633300321788389353e-01 -4.741015586521388214e-01
-5.000182618318353978e-01 -5.332882623249025622e-01 6.070317767458869307e-01
-6.684922036688588365e-02 2.453576357093667851e-02 -3.275727441763308101e-01
-5.899734953994237863e-01 -7.645795233880887665e-01 -3.874828948328505607e-02
-2.588584890178876052e-01 -2.719189918030708863e-01 -2.711411828226586440e-01
2.672287680910894747e-01 6.550168965009044442e-01 4.084975785561556494e-01
-2.992762886442937864e-01 -3.754316605695967590e-01 -5.583224820378083209e-01
-9.026244711447735380e-02 3.116893752716662358e-02 -9.460077297334784294e-03
5.851607403467559698e-02 2.431143923999455891e-01 -1.824059974389183603e-01
1.664261573770353941e-01 3.756752569227839733e-01 -4.618128261614166119e-01
-8.966283194295543435e-03 1.324750357702274006e-01 -2.094897939128201325e-01
1.522467760832403039e-01 5.074396592019698726e-01 6.601735406357533975e-01
-4.388587553674599406e-01 -4.329794488941066111e-01 6.318395286436903069e-01
-7.090983561433086835e-02 8.690128264072849440e-02 1.729246319915738461e-01
-3.203396138828724093e-01 -3.838745740291572561e-01 -3.769696504290662720e-01
-2.550757746310437502e-01 -3.076171604343904686e-01 -5.744364781341433357e-01
-4.555487263791595520e-01 -4.692287287008932717e-01 5.605005299625792636e-01
-4.418997852946054961e-02 -2.078577380414806455e-02 -9.184443013924379340e-01
2.911847232925289242e-01 6.317905865520545561e-01 -3.658187246892587868e-02
9.039088474148462490e-03 1.088954108271066173e-01 -5.885538813849373607e-01
2.550926336925532500e-01 4.730953300058686750e-01 -7.750617713339901238e-01
4.157318175109058767e-01 7.994502202912714406e-01 -2.524089990360586233e-01
9.973607065111629588e-02 3.473300756533061473e-01 1.006435573929306826e-01
4.510941445979202435e-01 8.619139734580458789e-01 -2.055806946070535823e-01
-3.141023851446194115e-01 -2.866353025006746491e-01 2.585348937342885067e-01
-1.978579900795507385e-01 -1.568991819198905513e-01 -1.374815099820227982e-01
1.033933832322242452e-01 4.145529396442154679e-01 5.475212036654348857e-01
-4.266921258245432585e-02 -6.792645694772654272e-03 -8.341755631173070062e-01
-1.445301856560680942e-01 -1.011192076492497677e-01 -3.463439613421435137e-01
2.580727773494946309e-01 5.942343759896966393e-01 7.184904477560243030e-02
-1.540059339257424109e-01 5.296652125524551474e-02 8.838116203029287021e-01
-3.932776738699680918e-01 -4.440610598305222423e-01 2.586166509900356819e-02
-1.030296001325791827e-01 6.867035986516778490e-02 4.105069573229664925e-01
-4.489869615811296066e-01 -5.004984647746637538e-01 2.573901212668704419e-01
3.251197726772871166e-02 3.297414314113315537e-01 7.475062420002641650e-01
2.326205834497720865e-02 2.123978907236758473e-01 4.714948780275438826e-04
2.773440793951328920e-01 5.619246610367754080e-01 -3.853154508252908950e-01
-4.534481602590079152e-02 5.504157217470068142e-02 -3.535067505923678022e-01
3.722436063094612946e-01 8.091491969932056438e-01 3.193883578993896299e-01
-1.684660936015379418e-01 -8.117818133159979133e-02 7.460472131793982609e-02
-9.494727304315714322e-02 2.971519603369149679e-02 3.396097127707233682e-02
-1.651975700213058340e-02 2.660716754647927118e-01 8.494563443754270526e-01
3.146137682521760182e-02 3.167231482771692974e-01 6.649102172604361982e-01
4.011858421334382196e-01 7.532428012201346501e-01 -4.209026563882850569e-01
-1.631004824637647885e-02 6.014394114574889844e-02 -6.510391082600961443e-01
-5.985780297502979290e-03 4.948256650316839450e-02 -8.475944017239523953e-01
-4.883021808528777152e-02 3.561141619649128148e-02 -4.546845148318551244e-01
-2.020735412863699371e-02 3.547717185328787270e-02 -7.855645175396863689e-01
2.788073724674068332e-01 5.724030426572136454e-01 -3.259532851319885682e-01
2.984695979117118481e-01 6.040213481075445978e-01 -3.225614106810720805e-01
-2.034643723898436618e-01 -1.269655867521374271e-01 1.448971571557229887e-01
1.140322144856333736e-02 1.045383912269915172e-01 -6.474989170256577609e-01
1.886865472457611714e-01 5.360540319718765101e-01 4.483366657107061837e-01
-5.764198943540481679e-01 -7.281543633658981163e-01 7.001959063980260634e-02
3.795337394501858141e-01 8.039818424379258088e-01 1.977718791860286485e-01
-1.237460532550591769e-01 -5.048225150941602034e-03 1.129958219720227086e-01
-6.776040021043015782e-02 9.790749476808420504e-02 2.166923899150448030e-01
-4.637728903373064537e-01 -5.823864947890966537e-01 -1.679063579674469620e-01
-2.809528038265829974e-01 -2.438440778096588324e-01 1.877537572344637751e-01
-2.598860776953935137e-01 -2.990737926426810245e-01 -4.568424541987970988e-01
-1.459328309719054306e-01 6.075697255660530982e-02 8.474358834179869238e-01
-5.784241345566406567e-01 -7.303660168646118889e-01 7.703091604305900564e-02
1.628113550246875485e-01 3.926448301418295483e-01 -2.966992211220317865e-01
2.536241237009052019e-01 5.493021858283151371e-01 -2.037480226354622947e-01
-5.653062815371509564e-02 -4.057460804673197752e-02 -9.201669390511222346e-01
-3.683779454036786860e-01 -4.943246839568550821e-01 -6.267860292142335421e-01
2.047308907902431196e-01 4.766706290485063779e-01 -1.685893728542891545e-01
-1.477925483703051990e-01 -1.651744025636016078e-01 -7.747296617553762754e-01
-1.113765361460524878e-01 8.981858312075713391e-02 6.605612669241014423e-01
-3.966734930026040162e-01 -4.034777015338373851e-01 3.602363222264857168e-01
3.105222848139750913e-01 6.014999119999369093e-01 -4.798219971861759636e-01
-4.397151190664470022e-01 -4.211656192957347611e-01 7.276528428448146846e-01
9.122496359462885229e-02 3.633315558707512771e-01 3.151486724042492082e-01
-5.439000298315680437e-01 -6.881215169758154726e-01 -1.357009946801389540e-02
-5.823888366033074249e-01 -7.294066143847709460e-01 1.297069951133986432e-01
-5.652727822474023361e-02 -1.409314354652011153e-03 -6.352867661520658071e-01
6.554078102042543152e-02 3.024614059247424658e-01 1.683644421215559905e-01
1.161387598943013633e-01 2.455835363818246186e-01 -8.285951034984143648e-01
4.116620963392097488e-01 7.591884546768693509e-01 -4.983972950725705231e-01
2.139806911550594659e-01 5.204057914450689326e-01 4.296219208461475592e-02
-4.877508877450636438e-01 -6.379912577185435918e-01 -2.960513392680106937e-01
3.334173035548724240e-01 7.003536626062130122e-01 -2.456799726378182044e-02
-5.378753848619229894e-01 -6.209175705953382529e-01 4.058843603752033125e-01
-4.684114318101247898e-01 -5.704373978706546167e-01 -2.751611534258804892e-02
-4.892649452080594097e-01 -5.642886301728556875e-01 2.575696810039524998e-01
8.953864625549134981e-02 2.866716550579510581e-01 -2.230987483893702439e-01
-5.794078586157382915e-01 -7.071150727702650851e-01 2.575146284127080576e-01
-4.475910787168498328e-01 -6.170534930899560511e-01 -6.066105000323296359e-01
-1.304043675382444145e-01 -1.205596570729327993e-01 -6.505812399678433389e-01
2.115057171049598006e-01 4.629580967514725365e-01 -3.464307559570004025e-01
-4.335610797925894544e-01 -5.438509570440479557e-01 -2.357863050163023777e-01
1.097116026597571127e-03 1.814181976276567354e-01 3.057137198262150496e-02
3.154222825323447776e-01 6.823784724356346532e-01 5.207477042128626221e-02
-5.359349586474053684e-01 -6.761915357821326467e-01 -1.858651874965731518e-02
9.044256592331167965e-02 2.157220337706365898e-01 -7.496598928058991751e-01
-3.475287853450025333e-01 -4.336640835604391175e-01 -4.257983849161016687e-01
9.411530014805429001e-02 3.366780944337156578e-01 8.793703712120201632e-02
-3.525109770566406397e-01 -2.888088111882324838e-01 6.854155343323725669e-01
1.828254831357241025e-02 1.273926117232496991e-01 -5.605297820888487381e-01
2.136894880704755528e-01 5.114857767736541438e-01 -1.857255799587924708e-02
-2.640589976926397964e-01 -1.228266349583910233e-01 8.734128746472014093e-01
-1.614813941325542179e-01 -1.873994332574774879e-01 -7.786359524640500407e-01
-2.190297162489958649e-01 -2.907100005302094559e-01 -8.669028354703817163e-01
7.006950462546575331e-02 2.601872326602072127e-01 -1.913682266185268988e-01
-9.907737541194971964e-02 6.699050486238217195e-02 3.527335587349628709e-01
-5.448624461919304718e-01 -6.271240573063675550e-01 4.412655122527561757e-01
-2.456214297372970590e-01 -2.488198026025551790e-01 -2.556683515889515701e-01
2.881565220929434568e-01 5.869498091233760206e-01 -3.278858826922503300e-01
-5.230355092601007838e-01 -6.945832676360166325e-01 -3.010596443684186996e-01
4.247429375088431630e-02 3.291336584091297812e-01 6.282604655459472776e-01
-1.127444173470154576e-01 8.649572871133502650e-02 6.521542622917080312e-01
-8.169906291775397289e-02 4.031577915534545475e-02 -4.161929462311610151e-02
-8.987763457915645682e-02 1.119947028630532831e-01 5.740940545444938037e-01
3.629228294331034443e-01 7.598469673888105236e-01 6.815568566258141392e-02
2.194514530266975794e-01 5.894710406547511994e-01 4.823411997307754384e-01
1.506491700722337457e-01 2.897710103949628913e-01 -9.049035736725679069e-01
-2.511743623572654238e-01 -2.152154748817923235e-01 5.279802268564667139e-02
-3.314779899249239437e-01 -4.075429465245197225e-01 -4.207723131798867255e-01
-1.313125877610794023e-01 -2.972297119934995402e-02 2.070343517995251389e-02
2.953552180962862872e-01 5.584121783117970139e-01 -6.184620206299316081e-01
1.151566903392539087e-01 3.959337532566727935e-01 2.764884250684166989e-01
-2.361105900935957236e-01 -3.097798390529948320e-01 -8.087597320156227898e-01
-2.230293338231522371e-01 -1.387585307859977857e-01 2.846093166557762122e-01
1.697473021087839151e-01 3.157012875327883106e-01 -9.363891704279917461e-01
-2.660778613568902662e-01 -2.928490211392065223e-01 -3.401929359894340088e-01
-2.241507583013437610e-01 -2.520404907917863646e-01 -5.265663052543519962e-01
-5.255099304866958088e-01 -6.627154025281705163e-01 -4.070817032450795708e-02
1.497081773987591485e-02 2.615674984333531405e-01 4.537331938744071369e-01
2.025315252623643703e-01 5.454661588329203781e-01 3.572323763069302771e-01
-3.550969331529295614e-01 -3.197254443171692606e-01 4.903093114294059252e-01
4.027778824749381203e-01 8.148680410695744447e-01 9.057580730610827885e-03
2.440072386515315939e-01 5.427904138535909473e-01 -1.402767470713811027e-01
-6.208436249756543041e-02 -1.104360782032805244e-02 -6.413238740043345487e-01
-7.742353360657996952e-02 3.706712710977833752e-02 -1.145317087319851629e-01
-6.288131077888441112e-03 1.973094067589385159e-01 2.312977741266628862e-01
-1.568175970802005714e-01 1.406016188529091680e-02 6.331833896617864443e-01
-7.485841843458711231e-02 1.438371079360892812e-01 6.326309247650329093e-01
1.108045805432454067e-01 2.542969827895816826e-01 -7.037256656287327328e-01
-2.242328116904405144e-01 -1.549640324662449054e-01 1.805890325577841071e-01
-4.005206868087443639e-01 -5.340663472549956881e-01 -5.454247189748695490e-01
1.111531935531358956e-01 4.595388532413328675e-01 7.853451362032459748e-01
6.164970122754118848e-02 3.802260977353615901e-01 7.789333247344545352e-01
-8.161738819740693707e-03 1.405562509311536756e-01 -1.599738282499593989e-01
-3.761780506195009921e-01 -3.859102500874879160e-01 2.518078149851382674e-01
2.674662911912652485e-01 6.868805244531214216e-01 6.375607108551839541e-01
-3.778751725984456078e-01 -3.159610812946407887e-01 7.802332370640213677e-01
2.008427248388226227e-01 4.393915841539566824e-01 -3.949716221855957277e-01
-5.153604162096405705e-01 -6.142519880453878311e-01 1.948703894001714565e-01
3.666133776852746329e-01 6.682311307987247595e-01 -6.408658880944826386e-01
9.490526640966534186e-03 2.329466273084134231e-01 3.086878565227130222e-01
-1.512993634100918139e-01 -1.079387956324623227e-01 -3.179342823337305002e-01
-2.683511511207503641e-01 -3.111601760597747512e-01 -4.472008654762631430e-01
-1.180353069448898951e-01 -7.661297075796358325e-02 -4.734430731181822893e-01
-1.902974384127923690e-01 -6.786719904377930268e-02 4.230643903457453892e-01
-2.325225643264380304e-01 -7.368167313920913342e-02 8.674466932041249301e-01
2.438441536335417964e-02 2.792801920090829948e-01 4.740891912820076604e-01
-4.516014938722868188e-01 -4.847790828569398802e-01 4.018798806388214073e-01
-1.940726028206423981e-01 -1.012433722323042781e-02 8.866428959413592548e-01
-5.053284060088528845e-02 9.157857381189754564e-02 -2.791170975097575016e-02
-8.112560422870408738e-02 -8.691657189427474950e-02 -9.738159053913433283e-01
1.232655239146541737e-01 3.382795239887177452e-01 -2.363946053064256980e-01
-5.458273643801596353e-02 3.820807468708357219e-02 -3.694916250608933361e-01
3.372673219461251315e-01 6.289535519187308132e-01 -5.883627021616814057e-01
-2.898600011393200893e-01 -3.485605971829618399e-01 -4.713723883945178939e-01
3.287999960508386499e-01 6.379698272902453171e-01 -4.251780117394490799e-01
9.345360988998749341e-02 2.253948096774291698e-01 -7.139975045394624242e-01
1.617199456821203363e-01 5.315998138310704668e-01 7.267467615738586462e-01
-1.059021736367408012e-01 1.034666354492126128e-01 6.967510163302227388e-01
-5.161065724038125246e-01 -6.711282797719453352e-01 -2.102918590132434873e-01
1.639070226861728818e-01 4.771983256454326860e-01 3.057800933021830869e-01
-4.686240073371856774e-01 -6.209970962702027197e-01 -3.928765362651515103e-01
-2.069330009124244751e-01 -2.785287450155775613e-01 -9.177120828774063543e-01
-2.403360890002326500e-01 -1.336318424783484449e-01 5.213802395225612951e-01
2.088123006570478668e-01 4.030738970612435801e-01 -7.510309962320492749e-01
-2.696037173322444191e-01 -2.902071117484656959e-01 -2.803350767909642549e-01
-1.003112960824031064e-01 -8.681543471915627308e-02 -7.519483674724323219e-01
2.444225718487463284e-01 5.019213112831454326e-01 -4.423774370976271686e-01
-3.970534855399536212e-01 -3.627692670019420640e-01 6.607608562302322852e-01
1.143174906250633283e-01 4.242990127321253357e-01 4.925118733349193589e-01
9.503666918295811117e-02 3.460736242985436029e-01 1.456678435321592802e-01
1.334659878936399757e-01 3.136748821122136710e-01 -5.329571122375355019e-01
-1.193517574082419569e-01 -1.116920517642153304e-01 -7.134623334535253880e-01
1.085040856314130192e-01 4.549387862992551601e-01 7.824139474651925497e-01
2.269134121201338561e-01 6.215223472205417821e-01 6.295017430390971169e-01
1.892594177339152195e-01 4.864223895833946210e-01 8.067469689963852053e-02
-3.199413726363924820e-02 1.236863228373785428e-01 -8.009672769392487887e-03
-5.327322899808545342e-01 -7.217745736479727059e-01 -3.871065034437268793e-01
1.671113228918543747e-01 3.266360812220808763e-01 -8.264590297117058171e-01
2.351599781104066200e-02 1.919564765779049609e-01 -1.511621109646311689e-01
-4.229072358419392885e-01 -4.295070164241182042e-01 4.732455628980687390e-01
-4.052334414930260365e-01 -5.171898604263487353e-01 -3.683334409896495409e-01
-3.062039354962548532e-01 -1.989395000357824794e-01 8.054658111716922475e-01
2.361975379341425263e-01 5.333534325341316995e-01 -1.189150890424738177e-01
1.318875775586332393e-02 2.389482560460025884e-01 3.097230375961963489e-01
2.199906085994567106e-01 4.585022295607587561e-01 -4.766419519474033861e-01
2.900282912205141006e-01 5.610929100368922118e-01 -5.375628287909692826e-01
-2.296376842529698759e-01 -2.600191510174560960e-01 -5.213676859181977097e-01
-3.821896751149068960e-02 2.547996319143487273e-02 -6.506924708615057229e-01
3.404290139462426978e-01 7.048808957355752192e-01 -7.244944660493519983e-02
1.328943528316444689e-01 2.604838671974240571e-01 -9.133213009555003481e-01
3.986277683433742114e-01 7.395062343515544923e-01 -4.913490936051480018e-01
1.968573623213026313e-01 5.868408648585747844e-01 7.236238060488604518e-01
1.268546726514171163e-01 4.717271474886634564e-01 6.930390560092276608e-01
-4.944201721633584290e-01 -6.204045213557195515e-01 -9.124244710424654625e-02
-4.219409806272317320e-01 -4.586667757868219675e-01 2.499778798395297930e-01
3.411236250526147179e-02 3.248076930488739689e-01 6.931685629058041975e-01
-4.894256880946165067e-01 -5.498809019237373974e-01 3.642353948899102467e-01
-2.076826838547609147e-02 7.927527024161397373e-02 -4.604780873085566606e-01
-9.323168860762913457e-02 -2.621106925831508117e-02 -3.926637486660763399e-01
9.239861820722852781e-02 3.010581575612910621e-01 -1.514038131886532024e-01
-1.152581161695491463e-01 -1.357366952804157367e-01 -9.355645329356478967e-01
4.155883914463698314e-01 8.212093011266041742e-01 -9.246342474876545481e-02
-3.585444672182181436e-01 -3.373401754480113701e-01 4.019018968207706544e-01
2.450625289301680554e-01 6.242815398295130658e-01 4.403898959386614020e-01
-4.364867678540226836e-01 -4.151768878192864665e-01 7.340099738240318805e-01
1.099046922254002939e-01 3.789681806640597395e-01 2.136015119558765385e-01
1.656176025856825884e-01 4.657635353411047063e-01 2.028786207366999883e-01
-2.403785256420456762e-01 -1.699453533503374192e-01 2.576966594941092481e-01
-1.178579159165342449e-01 -4.915638120950979739e-02 -2.757470886772577789e-01
-2.796504304658972706e-01 -2.013002350520058936e-01 4.822397466653788323e-01
-9.335233251948493738e-02 1.369933832010970520e-01 7.960027993927738521e-01
1.330303001498876203e-01 3.338947763621608056e-01 -3.808402072757774981e-01
-2.157539438166409251e-01 -7.242061467481251957e-02 6.833476747572774235e-01
2.998493050667855320e-01 7.012668401025949905e-01 3.689755476073651175e-01
-5.107851953064657113e-01 -5.788822983738134420e-01 3.994435990166776418e-01
-8.218985833478183178e-02 1.750514464761080691e-01 9.442095038110354110e-01
2.881571224893226812e-01 6.513934193075582302e-01 1.409201002465304831e-01
-4.569020565884217011e-01 -5.414643071516616057e-01 5.060110208160293471e-02
-2.507062643202008778e-01 -1.365455639084538209e-01 6.197088566110171559e-01
-1.107102320936766138e-01 -8.126005456867572974e-02 -5.916774317133814964e-01
-3.450470154575127069e-01 -3.246814728329426858e-01 3.384212649370110237e-01
6.396750804251650178e-03 1.605758211126094015e-01 -1.821351732653223865e-01
-1.983946617215682773e-01 -1.695773871716372561e-01 -2.235270203851396353e-01
1.443499107612382648e-01 4.412488182937849834e-01 2.696681654692846819e-01
-5.828020583421851253e-01 -7.306274200347410153e-01 1.255886460488928880e-01
-2.271630445074633298e-01 -5.928004884734685426e-02 9.104421726161986417e-01
-4.526726744133256070e-02 9.050638609901512366e-02 -9.640194741151970892e-02
-1.977428153411937839e-01 -1.382604847360030531e-01 -3.216630591297186398e-03
6.690384211338105958e-02 2.668839376965747578e-01 -1.061641756794759334e-01
2.088193742896404248e-01 4.224803982030714278e-01 -6.099345548731397448e-01
-3.713624903259983845e-01 -5.146863847865740249e-01 -7.405133888375712292e-01
3.353152377529118877e-01 7.059692638416924515e-01 -5.591092267398459041e-03
1.284935596545686842e-01 4.324978815739769500e-01 3.887652902853304671e-01
-3.919270969615133438e-01 -4.411867801331504357e-01 3.120483568822124409e-02
-3.172133275149690568e-01 -3.082608145777525621e-01 1.370704294596867268e-01
1.857086772959205268e-01 5.443251023906164887e-01 5.428294013306490529e-01
1.897110578901967659e-01 3.924263565268800158e-01 -6.083310425247322462e-01
-6.612236172375590693e-02 -3.702223341539789825e-01 -9.236117448948266695e-01
3.457645250527304204e-01 3.073460385857998967e-01 -8.898333314105240088e-01
3.443376463898784046e-01 2.789989227480822453e-01 -9.006937801483816397e-01
-8.710752116723510796e-02 7.372504078025735041e-02 9.541423752497989463e-01
4.374034193585606967e-01 8.198796386611644227e-01 3.181469532724253146e-01
5.769563489575358917e-01 8.013130306475774178e-01 5.893294896382628156e-02
-5.727972434582757622e-01 -7.826345128306854138e-01 5.167576562171549703e-02
4.041198152355874873e-01 5.600250415861988129e-01 -7.229390340434951323e-01
-3.770055175844262974e-01 -3.276231453563012153e-01 8.217742453817288295e-01
-4.186698463607607668e-01 -8.387087233310740464e-01 -2.829344164212718726e-01
-5.325257070400001014e-02 1.465814323876575842e-01 9.495677010980031474e-01
1.998859780904148342e-01 3.468439127177423420e-01 8.795999056438114083e-01
-5.395288484423952369e-01 -6.744305814938091892e-01 4.297551195904812937e-01
1.708747837012944970e-01 4.667729100783070684e-01 8.304463460234533523e-01
-4.575010736792033406e-01 -8.492155478808345315e-01 -1.414491412649280244e-01
-4.406060900854653732e-03 1.714397928387883241e-01 9.462789869687617816e-01
-1.821212051550204769e-01 -1.674125143021335527e-01 9.257883228687798782e-01
1.015373514388930032e-02 -7.719065388930133886e-02 -9.956078326355251029e-01
3.214350869677787270e-01 6.736882416829805820e-01 6.260686367738808045e-01
-5.614540297771556387e-01 -7.536979980052536110e-01 -2.794936706052133513e-01
5.955993962754713156e-01 7.891776066710598503e-01 6.458299550792673260e-02
-3.899745899546149253e-01 -3.777967163946458484e-01 7.925820544117573307e-01
-3.050087084479217725e-01 -5.729824362764723844e-01 -7.451136540988438917e-01
3.069084045747861866e-01 3.798800899120853836e-01 -8.736725317061106999e-01
5.384116613955356456e-01 7.432394949370971782e-01 -3.860649744691634355e-01
-5.008640584420814834e-01 -6.234394526225806032e-01 5.353508207315689216e-01
-1.281281708785134976e-01 -9.763366120848629426e-02 9.451597095193096099e-01
4.936007807196035047e-01 8.435735669488760857e-01 1.283357164760985936e-01
-4.634464542732125159e-01 -8.551293379903545100e-01 -1.969189951868570085e-02
-2.002135579032632007e-01 -4.895254315517913457e-01 -8.388874485566096828e-01
5.693883790886340446e-01 7.841005062276376059e-01 1.891271526070420761e-01
-2.575940674138509356e-01 -4.770906844254704793e-01 -8.296135302753872010e-01
1.015423808871594030e-01 2.249326237790988392e-01 9.311437741672299317e-01
-4.740119139587784525e-01 -6.047287253196718115e-01 5.773417389254011933e-01
5.650757156796475389e-01 8.120661026059551313e-01 -7.240993364606100775e-03
-1.670374529913478193e-02 -1.202536883633687909e-01 -9.906711569922598271e-01
3.568085029587503287e-01 5.505974705744645092e-01 -7.562205957311948223e-01
5.057586540647877049e-01 8.353954144985707986e-01 -1.740427873418230464e-01
-4.306919356116979958e-01 -7.427731264618120388e-01 4.397523247768357346e-01
7.577205820911835088e-02 1.919189620051228728e-01 9.402253585977942141e-01
-4.038894174549568228e-01 -3.736115661312597869e-01 7.889888891692771189e-01
2.214084127355112064e-01 1.987101632868312762e-01 -9.555521385809556678e-01
4.862982769121543258e-01 7.082424809899026119e-01 4.715375219725985723e-01
-4.619176014740328934e-02 -3.755182533153086921e-01 -9.245635107326871660e-01
-3.224944769256966048e-01 -7.174478076779097213e-01 -5.950938887521459719e-01
-3.248470928192471741e-01 -3.998135378189053291e-01 8.078593778155453986e-01
6.602299243878605173e-02 -8.052981516394346062e-02 -9.935412610105512909e-01
5.688172720331078347e-01 7.788937113386540378e-01 2.103692015786813863e-01
4.416707037740517650e-01 8.688479109432445391e-01 1.606197589551387195e-01
-2.630733691772523253e-01 -4.184213760819719963e-01 8.230132570903448963e-01
-9.571888425042668347e-02 -3.630317509948737253e-01 -9.218524282816455973e-01
1.067593368723102343e-01 1.732068610714560530e-01 -9.822806854428512979e-01
-5.613862090194368104e-01 -7.782754860051012136e-01 1.338428658097074175e-01
-4.555986470902457786e-01 -5.826903613831031503e-01 6.126477277028874457e-01
4.393297211241702915e-01 7.298794855809218607e-01 4.794255148336857286e-01
-3.916112573049018164e-01 -6.535688585585458510e-01 5.878077326619010057e-01
-5.393932685510618441e-01 -7.588464935418094415e-01 2.574594161457903763e-01
-2.479526693729357592e-02 3.099586830672555748e-02 9.596979439701618375e-01
5.538105898851941600e-01 7.469049794395569153e-01 -3.560947298616071732e-01
4.178013216000787122e-01 5.368624082307372758e-01 -7.328734495698900897e-01
-2.964391236710884892e-01 -6.544450224673560301e-01 -6.775346886071249575e-01
-6.205174157364211872e-03 -3.195538935163178690e-02 9.625354996332379232e-01
-3.811678347769573150e-01 -8.010640685323440202e-01 -4.223487903237780894e-01
-4.689176334142007851e-01 -5.498164928130109264e-01 6.340596251507459868e-01
-4.563320568290901713e-01 -8.108081116054138837e-01 -2.983123711614431572e-01
-2.683372454286025999e-01 -3.000102272606758880e-01 8.692761498027570255e-01
-4.834433712274323058e-01 -7.130216786348765323e-01 4.295528214288154012e-01
4.710237062655354690e-01 7.573659107862269479e-01 4.050228043127797051e-01
4.535252171780719821e-01 8.468102831847210687e-01 2.173566203023782062e-01
4.971220591405206002e-01 8.345229629625799950e-01 1.624299170648709212e-01
1.576290519435657178e-01 2.411045326119971299e-01 9.220817350101133680e-01
-3.675037054308509243e-01 -3.696381474019043711e-01 8.057541164190641370e-01
-7.463191472114873160e-02 1.336658933739852395e-01 9.504769918918596350e-01
4.296418710546347497e-01 6.538360712831285948e-01 -6.212618071421002197e-01
-3.958364112196418594e-01 -6.331872542649285007e-01 6.054225514801739871e-01
-4.280888048704922788e-01 -6.315872505226139966e-01 -6.264371517006696033e-01
-3.239763998163082137e-01 -3.021241317237581825e-01 8.508487939505211539e-01
4.931107027796887143e-01 8.546207915608530215e-01 -9.214569785064087581e-02
-4.702581686148233908e-01 -5.784121669097972429e-01 6.065974856454625641e-01
4.873424001579062526e-01 6.764206829149140843e-01 -5.479935839631930872e-01
-2.748543972123147494e-01 -4.077627263108025146e-01 -8.648921619079785739e-01
-3.159222525131218373e-01 -5.524764261353450889e-01 7.216937458755297019e-01
-4.193961324324764761e-01 -8.483145714374915602e-01 -2.507727675646478360e-01
-4.302259978960033537e-01 -7.380473634626861790e-01 -4.824109064458904639e-01
4.572681463228719934e-01 6.889044508498204378e-01 5.223586667250782467e-01
4.364806386139911953e-02 8.236935041162996018e-02 -9.985826319200207246e-01
5.593273501685815940e-01 7.775988063355198099e-01 -2.653263759077666983e-01
-1.255102924270274645e-01 -4.084364273729261252e-01 -8.979759799334733339e-01
2.475314013526597468e-01 2.044795414277201517e-01 -9.483796832496235174e-01
-2.830372453747407313e-01 -1.712526315590092996e-01 9.028332861500957263e-01
-1.971442339976693103e-01 -5.314951877544217274e-01 -8.142120154200488402e-01
-4.672206141958161751e-01 -4.963752042766035877e-01 6.795116520901189894e-01
-1.574082970165769924e-01 -3.719807980109678391e-01 -9.078458747027055020e-01
-5.803278087391003925e-01 -7.163947931120147050e-01 2.967473547856621097e-01
-9.759462094891780196e-03 2.755251077597832832e-01 9.262314403799271068e-01
-1.676946404613090247e-01 -1.062867608718342377e-01 9.378929458339239078e-01
4.589872835603023837e-01 7.781454544788524164e-01 -4.225681591718370433e-01
3.667472154059016054e-01 6.373130811588644251e-01 -6.812864162023448689e-01
5.012268351331514854e-02 -7.269624387938361521e-02 -9.947530289263050163e-01
