6.816750133081146690e-02 2.395938434009836915e-01 -5.647558214777497199e-01
-2.570501786883054585e-02 4.946590100208419494e-01 2.159306375861822780e-01
-2.802146241459994025e-01 3.339889705571740253e-01 -6.835887285324541152e-01
7.802861032244919892e-01 1.454577678472487590e-01 2.787127878934480066e-02
-1.704611769002794402e-02 1.964479095848160606e-01 -8.282401581977295590e-01
4.061251044007494482e-01 5.963764501886887476e-02 -7.622928540813964648e-01
-6.760634775198940405e-01 6.131834344624785826e-01 -2.100897202883367509e-01
1.600216473461990585e-02 2.236054623290849863e-01 -6.891596494264046191e-01
1.356908580823109819e-02 3.809218227662846679e-01 -1.355491899343481965e-01
7.633141608164081826e-02 1.259320253576045878e-01 -9.564138535041021294e-01
9.251249749551929691e-01 9.070456041151100934e-02 2.238736269299903409e-02
9.476373945644117613e-01 1.210839264592212111e-01 1.591733043236898404e-01
2.144742631462320803e-01 4.776929179708190865e-01 4.681305264120683152e-01
5.838686572979535638e-01 2.677803448587449675e-01 2.054415330644846494e-01
4.191272918524869273e-01 9.788817260809984377e-02 -6.100131440422701390e-01
-1.670750730506716797e-01 5.445261317677401181e-01 2.086313853953276343e-01
3.310951053150155698e-01 1.918294933976239514e-01 -3.919829688272934431e-01
-5.369462818228054601e-01 4.975879847787345600e-01 -4.383448118794465165e-01
9.610472399204466054e-01 1.191520287552008533e-01 1.697694717694460120e-01
6.988971199399429679e-01 2.367651234735799193e-01 2.452158607183972383e-01
7.022436806646039642e-01 7.382383289943092453e-02 -3.271147583899211009e-01
3.402115663477802698e-01 8.659915176032073614e-02 -7.525619822242463064e-01
-2.944690679796272970e-01 6.004218193630572742e-01 2.408380600089976009e-01
8.919596166311256902e-02 1.580193425137551844e-01 -8.261259014953882263e-01
4.397324308034916140e-01 3.859473551283710835e-01 4.362728690725683478e-01
1.899562171147345380e-01 2.054147336879258157e-01 -5.273904183277401403e-01
1.237809686245724683e-01 5.734690428085650327e-01 6.891948484079570836e-01
2.505314330670321832e-01 3.325493737031300912e-01 1.315223230835971344e-03
9.439709882165291388e-01 1.016542705599187968e-01 8.564139465408296403e-02
-5.983825075081437156e-02 3.451788312137398784e-01 -3.574842409951044520e-01
1.934015668111094821e-01 9.395525094540201072e-02 -9.173883450322718458e-01
-5.351732402144584455e-01 7.122746319839025064e-01 3.237785833597529028e-01
5.988087909237167494e-01 2.643649278989417817e-01 2.127766922052908849e-01
5.289919207253040989e-01 1.995245757449809476e-01 -1.074718479576561581e-01
6.879307774832250644e-01 2.115271004669095345e-01 1.416366783316324318e-01
1.421931958181230637e-01 1.505228671533337670e-01 -7.837580952292603209e-01
2.439739167079551241e-01 4.041247635124538551e-01 2.461094994584459572e-01
-6.228399630420986544e-01 6.852945616329254586e-01 1.143192531645467469e-01
-9.874290041655198191e-02 6.355884275167672515e-01 6.197543622031713717e-01
9.675395964038853436e-02 1.552204555600262270e-01 -8.262059022037625544e-01
2.432032426054605012e-01 2.270795658058859245e-01 -3.814902568429812679e-01
5.181299603481936966e-01 3.975748832379200626e-01 5.793460679953620351e-01
2.387793412251216010e-02 2.029788449467385403e-01 -7.519223804482229045e-01
-1.739359857293866218e-01 4.159413307235669821e-01 -2.553751230166050878e-01
6.665076081516975448e-02 1.985945287812443116e-01 -7.118323197855247475e-01
3.263344401555741681e-01 5.063010541681912668e-01 7.148047190803510365e-01
1.382056465353849461e-01 9.933446105913594504e-02 -9.701079826529932504e-01
-1.080421168717773245e-01 6.042969778713876972e-01 4.969182654314325820e-01
-4.336914080598041066e-01 6.655608248611707412e-01 2.903811607826919938e-01
-5.854231767833208977e-01 6.411553098983548971e-01 6.745617803100985646e-03
2.081890662179654294e-01 5.355743531381429445e-01 6.648132292434554280e-01
-2.306817329904422842e-01 2.594878823131397949e-01 -8.828672849199343808e-01
4.358815635829573210e-01 1.906392430978763319e-01 -2.599673592476117179e-01
2.273024205750280025e-01 2.079841218500506073e-01 -4.697447356454487744e-01
2.635738255654156981e-01 2.014575434328780001e-01 -4.456887677853703655e-01
5.475974492156329143e-01 3.553200146930857173e-01 4.681071136493316076e-01
5.206324646542592749e-01 2.792828204407887815e-01 1.639405435691195789e-01
3.962392855412357195e-01 9.793984473964270632e-02 -6.395859290610547143e-01
3.435958659733550080e-01 3.803881318548843482e-01 2.916148783118771570e-01
-4.887561569014722829e-01 6.174103394048175986e-01 4.837991369190586255e-02
6.577054622294947750e-02 1.425775380658496905e-01 -9.112318141201528610e-01
7.906340410593280799e-02 1.876047029536350441e-01 -7.345903619928673134e-01
3.857503411000868798e-01 3.487171999794180799e-01 2.343283387900783887e-01
7.907925434331818382e-01 8.995420017664904067e-02 -1.549078347987511983e-01
4.789131856015896305e-01 2.929220163257520992e-01 1.579749953983836386e-01
-4.889657014062189222e-01 6.369790434898389142e-01 1.173649937080439298e-01
5.644728190927993383e-01 1.332616419062901958e-01 -2.958623136721673652e-01
8.084707850090991910e-01 1.490353794404627452e-01 7.717478245128177317e-02
-5.690854967541704168e-01 7.158891949582937286e-01 2.924834414052303599e-01
4.833951788784697223e-01 3.949253251203799220e-02 -7.331350438231447608e-01
-1.346956029535731070e-01 5.829703972143869262e-01 3.867883015414816383e-01
2.209924879457423608e-01 1.072686722433970063e-01 -8.343998139818558091e-01
-3.798989315622438578e-01 3.377828532287071583e-01 -7.997564943617632149e-01
1.200226625086541488e-01 5.657573858181270676e-01 6.570157709262302026e-01
2.844368640057947095e-01 3.011491268767967910e-01 -6.573751820753073738e-02
2.102787320376398594e-01 4.344867409625566834e-01 3.097609326793631102e-01
6.339113635096564892e-01 2.523998217689537027e-01 2.160650927435219804e-01
-3.477914837362016537e-02 4.816838034312448946e-01 1.582119578941545979e-01
1.474628621106484072e-01 2.848509535065017473e-01 -3.014936760456056741e-01
-4.717623523345558234e-01 5.838705727327330175e-01 -4.823105136843001267e-02
-4.909873767504555064e-02 4.803285258878439712e-01 1.347991125798195244e-01
5.044825333337769058e-01 3.128435551244124757e-01 2.617228000331806581e-01
3.711130351555091966e-01 3.879722439830588510e-01 3.542303737891124849e-01
6.239656530346514574e-01 2.085837415508670079e-01 4.806138299450112700e-02
2.035663489842640395e-01 3.729562064699257218e-01 8.326578188333554065e-02
1.820928142964219898e-01 3.742207090379932599e-01 5.982433339073657541e-02
-3.265314434126253551e-01 3.223181629130944525e-01 -7.851084203019967900e-01
-5.819994788165616662e-02 2.865842152734662251e-01 -5.627322481082892569e-01
2.401880171469608083e-01 5.373341367140304081e-01 7.126418403645287114e-01
-6.390128516190489716e-01 5.467683874928309651e-01 -3.969778125017439652e-01
-5.366643565911383834e-02 4.369307518091131715e-01 -2.473241827491558589e-02
5.389872665706310073e-01 3.865419909136986187e-01 5.674141296996064732e-01
-4.365896146044631609e-01 3.584946004636961336e-01 -8.001545356918740026e-01
1.071837707313374050e-01 2.390770089028110834e-01 -5.158617115940818953e-01
-3.252900263237604173e-02 3.206292742697935960e-01 -4.088664404093396709e-01
-3.656578521746382537e-01 6.378927315166922352e-01 2.809056791158052180e-01
-5.120670472677838481e-01 5.028671937514653800e-01 -3.873162824229533507e-01
2.767863445316763871e-01 3.377284827114546695e-01 5.377793458469742882e-02
3.073122181139361642e-01 6.568710611602203431e-02 -8.693447882104867741e-01
2.168785826855575971e-01 4.954698883638988804e-01 5.341724744123220736e-01
-6.221157244649769824e-01 5.131839446770262159e-01 -4.938725811735361626e-01
3.827286285412903610e-01 1.219321366210711216e-01 -5.722370756389365543e-01
7.172267975839644039e-02 4.826373111284078532e-01 3.000448242633774742e-01
4.653444494716439950e-01 4.336175427383703318e-01 6.382840836950638419e-01
-2.977695512193060390e-01 5.191838365530895283e-01 -5.096997653047892485e-02
7.818548499289023068e-01 1.586439587536962459e-01 7.657926318012364675e-02
3.537869836231242182e-01 7.257964627367680110e-02 -7.845309877590744829e-01
3.821250639772610924e-01 3.790296996541273750e-02 -8.704175196351606747e-01
6.806669148264409275e-01 2.509067333451537318e-01 2.715655383750790186e-01
6.702356528284701964e-01 2.546370068746220960e-01 2.712064989524394787e-01
8.611541143486679817e-02 4.541766413741921693e-01 2.180282465822630800e-01
-4.010679775449344509e-01 4.704871384394592737e-01 -3.576108026250567340e-01
-4.994828525390936358e-01 7.124563292038254003e-01 3.708211060647631507e-01
3.998982335455524839e-01 4.646635186423334063e-01 6.630782410596903764e-01
-1.193161209819068591e-01 6.460638301468922817e-01 6.300825615570225802e-01
-1.467866980472129212e-01 3.068376722649785449e-01 -6.062189046369309553e-01
1.592092646344868967e-01 5.866586699867336607e-01 7.819342646422577925e-01
8.953140742043648181e-01 1.902384187331666032e-01 3.359014932077379889e-01
-7.169972084992296546e-01 6.583046409030324231e-01 -1.036129746765222098e-01
6.627467716209287651e-01 1.394972222744398915e-01 -1.460318407173662181e-01
3.223343294297077444e-01 1.073712894585655692e-01 -7.022866821797426606e-01
1.401196135514977681e-01 1.476921314718569744e-01 -7.964723971587135409e-01
4.319249462987367894e-01 3.959972596826632496e-01 4.616913035680653143e-01
6.352768002174776774e-01 9.536377407490717606e-02 -3.379412781306394553e-01
-2.281559616901935039e-01 5.056551305127933160e-01 -8.349250307550154515e-03
-5.198435842460831235e-01 4.601554470482936976e-01 -5.485914938220740611e-01
6.953875707023090547e-01 3.791314328944354016e-03 -5.838869588352676443e-01
-2.450033682680989588e-01 3.061071956682165918e-01 -7.364912605402041956e-01
-6.767412260301640392e-02 4.049353261240734025e-01 -1.561812946976604832e-01
-5.059155630168962192e-01 3.988345095482539460e-01 -7.475111825371534291e-01
1.888171011391209797e-02 -5.104547093070170849e-01 -2.829125675362542114e-01
3.197672054772968675e-01 -6.922049546979702761e-01 -5.349948582108505768e-01
-1.040146723056783878e-01 -3.860869310340057092e-01 -2.522530215665376441e-03
2.587003267363759407e-01 -6.334722435111133088e-01 -4.065185111842778976e-01
-2.114242688987950092e-01 -5.576382576747523911e-01 -7.493148393049214873e-01
-1.931581181299523164e-01 -3.458753817302893663e-01 2.390269939840242164e-02
-3.998146296971418628e-02 -4.523823774955184063e-01 -1.539084950763318360e-01
5.150565443491097462e-01 -6.371855915117351499e-01 -8.638364563272300789e-02
-3.620427319074381867e-01 -3.296797318661295884e-01 -1.383369605018923698e-01
1.268310481889890484e-01 -2.730187909990927086e-01 6.977599861522236768e-01
1.139270612109548192e-01 -6.617373664099591712e-01 -6.947675314972785454e-01
-4.706741723132389921e-01 -2.328150386953703188e-01 6.325944632620192354e-02
-1.635465694016096649e-01 -5.759310590629548310e-01 -7.518130337368692517e-01
-3.004221463771782341e-01 -4.254731786374960634e-01 -3.972587036225779800e-01
-9.391200207956582613e-01 -4.739736863430966951e-02 1.104838311640392867e-01
-3.526157699972441439e-01 -4.554390453656251281e-01 -5.711683819603029511e-01
-8.157702384507022897e-01 -2.407091221156197058e-01 -4.133230736237914482e-01
3.929575864418131670e-01 -4.582633691366442830e-01 3.881220137516080415e-01
1.102345839108474640e-01 -3.836643441804520327e-01 2.845872597187206199e-01
-5.339864198993723443e-01 -3.699733598512465749e-01 -5.044802689069248780e-01
-4.273848484073678455e-01 -2.623051813046207159e-01 1.516651531898354811e-02
-1.910896365069335023e-01 -1.463602368959152356e-01 7.327152467358665211e-01
5.588878688920905224e-01 -6.957730718524119951e-01 -2.367531573512898224e-01
1.732915425951960797e-01 -3.019197166159544587e-01 6.558751056607144969e-01
3.000721113322901146e-01 -2.860492023087832791e-01 8.768656719268019817e-01
3.086005322810770335e-01 -5.488595566967791051e-01 -4.218453877117916279e-02
-9.635768143841687283e-02 -3.766441885567524128e-01 4.085170377174299206e-02
6.413621963114642943e-01 -5.077836216104846256e-01 5.357996931288091513e-01
1.262586815797361040e-01 -2.997893838853598059e-01 6.022694753767446896e-01
3.345772694451769613e-01 -4.060809229932632047e-01 4.969083597359492677e-01
4.981623083425998355e-01 -4.251732756261432655e-01 6.420062799485390936e-01
-4.314458750285051214e-01 -2.387976351480892989e-01 9.308479561148261250e-02
-5.666850455105467699e-01 -2.635415400514316553e-01 -1.703070942395145115e-01
-7.895797906083190654e-01 -3.370065605844017181e-02 3.533696923194124540e-01
4.987960202483708305e-01 -5.974234849598738517e-01 3.320271104634248821e-02
3.406422520794761821e-01 -5.525787430354451857e-01 -1.369147981895001490e-02
-6.994207862847222346e-02 -5.887777261114562899e-01 -6.755889503964913612e-01
-7.435396758825439933e-01 -3.106781255183043156e-01 -5.670534717343462816e-01
1.109010748520759468e-02 -1.694291278634113829e-01 9.139146465862189039e-01
-2.046683655551823910e-01 -4.602150063188333307e-01 -3.957317128606606671e-01
2.843703720563720561e-01 -3.301406748865887142e-01 7.004041413828244744e-01
3.735096573087312577e-01 -5.110561592548358290e-01 1.759945538483770611e-01
1.727644370470490243e-01 -2.435584678971465522e-01 8.617417976276536828e-01
-5.507906408888514349e-01 -4.155148683857213254e-01 -6.875070490638637288e-01
-6.559737104984807443e-01 -2.275270696584389685e-01 -1.589249467100962709e-01
-3.134743551100858255e-02 -4.838718298841587218e-01 -2.541311624208836828e-01
-3.077552908350927874e-01 -3.595199874727065814e-01 -1.733708551808063048e-01
-9.069441976794573312e-01 1.060481340138787199e-02 3.575953153569338960e-01
-3.126234345595177988e-01 -3.894486160559002541e-01 -2.856230222468025270e-01
-6.986357955220855454e-01 -5.902627301700576201e-02 3.819695229777528844e-01
6.570926338177857096e-01 -7.087024975347052669e-01 -1.548413645468309230e-01
2.704545840897524811e-01 -3.852331883548854030e-01 4.873295942072151665e-01
-5.498413063862976902e-01 -2.952685368658440335e-01 -2.606974029070336374e-01
3.171566099444987907e-01 -5.872820152166270402e-01 -1.670458198242310566e-01
6.547622073667717091e-01 -6.498382903843689107e-01 5.046098037899410943e-02
3.425678222141712581e-01 -6.925401875887290393e-01 -5.065392618258119928e-01
-6.645199713181593193e-01 -9.249968410614060887e-02 3.078529675178465763e-01
5.125208077208457391e-01 -4.492123414752516308e-01 5.755941258075606415e-01
-5.805424205991881470e-01 -1.259153643744450879e-01 2.987637105838260032e-01
-1.757651177872841530e-01 -3.043858109641410792e-01 1.933543188786874811e-01
-7.878405856866506074e-01 -1.548479747775705628e-01 -7.313347642505788060e-02
-1.805733868120625585e-01 -3.394961843200979268e-01 6.284077649963397405e-02
1.804168922722362498e-02 -5.564301973808376545e-01 -4.467209515346215465e-01
7.038264734365068387e-02 -5.487180535114035695e-01 -3.513800401007384777e-01
-1.730268939486372115e-02 -2.641045934386955230e-01 5.419273277302781855e-01
-5.896411604600584333e-01 -2.297545632954041406e-01 -8.057253432225537637e-02
-2.846476065272656730e-01 -4.624109690126944616e-01 -5.074810550468733528e-01
5.751736852433900760e-01 -6.362223848769039680e-01 -4.819088924532971899e-03
-7.090592274308621379e-02 -3.996273556029107388e-01 -7.401571243384500072e-03
-5.606762883022832211e-01 -4.060125681486868032e-01 -6.667284198425293962e-01
7.235661933729257145e-01 -6.876669196831447506e-01 6.026961440139634758e-03
4.634161231973968342e-01 -5.179506160694589134e-01 2.684770468973227686e-01
-1.295781572937080850e-01 -2.711562249439631311e-01 3.710059515022314236e-01
4.373909339593707313e-01 -4.744449420364161840e-01 3.886180265283711299e-01
-7.061070444754558029e-01 -3.184597361071349053e-01 -5.459296520099886640e-01
-6.836678908465803062e-01 -1.986619589844438316e-01 -9.276958535565936470e-02
-2.239603065449638497e-01 -1.661730496098403620e-01 6.198601258976134121e-01
6.807397821278140526e-01 -6.059226414558240847e-01 2.396593858145386891e-01
6.886655092815112400e-02 -3.863119949472043624e-01 2.214359914119528039e-01
-4.274362731431286533e-01 -2.965026110805054627e-01 -1.059317815186966716e-01
-2.454239062184692954e-01 -3.728552857638711138e-01 -1.395328864069584063e-01
-7.235710935134674893e-01 -2.246660009591973373e-01 -2.366793643246893342e-01
2.920505839533397707e-01 -3.187763743555628859e-01 7.506093365367353387e-01
-6.963499402051223086e-01 1.277125337405364547e-02 6.390468522879044766e-01
-3.316500450159707430e-02 -4.056388287314980912e-01 2.038790350549178620e-02
-3.743039442107230497e-01 -3.599652991925831880e-01 -2.614637985313386648e-01
-1.839918414291818460e-01 -3.629856137674462024e-01 -2.473712080748041720e-02
-7.547750552275712954e-02 -5.906915767474779644e-01 -6.895588032835654468e-01
-1.152858206555506526e-01 -4.651298906163529034e-01 -2.969242486463989916e-01
-1.380923019570901300e-01 -1.834532637569363522e-01 6.703351563812504077e-01
-3.876169424863504243e-01 -1.933997794713578078e-01 3.107367664529642748e-01
-2.175366766715359779e-01 -2.032302243113331408e-01 4.970585542552806158e-01
2.413867152064554378e-01 -6.719334251701223337e-01 -5.651488551254369996e-01
-8.062220482598935201e-01 -2.252308748142306249e-01 -3.461293361024250226e-01
6.279115052889640003e-01 -6.520659062620206559e-01 7.669624287317507345e-03
-9.076156647571975711e-01 -6.387323123415579451e-02 9.312989704781837741e-02
3.930165864803180087e-01 -3.661922016605249630e-01 7.140567194238389703e-01
-6.325904878370437467e-01 -3.543891992863382745e-01 -5.775155477065074816e-01
-6.088319781658446672e-01 -3.409848955635241263e-01 -4.991877108347517744e-01
-8.661967393151125405e-01 -1.932627697883925189e-01 -3.109582998205865922e-01
-1.854330826379139985e-01 -2.280513316602588159e-01 4.509481969594275053e-01
1.219546500978733183e-01 -5.147138584848534038e-01 -1.639860634485621471e-01
-3.518857634927093359e-01 -4.372533096598389957e-01 -5.058564317070322058e-01
5.460723957396229622e-01 -5.876837185629926186e-01 1.291355430636362267e-01
8.444449883934788958e-02 -5.061901819592693474e-01 -1.825843456705719403e-01
-3.781202321792303533e-01 -3.666237286083528502e-01 -2.899906756967389199e-01
-2.351806507896310461e-01 -1.769206660413881471e-01 5.672351311623700099e-01
4.642239029226855607e-01 -7.174392567640920371e-01 -4.365023996445905330e-01
-3.542241011619233770e-01 -4.037376321619823849e-01 -3.902778126340846199e-01
-6.262238422187098585e-01 -3.241506993033441142e-01 -4.622185500964089422e-01
-5.944811534519016671e-01 -2.641603306262514383e-01 -2.086335800468467894e-01
-1.188886030927803344e-01 -2.487676329103936934e-01 4.641405963492286624e-01
-6.659710930592989131e-01 -1.577179403044697559e-01 7.514617113355780142e-02
9.506086368781759000e-02 -5.009189586693105767e-01 -1.501265915955069252e-01
7.304715023338592683e-02 -2.985835884170054966e-01 5.373591154302030937e-01
-1.213377172234250539e-01 -2.718555118771712742e-01 3.792440610794070022e-01
1.250836831138567029e-01 -4.248559721391382271e-01 1.581066153855703593e-01
2.971512398199663285e-01 -3.934014541086151562e-01 4.931276082189408050e-01
5.710566672089546492e-01 -5.381090124990438595e-01 3.370711179698787086e-01
-1.667132732661884276e-01 -3.857609193207245935e-01 -8.288032877237096196e-02
-2.611945060571962962e-01 -2.920159553466710745e-01 1.260707873329814932e-01
-7.513235909343088936e-01 -2.519445796818062244e-01 -3.693033970711152025e-01
-4.068420006533389754e-01 -4.470416233762005698e-01 -6.119453234159870636e-01
3.010466361401065855e-02 -4.512341201094353660e-01 -5.872877942563318326e-02
-5.966235698219923139e-02 -4.539119988512711479e-01 -1.849083675123097126e-01
-2.169641321753751351e-01 -1.891813883791742534e-01 5.475244918778676695e-01
2.465443681802140796e-01 -3.211079312204105363e-01 6.831969223551200843e-01
-6.252201014876153096e-01 -1.415247178233264846e-01 1.854356989488600282e-01
-1.913316625960304052e-01 -4.251880328925486396e-01 -2.544259076408297848e-01
3.518607706816929137e-01 -5.785489464800203097e-01 -9.102045753585509547e-02
-9.232249857468352028e-01 -9.462500260120136619e-02 -3.599965376498149433e-02
-3.525276802060187675e-01 -9.592499305278853750e-02 7.013372054260581523e-01
-2.293765244181385776e-01 -7.114258173431818599e-02 9.491502953271138132e-01
3.238080788658878051e-01 -7.131721693278981755e-01 -6.039486050187874433e-01
-4.887167546968304577e-02 -4.329713531028830387e-01 -9.676681880734090690e-02
-6.212235962362263608e-01 -7.731532632873959476e-02 4.178810624664779372e-01
-7.922714219349360487e-01 -3.698388370873965242e-02 3.382504345002192436e-01
-2.595988080860314740e-01 -5.308537906987064181e-01 -7.171488751223715763e-01
-4.939308120372137290e-01 -2.548069742602211973e-01 -4.480925320426135811e-02
3.425232421933067650e-01 -5.338213521301636844e-01 5.514001260438183838e-02
-1.938860731305230289e-01 -1.995463617310440363e-01 5.408435508304433315e-01
-6.616098782097393771e-01 -2.172071735699301342e-01 -1.297281281206374981e-01
-3.363462191366787812e-01 -1.274410381069313591e-01 6.108324988257843868e-01
4.049402191683615926e-01 -6.922487737407989616e-01 -4.244203556472189720e-01
5.797643075398332124e-01 -6.005589350504942914e-01 1.273689473778212011e-01
-3.878461281680777306e-01 -2.839444526071230879e-01 -1.001662565048215547e-02
-6.858112653998285069e-01 -9.854547159262015688e-02 2.587758849611172529e-01
8.241479252508054909e-02 -6.376770189401638200e-01 -6.505808979382382562e-01
3.620880355964110620e-01 -6.834815114340943021e-01 -4.491014746419289549e-01
1.222469051332294443e-01 -6.407554702541147229e-01 -6.096922137858221680e-01
-1.044110070401224055e-01 -3.751236938590985504e-01 3.576326934102590921e-02
-3.743999852006154594e-01 -3.691278996162313808e-01 -2.940169052802262262e-01
-6.905516365746112717e-01 -2.150281388994117748e-01 -1.596419674845415970e-01
5.553683448386268484e-01 -4.430895475087521240e-01 6.529680470808901793e-01
-6.879932091611168365e-01 -1.610927021169883955e-01 3.457226601829125473e-02
-6.953810005213749701e-01 -1.678917361838716815e-01 9.046110984140593890e-04
4.416228013299883237e-01 -5.573169312439572032e-01 1.008193881010011755e-01
-1.097838588779427443e-01 -5.357766098135551269e-01 -5.398040554216883002e-01
-3.912918668414737122e-01 -1.856611560466576716e-01 3.333476763735242487e-01
3.769067160293525925e-02 -4.113234105391916917e-01 9.238531154395955569e-02
-5.756466186384197048e-01 -1.134430135945944801e-01 3.492706283342619789e-01
4.324536546865461184e-01 -4.258977769572639960e-01 5.540172752376932852e-01
4.474291126359580262e-01 -5.623891736286935616e-01 9.041624590915864346e-02
2.359159251222654463e-01 -5.971044774591184323e-01 -3.074267927093017327e-01
-3.131821654346580441e-01 -3.504512283282766316e-01 -1.483299642285270115e-01
2.118876463392246889e-02 -3.098797865349951497e-01 4.299609005736454437e-01
2.457714651217867419e-01 -3.199332960102138079e-01 6.863493714564574688e-01
-2.267093578999724302e-01 -1.908273586596474780e-01 5.290297510982479023e-01
1.905114182538215351e-01 -5.218146820117878226e-01 -9.998972024925509294e-02
-7.114173625748114738e-01 -1.496663614892514427e-01 4.455965332353747921e-02
-6.791714986411747645e-01 -3.125084044374061842e-01 -4.898490305157996438e-01
-7.073583967256814597e-01 -3.041624935007279928e-01 -4.969557199761048261e-01
2.709247026399911329e-01 -6.239078607509691565e-01 -3.567759173481069856e-01
2.507161488273725314e-01 -3.040763998040614813e-01 7.488984112720207253e-01
-1.729928724415627506e-01 -1.589744427791548453e-01 7.115978720592717188e-01
-4.939667278744355183e-01 -3.116609955944097399e-01 -2.460735291540648850e-01
3.291507359105015629e-02 -4.638891225654408479e-01 -9.986363948944690372e-02
-1.782828963749721607e-01 -5.433847110400220615e-01 -6.557831283867413541e-01
2.433010212619632004e-02 -5.373251789178015159e-01 -3.709292454660803595e-01
-2.980930821054383895e-01 -2.910125760396820027e-01 8.165177283626763594e-02
-2.805275826833933395e-01 -2.098282393150613934e-01 3.918152483227761995e-01
-5.115299705191655999e-01 -2.561293016345980167e-01 -7.236910109151027670e-02
-5.236519043630031289e-01 -3.288352085992786167e-01 -3.454488095054758512e-01
2.874020274809398479e-01 -6.484137172287460782e-01 -4.220855462445132211e-01
3.063514502860310573e-01 -3.822279519685096161e-01 5.446336117372690966e-01
-4.508644982150523117e-01 -2.459900645672552510e-01 4.238409615249409679e-02
5.585129389877522277e-01 -5.656137538866832237e-01 2.234188846610716261e-01
-7.559829087687303106e-01 -6.435778721235846378e-02 2.885458529181715304e-01
-5.196766516660866753e-01 -2.440091019970330455e-01 -4.006445861695036997e-02
-1.861466519806323217e-01 -3.681204403470894060e-01 -4.571165562129063387e-02
2.508607249576217946e-01 -5.154299193154374681e-01 1.064619843593008321e-03
2.975255444720251718e-01 -6.490711156445743146e-01 -4.112510817280283781e-01
3.222693199771563544e-01 -3.923039412575166640e-01 5.296668035613704140e-01
9.283165435862313075e-02 -6.494671248416008513e-01 -6.787659143038390352e-01
-9.046170999228456133e-02 -4.714423781844011563e-01 -2.869926812291346829e-01
-6.830499849643124621e-01 -3.324593494085478773e-01 -5.655016005132844636e-01
-8.754690642228148967e-01 -1.651277264301674874e-01 -2.234373686242412949e-01
-2.786662614418899397e-01 -3.816844610463164256e-01 -2.139979613960654448e-01
-4.140638289377146508e-01 -6.269432391364866686e-02 7.389467242916261114e-01
-2.784781740027394425e-01 -3.188361766174702683e-01 8.679024113596564907e-03
-5.283605037350621592e-01 -1.982071556004159629e-01 1.107481702735721718e-01
-2.681068264637854193e-01 -6.867514843466628049e-02 9.075315121638346527e-01
-1.128643980895465693e-01 -4.355049494561893386e-01 -1.889277628353871752e-01
-8.176854394056922715e-01 -5.221205441889099907e-02 2.513153221149836414e-01
5.195426457889411598e-01 -7.216658091193677294e-01 -3.795436030091350887e-01
1.582109144914179144e-01 -5.907770918726545917e-01 -3.860537018729115477e-01
-3.842387973380899657e-01 -4.625100261395536649e-01 -6.373056451532359556e-01
-4.374097126545151704e-01 -4.185154893206383120e-01 -5.507254157718957099e-01
-7.929635526667728751e-01 -2.557294881825833976e-01 -4.368331668525649025e-01
2.212054238367341108e-01 -4.058352985348432362e-01 3.503880590110109994e-01
-5.472638794276413199e-01 -2.128262238532723227e-01 3.443298270579731729e-02
-4.224453498504784354e-01 -1.886313380525083128e-01 2.823343813678426684e-01
-2.561151091583093176e-01 -2.315845158320790076e-01 3.465530529307135343e-01
-6.387259307014212517e-01 -2.548471280434459751e-02 5.785658216201640114e-01
-5.083954091159647443e-02 -2.651908848693579901e-01 4.944829829403587507e-01
-7.374765959582068042e-01 -1.934536911693995331e-01 -1.442907656947168826e-01
-5.751080900802321150e-01 -1.471419477881862406e-02 6.993914872101680835e-01
2.353970999710887010e-02 -3.618888144826389319e-01 2.489470612258680438e-01
6.691401515928123711e-01 -7.125959258785986572e-01 -1.529585410490224562e-01
-4.571175445985855568e-01 -1.799963288295734765e-01 2.678196265314106705e-01
-1.492190058956350575e-02 -1.711907003856111276e-01 8.738630579327931747e-01
-6.854052815904990714e-01 -1.667778430248193222e-01 1.781587991398009274e-02
1.299432778781081099e-01 -4.010282597262320725e-01 2.487553239506543612e-01
2.727740070942303863e-01 -4.730651962973336788e-01 1.794901896976393296e-01
-7.112398863559412643e-01 -3.171578018277392830e-01 -5.479948258917818338e-01
-5.498677352919778549e-01 -3.429489555900946396e-01 -4.294821582234736312e-01
-7.364421272915740169e-02 -2.033096746613587136e-01 6.838454547961381191e-01
3.121754503667091910e-02 -2.839443986709791479e-01 5.347893125264703285e-01
-8.373965832571100831e-01 -6.744164043679600276e-03 3.866095771187270658e-01
1.893449472645170328e-01 -3.787290522506468471e-01 4.049020392643975508e-01
-8.601174063457456276e-01 -2.189768880963223197e-01 -3.940621648239111541e-01
1.085845796437042154e-01 -6.086989467897009343e-01 -5.139996332546211688e-01
2.448822360409665805e-02 -6.460672853135512872e-01 -7.555834187598502449e-01
-4.724969329708367249e-01 -3.189384180379216671e-01 -2.439178507447688216e-01
5.297573059660540817e-01 -4.405423033452425807e-01 6.286874915831068833e-01
-5.437794917705244396e-02 -5.387205029210061502e-01 -4.781923533238007784e-01
2.741056306628029682e-01 -4.633237281346867520e-01 2.156983485126933442e-01
-1.349702355365075546e-01 -2.724520154025448782e-01 3.594098964638744453e-01
-4.096519986794713297e-01 -1.296121759770142434e-01 5.078468822642312475e-01
6.181789257710125218e-01 -6.254219015000010984e-01 8.931511989041213129e-02
-1.789008682833377606e-02 -5.288742524355800612e-01 -3.959083116238086841e-01
-6.938152771381043138e-01 -5.973339458955097270e-02 3.857338185581206114e-01
6.296742921873166310e-02 -5.175923140378401177e-01 -2.508601054783489159e-01
-2.199300110133305397e-01 -1.297453793202599237e-01 7.540244334826253780e-01
2.479125735478083514e-01 -6.679371900450107313e-01 -5.425214180669488684e-01
-3.205164066509396115e-01 -2.147744774896559183e-01 3.223218736160846642e-01
1.657350734072488840e-01 -6.684638570516344691e-01 -6.512206513389715568e-01
5.487705635573424390e-01 -4.381945583694084045e-01 6.617149007587608267e-01
-4.461859947578539765e-01 -3.228726098052044358e-01 -2.236360685762096012e-01
-5.014499422351518382e-02 -4.571514986801093472e-01 -1.840005023754452129e-01
2.825239296500162700e-01 -3.564982602235349796e-01 6.047189773206763652e-01
2.838153367381304748e-01 -4.427167247379967252e-01 3.012537438728170036e-01
-6.787129861179799217e-01 -5.521218276787754481e-02 4.213690842043647522e-01
6.817118080118750312e-01 -6.560741512380455775e-01 6.342699832703282969e-02
-3.076150671020108640e-01 -4.826498645651087771e-01 -6.089694518274617607e-01
-2.157667569777362016e-01 -1.048506298490080313e-01 8.475443153153646714e-01
-5.203676033814386148e-01 -6.854678187113345811e-02 5.800329883674939513e-01
1.657871988617661829e-01 -2.732309252216770235e-01 7.476543327043431164e-01
1.092056054609398669e-01 -4.300033695950951085e-01 1.192465902533742655e-01
-3.694601650549897420e-01 -4.660136749006890677e-01 -6.304927163401669032e-01
-1.663060435450984254e-01 -4.268924331635280955e-01 -2.279234394022144894e-01
-1.343496132498133711e-01 -2.026444174836557477e-01 6.072795826137534769e-01
4.790639237024899577e-01 -4.816794502604338502e-01 4.171908476005000699e-01
-4.846691045816775567e-01 -9.999802707317753669e-02 5.151308401405395587e-01
-8.566454437999536375e-02 -3.738581828887823089e-01 6.461359110406622586e-02
-4.343794620584274235e-01 -2.260707169539331041e-01 1.343140427210636756e-01
-1.443852887671742968e-01 -9.884674123128925349e-02 9.615930817175607492e-01
-4.993388056219990601e-01 -4.190577051923564667e-01 -6.331556402443083709e-01
-6.365129300374995636e-02 -4.545935682022417823e-01 -1.925064112267633742e-01
-2.866934597662421647e-01 -2.539645541064675660e-01 2.275921559349775580e-01
-9.608726850915469964e-01 -1.121699476354417330e-01 -1.470387440137300439e-01
4.242308277994861210e-01 -5.834665132957859157e-01 -1.433965398458683996e-02
-8.349158153973469387e-01 -6.977048911265734676e-02 1.667721288936524493e-01
1.946843674521487044e-01 -2.964269149089531763e-01 7.031270581631915428e-01
-7.934306664343360183e-01 -9.324813444262383677e-02 1.376130840676424438e-01
-3.636844324393236905e-01 -1.385789888908840750e-01 5.358719205897956028e-01
-1.928557505418289353e-01 -5.253991551789454206e-01 -6.110742117860561429e-01
-1.808291382872463382e-01 -1.436482120521850869e-01 7.556528471482023557e-01
2.203953452033332316e-01 -3.706322595960947486e-01 4.739254032046616438e-01
-6.964612454115083340e-01 -1.882297112302827036e-01 -7.247986733544238558e-02
1.919178167776247612e-01 -4.829108276006962019e-01 3.952708087560126426e-02
4.121050868515063192e-01 -6.623183596989774546e-01 -3.091760024438177101e-01
1.423928230333438849e-01 -3.966970408583326835e-01 2.802694520575034209e-01
4.942870756906287549e-02 -5.723156750277765825e-01 -4.621379424173416850e-01
5.867483141529961088e-01 -6.502432995809264149e-01 -3.939421651145976616e-02
2.946621322504500151e-01 -6.496691975396572394e-01 -4.170904042480149676e-01
-5.349558834083444070e-02 -4.089431774286669818e-01 -1.773771105380951910e-02
-3.670830046472147168e-01 -1.846733018702393092e-01 3.683167348672451435e-01
4.647525006911003564e-01 -7.306776845308694535e-01 -4.826685977899130564e-01
-1.798279632458966715e-01 -4.641428327688424393e-01 -3.773391798663667807e-01
-7.553353491461956004e-02 -4.442960098395161705e-01 -1.715088891051473885e-01
6.160482163349416673e-01 -4.832755717873732926e-01 5.896289486248676992e-01
-5.282323703479648025e-02 -1.282711711704903612e-01 9.764899131728655979e-01
-9.500998508568995193e-01 -8.940015580394809758e-02 -5.244668936540639037e-02
-1.330989252678515256e-01 -2.446287614808212718e-01 4.603146800109534920e-01
-1.831313028789547173e-02 -4.318836725121876774e-01 -5.318951900578761105e-02
-4.781643380902637075e-01 -6.394521974033590128e-02 6.511853817553806545e-01
-4.689783446740924400e-01 -1.573960761236343764e-01 3.323866834825718874e-01
4.749177350111388751e-01 -6.620760028423391397e-01 -2.266583679224092318e-01
-2.606961766560607630e-01 -4.324086644207238983e-01 -3.701588159762254637e-01
4.060646925389771456e-01 -3.495596178170557455e-01 7.898859638910552539e-01
-2.678393096866655831e-01 -6.076057786833018171e-02 9.358905232729308743e-01
-3.970849273718088934e-01 -1.321757757526323407e-01 5.151116791531301642e-01
2.867995964210688364e-01 -5.973264743014821132e-01 -2.420609212583408054e-01
-3.776628383356931962e-01 -2.478816219172143287e-01 1.308556725914800101e-01
-1.011265839285277746e-01 -3.889233375715597241e-01 -8.806458597658639240e-03
1.800555118555464407e-01 -6.718568298703485597e-01 -6.446116956616940730e-01
-5.267623386140838360e-01 -1.739610119157126988e-01 1.986377522322095024e-01
2.428190091713360310e-01 -3.232990913186696846e-01 6.705988041180273029e-01
8.910440502326112677e-02 -3.722881448764924217e-01 2.973794796342455471e-01
-2.850918517989147957e-02 -4.441807145966218395e-01 -1.099666041006890499e-01
-4.339882736167594013e-01 -1.959552622211159500e-01 2.414071370566274743e-01
-8.132021307917510766e-01 -2.436459508361266679e-01 -4.203784083716139985e-01
5.992537157240090950e-01 -4.749643176037874337e-01 5.972103433080213630e-01
-5.666796031044173398e-01 -3.826778916273065323e-01 -5.919470403562907546e-01
-1.221625762120597258e-01 -4.610599543662906585e-01 -2.914601015535696615e-01
-2.204638912395181366e-02 -5.006204190098854090e-01 -3.013158491291341723e-01
4.681855691867976010e-01 -6.220637008902938359e-01 -9.379913234403659816e-02
-4.061431659613288364e-02 -2.223703770632169396e-01 6.593265490817792340e-01
-1.778611340347375780e-01 -3.527691050118134108e-01 1.939137231144731632e-02
-2.927960790520616752e-01 -2.771565802238937226e-01 1.375772664004077384e-01
-4.977763926022620855e-01 -1.905223056288426475e-01 1.777073894855140390e-01
2.560007817161918386e-01 -6.257573863367920097e-01 -3.827236681029452803e-01
8.897709353514843267e-02 -2.293192070778461156e-01 8.032092076168454442e-01
-1.088096436701447151e-01 -3.858657053797466263e-01 -7.973294660634719366e-03
-5.780182497664281271e-01 -3.622444367438917290e-01 -5.343698797602373096e-01
6.414020414269440418e-02 -4.477394613795774858e-01 -2.112425193126593083e-03
2.110215139959813746e-01 -5.541692433631694170e-01 -1.878346388768818154e-01
5.090517999996856391e-01 -5.681076903476232065e-01 1.502901601160519518e-01
-2.406995846882295786e-01 -1.222191211514746106e-01 7.536597597147750571e-01
2.749310924056693195e-01 -4.162433399364608988e-01 3.833982640636280914e-01
2.997484460611301027e-01 -4.939214197253260497e-01 1.407441550396914265e-01
8.429494296127468256e-02 -4.488956730604701795e-01 1.999777916219006024e-02
-3.841384731604284841e-01 -1.313424347683594118e-01 5.348921372588641976e-01
3.467430500463091758e-01 -6.530603451458258935e-01 -3.613842956882513113e-01
-2.174294599737680023e-01 -4.792049225528109413e-01 -4.795308902553047647e-01
4.212885199993246510e-02 -4.092616846289118260e-01 1.054520435673117901e-01
5.231039473681017293e-01 -7.208858041355901136e-01 -3.721531244125603211e-01
-7.434334255344642317e-01 -5.409656223161375677e-02 3.411773660226653515e-01
-5.609486759056220295e-01 -7.410744115970709089e-02 5.075951006903026697e-01
-3.330406473765146758e-01 -4.033748502825883486e-01 -3.614542049344343089e-01
3.586608338356845893e-01 -3.400183944157094129e-01 7.620266185198097952e-01
7.421908887738684624e-02 -2.861311798180323218e-01 5.829542274277869085e-01
-5.876006234210128659e-02 -1.293119670424117684e-01 9.650881331723721868e-01
-1.928089379140837667e-01 -4.313623624135197732e-01 -2.781986152318619565e-01
-4.270259608668766638e-01 -3.128198446859900561e-01 -1.631482577651899579e-01
-6.018659678048124961e-01 -2.098888000628177930e-01 -2.615660379508696898e-02
-4.889088119880631855e-01 -4.202115352510553126e-01 -6.236797086873121509e-01
6.425031854330235381e-01 -6.000933921154688599e-01 2.105805760144775773e-01
4.310993849321499427e-01 -5.117021305646576312e-01 2.485781369565378818e-01
2.739584837509733140e-01 -5.654436006310815666e-01 -1.459152998799149170e-01
-6.148822072641114689e-01 -3.332872436442401165e-01 -4.798098335193394792e-01
-9.157171046584057228e-01 -1.197412111460075951e-01 -1.151302074465003905e-01
4.778634288719742496e-01 -7.272649518346112618e-01 -4.535453390240657412e-01
-3.714674131200402241e-01 -1.600669190149744125e-01 4.497036006050019741e-01
2.155145490277101394e-01 -5.727846216332133089e-01 -2.478769385046710183e-01
-2.987179220990928141e-01 -3.780676855200451603e-01 -2.272657382398549919e-01
-1.685275594497483848e-02 -2.377307709749318099e-01 6.358544199865574509e-01
-5.512256841273175390e-01 -2.258866718320669542e-01 -1.694107926487264243e-02
1.167169052225896231e-01 -4.111996327043042632e-01 1.955618214338972205e-01
-2.678694459723612309e-01 -7.433321135922892064e-02 8.878151203228462629e-01
-3.468072240067589518e-01 -2.816227176713366753e-01 5.155327680574082333e-02
6.923933821162883140e-01 -5.887371769659732745e-01 3.156324494879197418e-01
-1.119609314930117006e-01 -5.680676451863375664e-01 -6.569187056181056139e-01
6.483387730336571952e-02 -2.275139288928176851e-01 7.782109382281392485e-01
-7.845131364618042058e-01 -2.306248786912393559e-02 3.976071937019878266e-01
2.022452690931326458e-01 -6.771034027419577939e-01 -6.343324499802905914e-01
-7.036775875558347604e-01 -2.332407639004013267e-01 -2.411644915887657670e-01
-1.191738366136373961e-01 -4.899082627279899294e-01 -3.896744234850592625e-01
4.219601540935252193e-01 -5.287959370368541245e-01 1.761982867937415542e-01
3.846128088365483033e-01 -3.542619828641103141e-01 7.453547427304829665e-01
2.036847893693537193e-01 -3.733683723225618700e-01 4.425171225531987496e-01
-3.206002369049666401e-01 -4.310467167636101715e-01 -4.432171770028162650e-01
-4.776042431757143158e-01 -4.013932602161562890e-01 -5.423815664460392982e-01
-6.663776089188071516e-01 -2.310879979645078797e-01 -1.850534118559528374e-01
4.528672976631960001e-01 -4.841685065347410277e-01 3.743245371387534104e-01
-1.515818280783897028e-02 -5.113127488224734618e-01 -3.302030652281252032e-01
-1.405415928351519406e-01 -1.884140011492299038e-01 6.495939169347505482e-01
-6.494238666524088099e-01 -2.659885496938824145e-01 -2.865325465349534140e-01
-3.664411327995869549e-01 -4.118632391340943388e-01 -4.349187475275235193e-01
2.670147313349375828e-01 -4.360970841822736643e-01 3.028402480654360240e-01
-4.027351152895817799e-01 -2.579279141095520700e-01 6.270453066649067653e-02
-6.674925978623559297e-01 -3.491023325761748453e-01 -6.041789410406048777e-01
8.182541395401998763e-02 -5.352885330731663727e-01 -2.889740974048576327e-01
2.130207994559628337e-01 -6.857823984222322089e-01 -6.510403455447959509e-01
-4.960167920471734715e-01 -3.022761174154147690e-01 -2.155237919898786991e-01
-3.671422436176232096e-01 -1.484528110897644637e-01 4.964311743175005009e-01
-3.852279988757927875e-01 -4.721408766074945973e-01 -6.726771387409022918e-01
-1.022862507523162462e-01 -5.167197490727971632e-01 -4.626107689407670254e-01
3.765306918019745153e-01 -4.771416012463738365e-01 2.999523672392063189e-01
6.857027142205555925e-02 -3.257726405612748066e-01 4.353115149928410976e-01
6.075991062002582266e-02 -4.368091954587837167e-01 3.217737260041902275e-02
-7.042407223271589523e-01 -3.290828134228164226e-01 -5.811004945841391489e-01
-7.628556909647395134e-02 -1.467766560575461121e-01 8.804930382084044105e-01
6.731372392443871200e-02 -4.256856939983013621e-01 8.006595248233949746e-02
-5.073333530243604450e-01 -1.970096987715059533e-01 1.423226545094298523e-01
1.724520673892516731e-01 -4.077772029206610527e-01 2.801332408479687563e-01
-1.588996381201295272e-01 -4.295209787712929717e-01 -2.275976471529961020e-01
1.653468273716968695e-01 -3.988066860438417294e-01 3.026444660110261808e-01
-6.810067972183253548e-01 -2.146274633923181407e-02 5.378329091710380983e-01
5.129175607058226172e-01 -5.649302217448575192e-01 1.665615483849094414e-01
-1.434618830266522205e-01 -1.474198264769029931e-01 7.908838408086696914e-01
4.316993480994550936e-01 -3.591978102606622203e-01 7.891009592920258386e-01
1.004102488318097397e-01 -3.969151522210326299e-01 2.249178651191486022e-01
-4.177278511015033446e-01 -1.894935219544555960e-01 2.854159496398702700e-01
-6.271264982792971177e-01 -2.726078035209412165e-01 -2.809715888376589921e-01
6.041678180535605680e-01 -5.151201084707986988e-01 4.614796899827625087e-01
-3.825415447037944783e-01 -2.883895103466531107e-01 -1.885231150715153958e-02
-4.173885125734604351e-01 -1.004754846932561785e-01 6.009094813302297000e-01
4.011386394003414735e-02 -6.157694900150068040e-01 -6.280393626551469266e-01
4.441731215358818430e-01 -6.548951940514686765e-01 -2.412137536517695302e-01
-2.869868159305545563e-02 -2.429923363965064698e-01 6.018323505693553566e-01
2.699082496747934878e-01 -4.672563552903528650e-01 1.963231807918816851e-01
-4.811336180609038227e-01 -1.236826281128128868e-01 4.359026967924004570e-01
1.158427549447090810e-01 -2.401860592410530459e-01 7.996761092733118970e-01
-9.232373224174657278e-02 -3.569979644215757753e-01 1.156279169496207543e-01
5.283177060108155132e-01 -7.357801834275167208e-01 -4.180890953093757689e-01
4.015440712936184653e-01 -3.633963194229767879e-01 7.350380952470675355e-01
3.996381387866604906e-01 -3.482822672621100346e-01 7.860518870129961089e-01
-3.177903487794602744e-01 -1.518503067687272945e-01 5.485669363530371045e-01
-4.478935489498967262e-03 -3.091877984865248896e-01 3.990405654133391544e-01
-2.656628636866865956e-02 -1.494651042274639241e-01 9.356158834772780875e-01
2.157363401829364216e-02 -1.569584202355389646e-01 9.716800971484568228e-01
1.827264319994129638e-01 -6.640001091626039909e-01 -6.133328704743600257e-01
3.412876395639100613e-01 -6.978320024746876848e-01 -5.269323449702570938e-01
1.166161578186994535e-01 -3.592632673449120961e-01 3.792438742630490633e-01
4.035550821963747037e-01 -4.653093554021128786e-01 3.769622055061083166e-01
-5.022035052126067045e-01 -8.187613098374230472e-03 8.172703024950239703e-01
3.318757632755554021e-01 -3.033461329966227749e-01 8.569949171559181345e-01
4.554282327591436252e-01 -4.994968259024136770e-01 3.234039507825284820e-01
-3.577756490419379265e-01 -7.911975588319718200e-02 7.539916037198506338e-01
-5.684153079653575524e-01 -2.308203026981084371e-01 -5.674962425378811404e-02
-9.242865806963596054e-01 -7.442035228314315687e-02 3.412845298403908989e-02
-4.843968475427949394e-01 -1.400694703307809319e-01 3.736640562905993446e-01
2.965053617450956747e-01 -3.562230889577535642e-01 6.238694908009967399e-01
-5.172488443365887978e-01 -3.879559127844192656e-01 -5.463643010742712525e-01
-3.098322527186955222e-01 -2.786344860321980366e-01 1.101987069034906230e-01
-5.296848315225065607e-01 -1.630229364125413971e-01 2.335503555706143208e-01
-8.775886071226086660e-01 -5.029746660348613507e-02 1.802140238352350210e-01
2.476682706117811494e-01 -6.470792616848752843e-01 -4.690187071926571472e-01
-5.594609671814223528e-01 -1.265328070107572533e-01 3.239855045203724471e-01
-5.817223647287734778e-01 -2.279602734430968558e-01 -6.392732046671414925e-02
3.088303223573728995e-01 -5.657334820109662932e-01 -1.016059454149415980e-01
-6.163946276654539425e-01 -6.637737608827316838e-02 4.628705473159817063e-01
-1.945876228198241131e-01 -4.199104120666982132e-01 -2.399802944690849760e-01
2.676517283945304554e-03 -6.000302039214663319e-01 -6.210055309576789639e-01
-5.643263187511936563e-01 -9.524396518220289154e-02 4.283976568125619777e-01
-1.950691437716574606e-01 -8.866280190184121224e-02 9.317442596560366885e-01
-2.904064867905649661e-01 -2.970883605847953191e-01 7.014136949642339747e-02
5.610256246493692256e-01 -6.292158396847662427e-01 1.585200666205292255e-03
1.675203796937089692e-02 -5.517432388078061800e-01 -4.318094990088738316e-01
2.205774420142195269e-02 -5.252186288465631181e-01 -3.310359692902434814e-01
-6.467282740522893869e-01 -1.965452133848664129e-01 -3.725447883989616710e-02
-7.140454906357097675e-01 -7.272204262143174350e-03 5.451039209813094422e-01
-1.273092584333950505e-01 -3.147160465074886893e-01 2.197888533351833595e-01
-2.132751689469207512e-01 -4.685547312604634307e-01 -4.364369588114460630e-01
-1.798797991138600394e-01 -1.388565832354859975e-01 7.738455585863508457e-01
8.142618744709562151e-03 -6.128463687389320569e-01 -6.592582318645334727e-01
-6.403091824147147948e-01 -3.366508125430008880e-01 -5.247706281175607002e-01
-5.494611583117449127e-01 -1.144677428667118108e-01 3.796864433910805969e-01
-4.565548925739001951e-01 -9.504475556494436372e-02 5.692114607137527260e-01
-1.043746329579575000e-01 -3.603570771482239588e-01 8.807252363327529310e-02
-9.827584677852031769e-02 -1.866782959769326955e-01 7.106847063097250228e-01
-8.655799208470042749e-02 -3.021738254209087038e-01 3.171571250871541015e-01
-3.703300374390337546e-01 -2.327597884025829622e-01 1.939078639726487530e-01
-6.977490429505588398e-01 -5.419641312937095723e-02 4.002161756952992699e-01
7.529676560775606931e-02 -5.964426359597037042e-01 -5.138981173878118813e-01
9.954154218334403115e-02 -2.588673184709023856e-01 7.123669819237863354e-01
6.630028002073673488e-02 -3.252884082270549038e-01 4.340741953739625791e-01
-4.339682569045674176e-01 -5.004643840331023802e-02 7.578332356404248182e-01
3.161339984403075953e-01 -4.237011367454933675e-01 4.105696882491158273e-01
-5.910722546338719185e-01 -1.813969443481038002e-01 8.871410611018823444e-02
-4.026269349278024379e-01 -4.907717291181604158e-01 -7.612349672321907512e-01
4.404035670726915708e-01 -3.603840744209518276e-01 7.962184985110718483e-01
4.860517443983422003e-01 -7.078657529305227847e-01 -3.742424928485957869e-01
-4.936542263736527492e-01 -2.390356114362255091e-01 1.136828377011342948e-02
-1.886377154960289237e-01 -3.758092330372517775e-01 -7.616232699136797624e-02
-7.809961396891094143e-01 -1.041962472831746284e-01 1.150311220305720028e-01
-5.116090428202823004e-01 -1.620973470711457309e-01 2.603257148043879310e-01
-4.950588427399991165e-01 -4.198523571185734937e-01 -6.304038836162056958e-01
8.931109100141545673e-03 -4.287462274625666869e-01 -6.666478135660038745e-03
6.136816599561770863e-02 -2.258261052782416789e-01 7.796788638678144867e-01
-8.005702571384395450e-01 -1.420977616989226866e-01 -4.455723087705033142e-02
-3.925034595306218232e-01 -1.818911453646326615e-01 3.451153500659846496e-01
2.519281348882432825e-01 -4.162454028066554512e-01 3.534858574169494339e-01
-3.225797212233386807e-02 -2.078289675098489719e-01 7.216551684623037088e-01
-7.895168536040583218e-01 -1.578813563469025905e-01 -8.604845164489258180e-02
1.899043570403627090e-01 -6.878522678522029921e-01 -6.884186636129895343e-01
5.295216729384382148e-01 -5.982640237736954747e-01 7.017291138138902207e-02
9.182728357072657277e-03 -2.454260610784107788e-01 6.424668289139047195e-01
4.094934330480088369e-01 -4.294434794483841800e-01 5.116187887580319060e-01
-6.719528962288393581e-01 -5.330881121315864113e-02 4.368939785845853407e-01
5.260901082718555388e-01 -5.885939960926543923e-01 9.993582244331575271e-02
2.968622968437970022e-01 -2.850922287624294560e-01 8.760796550690961304e-01
-4.649204777408554867e-01 -3.476935472888622591e-01 -3.358381116351041307e-01
