-1.571121749419689406e-01 -1.147230712806288355e-01 9.634624834783691583e-01
7.057532203975689367e-01 6.313814911753452309e-03 4.851236818383449223e-01
-3.104842281308503593e-01 -1.590541693259189815e-01 9.226102492084060636e-01
6.122607599278180324e-01 -7.701962122705607872e-02 1.495736799580970888e-01
5.776434106104085808e-01 1.935849731447834843e-02 7.272442413479346390e-01
-4.150767182044730608e-01 -2.533544514033323480e-01 5.413023489077302131e-01
3.388321311437373917e-01 -2.843901196017238342e-01 -6.312616510877399056e-01
-4.121755116797392038e-01 -3.053929103634676068e-01 2.503671267280272450e-01
-3.254452240351019543e-01 -2.051172416984247959e-01 6.883643296470628448e-01
-6.353651490048130013e-01 -4.174786227694496366e-01 -7.153624251821769087e-02
-1.122720304259331170e-01 -3.083347037558009096e-01 -1.641965445629287867e-01
-4.235099893746365751e-01 -3.750953451926152260e-01 -1.191074051195830513e-01
7.611162348070247274e-01 -1.571097330374284784e-01 -4.899725917150841714e-01
3.416803695273454844e-01 -1.136310162490005299e-01 3.069861261036241351e-01
1.243779887108355936e-01 -2.682934258335038513e-01 -2.576206370744137386e-01
3.522688377517366187e-01 -1.876743250471717694e-01 -1.155540709531575477e-01
-2.213997193139909947e-01 -3.520390266560819992e-01 -2.603568119311042706e-01
-6.621343508505476150e-01 -5.045232684569667114e-01 -5.161824192422649338e-01
5.439849634722675464e-01 -2.143997335890143185e-01 -5.176299237480012083e-01
3.409222603640825744e-01 -1.080462459530991542e-01 3.388026897969891871e-01
-4.551150491578170310e-01 -3.822919141672552201e-01 -1.168307534405319259e-01
-2.126309736424236707e-01 -2.350784560781938037e-01 3.732356382067280598e-01
-1.510089923542151380e-01 -2.972796279211457060e-01 -5.175794780961961300e-02
8.139211510757931034e-01 -1.566638989080238187e-01 -5.576490316499104205e-01
2.304034832914486353e-01 -2.765400868830912851e-01 -4.439392432582640047e-01
-1.576484234045847921e-01 -2.256100379025007541e-01 3.524419499049639692e-01
-7.721550756503987589e-01 -4.217265993021865889e-01 8.671450380278397652e-02
-8.528325284917495086e-01 -4.017625726776100081e-01 3.040070750541090105e-01
-9.823137488327988998e-02 -1.727209267463994391e-01 5.652982961140170515e-01
1.928158739715950254e-01 -1.762565416000310414e-01 1.592216064671078957e-01
-9.927631417344827403e-02 -3.390429245450682361e-01 -3.508663533518003863e-01
2.639477382222397139e-01 -3.181111795264679465e-01 -7.178292785948149346e-01
-4.121607992226672575e-03 -3.009874514517461019e-01 -2.673101846261757841e-01
-4.594059112852633131e-02 -1.887333832677619005e-01 4.075088856896824652e-01
3.705279093184211114e-01 -2.143345324815577324e-01 -2.868829453074192015e-01
-6.155209350896411191e-01 -2.938620622239790370e-01 5.840649263156965088e-01
-3.789537100413750137e-01 -2.852250240329778919e-01 3.175022804303735957e-01
7.161706124708655530e-01 -5.365221851466911440e-02 1.404711518299734119e-01
5.211392662184925056e-02 -3.295263488117499695e-01 -4.994439661458235924e-01
8.282340317266831953e-01 -6.572186212019760082e-03 2.513550115481543723e-01
-3.152987039641667599e-01 -4.568402460600243797e-01 -7.137986985471923562e-01
-1.540069970032835120e-02 -2.850146060819779836e-01 -1.642114110102219082e-01
-6.991336001816582657e-01 -4.483011004055645898e-01 -1.568774895203175201e-01
2.637760324000256729e-01 -9.221660294886073472e-02 5.285968020230629172e-01
-1.735984065742118276e-01 -4.075230940419033998e-01 -6.299372457056626740e-01
1.483941654375658670e-01 -1.238419212583192208e-01 5.073799263192066977e-01
1.709680093794372358e-01 -2.259792211057101707e-01 -8.606615197559762398e-02
5.653744949844334844e-01 -7.670774058151912100e-02 2.135690150779185059e-01
-2.671821647058403859e-01 -2.195011327907930021e-01 5.316268328329341042e-01
-1.359514700220547379e-01 -2.542621993913923295e-01 1.655577881361819659e-01
3.339449656754928109e-01 -1.894218360681063605e-03 9.336814301538639560e-01
-5.582497753531177054e-01 -2.492471335236038921e-01 7.541250816150490976e-01
4.553014936491313058e-01 -2.780145202675522384e-02 6.295714981920190745e-01
4.566251834966956191e-01 -1.177038753062405740e-01 1.318465098590360651e-01
-3.916439283175566222e-01 -4.465587597598669745e-01 -5.556761357421244885e-01
9.821610076688059854e-01 -2.070743654968740591e-02 -3.107251179379265024e-02
1.780474597444753615e-01 -3.600114491411163797e-01 -8.348879457941800197e-01
9.258752552068533204e-01 2.597781132185262090e-02 3.012363758974002104e-01
-8.087300165914141914e-01 -4.254061325641400049e-01 1.149947132531185662e-01
5.678052932370138972e-01 3.268817387468096053e-02 8.138474667141982755e-01
5.917695832951317403e-01 -9.785306417479874841e-02 6.185789890843663985e-02
-5.882035179192944829e-01 -5.040707636373465972e-01 -6.118816989540099005e-01
4.765613344121207851e-01 -9.002530512426007436e-02 2.580621585685620167e-01
-2.815807839715301908e-01 -1.667708719830490738e-01 8.416495059845813254e-01
-4.826205246824523572e-03 -1.562402295005711761e-01 5.321561331484185864e-01
1.504886788860826212e-02 -2.493024747560169951e-01 -7.640841558639185904e-03
-3.778208592333409110e-01 -3.548649073792818909e-01 -6.818639449725427681e-02
3.602821777543525061e-01 -1.293189999158585457e-01 1.957327552840242013e-01
-1.805220154780427244e-01 -1.260782094506531503e-01 9.319124900399337053e-01
4.407976330605879456e-01 -1.072670321711196167e-01 2.104459928262646384e-01
4.363571829244801137e-01 7.219716697932669278e-03 8.479356289478087172e-01
1.911986774848354886e-01 -2.913312352457878007e-01 -4.734657357709001757e-01
8.564993028296780109e-01 -1.071106999662790604e-01 -3.408304120217698907e-01
1.629643349014236742e-01 -3.707062171694473496e-01 -8.738544811359618691e-01
6.770544869125801890e-01 -4.171764754956301668e-02 2.582652891079882940e-01
-6.095917575120311099e-02 -1.866919124670265162e-01 4.387189411233746172e-01
-7.247764885854404149e-01 -4.712022805398898839e-01 -2.491578540502824290e-01
-7.453974485256932292e-01 -4.891474951502773338e-01 -3.207676972734590515e-01
-2.515252008149328200e-02 -3.447440196092747544e-01 -4.807696377007791844e-01
1.145025342344587888e-01 -6.006565400436584407e-02 9.042311685165095314e-01
2.336662397658014478e-01 -9.391263419918674527e-02 5.592323740538880372e-01
6.675584909513841980e-01 -8.699714887184319123e-02 2.108345067427897651e-02
5.997947260353192478e-01 4.464161918439147128e-03 6.156547202826742060e-01
-1.163965004922897367e-01 -2.753147866385309839e-01 2.344338253857775750e-02
1.076228396759587452e-01 -3.599823575930939934e-01 -7.411888165930337058e-01
-2.256836725392704079e-01 -4.516964522686283123e-01 -8.044493312189019418e-01
2.135232025077417051e-01 -1.910725992517669503e-01 4.998183900151897952e-02
-7.825152475116383677e-01 -4.614894224484561436e-01 -1.188855375337408010e-01
4.629351770409202982e-01 -5.936043808717630932e-02 4.453301544660517863e-01
3.879377927261046799e-01 -1.651650333522248770e-01 -3.875236216775924253e-02
3.697711407399895678e-01 -1.612908706778621859e-01 6.749440927134872127e-03
6.004394427964904191e-01 -3.289251506110302953e-02 4.087119271025346778e-01
-7.677201611619587363e-01 -4.851839181545146706e-01 -2.692525014174259601e-01
7.173127682486754031e-01 -6.468826335944531658e-02 7.807131700360593618e-02
-7.517545908851186454e-01 -3.991017955515248627e-01 1.844331856722276619e-01
-7.097785160310265962e-01 -3.363057280312989339e-01 4.751087396398591123e-01
-5.896336484199493633e-01 -3.925839798662024149e-01 5.059623182071139487e-03
8.162430103696969308e-01 -1.352157329083295279e-01 -4.424093359667345959e-01
5.746524202019532845e-01 -1.828068085208040261e-01 -3.840732804822277191e-01
-3.713604274922264192e-01 -4.490503800861135320e-01 -5.963624527923969687e-01
4.260069949721866922e-01 6.800155013241879383e-03 8.593682394150475856e-01
-5.873110592576681332e-01 -4.093128894380544947e-01 -9.031403745553098772e-02
-4.887863068486045237e-02 -3.607272716110242472e-01 -5.374315846665463914e-01
-8.330809273138766180e-01 -4.159898818526412412e-01 1.992846764243279833e-01
1.764464868943380338e-01 -5.268230148023961973e-02 8.626885487933925178e-01
-3.250831660262096801e-01 -3.941929917624273916e-01 -3.551952767223777729e-01
5.315121847253286846e-01 -1.090602140115514568e-01 8.006558752215678365e-02
4.736905716603419525e-01 -1.255749002774307344e-01 6.575782974266698722e-02
8.917019115784344807e-01 -4.115795152374796678e-02 -2.374373978425546247e-02
9.906608013734988782e-01 1.071827727965749509e-02 1.310049706239327649e-01
-6.892171653576427415e-02 -2.595945866860118745e-01 4.711093386147657824e-02
6.276298983787496066e-01 2.492321469818079005e-02 6.915507303259028626e-01
-1.221303906086898816e-01 -2.895509332516822965e-01 -4.747770185677892968e-02
-6.681670648658177836e-01 -3.288066330601752685e-01 4.612104577308482889e-01
-4.061241907819003183e-01 -4.395998438725494117e-01 -4.980528977842982874e-01
-5.177457411252985864e-01 -5.008637329703211627e-01 -6.877720743198810771e-01
-7.318964930000099178e-02 -3.917671666140124520e-01 -6.763799942949639821e-01
-2.569528558192535894e-01 -1.512423904357734217e-01 8.946048073907963971e-01
5.921998214076076295e-01 -2.430013508299571079e-01 -7.394565757425050068e-01
-1.877598210048915250e-01 -3.528766481740835403e-01 -3.096585662334875311e-01
1.621537069456383817e-01 -2.091775913555504740e-01 1.833104010477399834e-02
-4.557787888222326056e-01 -2.832052211226507299e-01 4.306847638035514181e-01
-1.851255467220641604e-01 -1.453321996622410905e-01 8.318079944915358626e-01
1.243408134989584662e-01 -2.161712987491494764e-01 2.997212586818981395e-02
6.491829480078885606e-01 -4.941492334465390907e-02 2.528207821259226273e-01
1.722717172030725774e-01 -6.176003589518221787e-02 8.181541621494876626e-01
1.180372463056222065e-01 -3.142627063933339238e-01 -5.027986344325762191e-01
9.747090780154632483e-01 -2.873158224369796662e-02 -6.544178579640766436e-02
4.688834675656853301e-01 -8.773016805229906512e-02 2.809216107753157998e-01
3.333089265207025281e-02 -3.372407802394565834e-01 -5.170545532900144847e-01
4.444838116844304077e-01 -1.988978225244646680e-01 -2.999517992189745241e-01
4.868554430675791495e-02 -1.669955859591770453e-01 4.017469943187559345e-01
-5.298060309587194761e-01 -2.921722695557015803e-01 4.795397085023738182e-01
7.839919176895363551e-01 -2.307033599276915592e-02 2.191020633540193274e-01
1.034904102954153221e-02 -2.658779730490204440e-01 -9.284093587030101125e-02
-2.119577290860525653e-01 -2.207557327018603022e-01 4.513559394770965127e-01
-2.686683350878652128e-03 -2.571658905647629667e-01 -2.746461076597815978e-02
-5.774898234013402520e-01 -3.581716394887369259e-01 1.787734633092427639e-01
8.774217492602622848e-01 3.475001279853655312e-02 4.139865896782833898e-01
5.685117308152204396e-01 -2.442744725064188993e-01 -7.150172930632930912e-01
4.175629187116822183e-02 -2.613989017549743221e-01 -1.098465403840298560e-01
-7.023144160978095352e-02 -2.428736102492005111e-01 1.410955340261886848e-01
-5.812646886545490277e-02 -2.811697559993370787e-01 -8.625166821667837325e-02
5.560276064973352916e-01 -5.697421928757695486e-02 3.348480292160234129e-01
-6.138648690639452593e-02 -1.765187667429298779e-01 4.954089363949935043e-01
6.301516438121915753e-01 -1.501088012632845470e-01 -2.774019889023669472e-01
-7.002328791612723036e-01 -4.350761984239202018e-01 -8.245928348228995231e-02
2.465339317240304584e-01 -3.242241943648326852e-01 -7.284239132330476707e-01
-2.525196882768923623e-02 -4.007811130132560296e-01 -7.897787238581562841e-01
-5.368071816906747618e-01 -4.892092774939238997e-01 -5.981600770743950024e-01
7.516451942298202349e-02 -1.574591013082680679e-01 4.191875250835935263e-01
-6.234577197602133580e-01 -5.052905692928886250e-01 -5.717860693502057057e-01
-1.137578551979633590e-01 -2.135117625932683172e-01 3.608889317138151420e-01
-5.807653037877003044e-01 -3.018837759145136523e-01 4.936485917137498070e-01
9.590613201509285979e-01 -3.468908505934104047e-02 -7.752418585110791571e-02
-9.626280536667555787e-02 -3.961086096590238359e-01 -6.696845553657897465e-01
-4.192851503701712779e-01 -4.716251856135408871e-01 -6.572473577300529390e-01
-6.141443014285420388e-01 -3.145304133388052703e-01 4.682148811390988152e-01
-2.432343410152348062e-01 -3.842584292652672096e-01 -4.091014129587803305e-01
6.047463109188708774e-01 -1.696775146751998420e-01 -3.516135779247163695e-01
1.727923881324702482e-01 -1.807562077454608618e-01 1.609935717054210569e-01
2.301985911075319149e-02 -3.193265233815266724e-01 -4.045313323457249144e-01
7.559472282524966058e-01 1.160970760526058333e-02 4.476715090910279859e-01
9.404762230397305245e-02 -1.812910685539935451e-01 2.626324268672526330e-01
-1.014154323021634191e-02 -2.705724828730821652e-01 -9.152346492740513761e-02
-3.641001076571941802e-02 -3.391318933942650271e-01 -4.348567822009362649e-01
-2.542448198543006965e-01 -3.127785322514118893e-01 -1.423326237739526076e-04
-2.029010181413231084e-01 -1.756361374947638110e-01 6.882390824846007504e-01
-5.813381583166090660e-01 -4.369021522729219509e-01 -2.504496472267221385e-01
1.499432791209356908e-01 -1.730169671285415600e-01 2.340372260531309867e-01
6.575492622447371982e-01 -1.027795559021991711e-01 -5.268938087854524444e-02
5.185825201920548633e-01 2.195372613578828059e-03 7.110052475015614659e-01
6.105507689716928033e-01 8.623699916074862096e-03 6.243154663031909024e-01
-4.639734032425791854e-01 -2.135459288847725290e-01 8.258600127171367156e-01
8.680225337633998839e-01 -2.775543823140279309e-02 8.164539732275259698e-02
-1.177863991770705249e-01 -4.133986840749019898e-01 -7.364812842414867333e-01
-1.263299506509318881e-01 -4.306945022205297957e-01 -8.205499133417181179e-01
-1.886829412901742109e-01 -3.978161544386507598e-01 -5.563513194592537570e-01
1.351184781061731677e-01 -1.448826497130829005e-01 4.089369279625768017e-01
-1.327867822597803282e-01 -4.003715962705062248e-01 -6.446907879039615041e-01
-2.698496491343286841e-01 -2.193935798112360835e-01 5.357631507013455030e-01
6.313886650609498163e-01 -1.698353289771373786e-01 -3.878708198600828716e-01
5.429362074276899985e-01 -5.675396762315436383e-02 3.534512155544677348e-01
-5.339164077406683973e-01 -4.374109628182523690e-01 -3.162426272663057536e-01
4.338369470723481558e-01 -8.243785915123959251e-02 3.566669343684791271e-01
-6.202555057143576134e-01 -3.910192526016763037e-01 5.436402885789111405e-02
-4.754607021184221738e-01 -2.996239589738809439e-01 3.662488209300396869e-01
-7.236815303139400302e-02 -3.074278825092418566e-01 -2.121945653154226896e-01
9.318388618661470335e-02 -2.164288668876296062e-01 6.993411586503513189e-02
4.760942130970580721e-01 -1.277286147150396844e-01 5.068384269590597152e-02
5.404674316105010506e-02 -2.357271742971055462e-01 1.545300078260745773e-02
6.483109354338621733e-02 -2.492605807394415174e-01 -7.353094163645687575e-02
3.621530881975210808e-02 -3.899612977060709640e-01 -8.117302028540553938e-01
3.620487013508219554e-01 -1.201734128999085577e-01 2.438401209875720455e-01
-1.220892656774813373e-01 -3.521979386768571696e-01 -3.931385591999909668e-01
3.707041764200804668e-01 -3.094727499182235997e-01 -8.119683470064935626e-01
3.846867736286335160e-01 -2.301566864635365695e-01 -3.929753370451950500e-01
-6.536987272551939565e-01 -3.728793073049496698e-01 1.988566991071385182e-01
-7.174204590516004842e-02 -1.595449022155882857e-01 6.028034115818299288e-01
3.825348478227024174e-01 -6.402441931010645348e-02 5.263887269528877422e-01
7.228667627067711932e-01 7.234128203547010236e-03 4.674704292272168771e-01
-4.688231124919346460e-01 -4.559408940024263224e-01 -5.049246659677258942e-01
8.752134756457939924e-01 -1.619417001521507304e-02 1.358746462337463712e-01
6.458607191872908215e-01 -1.897646468015665167e-01 -5.170372823513701421e-01
4.034901669328963547e-01 -1.240801722396791262e-01 1.672446659459079499e-01
8.117670996960401064e-01 -7.461270399521445496e-02 -1.021342088794987696e-01
-4.378495800111003033e-01 -4.302135582586136264e-01 -4.041333924471315342e-01
3.232956212856914063e-02 -3.798697442447767636e-01 -7.508968031414378075e-01
3.214341445535864872e-01 -2.904473273342859097e-01 -6.415694254790380580e-01
-3.918250169519887915e-01 -2.720198426163800698e-01 4.074474111743330296e-01
4.653638617632924190e-01 -2.915681009514480837e-01 -8.389212209156627909e-01
2.333342411323834353e-01 -1.514882682222033206e-01 2.420444589608484187e-01
4.757079416650246695e-01 -9.809367571141151820e-02 2.146846695942093153e-01
5.070246283824413336e-01 -7.010371033978952948e-02 3.275024654910103084e-01
9.762580878594678824e-02 -2.991162487179794827e-01 -3.921291464617075451e-01
5.479568741715856728e-01 -2.502672975447168269e-01 -7.207769015676337432e-01
1.370501659706141462e-01 -1.704326014289705982e-01 2.654192116818058778e-01
2.352850530623657455e-01 -3.175810022673936084e-01 -6.768343904610881756e-01
5.900398144649298127e-01 -2.035562148521515846e-01 -5.189797082075380263e-01
4.110095356066701400e-01 1.000745588459267532e-02 8.969817987493140521e-01
-8.438610686080643131e-01 -4.879719253519699818e-01 -1.835021019491026029e-01
-7.167145235170185869e-01 -4.998310155623647555e-01 -4.178026594436683450e-01
-4.508564586597040846e-01 -2.135251192926445052e-01 8.085527649949462159e-01
5.148772160278189403e-03 -1.275565460465394318e-01 6.771472381473964131e-01
-1.329368332879225512e-01 -3.361724475939213419e-01 -2.903225080608783371e-01
1.763168778099431788e-01 -7.343154907673977994e-02 7.483928257640922732e-01
5.042382295952757554e-01 -8.925026499007894520e-02 2.255771299484753134e-01
7.328283033283449210e-01 1.710610047479002821e-04 4.152744258575006286e-01
-2.076230954949672969e-01 -1.284885442054675142e-01 9.546112465812610637e-01
-3.117250677044824392e-01 -4.450949028547374620e-01 -6.537494195702714395e-01
-4.334393522628146034e-01 -2.655162450037776289e-01 4.985985132842624123e-01
-6.683734251550816907e-01 -4.073090957808712664e-01 2.840813167339006212e-02
-2.014196368955002425e-01 -2.467872191194395437e-01 2.937506224433323321e-01
8.280023654658135168e-01 -1.470509759566564767e-01 -5.233199901114163888e-01
-3.119419823057300589e-01 -4.015569391463671978e-01 -4.132743847215349930e-01
-1.669046450643947022e-01 -4.035248074724929745e-01 -6.167705191088432848e-01
6.358533464646340949e-01 -2.654596965216081753e-02 3.966869879881497196e-01
-1.009792390611215368e-01 -3.861093376098321817e-01 -6.082569204804786356e-01
3.784028520436364396e-01 -3.147611175407324380e-01 -8.513682642726432270e-01
-4.292393151979627119e-01 -2.950971308688412065e-01 3.298304034403525820e-01
-5.724172371354393496e-01 -2.535618128954533201e-01 7.491395418840439691e-01
-1.061872951913325341e-01 -3.608520629181987127e-01 -4.620021195677975756e-01
9.487262767564341726e-01 -3.930925265025065479e-02 -8.928527370773789440e-02
-5.252288972120411348e-01 -4.557563496433388872e-01 -4.289878947705290102e-01
-5.041915883799592546e-01 -3.988880657065090318e-01 -1.432032215280173992e-01
8.195152080618913759e-01 2.403710481113284503e-02 4.317984433844290204e-01
2.440297518647134289e-01 -2.622725471438409062e-01 -3.833277025480976707e-01
-3.388449558235099301e-01 -2.720957509629215454e-01 3.366600329889944954e-01
6.285861433077899463e-01 -1.137092257505165488e-01 -7.451626671922652323e-02
1.770834551409314894e-01 -4.027387164748128662e-02 9.302964035708040091e-01
6.076866290737011900e-01 -1.234389208613112243e-01 -1.004333783909521494e-01
2.221300492316176378e-01 -3.327103223232528162e-01 -7.428260735174804230e-01
-5.023740542175669788e-02 -2.769739614958357521e-01 -7.358295608082970896e-02
4.706966118523725484e-01 -9.629276919282792058e-02 2.312758688411066799e-01
3.261218331996791897e-01 -1.593736864038296230e-01 7.530143590819260435e-02
6.009456322179464877e-02 -2.465957868981284162e-01 -5.253890576630834697e-02
-6.198977096068351150e-02 -3.707877244872397338e-01 -5.755179867699636853e-01
1.090520523356504762e-01 -3.710080255555756046e-01 -8.039126766601738527e-01
-6.062139705568941883e-01 -3.731469083509166285e-01 1.343107199670132701e-01
-3.508276101409287806e-01 -4.776857966899553665e-01 -7.816080212863070198e-01
6.253030749635485330e-01 1.166932489078459541e-02 6.215231877057207921e-01
-2.003608027662555635e-01 -1.743986978176334246e-01 6.916917577566145114e-01
-5.373454896993468122e-01 -4.110203553567594592e-01 -1.660983924620879626e-01
8.689115235413802374e-01 -6.785489868883798348e-02 -1.407530208480088918e-01
7.260502917214057828e-01 -1.368571483516498044e-01 -3.316697592285106078e-01
2.326000573858575116e-01 -1.730818116425636988e-01 1.238939906662958196e-01
5.250279521646207259e-01 -1.613338022705912700e-01 -1.997009501013511379e-01
6.066643862111769092e-01 -9.003194514003470816e-02 8.522143698696735270e-02
-9.073182144497098089e-02 -1.956493038637243387e-01 4.288477920513414920e-01
-6.172799611130875830e-01 -4.869836061835385310e-01 -4.789969644548789374e-01
7.881642649993104710e-01 -1.402786162870808262e-01 -4.330454136626528117e-01
6.323994541490678412e-01 -1.421718937847779862e-01 -2.366018240939928852e-01
2.575396412351115827e-01 -2.141642359890073566e-01 -1.358713919532460734e-01
4.657426240468534595e-01 -1.556224404085190249e-01 -8.944961597600317726e-02
2.826500178841943045e-01 -2.235028315627282658e-02 8.889613971984997587e-01
8.195264887333844062e-01 -1.150657709967994047e-01 -3.356087053043789181e-01
8.764203599354535301e-01 1.082103234604999374e-02 2.833070649384415440e-01
-4.316593832346136972e-02 -2.877817411543622250e-01 -1.425988816502891388e-01
-1.015622979040519758e-03 -1.793655428110056405e-01 3.995189124909966916e-01
7.579833890716524136e-01 -6.840931097646774095e-02 3.524225489331634861e-03
3.490611686076456333e-01 -5.269259937183985026e-02 6.333633031937976332e-01
8.369057313908707663e-01 2.612955519602113558e-02 4.202436587584919003e-01
7.962496459735958210e-01 -1.564227777914154460e-01 -5.328473746278976630e-01
4.108126957610994112e-01 -1.029766857763896315e-01 2.739409237235411188e-01
-4.463141494402085852e-01 -3.516679542882948928e-01 4.042374193917010194e-02
7.959333277151550146e-01 -1.400967733252882486e-01 -4.423611780161806895e-01
5.660492951145792428e-01 -1.435285206712617057e-01 -1.559590582195091168e-01
1.362333916440306436e-01 -3.051664633989585873e-01 -4.767854633627470751e-01
3.383801333699054670e-01 -3.210254259163771162e-01 -8.327681749440659642e-01
-2.418111214212888549e-01 -2.661867077288649908e-01 2.403773467268259523e-01
6.445254920980931779e-01 -1.286376670703782421e-01 -1.780431485571739580e-01
1.824310396076140040e-01 -1.356244999677549412e-01 3.971705975649704734e-01
2.976571841812322705e-01 -1.477608694475420099e-02 9.108134881320704146e-01
8.675643468648661649e-01 -8.045736687413226895e-02 -2.084880261705752136e-01
3.599524887636691983e-01 -3.093876563182410347e-02 7.389072453387673933e-01
-5.682223868558049507e-01 -4.698153257751339629e-01 -4.494430298923808853e-01
-8.291863024399628856e-02 -3.988943174679214221e-01 -7.027763945609860619e-01
-5.309144411529836960e-01 -3.641459729531506540e-01 8.395285644761653343e-02
9.228001357617804379e-01 -9.203682432701379423e-02 -3.457333878706428942e-01
-4.618482713253914684e-01 -4.492480278209890487e-01 -4.772660201366806798e-01
-8.811591532886244860e-01 -4.379314986954798705e-01 1.420967829128862436e-01
8.797931268620033940e-01 -1.227765195457385938e-01 -4.581934889737829253e-01
2.663137603148925114e-01 -2.125964060563141356e-01 -1.388759740632401207e-01
-2.594362265828728531e-01 -3.258818211189480341e-01 -6.553428507955530447e-02
1.458871065258243727e-01 -2.705413930110843190e-01 -2.985906629161921844e-01
5.382121477434811396e-01 -1.710372835604015707e-01 -2.707437495685801609e-01
4.961848313967687774e-01 -1.341062705119997478e-01 -1.118447090654494172e-02
8.250539932113817310e-01 -4.139054651681822045e-02 6.349548648090945491e-02
1.666412647694502924e-01 -3.365943494099092326e-01 -6.905524561519971183e-01
-3.998431249107290975e-01 -3.995148689814409515e-01 -2.852577274695664578e-01
-5.730539593775848539e-01 -3.815547076006226557e-01 4.388377548959802171e-02
4.816096689524137497e-01 -1.303229949755924100e-01 2.904568293229480708e-02
5.383623308422499365e-01 -2.003242996276100862e-01 -4.325116069402757391e-01
-3.134702855382318076e-01 -2.477403883510003457e-01 4.373189706255399267e-01
-2.871700295234872469e-01 -4.577884106278779508e-01 -7.563902292427550078e-01
1.168929590968164622e-01 -2.517980914414620353e-01 -1.566787445238937426e-01
-3.305417487869208304e-01 -1.918273148694256414e-01 7.684504390442722377e-01
7.304382034530877421e-01 -8.767852275104355553e-02 -6.619292327224854389e-02
-5.145818469821086261e-01 -3.400228649383291168e-01 1.953402796665149876e-01
2.655734529860993010e-01 -1.497795455106468443e-01 2.086505876911071977e-01
7.407638784698082624e-02 -1.833116633930703676e-01 2.780113433647198318e-01
-8.159274190783075698e-01 -4.523577480169463372e-01 -2.413025172335558563e-02
5.107354280672284919e-01 2.175339140364153726e-02 8.293240192161462909e-01
7.848421035334782747e-01 4.246357212554377480e-02 5.795053185980395538e-01
5.930973575803515085e-02 -6.341965807563988700e-02 9.590356451865570397e-01
5.378462653053539544e-01 -1.655689294084850827e-01 -2.400903808095677938e-01
-7.299654347018605938e-01 -3.755221156797090565e-01 2.855752091347540378e-01
6.011128004220178678e-01 -5.058136282489687080e-02 3.102330772118971902e-01
2.876020113300877257e-01 -4.064968101081167101e-02 7.814313868823943299e-01
-6.166454478068529310e-01 -3.965371715494487304e-01 1.912828059677612602e-02
-3.302953810258797973e-01 -3.855270639322887494e-01 -3.004648324480171939e-01
-2.559676351007363349e-01 -4.327317345378739466e-01 -6.596027764644855074e-01
-6.501250600311676564e-01 -4.567422776564096787e-01 -2.685387356502820233e-01
-6.647231763028672580e-01 -4.862876932207340630e-01 -4.121432825280164081e-01
9.142067552817907394e-01 -3.826378248601772225e-02 -3.766855208513732178e-02
2.322230303897897807e-01 -8.902074805574336502e-02 5.881364436645740712e-01
-7.650605378408350532e-01 -3.447399105230297689e-01 5.020057816459739808e-01
-8.664296690356282360e-01 -4.384155919044879779e-01 1.198623355441237187e-01
5.600092658495937625e-01 -9.431900176366966870e-02 1.235386963629729745e-01
3.363318518558389147e-01 -2.805867340276028687e-01 -6.069585284851531926e-01
-1.428919324263366597e-01 -4.117221580838067996e-01 -6.938869490531097695e-01
-7.128557603987967228e-02 -2.786413901420518591e-01 -5.482532250772644694e-02
3.635418635194370696e-01 -3.041449115383900934e-02 7.370320817771026656e-01
7.899281701406966061e-01 -3.348624707069773609e-02 1.537557712795772635e-01
3.966760992229546590e-01 -8.923584876143317302e-02 3.685216880519271987e-01
-2.450016342417402071e-01 -4.316886066572432346e-01 -6.684132728314530203e-01
3.568176827889795732e-01 -3.159861847026327331e-01 -8.294569978948876932e-01
-4.292435200202519008e-01 -3.267759124598874076e-01 1.550728954167577278e-01
8.870526481549527720e-01 -1.898138122201793732e-02 1.047734717571432300e-01
7.629627545240502684e-01 -4.565444045609678980e-02 1.224429247496209433e-01
3.527845614706031641e-01 -1.939130496083133204e-01 -1.506563811849620793e-01
-7.126895264760575721e-02 -2.803063019375355291e-01 -6.403226061900077482e-02
9.279749224787591233e-01 -6.282050322610205351e-02 -1.914282098338782601e-01
-6.901518433673425879e-01 -4.077347646505631307e-01 5.498613282349352344e-02
4.947456980457218267e-01 -8.284714219694461201e-02 2.735094599772071033e-01
-6.676103825245782719e-01 -5.074377149613397142e-01 -5.249872995603791503e-01
7.739436080183738076e-01 -1.720864071774284854e-01 -5.896322056318364924e-01
1.922013121375437672e-01 -2.474190824862737836e-01 -2.325462199516498685e-01
1.158855349147042552e-01 -3.184038951188593591e-01 -5.227865062321273015e-01
6.944011228268571756e-01 -1.010669589560073411e-01 -9.218844225536673709e-02
8.374899722501931432e-03 -1.881110290578099364e-01 3.387998990189234338e-01
1.811388738819274258e-01 -1.379779421534387818e-01 3.859035733137055613e-01
1.939859620705393362e-01 -2.182797841749295753e-01 -7.416314399279953784e-02
-1.447019824531619869e-01 -1.568732196762602504e-01 7.144484168425475623e-01
2.466634029252884608e-01 -1.673392195338345434e-01 1.368952189500012295e-01
-5.962148908512750894e-02 -1.442734675431238123e-01 6.709530639427457865e-01
-3.140651734458138611e-01 -3.515536688836696233e-01 -1.346001040705939733e-01
-1.228672599660475262e-01 -1.577850298850698163e-01 6.804171289714321391e-01
3.125755074626881957e-01 -1.592172309364338623e-01 9.415691409416422630e-02
1.012709392567862909e-01 -2.034245450637576502e-01 1.309340699031896760e-01
1.171508628509152772e-01 -1.013918563487881952e-01 6.727283837021830193e-01
-5.798796645162736241e-02 -1.853703037822070632e-01 4.420635034131553676e-01
-2.249715924262318534e-01 -1.655200573040611634e-01 7.733610475124323980e-01
8.752646833522703673e-01 2.704790983326142706e-02 3.743612489508100216e-01
8.949057241816794628e-01 -1.041162083637039854e-01 -3.753223966112135268e-01
-4.692348837235371106e-01 -2.938230423918299916e-01 3.899816861016963121e-01
-2.115112876761645055e-01 -3.088411120090193696e-01 -3.517974928601575596e-02
4.534151539130704678e-01 -2.480704778744542427e-01 -5.830864566556765993e-01
5.248837644166800404e-02 -7.442922128088742817e-02 9.073591174977749807e-01
1.699096179820871744e-01 -7.832913148031456219e-02 7.298843980924859531e-01
2.321760458907565494e-01 -1.210174236771302814e-01 4.116820223990994565e-01
-4.766003742360319095e-01 -2.745871648984783420e-01 5.058836254448501046e-01
5.582043013903269513e-01 -9.018840632114505027e-03 5.965135083510169078e-01
-5.243493246583519340e-01 -4.980315694611996968e-01 -6.633768686550994831e-01
-7.187131631667933451e-01 -3.325303998767245584e-01 5.078032647700246871e-01
9.004440042972797764e-01 -8.131228762343256644e-02 -2.568754565123882450e-01
4.739029377666770237e-01 7.198005515078711829e-03 7.979472315426099360e-01
-8.059401679793534168e-01 -3.739195138197050072e-01 3.953266726321924551e-01
-2.456219546607873727e-01 -4.450952081079345701e-01 -7.415498766736323688e-01
7.431859538406969910e-03 -2.545143760064912941e-01 -2.627648023490253629e-02
2.423966120995807716e-01 -3.431602442518598139e-01 -8.273936464145883463e-01
-1.163870844513230085e-01 -1.738087177589790200e-01 5.834118366750011830e-01
6.964971871467995346e-01 -1.098416328240035961e-01 -1.433799079177260904e-01
-1.315686177413370184e-01 -1.866439886634454481e-01 5.327674448848812583e-01
-3.349171702016854879e-01 -4.412922534649251771e-01 -6.019672851451747242e-01
8.826585346564484735e-02 -2.638387569587771764e-01 -1.850809827889533243e-01
1.740832431582553796e-01 -8.150779302094561529e-02 7.068051518615027229e-01
-4.970132453607911116e-01 -2.829414553401550236e-01 4.869078777132972435e-01
5.715539092202095439e-01 -2.048403581578203680e-01 -5.015108200566474883e-01
-1.550552476073732699e-01 -1.659889575169044562e-01 6.779107112607121177e-01
-3.477200322672865940e-01 -3.044993691733522412e-01 1.696861761021973558e-01
-5.546746048505137860e-01 -3.051279687926281570e-01 4.410973647917187934e-01
1.428014177255345837e-02 -3.863340407487910189e-01 -7.625851334837285833e-01
-2.969489105253574901e-01 -3.533054608741872937e-01 -1.669982374138277437e-01
-4.939964664165802898e-03 -2.481165804517006801e-01 2.545076432656733292e-02
-7.832030180935887209e-01 -3.513112795303088842e-01 4.898503648865945581e-01
3.244209751678598513e-02 -1.237332741548812926e-01 6.619879236813266399e-01
4.800411437584609642e-01 -2.114369457451605733e-02 6.334410734374780194e-01
5.547938811343070542e-01 -2.476455139556170693e-01 -7.153942218712884271e-01
5.297874096439421088e-01 -1.872890044130581799e-01 -3.492101911684274418e-01
6.835584907730369864e-01 -2.484371931658183735e-02 3.427154142446099949e-01
2.893382376364844744e-01 -7.453192408700450022e-02 5.922063332188850504e-01
-5.439953525952496705e-01 -3.740776195584989416e-01 4.653689276327452329e-02
-5.796768741860538476e-01 -3.981673133318248126e-01 -3.896676691095269512e-02
-5.063500180519776156e-02 -1.473330961878466794e-01 6.421380008705964704e-01
1.228529316663419246e-01 -3.730426594057403289e-01 -8.334676469651212116e-01
2.611922815962296890e-02 -1.097789559108190288e-01 7.473681394825973934e-01
-4.311108686240344712e-01 -2.411823679518075303e-01 6.297490817070523494e-01
7.699238771484234745e-01 -1.345701471456087206e-01 -3.773263114953758768e-01
7.653119060482912461e-01 -1.105632954038502369e-01 -2.387614745229403590e-01
3.973863438904375739e-02 -3.547323042997322373e-01 -6.220612853998882530e-01
1.199578246651603897e-01 -3.334932988964137701e-01 -6.114394346874065800e-01
-3.359389991901202133e-01 -2.110622376779325016e-01 6.695053583070548209e-01
3.084620927073348784e-01 -1.534035188180598863e-01 1.316930348958556540e-01
2.737922198314683420e-01 -2.679002451144935626e-01 -4.539049470564747724e-01
1.501590850792141330e-01 -2.238325804429234789e-01 -4.658512012037178268e-02
2.491780533608322634e-01 -2.781531392103285816e-01 -4.777745672469773108e-01
4.846826704967072130e-01 -2.737941596389310006e-01 -7.665267157818624888e-01
-7.400290764917288877e-01 -4.480592701338013684e-01 -1.012256244783104331e-01
7.496757876749221561e-01 1.412306665347946117e-03 3.997450492044447579e-01
5.675669719864935292e-01 -9.378163066814078352e-02 1.164650083627452176e-01
-1.765747913299473282e-01 -1.582495773432523178e-01 7.491891944501849476e-01
3.467109534687317640e-01 -1.433122359543275437e-01 1.365613620300205888e-01
-6.262407177499147437e-01 -4.708843641023615079e-01 -3.782801294032171469e-01
-6.211642208444558833e-01 -4.003146171191025449e-01 4.291032796336797031e-03
2.075673762540216627e-01 -1.355683163825095738e-01 3.640942294234896237e-01
1.589521003006776900e-01 -3.547199214831381342e-01 -7.803334134244501730e-01
3.870787886851629889e-01 -8.712324092677209419e-02 3.929235999111402866e-01
-1.255113350201667310e-01 -1.239496345178664471e-01 8.705895499562457118e-01
-4.532429017412734074e-01 -3.650069036009111478e-01 -2.396072549517607245e-02
3.683545805619415359e-01 -6.644922714973522382e-02 5.318460951102934597e-01
4.342267064946840338e-01 -2.880014622266415247e-01 -7.778883987642308817e-01
7.625534804089740826e-01 -9.753935226875172504e-02 -1.632482088514400076e-01
-2.587463079637211116e-01 -2.366574982378035485e-01 4.257753169479467359e-01
8.417087427009127820e-01 -8.010499476096251403e-02 -1.722024311801595431e-01
1.295657299948243801e-01 -2.585406387252669469e-01 -2.107076094195002858e-01
5.694416625160039214e-01 -1.972213960494365870e-01 -4.566736035363039847e-01
-1.441289905592295188e-02 -3.078619951488120732e-01 -2.915661553806004891e-01
-7.213777128782832004e-02 -2.402552501464985668e-01 1.580723088089023842e-01
-1.542943923492420821e-01 -3.965027819690531974e-01 -5.947809985001236699e-01
2.723673538240029002e-01 -1.917182223357794535e-01 -3.173723756005930596e-02
-8.305320055340259522e-01 -4.815956369799239689e-01 -1.660296654772023539e-01
1.020140702485426848e-01 -3.693192687560333254e-01 -7.852483579443448880e-01
2.002672815772446324e-01 -3.291267929905767331e-01 -6.940183989316141000e-01
1.054977256764462051e-01 -1.754859688638126525e-01 2.794494249139189423e-01
6.290141079332663976e-01 -6.076373335951294752e-02 2.170009722417907405e-01
5.117736413511035920e-01 -6.204621641837892304e-02 -8.294202948563383915e-01
-6.120419312266089928e-01 1.087518327801481333e-01 7.518996789730265640e-01
-5.298360552083094532e-01 -1.748698039356696154e-01 -8.069290256247959592e-01
9.295465199675413404e-01 1.279901414880451060e-01 -2.614291031556667533e-01
9.395838812335882695e-01 2.043821992949545474e-01 1.422906342596974016e-01
4.286807650849007167e-01 1.423830979643050942e-01 8.632644331669846460e-01
8.073445548231152902e-01 3.251759459553879572e-01 4.301167505006647240e-01
4.965562804922432627e-01 3.003360577917285612e-01 7.757663497177411660e-01
-4.659580288456987018e-01 -2.763205680270354181e-01 -8.126751837688303004e-01
8.187246427086827261e-01 2.749688312277174806e-01 4.405228953586802221e-01
8.677544744655980580e-01 1.489191756310329628e-01 -4.160732458463642924e-01
-4.216067461791726811e-02 -7.591366897761094024e-02 9.919743896668739014e-01
-4.747795216423923437e-01 -7.596356333157909535e-02 8.479230198117543305e-01
-5.471974695872456884e-01 -7.391843220208775544e-02 -8.296701362029323956e-01
-9.592511789995278315e-01 -1.254388080150853901e-01 1.246551368120892983e-01
1.826133525957939485e-01 5.956783013738372462e-02 -9.751954333198284974e-01
-6.750589289980103713e-02 -2.474394200542204270e-01 -9.444543355155963216e-01
7.712306867911228325e-01 -1.350509916362331309e-01 -6.145376453905585512e-01
5.263836439543321255e-01 4.877312211943803377e-01 6.882837416022493660e-01
7.808522874539557401e-01 3.163167200186537409e-01 4.809580098352041477e-01
9.714783932538526012e-02 -1.136116737226562923e-01 -9.660615073842528933e-01
-8.047312446708603240e-01 6.631264910770075238e-03 5.499898459485377256e-01
-8.779771664906306228e-01 -7.028356900996471368e-02 4.129661182053547264e-01
2.543354780542482207e-01 -5.266817142545690555e-02 -9.430547390682028075e-01
-6.335905166776588660e-01 9.256808241126814052e-02 7.350423108397763361e-01
-8.921543509943997696e-01 -4.163145175843595558e-01 1.566129890745719400e-01
6.388177987565557547e-01 2.535100993431073646e-01 -7.264002184222901892e-01
-8.863186767881936490e-01 -4.014191232642505547e-01 -1.575148593701322652e-01
3.011929735993604251e-01 1.127065995835763862e-01 -9.439259895762320829e-01
9.649403030888226152e-01 7.065401113092456553e-02 -1.605859945504130581e-01
5.453404192707492770e-01 4.128310794945883599e-01 7.011292528325130391e-01
-9.651005876386375970e-01 -1.458521170230273334e-01 1.032925523982105263e-02
-5.029205933669075312e-01 1.878389986971043535e-01 8.204030291154627008e-01
6.263937541567013989e-01 5.051051902624411616e-01 5.890646536154524604e-01
1.100857490301895419e-01 2.901657110024216113e-01 9.210674874556175062e-01
-3.803847209890479086e-01 -8.222375537366991005e-02 -9.113765679157245225e-01
2.520114189692590489e-01 -1.012836344801159444e-01 -9.381736971198159081e-01
8.355164812734642288e-01 3.665400254434096339e-01 -4.096848397250167917e-01
-7.209651837648430039e-02 3.957758465279515581e-01 9.114080773726913609e-01
6.774860211781351671e-01 4.658328235760033076e-01 5.483189516367034111e-01
6.598484766970791338e-01 -9.666325105868421586e-02 -7.218298225241654986e-01
-9.128444177519339231e-01 -3.538174135589062241e-01 8.996858329710451241e-02
8.513226215632526683e-01 3.598189505759087359e-01 3.093895465592438332e-01
7.552031602427897727e-01 4.510863430446371281e-01 4.454457619000147806e-01
8.681328216089027883e-02 -2.957770898778993574e-01 -9.375982704876825169e-01
-6.058456926102179230e-01 -2.251987343402085950e-01 7.510282271251026431e-01
5.589344423199873457e-01 3.125615235392060209e-01 7.275444853882330198e-01
-7.906931049253212995e-01 -3.517942530619286301e-01 -4.555388531864107970e-01
-3.900843535914479410e-01 -2.961175340429801905e-01 -8.463250449046560986e-01
2.487756472591690360e-01 -5.109059496433668475e-03 9.627229764256356459e-01
1.230305049347139440e-01 -1.637330235393759104e-01 -9.553481771036768100e-01
-8.298070894240912043e-01 -2.264214830029248615e-01 4.619789777982692414e-01
-2.085974637786283670e-01 -2.766742509296409858e-01 -9.152494096004872848e-01
-7.556076181533674108e-01 -3.037342670184707827e-01 5.695871653317702288e-01
-8.666189957243471964e-01 -1.794431670307648496e-01 4.013910066712463309e-01
2.594858242121417247e-01 -2.453059273427960485e-01 -9.190917138438330358e-01
-3.015153371571690499e-01 -3.869522882971812017e-01 -8.582605081322424168e-01
4.354708302116862551e-01 2.484179984039429079e-01 8.279276919838078896e-01
-9.228029980034652136e-01 -2.269422169189367067e-01 -2.155056552753989163e-01
4.902980919845625896e-01 2.693607675755290698e-01 7.900310374759346166e-01
-8.270544737033361793e-01 -3.590613718670435106e-01 4.257720945620216968e-01
3.114586470550766428e-01 -2.823283268327714812e-01 -9.008964454258241439e-01
-1.569132615358023730e-01 5.145940728950264276e-02 9.569123160575365716e-01
-6.486333898028638911e-01 5.936841131629861518e-03 7.206078933766268957e-01
-1.076416244269671335e-01 -3.900117556578254763e-01 -9.094785418427705492e-01
8.139062552586033839e-01 2.507318374283033502e-01 -4.922733597653283222e-01
9.797572226380467653e-01 1.844242336113858811e-03 -1.570908420135305461e-01
-6.583742516225791208e-01 -4.000940986768476981e-01 -6.118134336088318914e-01
9.288772199951759179e-01 2.527740938560242290e-01 -1.465520846135177357e-01
-1.119634088809302319e-01 1.027852572704348877e-01 9.565375446874057053e-01
3.659514917891324437e-01 -2.413322938810061324e-01 -8.873942071664157050e-01
-9.637427669722162804e-01 -9.410316433345300435e-02 1.378274485544563333e-01
-7.353510359103794247e-01 -1.813437975609575870e-01 6.158017578453620633e-01
-1.618712041081571407e-01 -2.392411904828818936e-01 -9.337486122363877206e-01
4.702946837765111660e-02 3.907852342870687390e-01 9.074881376619691187e-01
-9.277003302652471195e-01 -3.029815528981441575e-01 1.408101277712487265e-03
-4.411701093234284277e-01 -2.312323035718370778e-01 -8.404688770288525346e-01
-1.137707203930330147e-01 9.986507998476296805e-03 -9.923214284011379061e-01
-6.668121679351478592e-01 1.593898072974073155e-01 7.088835567238179758e-01
-4.673342055632854208e-01 1.322647690752790928e-01 8.423157756825556675e-01
-6.420752214016974824e-01 -7.005929382707030972e-02 7.239228347441211131e-01
-9.203044434791625150e-01 -2.327680921226601418e-01 2.135991427187216851e-01
-4.049719346393914621e-01 -2.275944634655853796e-02 8.829668381237784081e-01
5.949181932315971144e-01 1.502264199756942753e-01 -7.712570604875657043e-01
2.752191329407833731e-01 2.662706904104005304e-02 9.491188925225232387e-01
7.422085717251223347e-01 -1.353053047334458470e-01 -6.459100510942075157e-01
1.185076719228198433e-01 -6.587998443820024252e-02 -9.705303450682177813e-01
-3.397118038415407049e-01 -2.571049416298185064e-01 -8.791182024789389038e-01
-8.113028221961497977e-01 -1.241843900336146306e-01 5.178982648628956964e-01
-9.830573212557659757e-02 3.088590601075883457e-01 9.252313669040916899e-01
-3.786039922185611140e-01 -1.849384727148877805e-01 -8.834897112272014352e-01
-4.560336770089654657e-01 -1.438833281402427666e-01 8.616658422293782538e-01
-2.285429502943177593e-01 -1.910652036939077258e-01 -9.309274638288890236e-01
5.563735104131946052e-01 -7.884603962188629911e-02 -8.004642117674071189e-01
3.641132067444555753e-01 6.622706112390251698e-02 9.118090614918260561e-01
-6.840608163330135216e-01 -2.031290507260981038e-01 -6.704587091521886366e-01
7.288254310793985669e-01 2.153994232520025365e-01 -6.277727710858003185e-01
-5.056107042956221875e-02 3.335782603846714767e-01 9.227773922638854431e-01
-9.128839854685026900e-01 8.149254195184880978e-02 3.887312470427032318e-01
9.022523547131611199e-01 1.542824191310223358e-01 3.428018670509893617e-01
5.739910609708119837e-01 7.194843135380367405e-02 -7.890946880598411761e-01
-5.214165170530182802e-01 -1.292459138678187236e-01 -8.274009044579235805e-01
2.936262605895165190e-01 9.545705856187131078e-02 -9.452328546844777080e-01
-7.606808236707988113e-01 -1.804955430721751630e-01 -5.929559536253655727e-01
-1.947917235950583428e-02 -1.853067528873565684e-02 -9.893474862395567060e-01
-7.474821761253962471e-01 -3.826457382297747678e-01 -5.073077766000598787e-01
-3.449229409269244928e-01 -1.484630852688139935e-01 -9.067185038214318205e-01
-3.778936308780491138e-01 2.239066071935041646e-01 8.754935264755959734e-01
6.565226036139251153e-01 3.004605431309438912e-01 6.461064307534085671e-01
4.405027142861471789e-01 2.150441805992467717e-02 8.931789997045430640e-01
5.527149973426688234e-01 5.986685512204032583e-02 8.204690324455703454e-01
-6.162617273127611872e-01 -3.041067557128258048e-01 -6.937557494610457898e-01
-4.069761403673186617e-01 -1.999648804362806620e-02 8.818157629013028131e-01
-7.949476075194464864e-01 -3.715115606719345681e-02 5.568879719347588075e-01
-3.972169255819256173e-01 -2.314227468320819575e-02 -9.210673575868368879e-01
7.570588496990804384e-01 1.921266327776502969e-01 5.806731157959854617e-01
-8.879120213911027015e-01 -2.858119095123343723e-01 -2.818720687376636280e-01
-7.758370128789709996e-01 -2.624369286577211691e-01 5.463731638377223865e-01
6.937671693852530685e-01 2.115605366793372744e-01 6.457992839375686911e-01
-9.108751302151236739e-01 -3.727202745789873206e-01 3.265932432645510253e-02
9.148460038375650916e-01 2.915265608116219265e-01 1.496713892074366115e-01
-3.250718616800805094e-01 -1.206544983558483081e-01 9.260082120074184520e-01
1.039430772777353851e-01 3.654389617401911372e-01 9.056710291648601974e-01
5.583467093551857108e-01 6.693344627755277998e-02 -8.008352263789726422e-01
-9.292536945750812238e-01 -1.302474191999463959e-01 2.558598474259509148e-01
7.947534894843842901e-01 1.810083783501297838e-01 5.342660903095721725e-01
4.840692626426942868e-01 2.833244167194071683e-01 7.892667158182609111e-01
9.514570107037721991e-01 1.921422744610492006e-01 5.853173406581604205e-02
-7.934038895832618010e-02 -2.547738691282984691e-01 -9.418809520722599693e-01
-3.808328528506767230e-02 -1.419884795646565445e-01 -9.666948493622371519e-01
1.122238914052449549e-01 3.372629941935829934e-02 9.740718401037882224e-01
-2.016128664255053271e-01 -3.879264768477115322e-01 -8.900996135519211316e-01
8.617215096738066737e-01 3.881571703953781149e-01 -3.260023703163700826e-01
7.727750376367465979e-01 3.079879748274826912e-01 4.982935380626543065e-01
-1.430024107703238845e-01 -2.356624697162039705e-01 -9.377454916362943926e-01
4.367111874606834920e-01 -2.237766893456376305e-01 -8.601610740901801666e-01
-5.782679979501111761e-02 1.926995201021558801e-01 9.470139425193718763e-01
-6.280848221944976828e-01 -4.947723365002970053e-01 -6.027392256243525592e-01
-6.090811348779106016e-01 -1.664489914342864585e-01 -7.528650573915436350e-01
4.539593743886475852e-01 5.711138461004180295e-02 -8.680802956864135389e-01
-2.163681115400798161e-01 -4.134335009970482311e-01 -8.797356758550411993e-01
1.142164466126871780e-01 -1.011621736758131287e-02 9.826591606995251915e-01
7.397574664761035201e-01 -1.549403105749391774e-01 -6.497249575701149471e-01
-7.774499628159521336e-01 6.496776522350666827e-02 5.923462311035649908e-01
-9.449773640925952511e-01 -1.423971546324612758e-01 1.838667885025785098e-01
6.379716731396023466e-02 -3.947629096310748681e-03 9.837892737756031014e-01
-1.765907115819344286e-01 1.123873855305753955e-01 9.449298651463214904e-01
9.288496794798015710e-01 2.245242357533500932e-01 -1.833818301335476408e-01
-5.426723347284059112e-02 -6.537709521145763925e-02 -9.806464290842402676e-01
8.745316765341778487e-01 1.618861065587562653e-01 4.038326589251106657e-01
1.690911369485123550e-02 -1.050481346017351075e-01 -9.732612691205040356e-01
-7.723019460526229230e-01 -1.253587920007849243e-01 5.748058597883114462e-01
7.208389150580900573e-01 4.773458342537280630e-01 4.843324418972086431e-01
-9.561848334337204047e-01 -1.363897346217096962e-01 1.294392306410707405e-01
-9.307405053733656120e-01 -2.410006277938732400e-01 -1.537753946514675563e-01
-6.637990397601366555e-01 -1.677088385306719776e-01 -7.050141889986929478e-01
1.477953292981281919e-01 4.110354720955999158e-02 9.690741136798980415e-01
-4.496231693155510745e-01 1.587090603628930063e-01 8.496062483691018130e-01
-1.097802964205351339e-01 1.152969446636975676e-01 9.549161129849242924e-01
-8.169878742103793279e-01 -3.250045020697243103e-01 4.584585466181162472e-01
-8.759828730634278138e-01 -3.846316209858941515e-01 -2.230678423188215131e-01
6.783133227586773950e-02 3.968840988730173991e-01 9.038997153777782456e-01
-5.198252403246136355e-01 -4.814709054831459167e-01 -7.062891962181195860e-01
-9.220661404474382872e-01 -1.343841791749808001e-01 2.770039635133730305e-01
-7.803774150412311483e-01 -1.769873151835690550e-01 -5.683839416394538269e-01
-6.802196738081248695e-01 -2.011918948074792046e-01 6.784858138948400841e-01
-1.606079507673510154e-01 2.738024585389373794e-02 9.594772218129516972e-01
-9.623952385485884387e-01 -1.564808813439579338e-01 1.669963661708071326e-02
6.417385902851027168e-01 8.327124548645670199e-02 -7.321237090060264130e-01
