-5.695453836992606655e-01 4.595734789852974900e-01 -3.230258132100191082e-01
-8.211863814440339970e-01 -1.413513390323390406e-01 5.537207595406785643e-01
-3.734180721319847462e-01 -2.827972905227109646e-01 -6.226194106482794144e-01
5.768942464261450631e-01 3.211689510446482099e-01 6.244222863250553646e-01
-2.362634339367429559e-01 -6.652814912938370684e-01 -1.374241685250012779e-01
-3.106440275712279986e-01 8.243422743346878745e-02 5.792905351595996066e-01
5.523453143052311498e-01 6.550200743436934703e-01 3.309829507877688481e-01
5.062190652415542447e-01 -5.316135176960806730e-01 1.426470681235861016e-01
9.075254128067884452e-01 -4.719187014655237267e-01 4.908295372154868053e-02
5.954987130039980370e-01 -4.856342142315169252e-01 2.544942033299698037e-01
9.128068677370011486e-01 -3.291175083181177019e-01 -3.355202833520233852e-01
6.562926759993632786e-02 -2.323779474206609519e-01 5.710051640683782015e-01
-4.742803547552982280e-01 -2.825468411330891438e-01 -6.362955229279952940e-01
-7.148850818775607241e-01 -7.564460516786137845e-01 -1.257335405284703278e-01
-2.915659755911836903e-01 -3.796754642545536185e-01 5.004239241195231891e-01
7.829474777474106917e-01 -4.929485980466797868e-01 1.017393974426304866e-02
3.723889563401711622e-01 -1.846483686046688777e-01 -5.525568332954057249e-01
-2.343921833456338866e-01 -6.457612334971565282e-01 1.526686509377347956e-01
-2.809522898183878237e-01 -5.290478900445563237e-01 3.731935013419604430e-01
-7.093013783691232144e-01 4.853030580737962563e-01 -1.973414056233574188e-01
-5.045883358216618486e-01 4.808501444410124281e-01 2.239912915611018129e-01
2.362696230414678411e-01 3.498892608717858455e-01 -5.253945298271879283e-01
5.952965289233129731e-01 5.126462762756880398e-01 -4.279011364676644225e-01
4.246730331910072986e-01 5.766990682822680236e-01 -3.407474103503583818e-01
5.536650734133959917e-01 7.260881316569702815e-01 5.650421860118290396e-02
6.695144524114752249e-01 6.174352746371607470e-01 -3.253463986712047951e-01
6.708024829982366377e-01 7.369749534755362045e-04 -5.676397984215200143e-01
-5.701114431216667278e-01 2.919985528316062506e-01 -5.294398444231819267e-01
4.054327565095021679e-01 -1.894476184290826981e-01 5.895353258972862998e-01
5.832140210497204214e-01 6.584674769666507554e-01 3.371289831684899929e-01
-3.656592024452279821e-01 3.171300399794058089e-01 4.649000084546524025e-01
-9.301974314930875343e-01 6.612778999822412074e-02 5.043115958021513467e-01
8.771177125147863870e-04 3.396467639392257154e-01 5.219821597302916061e-01
-2.320372974761955032e-01 4.418741812478526598e-01 -4.147047301092266491e-01
2.618980806564270569e-01 -2.947540404083261456e-01 -5.149674340214442925e-01
-2.019040054754342728e-01 -5.872851387604848261e-01 -3.337808541427391695e-01
-4.983347836808705855e-01 -6.251383253361910697e-01 2.785169010206700602e-01
-5.972418197851987465e-01 -6.596722852138900972e-01 2.420749124767763993e-01
-8.454176983918262334e-01 1.161270096461564511e-01 -6.306696089491268253e-01
5.004364163938725962e-01 3.165154817885681982e-01 -5.438008067246643540e-01
-5.213247638849770604e-01 3.273972816938904851e-01 4.223603197130443299e-01
-7.182127796393029673e-01 -3.194923003247208682e-01 5.300580592374682931e-01
-9.055939199667721873e-01 4.576890988913768776e-01 -1.790003444644157615e-01
-3.087187600393453413e-01 1.788219745513930092e-01 5.510340132013780146e-01
-4.958686582130921172e-01 -5.124883577439555138e-01 4.125330215212774099e-01
2.921324019837554520e-01 -5.419544346714224581e-01 2.242199514638877345e-01
-7.141919045286672096e-01 -5.250228358022616115e-01 -5.498412785874193798e-01
1.883462388487935624e-01 3.738483316230843956e-01 5.357477498236399294e-01
4.285413644635887032e-01 5.203254744643895924e-01 4.723643245928886847e-01
-1.781390310332947868e-01 4.617201180412736083e-01 3.720372675018718267e-01
3.292744538636943052e-01 3.680720547803085774e-01 5.646127854563034454e-01
-3.954878193944857956e-02 6.015509002695906826e-01 1.535334293950368911e-01
1.700138354187233636e-01 -2.433501189864922809e-01 -5.581836799834812846e-01
8.482491799332804172e-01 -8.867786915962359851e-02 -5.206726986469956131e-01
-3.296148888650886621e-01 3.243033787936487333e-01 4.670766424453836052e-01
3.154819462554723369e-02 5.438929345168428409e-01 3.242020967822722977e-01
8.197663915586305139e-01 5.685383647856990380e-02 -5.605672124768575904e-01
6.207824743109481291e-01 -1.887415270627399999e-01 5.874511592895844680e-01
8.183745990979507390e-02 5.446367631869385439e-01 -3.258730641103425585e-01
9.295849721956688239e-01 -4.617867735297825349e-01 1.450009785487600678e-01
2.730325739149711550e-01 2.421700068291281482e-01 -5.738258330830366960e-01
5.879264267884001249e-01 -1.251377729179363740e-01 -5.443035173314051400e-01
7.308054443824389956e-01 4.027201519801166807e-01 -5.058342948436315156e-01
-8.040492162866995640e-01 -1.056226016363280285e-01 -6.883476680823227278e-01
-3.391283025964823006e-01 -6.914976829686100279e-01 -3.709912564227524617e-03
5.318903885321553116e-01 -5.177645278415066166e-01 -1.309959198126462721e-01
-1.366190356285236773e-01 -6.080055313865795341e-01 -2.639072580251944911e-01
-2.589148243751742129e-01 -1.523101977032852439e-01 -6.409446694046424531e-01
6.539284585554230311e-01 7.438483724616788972e-01 6.327856491776623349e-02
3.057354826604806175e-01 6.564149072077863911e-01 2.023385297633188418e-01
5.699487617487061231e-01 5.706326379405238930e-02 -5.836468131344740851e-01
2.663024552948473622e-01 -3.490396811712888070e-01 4.954770811050935864e-01
-3.432207665603493330e-01 -6.922184996274387547e-01 -3.966549933260005503e-03
5.921430904165835285e-01 -4.504103629671403208e-01 -2.663164502060681449e-01
4.539474897314785817e-01 -5.233196670749238333e-01 2.075534163027975276e-01
-9.193340423430010899e-01 4.498918554733194464e-01 -2.060164854940574330e-01
1.989705091204818088e-01 6.602053088804750169e-01 8.063681135680088319e-02
1.282506791491245524e-01 6.384882212814108060e-01 1.352235037019457187e-01
-7.186055607781027810e-01 -7.591589472460299470e-01 -4.272807004445993567e-02
-3.578835417789744122e-01 5.141007557550061335e-01 -2.703709585212228372e-01
-5.304489926003197464e-01 -4.400444220718827681e-01 -5.726979451536519106e-01
1.652032035645255026e-01 6.514596986500116316e-01 -7.040645654671542908e-02
-7.706238297406213800e-01 -5.350325906248101226e-01 -5.541598221059585994e-01
-7.194118578966093303e-01 -7.367826220625471878e-01 -2.359797352861918440e-01
8.540650758088029759e-01 -4.812461477424599399e-01 6.599263109335082311e-02
7.374292200515539797e-01 3.203781456261889544e-03 -5.608501081031503910e-01
-2.570057506640952560e-01 5.329491950486139329e-01 2.246248023838164631e-01
-8.893222550985008246e-01 4.551053076759563054e-01 -2.041363138897769047e-01
-1.131389710209654703e-01 -6.436234475521314113e-01 -1.272056254013590737e-01
-6.841866738976772888e-01 -7.199986327395477836e-01 -2.668327133055767852e-01
6.802836242833520952e-01 7.073643811366092660e-01 -1.671486005502943739e-01
-3.370566981263762446e-02 -4.843898443420279198e-01 -4.224565917229478051e-01
-3.288152551639700327e-01 5.377254690386072955e-01 1.735729931149478933e-01
4.516038167635543776e-01 2.173152440445965672e-01 6.378693712017829975e-01
-4.346066454719308969e-01 -4.614131743231792981e-01 -5.391327997453169152e-01
-7.388115041228513480e-01 -5.129619009787979023e-01 4.291409945151510308e-01
-3.276815475963068547e-01 -1.869689433903028511e-02 -6.515408069121229051e-01
8.178522385218470192e-02 4.743646291850652230e-01 4.300973058771302981e-01
-4.813042198815629114e-01 -2.173491881047802943e-01 5.646931566865648344e-01
-1.786443821215884242e-01 2.540890919325903274e-01 5.381389925435839938e-01
-2.143828854026946784e-02 6.157142961773600653e-01 1.038925322586401884e-01
5.515708890786824581e-01 -4.327324261405045558e-01 3.695095121606427613e-01
-6.636402378612696884e-01 3.709743152158482826e-01 3.406461116198566952e-01
8.747217784857665990e-01 -4.101797538285660849e-01 -2.263613199676648424e-01
5.719404020653197085e-01 6.139789650136691090e-01 4.040901064110434815e-01
-3.867947518135215201e-01 1.608776330245032804e-01 -6.114281040419731195e-01
-6.688430036135154522e-01 -7.329668436184052505e-01 -2.127452067683586190e-01
4.933864742871617581e-01 -5.411066856097076494e-01 -4.729424674495696923e-02
-2.522025080725657786e-01 3.996412731764586446e-01 -4.587275079119099708e-01
3.812895187538365427e-01 -1.466920753394407584e-01 6.070222533938365306e-01
-5.806153291037332576e-01 -6.339631628266073626e-01 -3.958458054855468755e-01
-3.661031485697692767e-01 2.248625325346002568e-01 -5.818182925020856100e-01
7.343034091134328922e-02 1.180812265094471070e-01 -6.121202017562962228e-01
-7.509450072842980273e-01 -2.329492090889838662e-01 5.502266490388947329e-01
3.603783534106530517e-01 -5.275754738748000827e-01 -2.071943530420564117e-01
3.887393304887107881e-01 6.810534835608754722e-01 1.713961387301486117e-01
-6.628128811099106565e-01 4.775859134123965344e-01 1.509261732596931804e-01
-3.988985691687076396e-01 -3.582071263988769183e-01 5.148830628304489343e-01
-6.352341993087087246e-01 2.232011890492063555e-01 4.754950185172895361e-01
-4.408476105121565403e-01 3.343981551307720901e-01 4.347896772136026766e-01
3.077314968063295519e-01 5.879286126017561065e-01 -3.032521509581198038e-01
-8.860646921758237315e-01 1.161347259813803601e-01 -6.303043186734925696e-01
4.454627837177570493e-01 1.665002371045344320e-01 -5.864837596322088897e-01
1.623884773485344823e-01 -1.292047960073866852e-01 6.078948524628946526e-01
1.464346168594608810e-01 3.860427302041746778e-01 5.197198393808328820e-01
-8.000021240581343118e-01 3.608925273129207079e-01 -4.336291073864793066e-01
-5.391590925405074231e-01 -6.846177307374615162e-02 -6.686381539542372021e-01
-7.320860798791255508e-01 4.964757093699092017e-01 -2.019627038071601394e-03
6.746910944724149317e-01 2.882786685199698606e-01 -5.507964514964467373e-01
3.435807439297944854e-01 2.971969106927967452e-01 -5.524054019800530568e-01
2.630833714821900760e-01 -5.267111328690532446e-01 -2.566232536482213611e-01
-2.619561674744374513e-01 5.811075574635546914e-01 -4.781957548389982604e-02
-5.065878674110694257e-01 1.287600398800236023e-01 -6.249193184692564129e-01
5.964391340285759568e-01 -3.296968112052434813e-02 6.460744691291178121e-01
-8.160970016937333371e-01 -5.161866656382387841e-01 4.309733892108017494e-01
1.273010339673506519e-01 -6.078742020748593156e-01 4.721161402758632109e-02
-2.628642996333158122e-01 -6.760311098965261500e-01 2.692985052983078165e-02
1.118178134869991965e-02 5.321979439814864543e-01 -3.312003149060235851e-01
4.819065762255684282e-01 6.498480262959904774e-01 -2.338181428790384042e-01
4.383708753862513574e-01 4.298227711995266653e-01 5.474301452899058562e-01
-5.698626765661337634e-01 5.175751709346998464e-01 -1.506149665719807851e-01
-1.004830879442592806e-01 5.120600916247630696e-01 -3.403718371801967013e-01
5.245395826565754094e-01 -1.342905789746596801e-01 6.131347206794368621e-01
2.181385825670127399e-01 -9.182631629337677584e-03 -6.104615892434903657e-01
8.261711385827184007e-01 -3.559587657039090525e-01 -3.279701281883457553e-01
4.062788202712477315e-01 -5.372694129671231611e-01 -1.505268764678924232e-01
-4.425402050224772621e-01 -1.262044739422991668e-01 -6.612262382749357625e-01
-9.254115360751845321e-02 4.937047217969509072e-01 -3.689049718835155645e-01
5.418437835760064880e-01 1.992337227366513808e-01 -5.764421924320374258e-01
3.581678298703752650e-01 -1.281146418104814055e-01 -5.744889339823117114e-01
-4.387487742411169123e-01 -6.053927421474859516e-01 -3.901202408583702708e-01
4.851144657104042301e-01 2.897883281149760126e-01 6.225564482286651824e-01
-3.410709470632197760e-01 5.538201032971602489e-01 1.067880706997913071e-01
-1.177451347136061061e-01 3.964185629730511695e-01 4.554659098837091080e-01
4.900588878751094835e-01 4.492261282809753564e-01 -4.710491428604959285e-01
6.668927778276317886e-01 7.419021405213772624e-01 -1.907031187307757503e-02
-7.369953944407069309e-03 -4.861326358468953113e-01 3.877665820650589290e-01
4.373710979654129583e-01 -2.860103345262299951e-02 6.405134034239742258e-01
4.092561721259150298e-01 -5.599932210720501846e-01 3.052349161003132388e-02
-3.959172892503734498e-01 -2.381206356228863508e-01 5.622230761004943789e-01
6.587341404467051964e-01 -3.715307351822542681e-01 4.350245219376636108e-01
-1.834467891683924656e-01 -3.214667794371796061e-01 5.307229746462742703e-01
-6.335263606899993460e-01 -3.829228783871519992e-01 -6.211288468206648261e-01
-2.888942170343228311e-01 5.445801279800682737e-01 1.772602087663195103e-01
-3.782740341999694667e-01 -5.943485790088965937e-01 3.025073608640621026e-01
5.478733442587928604e-01 2.765249292838941123e-02 6.544510362162960782e-01
3.389161873030002159e-01 -5.466566592441326478e-01 1.890215227360559913e-01
-4.070737399224677588e-01 1.972056258582339239e-01 5.284139858336934781e-01
-4.183757917559114553e-02 -4.707545768880710968e-01 -4.394407858318843396e-01
-5.589948928319121713e-01 2.186052607975446649e-01 -5.809968978399649986e-01
3.639700865729806889e-01 1.994943061885939284e-01 6.316184881185430422e-01
-2.275993946884657393e-01 4.678325476389369464e-01 3.490048130794934922e-01
5.795809859814495812e-01 -2.011666306077810051e-01 -5.118427543442489736e-01
-8.121969638459313190e-01 4.672856897667982401e-01 8.431533998304047151e-02
-2.391805210823529093e-01 5.848025463155802628e-01 2.060909424018209091e-02
-3.064919337887943573e-01 5.620352507315984347e-01 -1.417017551685753329e-01
2.221780486133262678e-01 -2.329765106731879754e-01 -5.546962484377270242e-01
-6.122169571991850079e-01 -2.307071513051323908e-01 -6.654671311226031394e-01
-6.648572176222211638e-01 1.390557308825110250e-01 5.141761988587174592e-01
-8.863809184649876771e-01 4.503897569646196919e-01 -2.250002377123024866e-01
1.901991669944831931e-01 -5.553289271382402248e-01 -2.262797693901748841e-01
-1.776569801020593531e-01 -6.385949730569429050e-01 -2.023146525886508895e-01
3.140975019203290919e-01 2.727835174383256289e-01 6.048944103567216457e-01
1.566114641524175843e-02 6.156507958393333535e-01 1.400320099314318056e-01
6.098546800620572306e-01 -2.446427079558642637e-01 -4.809846679116222545e-01
-7.266120551944831307e-01 6.505879522869280340e-02 5.327220693101224480e-01
-4.406153111872219696e-01 3.259123329536072755e-01 4.419154772656792574e-01
2.957143463559056551e-01 6.149591380132327645e-01 -2.520472250172864914e-01
7.568925197341699329e-01 4.621121356195165980e-02 6.680492981881714920e-01
-8.532801591126685237e-01 -4.618143678170329447e-01 4.674198210150838362e-01
-6.086176074596383323e-01 -5.241246560197085902e-01 4.112668647430251512e-01
1.313354818606748686e-01 6.076472364527381043e-01 -2.159210654660119189e-01
5.284548231983219324e-01 -4.736353479049710824e-01 -2.486983420465866401e-01
-3.219011366845438427e-01 -6.325726454077059691e-01 -2.966138636983611798e-01
-8.074318519006987716e-01 1.223255245211893327e-01 4.994754111817153452e-01
3.654235927885768342e-01 5.740183804188807581e-01 3.929011567919858394e-01
-5.766320579397025137e-01 -4.066560856877155516e-01 -6.002339678497475850e-01
-4.403734029641389047e-01 2.062691918656022472e-01 5.187649646851710816e-01
-5.981953818332068629e-01 4.503138384222283852e-01 -3.333179686409173392e-01
-8.205625143669559307e-01 3.505232554924491151e-01 -4.440153938089562158e-01
7.877912727799450954e-01 5.884151915642917008e-02 -5.639169383494451182e-01
-6.927162884331040660e-01 -7.420007502291420254e-01 -1.935980191942121564e-01
-5.002846744551884273e-01 4.627084442565770894e-01 -3.349688537300353208e-01
-7.633037095488564017e-01 -4.023492380945775104e-01 4.969029887572264936e-01
7.620932581757551283e-01 -4.884386069753000048e-01 -6.163429303804333903e-02
-4.975003338382973789e-02 6.189770147423174773e-01 -2.423617279417477136e-02
4.403213670435091598e-01 3.703473054320293584e-02 6.489255641711404454e-01
5.689348457102534340e-01 1.748190282379171734e-01 -5.789505175647595703e-01
-4.171443234748081069e-02 -3.585986474456515638e-01 -5.319281405812575914e-01
5.067453903375580826e-02 5.654860923351203716e-01 2.938486766474623368e-01
-6.630754947030088609e-01 -4.755430263898174359e-01 -5.751183912764248340e-01
5.862669145588279562e-01 7.285501877654269043e-01 1.122699305103176254e-01
6.321150561150367109e-01 4.830568096061255701e-01 -4.538210321346704545e-01
4.536301390812311207e-01 -5.282846267898707593e-01 1.912436021363445871e-01
2.190328270144845380e-01 3.645023350307974863e-01 5.470779601148394455e-01
-7.564689452800190672e-01 -2.541294258059871858e-01 5.460666488082217551e-01
-5.235299298282597436e-01 -9.217146874380195698e-02 -6.684456368698572515e-01
-3.490552371428977674e-01 5.526268541540116930e-01 -1.540288534479781202e-01
-7.834749010695718496e-01 -4.428091966724131412e-01 4.765081201479445250e-01
9.255751769861335354e-02 -5.755696300878282434e-01 -2.262258112008867228e-01
-8.518510650615110924e-01 9.725359729427973665e-02 5.034878068169800214e-01
-4.721641190225387419e-01 4.542384774871708886e-01 2.863278655408106887e-01
2.245739126827289434e-01 5.884903544323956404e-02 6.339576484826059399e-01
1.886192916938695952e-01 -3.717415390665916863e-01 -4.752940781929686498e-01
5.446241137246660147e-01 -4.780121058295221381e-01 2.897439505310738239e-01
2.645974946706233233e-01 4.755366720245882139e-01 -4.341146662537239131e-01
1.139383652485897319e-01 1.382921029025782900e-01 -6.064717330114194338e-01
-2.105657613434008257e-01 -5.262901258423442474e-01 3.671098835019730999e-01
-6.194866761635914321e-01 5.074930145634584111e-01 7.105868093837658384e-02
1.092005686276290716e-01 2.384468325950840906e-01 -5.773266104916588981e-01
1.129613465013696305e-01 5.093045967595524054e-02 6.250320440097787422e-01
3.597977894124581022e-01 -2.863169373350798463e-01 -5.018601520896444068e-01
5.356013893771768286e-01 -4.567256562035903467e-01 -2.771804402257839195e-01
5.023108301422489763e-01 -5.385716722951826574e-01 1.035915766740583416e-01
-1.279014852972016336e-01 -6.247757164750828984e-01 -2.145230161795889934e-01
4.238939059326072289e-01 -1.655254273124753261e-01 -5.526033273864747741e-01
3.985441363307712925e-01 -2.103541782680930783e-01 -5.371549577258541985e-01
4.288390686868902291e-02 3.328215347808800573e-01 5.338398766045702182e-01
2.070856450455743902e-01 3.852412946623524070e-01 -5.024436796322709897e-01
7.697765314846526374e-01 -3.529352791290480407e-01 4.422786892805015690e-01
1.692209487374429500e-01 -2.769134863501694910e-01 -5.417260557696687018e-01
4.174308822169300881e-01 -2.303283328992033474e-01 -5.240586381781686676e-01
7.524850591391339938e-01 2.479140802481172648e-02 6.643013596985786196e-01
4.402220144899970933e-01 -4.276430469016070934e-01 3.961854877874967928e-01
9.005133542350362008e-01 -3.921125021077610517e-01 3.616324891203636094e-01
-2.832453998201486800e-01 3.433121156213851943e-01 -5.069535010364235594e-01
8.800421707564314300e-01 4.938294968637647886e-02 -5.534402685661256038e-01
4.504295828197349416e-02 4.647893982873833596e-01 -4.229327398646663960e-01
-2.385445715441191217e-01 1.007956737385767437e-01 5.836222963594108748e-01
9.241733252663036913e-02 -1.098378175483293723e-01 6.100748189484395123e-01
9.235874772685548351e-02 5.595446220771232992e-01 -3.036569080160053669e-01
6.815149763306693753e-01 -4.668249976147537117e-01 -1.923790286556101847e-01
7.230562163214796501e-01 7.438276541334154501e-01 -6.461217299406303571e-02
-8.695585722359748804e-01 4.697773908932172393e-01 -1.389442852980679044e-01
7.324394999090198810e-02 -2.220184613704229704e-01 5.753255384299383879e-01
3.122369578476955065e-01 1.504473828467793317e-01 6.345822119481396850e-01
-5.830487124252965031e-02 -3.205771697866671710e-01 -5.573890438730393360e-01
3.231205457774587175e-02 -6.062272753414913590e-02 6.151777740952251161e-01
-5.352696990509282493e-01 -4.874842039053999820e-01 4.366018230150870427e-01
7.120195887586107109e-01 2.002570032605351380e-01 6.679061342747933949e-01
2.101176675472682387e-01 -1.124213730278685874e-01 6.137123501005347093e-01
6.871727697610851004e-01 -1.549242480889779505e-01 -5.170150902197514498e-01
-7.159774160910015173e-01 -1.718209285468366987e-01 5.597421158415215592e-01
5.064161090546029920e-01 7.010007717158822649e-01 -1.016228928202898285e-01
5.923274089421072253e-01 3.602200909139873786e-01 6.113541313788537490e-01
3.728776198993382640e-01 -4.194729396079335260e-01 -3.831515763583431822e-01
-2.272284417703795689e-01 4.565358784481620691e-01 3.638732370598670718e-01
8.314377751226557089e-01 7.738411113843096656e-02 -5.616656463173230751e-01
4.257119115152029898e-01 3.828385625844148432e-01 -5.111657000710834176e-01
6.492668036070096127e-01 -4.182558670059952632e-01 -2.983753448493210447e-01
-4.755900369229814628e-01 3.791169186868759144e-01 3.836722076135410942e-01
5.374122725563970082e-01 -2.525131511699194031e-01 5.517263345572304134e-01
1.459121288960705809e-01 4.694559326382819475e-01 4.514777202234724340e-01
-4.025010593902593747e-01 -2.415003413659508880e-01 5.610871641343665450e-01
4.129445674472032590e-01 -3.940869035349679056e-02 6.374470514811708677e-01
8.398281991132718893e-01 -3.928550477340346792e-01 3.740072112178312036e-01
1.979162148954853040e-01 -4.238550986713937596e-01 4.325383771372352526e-01
5.306166210465003141e-01 -4.747235761311119351e-01 3.007289492884154258e-01
-4.040346158257949183e-01 -5.654609731369493186e-01 3.461802136115288420e-01
-3.741322064942692593e-01 -6.984321909706860954e-01 -2.241276346723836133e-02
5.393206353649664386e-01 5.773842821576206097e-01 -3.566265361335097528e-01
5.541682462597068426e-01 5.629225107479162160e-01 -3.751163213582576206e-01
-1.227491592976037021e-01 1.767883480769852356e-02 6.065342674055398398e-01
7.450331027583206867e-01 2.428505245607542884e-01 -5.593948872761814739e-01
-3.831005882793246942e-01 -6.607465652786401189e-02 -6.576313938213363963e-01
-7.228565379275539993e-01 4.647447858788746888e-01 1.526276346940523831e-01
-1.604673970883511644e-02 -1.005245045194267522e-02 6.154547731854255188e-01
-4.877781030037277310e-02 1.083668599112521252e-01 -6.192064556784809826e-01
-5.211470801050545054e-01 -3.355851996665467074e-01 5.261822075784731156e-01
7.676129138454096390e-01 -4.113826407068030266e-01 3.588117434370515224e-01
2.066511941396548258e-01 3.462915078140531289e-02 6.326575702778192145e-01
-5.920733496397706519e-01 -6.557157911650857152e-01 2.478874393961094658e-01
1.685314410398862373e-01 6.577739243413901482e-01 3.347299907878596714e-02
-8.646634908554734489e-01 -1.792837580938356490e-01 5.495559162479282111e-01
5.730585882358956162e-01 6.081571685654576509e-01 4.123702017934395836e-01
-4.417341310511552210e-01 -3.080811502776697464e-01 5.377843959966629450e-01
-3.772655490418024837e-01 -5.835568423048805853e-01 -4.010524942143273708e-01
-1.826004993935718412e-01 5.821789590668592362e-01 -1.407972007140311788e-01
-3.832883855875582890e-01 5.235693267656376104e-01 1.822437587324604313e-01
3.828652102197938056e-01 2.554451700803188063e-01 -5.674232894584430031e-01
6.343039605140342596e-01 -3.887365835450919405e-01 -3.442078943704605654e-01
1.561143965898372787e-01 -2.681318354064596288e-01 5.532671343620721993e-01
6.444630828434241288e-01 -2.198801420933980677e-01 5.687419432553653120e-01
-2.781628834199290079e-02 6.178410844027353299e-01 -8.129697125643595146e-02
-6.082019790719827013e-01 -2.261025020288716103e-01 -6.658415806940795045e-01
4.205819419312166740e-01 4.983040906993698171e-01 -4.266182351382129534e-01
-2.055191282491640736e-01 5.575122007620076925e-01 1.889500355320326841e-01
2.351711511414347200e-01 -5.667876426337286055e-01 -1.663307241996566377e-01
5.284806182715306999e-01 -3.126413041925042435e-01 -4.483309582354029765e-01
4.430757388749285985e-02 -1.239425209621049934e-01 6.051702338147165738e-01
-3.981304401728962272e-01 -4.842641904066112279e-01 4.297112185071340074e-01
-7.023761860584158967e-01 3.683428231420845522e-01 -4.388793519831876710e-01
6.000845814689523966e-02 -4.774780723020197182e-01 3.890265366601719510e-01
6.737155471055048528e-01 -8.975817287781448495e-02 6.313649699200529763e-01
-3.007544499274102112e-02 -3.900732082926636757e-01 -5.078608358921579136e-01
2.035559419144875037e-01 2.194831560621094413e-01 -5.825613636698692144e-01
-4.679709007383862085e-01 3.160737831313693014e-01 -5.166868360521500447e-01
-8.121555575719091591e-01 1.668880978456903363e-01 -6.045027955593690328e-01
5.367436521690298612e-01 6.304686937937188373e-01 -2.824037614198787183e-01
-6.750104786504121934e-01 -7.420364598745222695e-01 4.454169964738424053e-02
-4.189763703906344561e-01 -6.952982462605848957e-01 7.179591472365282057e-02
3.718877934419229092e-01 -1.457126174950721664e-01 6.072601947265993116e-01
3.757537988009695962e-02 -6.178621248295709245e-01 -1.102138301574141777e-01
6.100697008666714632e-02 -1.759525759082441188e-01 -5.987188358911790242e-01
1.998121076824715403e-01 6.453200913192337351e-01 1.663989906062401380e-01
-8.601259092556277075e-01 -3.529718871604311525e-01 5.163642947136998229e-01
-8.919260940074050237e-02 5.841924058079860371e-01 1.795629810250657099e-01
-2.625309854023454292e-01 4.348866718061116243e-01 3.798771162415068847e-01
-2.519946343814859491e-01 -6.153937083954425652e-02 -6.476435884578699564e-01
-1.941781767331031971e-01 2.752808221847274917e-01 5.244728055569624070e-01
2.044924687167485045e-01 5.605638272210369255e-01 3.591903285749817876e-01
-6.645274653176865831e-01 -7.407786589177181025e-01 4.201194116986484844e-02
6.837317515727280304e-01 2.227676892767369854e-01 6.621663906836977587e-01
-7.382203000949284499e-01 -2.623777688202036940e-01 5.450469627745251344e-01
2.355153895043114176e-01 -5.753168493477847090e-01 1.417241259292909283e-01
4.322350182022847154e-01 -1.567596611664289971e-02 6.424267407614867587e-01
7.857646009357653893e-01 -2.014178842901888367e-01 5.754594912674617646e-01
7.296381520596408876e-01 6.157833626088417001e-01 -3.362849766093860548e-01
2.739155960289018088e-01 6.759265483514422801e-01 -6.937647640798858331e-03
-4.104343264607418496e-02 4.260273091070709839e-01 -4.532634253506432898e-01
1.478649023952210984e-01 -5.112286378077030014e-01 -3.303280809964156961e-01
-6.577762682693824026e-01 1.187836584150024077e-01 5.235398786778419078e-01
6.516475801247817445e-01 -3.838666004554608935e-01 4.207060951060595522e-01
9.232257065522345707e-01 -3.132662584812477835e-01 -3.509088318701389930e-01
4.393569530333566453e-01 3.792825063994120227e-01 5.775338923835016125e-01
5.407001233081419889e-01 -2.368357458296175555e-01 -4.987361036854937590e-01
-1.072891546524358530e-01 -6.511281234173666999e-01 3.936400861665120278e-04
-4.563351428544726862e-01 3.614198055525792985e-01 -4.765084593524823720e-01
4.276530570661042363e-01 5.537561305119436117e-01 -3.697925211574532023e-01
5.555471217837487652e-02 1.434961910101915372e-01 6.082098905678943179e-01
-1.776638967582706563e-01 -6.708160173053473452e-02 -6.414711412049243222e-01
4.815148838469128778e-01 1.646391291403320467e-01 6.496153965479463110e-01
-1.352310347980470173e-01 5.389094647212634426e-01 2.673684173771151973e-01
2.259778938541793236e-01 6.593206134808899943e-01 1.239512914060133530e-01
8.876328821471481112e-02 -4.765458190431696717e-01 3.861616658710663730e-01
-3.294464449529552891e-02 1.272826019071492121e-01 6.015217726015645860e-01
5.695421309964513457e-01 -5.314168835293646698e-01 5.047505309162975129e-02
5.909913639854655898e-01 5.275094498275276766e-01 -4.143959402479651666e-01
-5.279208435241156822e-02 6.157308155097465097e-01 6.050543318752839295e-02
3.779643099366415959e-01 -5.640829236000051150e-01 -2.914769660226728190e-02
-4.112806029397033658e-01 -5.943476808256713539e-01 3.085861782951857535e-01
5.106673133960882849e-01 -1.601013848105356241e-01 6.024181420971038703e-01
9.396712436433717341e-01 -4.582272827327878439e-01 -4.083086691745912988e-02
2.515964962826310880e-01 -5.616604402069820257e-01 -1.725511699296173040e-01
8.611721982158675182e-02 5.722284798633566760e-01 2.956885187118610814e-01
7.137202332834980956e-01 -3.617890548629794090e-01 -3.538657580443819728e-01
-3.730216858936286073e-01 -6.493692336864520520e-01 -2.831817724222260857e-01
-1.665209776957850829e-01 -1.383530539185024166e-01 -6.334747926750987634e-01
6.985942015670835170e-01 5.716516980489831923e-01 -3.818697146840139833e-01
4.510421649881000139e-01 -4.154912112579526445e-02 -5.839362472147485716e-01
7.337982880158584464e-01 -2.665821615662006816e-01 5.311805866784744534e-01
3.651465080147093811e-01 6.852238228704664591e-01 1.269520068706195826e-01
-3.346840361311835821e-01 -3.789996610800678289e-01 -5.733837565226148625e-01
-4.533223975376571846e-01 3.525840331256703819e-01 4.157250209700673604e-01
4.067461126122944304e-01 -2.315632954343198671e-02 6.399987535388198534e-01
-8.302912939831398331e-01 3.966172572870489965e-01 -3.739489460165277279e-01
-3.947033693372034024e-01 -1.398021178312900126e-01 5.819405715133224577e-01
4.191994235258725832e-01 7.002281290619196685e-01 -1.683811379855751009e-02
3.987274313533318293e-01 4.805185659251944713e-03 -5.952780129150974098e-01
-4.634624149142320126e-01 1.052079735886774642e-01 5.548940618377314893e-01
6.216957746257142370e-01 -4.609980764833312428e-01 3.028035307789324060e-01
1.457513249207196826e-01 -2.245812756097533558e-01 -5.700449337743940248e-01
7.446540736940654437e-01 -1.842793599770953528e-01 5.872000611418354277e-01
-2.173217621829974244e-01 -3.791356540758077376e-01 -5.520562067645121695e-01
1.145664801547031098e-01 -3.722860895656484592e-01 -4.908629025629399067e-01
9.974353830012817890e-02 -2.003561769469011655e-01 5.839684514601914955e-01
3.335358833699890121e-04 -6.321958094905022474e-01 5.337601480841087410e-03
3.485616331893724995e-01 6.047210133677309862e-01 -2.842502169192051009e-01
9.467457082091874643e-01 -2.889902779218814222e-01 -3.704897956887988619e-01
2.599843633712910565e-02 -5.508238168288134284e-01 2.873478953159904203e-01
-4.114779158033602946e-01 3.966733308924517282e-02 5.762814120648518390e-01
1.588391277445580507e-01 6.467976819757302875e-01 -9.314409959408832818e-02
5.680372672905046327e-01 4.291672877850919443e-01 -4.876334047510306191e-01
4.231202545552600891e-01 -7.232126428062360390e-02 6.306787997902663090e-01
3.572355377629118367e-01 6.913957866328550583e-01 3.662928319223499041e-02
-2.858966167990634188e-01 -6.815243796666569098e-01 8.747230080008664560e-03
7.390546465181617730e-01 -1.040979996128838653e-01 -5.305587342765278880e-01
7.739014308868804592e-01 -1.327825374056538221e-01 -5.134544385074417683e-01
4.544358062521222097e-01 7.084574475938456573e-01 5.217761377906039028e-02
-7.451433689465237764e-01 4.053561075679933956e-01 -3.780580491168701873e-01
-1.898420743967707547e-02 -4.722778601091304207e-01 -4.317803669097212693e-01
3.425053915546186906e-02 -4.417141998326829522e-01 4.313467417898536049e-01
-7.244474585673508216e-01 3.151566290930277181e-01 3.848579381353108841e-01
-7.396009467488274813e-01 -1.473784918891915818e-01 5.595894744706834123e-01
-3.515760956710011764e-01 -3.158955910602358474e-01 5.347504484783494050e-01
-1.168051795293623962e-01 -4.639528021204782915e-01 4.241885139412489569e-01
-4.898189419250486565e-01 -5.065743123547007398e-01 4.173377070889656149e-01
8.087530831124479791e-01 -4.264786961658380005e-01 3.201047483019661688e-01
-5.371516945955049360e-01 4.042159443249561668e-01 -4.176480818697778652e-01
2.884167595673773343e-01 -5.788136544617712431e-01 6.575125124033849577e-02
-6.948390364721138135e-02 9.799266334352520202e-02 6.029307864748808532e-01
8.157174439983826408e-01 -2.723539905700608776e-01 5.204631806624520074e-01
-5.090763079005029557e-01 5.157576200254951893e-01 -2.011771006558243091e-01
2.195711863001867936e-01 -1.510272912217259789e-01 -5.856180330583454774e-01
4.031694845694361873e-01 -9.571272699839156184e-02 -5.777746978809591427e-01
5.495417028144082838e-01 -8.133073227302775599e-02 6.318059357059057080e-01
-3.889812915986870512e-01 -3.774011916492112650e-01 5.043682740974911871e-01
-2.006831709164863253e-01 8.916192620472028485e-02 5.902913054755930533e-01
-7.339108656334315528e-01 -3.312543537640134095e-01 -6.553825571522547966e-01
7.062265666520481933e-01 -4.251750464370609439e-01 -2.664156311809265931e-01
-6.852306946541799615e-01 -5.144704489358434829e-01 -5.518307521885519318e-01
8.491984344362706327e-01 -4.674332514007926709e-01 1.856929652811738773e-01
1.149435041209692296e-02 2.440326127045007454e-01 5.722821747302270223e-01
8.833982685394262679e-01 -3.024375640122863862e-01 4.853275588792945738e-01
1.230456280787984857e-01 3.401574339344428655e-01 5.439627458130890103e-01
-6.491278764361428921e-01 1.654749315175737812e-01 5.045950379865419277e-01
-1.119055530305181900e-01 -6.138042054702764760e-01 -2.365232716827553039e-01
1.035922108483839643e-01 3.756117515607137469e-01 5.183544304963099147e-01
-7.298702847456199905e-01 4.264035505356194022e-01 2.356401988453033780e-01
8.129132806231293973e-01 -4.773863188884648334e-01 -6.883342159779504144e-02
8.919091467582346278e-01 -4.042251447317479762e-01 3.414647249119190930e-01
4.026303435854569068e-01 4.889153646684758492e-01 4.951028743180572178e-01
-1.065670042590302763e-01 3.942367668333607300e-01 4.598991060767144701e-01
8.029295668743473557e-01 -4.896412430063786236e-01 1.585350589282404424e-02
2.011653073892732124e-01 2.538229472135467568e-01 -5.706033910086646399e-01
-7.611612401698439889e-01 -6.015191757206058698e-01 3.503425133724014651e-01
3.910057913227056314e-01 -3.246366141500242608e-01 5.069274229998199655e-01
3.633985608160211211e-01 4.660999101798898314e-01 5.054113882823039194e-01
7.770171865183738147e-01 2.192821876454317254e-01 -5.618928066815577216e-01
9.901923752078653496e-02 -5.699304474452904223e-01 2.253930211130148187e-01
7.838201334932941577e-01 2.167407546653022654e-01 6.730065318328445345e-01
6.596779197098843195e-01 -5.133978858905156040e-01 9.114554679159427020e-02
5.230547651567696299e-01 7.207436431183841252e-01 4.911808477023110742e-02
6.917681361825372965e-01 7.112954909207821474e-01 2.716773475750586808e-01
-7.940926069495867212e-01 4.003820826482450412e-01 -3.756701937823617721e-01
-8.496655134949433474e-01 2.323383435616747650e-01 4.270613411955419547e-01
6.949308157241733397e-02 6.137861850254151541e-01 -1.717696024224461548e-01
5.899815108624474336e-01 -4.927475412153710099e-01 -1.739296094554425576e-01
-4.895936691463804724e-01 3.882270129661649638e-03 5.736056157915485620e-01
-1.502673120189921829e-01 -3.649452612251470884e-01 5.048846748442206156e-01
4.097759475971834431e-01 6.449990550476518703e-01 -2.225846291753159345e-01
6.061781906608263437e-01 1.557157045969439491e-01 -5.789952885709851449e-01
-1.403621796964670543e-01 3.249102757411441167e-01 -5.283613402043678686e-01
7.587129711914483154e-01 -2.924071416772257570e-01 -4.132442834861142500e-01
-1.857220831162632313e-01 1.234347663833779141e-01 5.845994318907036247e-01
5.589357237841711123e-01 6.620038080107376599e-01 -2.308910451710461387e-01
2.314053640274056078e-01 4.134969721569995427e-01 -4.836104124034480423e-01
4.209533076181854461e-01 5.181749689418969629e-01 -4.075949286500015756e-01
-3.447380661580745076e-01 1.960947017146467963e-01 5.386088203787939843e-01
3.313606042784131289e-01 -1.347034705017759459e-01 -5.759966185436695696e-01
-7.060163904980016891e-01 -5.249765297819926069e-01 4.176268883778869179e-01
8.808655108501154407e-01 9.788561530225770718e-03 -5.460198903642873303e-01
-9.758138875837232273e-01 3.206042758933859149e-01 3.106777299133354209e-01
5.073293957280795158e-02 -6.094128529704065933e-01 1.212742677288160403e-01
3.021091298151874494e-01 6.789467508196128653e-01 -3.210712291554183861e-02
-7.880212679749033500e-01 2.354917514248871802e-01 4.375068385507631663e-01
-9.998942332543696299e-02 -6.285239782972029676e-01 1.405912877829471608e-01
7.105651754778924412e-02 6.390145111198708427e-01 5.464454401541782996e-02
6.918280801152570936e-02 -1.375661932581364322e-01 6.028310170093434950e-01
1.336732974616348102e-01 4.622846853558383318e-01 4.553604292827209687e-01
-7.946559655133843547e-01 3.965560532050887987e-02 -6.602683699584410704e-01
5.931834100855131187e-01 -1.567233581272407805e-01 -5.308904131244768232e-01
4.987731534442622627e-01 -4.952788375925444575e-02 -5.771371093777416528e-01
1.129430601868227774e-01 -1.363268972106531085e-01 6.045244033730714506e-01
-2.491736108804804561e-01 -2.602430531002458691e-01 -6.132664456813063936e-01
4.217971457791877543e-01 -5.578629906567765806e-01 2.627706324117516645e-02
2.602813786476202429e-01 3.993966483908312770e-01 -4.951269043418495830e-01
6.616403478107392155e-01 -4.992391378315914063e-01 1.773519003160220486e-01
-3.181074202943490192e-01 -8.266708626232689705e-02 5.915510870226597939e-01
-5.124694351431229311e-01 -6.184719273407761619e-01 -3.957369446873967855e-01
4.271671105803983015e-01 -2.395555119559853452e-01 5.633293070491077748e-01
-7.193072761021446215e-01 -6.972250344951415046e-01 2.020127651042432082e-01
4.555822676497499335e-02 1.565497530842857865e-01 6.042212577619892055e-01
-1.367429157976166876e-01 -4.773816620055345017e-01 4.127342547646366544e-01
-7.081674194401101907e-01 6.969851674791646690e-02 -6.488316705437303655e-01
-4.648510935807922961e-01 -4.120927670303637935e-01 4.860364593763737973e-01
5.270476639645333972e-01 -1.771668424803690967e-01 -5.321095842847340940e-01
-6.693050415059087488e-01 -4.314529517053784513e-01 4.803047887415788364e-01
-1.914141016993133604e-01 5.884375200273039841e-01 -9.717642907293556898e-02
-2.638712184189785370e-01 4.342234814634741702e-01 -4.195657976770282849e-01
-2.436186716818681819e-01 5.007671718213365653e-01 2.937820490302889831e-01
-8.277002502430426123e-01 3.773604174286233071e-01 -4.054841643416302599e-01
5.785225031792126105e-01 -7.046092163245400164e-03 6.507408388743082250e-01
-3.232464637457247991e-01 -3.481472617520396939e-01 -5.877480832744725880e-01
6.608491681369100812e-01 7.180292879852747667e-01 2.336673973483811562e-01
-7.182844102749849080e-01 -4.517871168660795439e-02 -6.767768831290996712e-01
6.442417140024186972e-02 -3.752196417503779191e-01 4.874896789530410168e-01
-3.458212107733251717e-01 -1.757087159707046986e-01 -6.463475386138080037e-01
-1.602170306834918012e-01 5.382049599434255427e-01 -2.790556435155153725e-01
7.530808035181312254e-01 -4.438863559914417722e-01 2.997359642938812185e-01
7.877994034783400434e-02 1.785403548216266123e-01 6.028471052170794042e-01
-1.648340521339724252e-01 -9.192987485217104029e-03 6.040150034846547555e-01
2.873109338284191017e-01 -1.691134603398727898e-02 6.346100850245225411e-01
-1.854620508421758462e-01 -4.284782134431843192e-01 4.611708135450314772e-01
4.687914114704812563e-01 5.376759733118250395e-01 4.652123973567101611e-01
6.550912662189303237e-01 2.350842520227756083e-01 6.570767512956641188e-01
3.959942066285586093e-01 6.931753875776111018e-01 -4.620594850744789983e-02
8.991336195670712739e-01 -2.712695370008352813e-01 -3.991358406860365249e-01
-7.688138187138283675e-01 -1.091849045836441046e-01 5.574157266724441007e-01
3.151636662971915581e-01 1.886056915423098106e-03 6.382130994647196021e-01
-3.119897578444040809e-01 6.582898518955686284e-02 5.824163029347202425e-01
-6.373350268689542686e-01 5.005645168727663741e-01 -1.809536629422522636e-01
5.088544591650361326e-01 -1.191751924029628706e-01 -5.573444323519275434e-01
7.054106366719397059e-01 -7.242458796204463700e-02 6.378493441226928962e-01
-2.460733827765207715e-01 -4.279497462746588710e-01 4.653369219198040807e-01
3.453694359461221830e-01 -5.439322108325617133e-01 1.947341675045098919e-01
-1.205063686791197353e-01 5.126944332353385730e-02 6.041053623457680599e-01
7.983946735880624243e-03 2.600302442258606295e-01 5.650570644624478556e-01
6.900070865920230334e-01 7.185656716956599910e-01 -1.399135818827975108e-01
-3.790224776272518858e-01 -6.465620649989424207e-01 -2.924921289095103183e-01
4.845055158651800364e-01 5.465081148770962738e-01 -3.849315914099591951e-01
4.048609773836556736e-01 6.808613847780790040e-01 -1.182436558531534815e-01
2.347966810349029487e-01 4.252532828431512119e-02 -6.101624550140255510e-01
2.941772517467436954e-01 -3.417336525906620737e-01 4.995174201599209551e-01
-6.823520340224441538e-01 -7.524955651784052124e-01 -9.823306029566925002e-02
3.283184946928349723e-01 -3.098057488409879379e-01 -4.923659436210129914e-01
-3.096379860992096167e-01 5.659125848652590829e-01 -1.170711023729809341e-01
-4.408593357090309084e-01 2.687053115119869551e-01 -5.534912942978738037e-01
-3.793575820144831079e-01 1.097514817070947279e-01 -6.294040944509590174e-01
-2.782499131019458005e-01 -3.839687917858045640e-01 -5.603536632566969988e-01
6.143763921397081829e-01 -3.975204732958136922e-01 -3.389935175222173469e-01
-7.387154208465727123e-01 4.579081558274448738e-01 -2.718014144857492376e-01
-5.406987832083969270e-01 1.507570046533922292e-01 5.280423026960034960e-01
-3.870073225747583390e-01 5.208127548308242316e-01 1.876372165123071090e-01
-5.223059076293052883e-01 -2.552184476863048057e-01 -6.499660027924941685e-01
3.862672830522623779e-01 6.963242544233732012e-01 1.490528533189277791e-02
3.714711924747124416e-01 -3.176860390351435859e-01 5.135392826486478990e-01
1.919227151685936050e-01 5.017824117914904125e-01 -3.996598009012394814e-01
7.260692624826045050e-01 5.169622726298024329e-01 5.437849171439761431e-01
3.935006538548851407e-01 -2.056041901053394794e-01 5.819759429424443686e-01
7.991057755098395221e-01 -3.595434405760700725e-01 4.297599484718897522e-01
-4.563786645515854890e-01 4.161227759097843037e-01 -4.145476049174250388e-01
3.998107937878753737e-01 -4.839608678837062361e-01 3.173617098076731979e-01
-1.296040856995607227e-01 -5.602513902032054682e-01 3.062650941253122761e-01
2.258164109638804984e-01 -1.177110587244727669e-01 6.128402212075759747e-01
1.326151725325294406e-01 4.949479773849282394e-01 4.214812950321121798e-01
-5.020685927974065654e-01 2.907707428697171026e-01 -5.346391551576284984e-01
1.612842323887926990e-02 5.164613632273483690e-01 3.602047620135441774e-01
-9.170073030961569671e-01 8.074445308604286109e-02 5.005158208573928791e-01
4.237471950828673450e-01 5.915848865590166428e-01 -3.200058387951186245e-01
2.912763539648245414e-01 3.484711756625438750e-01 -5.273952182293587532e-01
2.645166304383310130e-01 1.320033292629749222e-01 6.322458495744642804e-01
-1.254689270769243636e-01 2.526119751993019524e-01 -5.709294365369376179e-01
2.678745807008556246e-01 4.444929115654895901e-01 -4.616274702892064208e-01
-5.863209463478743499e-01 4.803351610843436537e-01 1.857129455112488392e-01
6.973872875179710773e-01 2.057299131926140501e-01 6.658634609639146884e-01
-2.196597067323166896e-01 5.677665477111032422e-01 1.468621182748721388e-01
7.240376332192675068e-01 4.410232505435921491e-01 5.932404404792722685e-01
8.023300274003736243e-01 -4.412258010393675378e-01 -1.931884363306585473e-01
4.575583022935539312e-01 6.967003519365497777e-01 -8.571207923203155721e-02
-1.277114393577317639e-02 3.560452974775467072e-01 5.087208167179454454e-01
-5.885133220560594403e-01 2.682457254627665932e-01 4.546769881773456423e-01
8.129032316133355529e-01 1.409252193526961405e-01 -5.657960916139833651e-01
-1.069440301159220730e-01 -6.453742809048457207e-01 -1.086634563877529325e-01
3.648065848302827763e-01 -5.520079918724005719e-01 1.535191096083818874e-01
8.810549421188408337e-01 -3.679027666380382255e-01 -2.944259947584199066e-01
1.536936231604142146e-02 -4.237149267827040044e-01 -4.705820551078754854e-01
9.494879010137646791e-02 2.708658770629120416e-01 -5.638323438250101294e-01
3.139796883066306443e-01 3.088516528025390673e-01 -5.473513681055625080e-01
-6.156489008366734517e-01 3.891591428015963028e-01 -4.252011405691078494e-01
6.988177023530505183e-01 7.488405428853630585e-01 1.173043967785181302e-01
7.025191742280336715e-01 -1.196346195229354009e-01 -5.298470037628602025e-01
2.270005155350185710e-01 6.438610421008522655e-01 1.916333689706049836e-01
-4.065527710777782078e-01 4.247732309987294896e-01 -4.109348528970894754e-01
2.770568083003064341e-01 -5.286502340567539315e-01 2.619995993016662750e-01
-6.974756952808014443e-01 -1.318904719666022796e-01 5.630621933376971366e-01
-6.762400679121381986e-01 9.639905282311393708e-02 5.291867024649407059e-01
2.105623617584075936e-03 -1.391924075797911775e-01 6.001594445114859511e-01
2.623186127444688057e-03 2.242875657924299493e-01 5.785754753517697857e-01
4.746425489297196876e-01 3.708027636194318744e-01 -5.187072475369030045e-01
-6.058445073950318172e-01 -7.394932270688709952e-01 -4.194085156857317587e-02
-2.982080831200334958e-01 -3.051251130669657141e-01 5.394369536983629754e-01
5.584848691494362916e-01 6.370354670376371375e-01 -2.762690954309424129e-01
-4.635593697487369602e-01 -5.953260782004455853e-01 -4.124769844290417375e-01
-6.112255064020694073e-01 3.433189064650144506e-01 3.855007712550591048e-01
1.494216574762194105e-01 6.401593135265800649e-01 -1.188632748842231301e-01
-4.541697335595134555e-01 -7.570611396867528431e-02 5.819266279328602076e-01
5.751264292789585175e-01 -2.828226517449418664e-01 5.282885205549825436e-01
-8.356235241609073494e-01 4.759208632678197382e-01 1.179728622729966404e-02
-4.279842322236144803e-01 5.086087685452748142e-01 -2.590415932949492461e-01
6.226367971655892841e-01 -3.294680089168918746e-01 4.845378764793309423e-01
2.296249544362040096e-01 2.531260267533309502e-02 6.341111330591170381e-01
-6.794294417764001892e-01 -1.351125512904856607e-01 -6.805075182590687444e-01
2.873604143672755379e-02 6.323109772068857826e-01 -3.002665638751150778e-02
5.391615716177805551e-01 2.017372936099939007e-01 -5.761024448472717996e-01
-3.714977421123816792e-01 -4.652802095676142891e-01 -5.227947951167721818e-01
-7.557739323773359219e-01 -6.492854744754521512e-01 -4.318700521898677369e-01
3.752581185719638390e-01 5.483348033213892858e-01 4.282129673837503092e-01
-7.070232918882192186e-01 3.533642084155424468e-01 3.490344747466326281e-01
3.410119655620432177e-01 3.130582403317008766e-01 -5.455340406988438140e-01
-5.584327611808221487e-02 -4.155132192429917826e-01 -4.936686065483790742e-01
-6.516360321431183822e-01 3.898154491060267790e-01 3.203964364089001426e-01
-5.712777124559604847e-01 3.019386147655592767e-01 -5.211640901618757038e-01
-5.209448644285388230e-01 -3.002831652157627040e-01 -6.368545593475783972e-01
-5.371230836026364974e-01 -1.207375286881207793e-01 5.747554451042785617e-01
7.906685035615798607e-02 2.909044015755207213e-01 5.621986622640421372e-01
-1.067788996001440283e-01 -4.413805907002356088e-01 -4.834368954708633259e-01
9.331540879626086527e-02 6.428309407303058887e-01 -3.850340497493668496e-02
-5.185204791878749164e-01 -7.098944217234083309e-01 -1.861343604229215853e-01
4.794681133818042285e-01 8.316455578194631437e-02 -5.914030786309466547e-01
-1.635812597999644624e-01 -5.842523265203695138e-01 2.730007830078695630e-01
-3.163531887469316906e-01 3.046421922969097529e-01 -5.343497501454310683e-01
5.698362477971885554e-01 6.363117281060982622e-01 -2.798825081367572465e-01
2.542700811770732816e-01 -5.604228729676645759e-01 -1.748433857819558235e-01
2.260156132297304332e-01 3.823260863588050507e-01 5.375034738098120046e-01
-4.986820372052052086e-01 3.689332475416164936e-01 -4.643253317018844473e-01
-1.018320160108428379e-01 -1.948034068026843757e-01 5.822898956630598866e-01
6.540494907906708733e-01 5.808393323652508711e-01 4.685400657896300336e-01
7.597990549227531289e-03 2.322194737176322687e-01 5.763284402390104200e-01
-7.031874987274905342e-01 1.869799647445588853e-01 -5.956617634057097543e-01
-7.465678741432831833e-01 1.189723743970824699e-01 -6.298343083448233459e-01
-3.263566987268535224e-01 4.457267812726494749e-01 -3.958782348750111146e-01
-1.762278496277200693e-02 -5.788421910969659967e-01 -2.729775598686215443e-01
8.020549052458273431e-01 -2.423776923383420545e-01 -4.442351444913291147e-01
2.259058951735039289e-01 -3.508711011998084106e-01 -4.836123954929044122e-01
-4.705955262331203426e-01 2.324616013614023147e-01 -5.752623128226286298e-01
-4.936254404766631798e-01 5.167565156810889349e-01 -2.061508037862127274e-01
6.637712504682378167e-01 -4.665277031979313538e-01 -2.020052453632278644e-01
