5.656526729112931751e-01 -1.798273520594345087e-01 -8.546217522238432063e-02
5.074037246482608898e-01 -1.289081550721779545e-01 -3.575896664282456339e-01
6.075960442272000384e-01 -1.633760994535544686e-01 7.996532714196994407e-01
-9.169551832027100779e-02 6.895885391736211734e-01 6.682374328678887254e-01
3.190786597263766122e-01 1.139725028188617595e-01 -2.221044722138926231e-01
-2.198503938546489123e-01 8.335961145301766795e-01 4.844368210906648820e-01
-1.603832947158003730e-01 7.133820602552629619e-01 -1.229972762336401237e-01
3.041200051658458636e-01 1.650154775157814113e-01 2.006112540889971319e-01
-8.805072040553132626e-03 4.997920343787403685e-01 -4.669025558297508760e-01
8.261347077453484733e-01 -4.950189804563729368e-01 -3.649511071742799449e-03
4.263930559244721863e-01 -4.671053315117365545e-02 -5.883931729565988755e-01
-2.871637471248493223e-01 8.987397620118894315e-01 2.517104322667015337e-01
5.720285557941710008e-01 -1.175338954795827895e-01 8.248679697721938986e-01
-2.474020997541733768e-01 8.352609019866750195e-01 6.483224363397543932e-02
4.134757058756427517e-01 4.841154629413524368e-02 4.389173341486198310e-01
3.382959067709081502e-01 1.145579214250273259e-01 9.323006244272216692e-02
1.120521690921831848e-01 3.167186375019675482e-01 -9.068249242287118594e-01
5.988381942606391117e-01 -2.267551660535535030e-01 -1.629062385728398676e-01
1.600167877008574491e-01 3.846341329414520449e-01 7.424376113161866853e-01
7.085356835236467088e-01 -2.962365771813290638e-01 6.922660083189462465e-01
2.547254670888313699e-01 2.406691184245514092e-01 3.911934786387501473e-01
-2.329244962420963239e-01 7.704866420879755706e-01 -5.437439494020992470e-01
3.383465560896753432e-01 8.655325693774978957e-02 -2.693064054221326331e-01
4.431577713828293019e-01 -3.632296192140502950e-02 -1.851543240231892928e-01
-1.054887557793768131e-02 5.230686467742086121e-01 -1.928240173539267077e-01
5.811271989726871645e-01 -1.950373266734087563e-01 -3.500031762865627588e-02
6.885703063837510518e-01 -3.425785854723710222e-01 -2.287194054966350254e-01
6.856686791387694990e-01 -2.860691687164824693e-01 4.579983487959604638e-01
8.567786288815124052e-02 4.599506278819570637e-01 5.291938952407543306e-01
-1.001207111960935869e-01 6.376068769878827647e-01 -1.411189671281818381e-01
4.436413149593771421e-01 2.203187486151280544e-02 5.797159698817413442e-01
-4.163397235072016644e-03 5.729083752104867644e-01 5.560784321169565114e-01
2.554866300364097564e-01 2.540935709273980936e-01 5.775585577973774143e-01
2.791161869227191117e-01 1.909598275364148001e-01 1.368238329860192171e-01
5.943015694659939951e-01 -1.860471564292549562e-01 2.926132365062440455e-01
5.779270402369243165e-01 -2.037001221861138578e-01 -1.986424206034075046e-01
3.589069600280890837e-01 1.554682849383374754e-01 9.540820570733415940e-01
-2.869133117130740485e-01 8.656523609253873319e-01 -1.735728765321440104e-01
-3.194495511341813310e-01 9.157784549952062703e-01 -4.423521235223308590e-02
3.486813772764306152e-01 1.593406871299167249e-01 8.405753895116475638e-01
2.342468936632979282e-01 2.720669817482219144e-01 4.706287255032368666e-01
7.598301100987640000e-01 -3.818134999471109459e-01 4.033580197778926513e-01
3.724812535541216496e-01 5.706731132259992498e-03 -7.716302335194832329e-01
5.126720885893693014e-01 -1.600973955146818561e-01 -6.778896779401977213e-01
-2.894787210344441086e-01 9.045584985850952942e-01 2.901345740881025592e-01
7.044583888810538319e-01 -3.879687420904180950e-01 -5.632088665053104348e-01
6.032899512726422886e-01 -2.061829221733395556e-01 1.752981450017268017e-01
4.686889301819658904e-01 -4.711903037962815455e-02 8.361970098842354260e-02
6.134147327923754334e-02 3.828860034608932983e-01 -8.603992626214148620e-01
-1.341730922796913750e-01 7.373929317316055831e-01 6.082546651961877604e-01
-1.077817796786648304e-02 4.698732907119174129e-01 -8.866810996734149075e-01
3.285513289214720412e-01 1.770164088360560717e-01 7.475533765993941371e-01
4.286622022056461034e-01 -1.934393826730463478e-02 -1.969868795655116134e-01
-1.341402129840651714e-01 6.595753057583494394e-01 -4.008664687154026574e-01
7.808715689234876911e-02 3.990152529283828020e-01 -3.829695680715277106e-01
8.366875367688522136e-01 -4.963165950715144326e-01 1.485042523933554626e-01
6.988235610676736265e-01 -3.016074577401445800e-01 4.670544214649837711e-01
-2.962865084938503535e-01 8.559600541248033601e-01 -4.494255171981321739e-01
1.190336694329629241e-01 3.807533552216771922e-01 3.579544657169757976e-02
-1.081624049545452521e-01 6.091717625834910388e-01 -6.388285809411162752e-01
5.139088890540567389e-01 -1.684145819034385538e-01 -7.659955820760020462e-01
6.932298709651335544e-01 -2.982806018113847712e-01 4.206432278107437583e-01
4.140705333714944647e-01 -2.384505270427574736e-02 -4.890531873935586860e-01
9.551891526940586852e-02 3.844927061990170980e-01 -2.922461443348406407e-01
4.707330122296993768e-01 -7.652995472442260250e-02 -2.652401272873412541e-01
1.474876274602290697e-02 4.458753484224454167e-01 -7.892628197541436963e-01
1.044599411604139327e-01 3.235698907917942679e-01 -9.395126559456318249e-01
1.590261977319209763e-01 3.755933372344368859e-01 6.092744758687677065e-01
-9.336228262939785805e-02 5.890716794706565285e-01 -6.626133071269326713e-01
4.860020966079288129e-01 -5.426379663747164100e-02 2.681673145222316923e-01
4.301475385665370355e-01 -3.428205154683934552e-02 -3.670162670536096794e-01
8.520773822961563715e-02 4.509186988278277575e-01 4.044803696305619978e-01
4.435297442543142954e-01 -9.498210482372621000e-03 1.688410584828460015e-01
4.525792158077228677e-01 -5.921807798791561134e-02 -3.313357781832313442e-01
2.207270257804739011e-01 3.108743132771109030e-01 7.576329301535312810e-01
5.749657983609843953e-02 5.087881318387099672e-01 7.115516123418890171e-01
2.149905449410035030e-01 3.129994144846413029e-01 6.933429193135131063e-01
1.920973888587158562e-01 3.394840824455591655e-01 6.703653586442842593e-01
1.015847605516914942e-01 4.123426184149780460e-01 1.662301210061402079e-01
2.526659892711829308e-02 4.787444549099378333e-01 -1.943720401114968910e-01
7.903608161321007408e-01 -4.269102555102535224e-01 3.071577071343923881e-01
4.054192606174089053e-01 3.378136945822202836e-02 1.200841650686371720e-01
2.050157188998958102e-01 2.887479900781754760e-01 2.189581680434423694e-01
3.945689562979094456e-01 1.062085985119185644e-01 8.860405258592635169e-01
9.387049964808667768e-02 3.819113007169881446e-01 -3.521358983251116626e-01
7.776331768389874721e-01 -4.570083785090830464e-01 -2.871679429269071160e-01
8.400543252683568829e-01 -4.948515264265604952e-01 2.214275402274482052e-01
7.347619049669873448e-01 -3.340112299132110274e-01 6.221359149383177689e-01
-2.210420504683706378e-01 8.167169433740756324e-01 2.463545763172430569e-01
-1.863127489422823635e-01 7.119144969728107286e-01 -5.572644214212654212e-01
-9.563031226062428114e-02 6.404287029201530812e-01 -3.259923491268911649e-02
3.676110889454659025e-01 3.912261102456899425e-02 -4.160639666096807576e-01
3.100638580871414862e-01 1.120186571702593559e-01 -3.918149358107144153e-01
2.805289479201942826e-01 1.893514194992674537e-01 1.385789976082422992e-01
3.993827067018185795e-01 1.177803873950885455e-02 -2.620663506118644515e-01
6.017375837817248163e-01 -2.229447336869685437e-01 -6.703772423497558752e-02
3.599388221071326277e-01 1.386903228637416385e-01 7.529196879785899910e-01
2.006760382929856090e-01 3.499928069317824186e-01 9.440870072753403397e-01
-3.309165777015662391e-01 9.334086608062570622e-01 8.791555785308331110e-04
-1.557572546541368397e-01 7.303508212468763361e-01 1.712445003469232618e-01
1.285217373890743808e-01 3.120194764020401412e-01 -7.040558338303224417e-01
8.044071761474345106e-01 -4.573450767408874795e-01 1.372140263172073604e-01
-1.331406810641528327e-01 6.866297916560393233e-01 -3.384085318276195548e-02
1.940553421133122125e-01 2.554456744850939764e-01 -3.886400062932191535e-01
5.341890249410690128e-01 -1.561238624971242051e-01 -2.817694209518668003e-01
3.173307246520488262e-02 4.235443968264968051e-01 -8.070151356169431578e-01
-6.494218147898728200e-02 5.866969759398549256e-01 -2.383133512545790866e-01
4.929148568092843741e-01 -2.599074339347938120e-02 7.456958700285357677e-01
6.571921370979313393e-01 -2.363250356385440398e-01 6.473909734622417256e-01
6.504513978399133478e-01 -3.074011890200972763e-01 -3.827332906569147486e-01
2.102800564937928537e-02 5.595996423212297177e-01 7.868110547439007840e-01
2.081720704766327201e-01 3.296830592750547018e-01 8.006165597126829736e-01
-1.794851135401132058e-01 7.283103226167141342e-01 -2.352005545986266266e-01
4.415587376421646892e-01 -4.775117225543121929e-02 -3.590364871886883580e-01
5.957059913502554815e-02 4.183993449155855027e-01 -4.279883327797982528e-01
4.840499457021771867e-01 -3.590160197475388004e-02 4.751471494587344857e-01
4.454443582159799409e-01 -8.845410534953042359e-02 -8.249150751531444392e-01
1.806454976999843087e-01 3.696479862256482063e-01 8.783410259586494906e-01
6.168203212814088454e-01 -2.891902478522866415e-01 -6.850123330033081048e-01
1.202349686568879444e-01 3.251094830778411549e-01 -6.669207898070387275e-01
-2.966792984017763146e-01 8.652657467546718273e-01 -3.349784806805232718e-01
-1.267959062399034442e-01 6.727500912211827888e-01 -1.123202925937300117e-01
4.761441857130689903e-01 -1.111144920971978561e-01 -6.273056363429426741e-01
2.670180084657937103e-01 1.688028601115298677e-01 -3.443890122912326435e-01
-2.528083200788301954e-01 8.181236099285662533e-01 -2.440897088289344929e-01
6.053763202147742772e-01 -2.630262008348051572e-01 -5.288066050185439293e-01
3.117946689932004634e-01 2.079793686785586515e-01 8.809475139424655099e-01
-3.644708500684323838e-02 5.052409147992189542e-01 -8.388564290270864587e-01
-3.396363078021277238e-01 9.289408729732245851e-01 -1.967233598561029251e-01
3.877299165328096930e-01 -4.578272204153992740e-03 -6.608860557434913519e-01
4.396848924757806309e-01 -6.701646941330191565e-02 -6.390019662819507174e-01
3.585996375501696032e-01 1.312312958844784883e-01 6.346969841255845068e-01
-2.718074710996954899e-02 5.073619292626597721e-01 -6.629490043248283948e-01
1.125747105591249492e-01 3.588960026210115672e-01 -3.512253318759300802e-01
1.614129164519455262e-01 3.718235297658061822e-01 5.985831391503850796e-01
7.214041882065584665e-02 3.843703432948897825e-01 -6.682096956083813932e-01
3.775076507317562946e-01 1.131599070048026900e-01 7.030161086743729193e-01
5.270103462985321618e-01 -1.356688154529837043e-01 -1.313317805289475615e-01
2.464885941087011090e-01 1.484789195171424270e-01 -9.368343650849501048e-01
6.876562545451769815e-01 -3.200854297705120755e-01 4.848153013441636183e-02
3.391439679018882769e-01 9.809925442114149352e-02 -1.067329320497574369e-01
2.032670197857468497e-01 2.227281183356754624e-01 -6.656222102154945031e-01
2.958168895390153597e-01 2.222994971419848531e-01 8.108813718691947336e-01
7.640261757540156573e-02 4.504008055544229672e-01 2.567584888685482403e-01
1.830853542965722447e-01 2.867670214127730488e-01 -1.579300004642238686e-01
1.114099479793777686e-01 3.184396652231608060e-01 -8.947797152694875189e-01
2.859111119320726924e-01 1.888165103082085627e-01 2.178270941528668847e-01
-2.008753789328713013e-01 7.695767474915458095e-01 -4.232484338520752648e-02
4.802838404291022156e-01 -8.139231512537321855e-03 7.750418119509178139e-01
6.767782901829441089e-01 -3.240154710847064634e-01 -1.767052635077328293e-01
1.267344104889362721e-01 4.044775285061424919e-01 4.669228711938988030e-01
3.029515977448142272e-01 2.173685605032799895e-01 8.611577444942855042e-01
2.821004323978208439e-01 2.341394582195069352e-01 7.448483168580026792e-01
1.260608602467583328e-01 3.559172024505523058e-01 -1.739108902098784881e-01
-5.560285064516952425e-02 6.333383934354719358e-01 5.163945675288769133e-01
-1.818497333735561439e-01 7.485957706305392811e-01 -9.872547001729429714e-03
2.377205009621445597e-01 2.121799860211059929e-01 -2.507520413269743176e-01
6.437698684011743389e-01 -2.397177638187958371e-01 3.884318729311779794e-01
3.554487972916439698e-01 6.223541969539375662e-02 -3.109491242655549881e-01
5.435981242672801583e-01 -1.868672555825593440e-01 -5.299763247521661613e-01
-2.115389472911199595e-02 4.910351389113238318e-01 -7.782694127691510699e-01
3.160174815007533722e-01 2.006475992194887426e-01 8.534440034103981665e-01
7.842586580747949732e-02 4.200973053625978726e-01 -1.040157238155264841e-01
3.390469518771138113e-01 7.859125696044290399e-02 -3.613937475594276583e-01
4.291107636034122153e-01 -6.860235588588568800e-02 -8.289089098881216033e-01
2.110031300445146807e-01 2.791529497187268949e-01 1.903474980143577411e-01
8.062730332137996170e-01 -4.339173631496074934e-01 4.710570117045022598e-01
-2.273214738255165956e-01 7.936869247553859363e-01 -1.530059747889782884e-01
7.840135454394379089e-01 -4.230238683975437453e-01 2.559385669301941224e-01
8.445842994147703675e-03 4.800460518453809611e-01 -4.468467610801112877e-01
4.442939340688452643e-01 -7.791858652366924487e-02 -7.066441317497971220e-01
-1.498702496541444440e-02 5.173700633704210183e-01 -3.378316373160340502e-01
5.417633057709292377e-01 -1.814737865784827320e-01 -4.893807736562770239e-01
-2.428888176073542293e-01 8.044465230241726328e-01 -2.626957581148253174e-01
-2.250239989521654951e-02 4.949457102165949474e-01 -7.491261024862063689e-01
3.848148170282153502e-01 -5.280057122653756402e-03 -7.166728841105524106e-01
4.715329913683394825e-01 -2.356772017751872055e-03 7.099331784665239287e-01
5.054059103761112670e-01 -6.517767221460649130e-02 4.372914548164802961e-01
1.800095398836102090e-01 3.729807827349340132e-01 9.113984868642146520e-01
8.987339075158555513e-02 4.625098753876064062e-01 6.295848206310992179e-01
-2.900254684228086716e-02 5.002524338121578928e-01 -7.843651473589815515e-01
5.577020297048356223e-01 -1.025550978622780107e-01 7.897904111624088896e-01
-1.051376689429117800e-01 6.340660400408418829e-01 -2.673996827682656452e-01
1.187459027584887444e-01 3.956845326894668502e-01 2.249123524945580710e-01
3.122969079896174005e-01 9.045157580320979662e-02 -6.358784623581882345e-01
-7.798653155820146898e-02 5.635271616682696605e-01 -7.478191124313122717e-01
5.406327023470411941e-01 -1.317206034217752730e-01 1.380386021082193881e-01
4.320939069408180622e-01 2.533390558232864048e-02 4.376416991927478128e-01
4.274918581440510512e-01 -8.601341107693165344e-03 -7.634818199446823106e-02
5.067873413614744083e-01 -1.436005117038741952e-01 -5.580867580545237905e-01
3.531744020112167481e-01 6.859177730232374204e-02 -2.648997850429146705e-01
5.157517131859467030e-01 -1.757269790270666876e-01 -8.313601369455173584e-01
2.583784179797472547e-01 2.176576383747011456e-01 1.511273997067442698e-01
3.812204507300578915e-01 -1.200663033735666768e-02 -8.615061165387513098e-01
-3.331058798336280352e-02 5.310366314397375609e-01 -4.539420690096417910e-01
5.838841882039880193e-01 -2.035793046526834515e-01 -1.016789598406704354e-01
1.934049739121107836e-01 3.030109977163366053e-01 2.180832373801198099e-01
-6.397991638497295408e-02 6.386419344890871264e-01 4.510578386014126306e-01
5.871905083445893014e-01 -2.346991314802530926e-01 -4.524979192174187204e-01
5.351844641054546159e-01 -1.203425281603829611e-01 1.984174707825535899e-01
4.652529939842981466e-01 -2.192456107811114122e-02 3.554842599236004985e-01
6.332330454080304927e-01 -2.277847443248319226e-01 3.745238771379954534e-01
3.104487008297528994e-01 2.013293413383678565e-01 7.731125751281638925e-01
1.855706511292992966e-01 2.846302138974456386e-01 -1.458553200313053577e-01
4.143357428001718801e-01 8.514203191515598568e-02 9.292507349289628182e-01
1.572124274098031793e-01 3.409803979880565716e-01 1.311424693597650626e-01
7.594444813671727967e-01 -4.175905843351263580e-01 -6.700841679833791087e-02
4.785913849472504533e-01 -6.284926029039676620e-02 3.810207554015321296e-02
-2.535918809332176616e-01 8.229914527964244941e-01 -1.934794014446241661e-01
6.979711250004612400e-02 3.815842529015464613e-01 -7.418829044041633791e-01
8.974513982531429068e-02 4.403799865697394234e-01 3.404059932258116650e-01
2.060414422519398214e-01 2.612375031649981083e-01 -1.215520432982204746e-01
-1.854294748860432773e-01 7.525752031353893923e-01 -1.556611737268489420e-02
2.751278601415375197e-02 5.367040524627247899e-01 5.935966311780824789e-01
9.538237044464234482e-02 4.078788257128482808e-01 8.991337922973449692e-03
1.262245979480403069e-01 3.909315156115031331e-01 2.830056492617705199e-01
7.177892887313914727e-01 -3.795638431675126268e-01 -2.406823243775042254e-01
4.029117129101731365e-01 3.279314462248648226e-02 6.710731879959251633e-02
-3.108333894204041298e-02 5.558287703447776229e-01 -9.660907881211232284e-02
-1.051683128500460196e-01 6.307303834585039626e-01 -3.111690038525310453e-01
6.819739446353906276e-01 -2.695878048542706407e-01 6.126700851389652591e-01
2.487073865401321915e-01 2.061175168563930127e-01 -1.534692123512302886e-01
3.779092638899183426e-02 5.194270036348356268e-01 5.340258589077157003e-01
1.488771340555503919e-01 3.562570730922663409e-01 1.958714652391378708e-01
9.245482409469839291e-02 3.848276866177419708e-01 -3.369673287978695031e-01
5.998739804963865163e-01 -2.171567254355858401e-01 -2.178415978323394037e-02
5.601895169692164833e-01 -1.720924872206046896e-01 -7.259116168606860597e-02
5.067729851770130800e-01 -1.533138518500702929e-01 -6.843427427937675001e-01
8.372853481400743814e-01 -5.138583320816966227e-01 -6.951849535216222953e-02
5.015738931627736763e-01 -1.363549935045208772e-01 -5.475660485984367165e-01
3.063617999232907674e-01 8.044948302730330070e-02 -8.606939523939248771e-01
-1.774491286572817406e-01 7.696109159414666889e-01 3.332591405820773400e-01
1.919725780141326443e-01 2.862103061104034341e-01 -2.283589538087322027e-02
6.432700169493776876e-01 -2.738057405173130454e-01 -6.184830076066279853e-02
1.209864757963638043e-01 3.336971360221646088e-01 -5.434655696642923806e-01
5.568807303841534218e-01 -1.441591690360662092e-01 2.368448271325111210e-01
3.941906907234286606e-01 6.228264213585910786e-02 3.100641610112156998e-01
3.644023823580768706e-01 1.809346621375299349e-02 -7.402906063936396386e-01
-1.146051245871292654e-03 5.442204787246399667e-01 2.321851005636446919e-01
7.554281313469248804e-01 -4.179282171355744868e-01 -1.357056223305883602e-01
2.793448168333313442e-01 2.298067331310871542e-01 6.445056476658619360e-01
2.588336168514185909e-01 2.643512598969807725e-01 7.642449236956143643e-01
6.211746809219952370e-01 -2.756665778145364065e-01 -4.398196213322718706e-01
-2.180349919701716210e-01 7.540781082669779645e-01 -5.182011988000005953e-01
3.317362978873647505e-01 1.754722024737720432e-01 7.785211137860433839e-01
3.460363871723510232e-01 7.450280764862808602e-02 -3.025128471714605416e-01
5.051596158370983414e-01 -3.358658086584728752e-02 8.432271484877651435e-01
6.675718640290170258e-01 -2.948540894182423711e-01 5.422131986009980087e-02
4.979162843472302868e-01 -7.873817074282804529e-02 1.414137326361161462e-01
7.103372715493974088e-01 -3.392416549985523555e-01 1.631451117850092059e-01
5.207597367387802878e-01 -1.539435703966985647e-01 -4.685335728775293362e-01
1.079058303414903303e-01 3.468128402442566260e-01 -5.827647582805698390e-01
5.568236821327995356e-01 -1.158746374847230282e-01 6.029099700118176752e-01
3.405150430379289550e-01 7.466917299018499543e-02 -3.887714165232697971e-01
6.787856427352726429e-01 -2.682832907863272887e-01 5.785390788872205592e-01
1.832176433610414323e-01 3.442992824368093507e-01 5.906428737941755713e-01
-1.947623719009478616e-01 7.406942121177237937e-01 -3.191705741004799979e-01
6.149935088814088013e-01 -2.173790984423000505e-01 2.174500645160622192e-01
-1.071030065208714854e-01 6.818088131107491456e-01 3.205683809706796894e-01
7.739408404041560052e-01 -4.017751252643892990e-01 3.703300106068865283e-01
1.629337031035144046e-02 5.612114485744572612e-01 7.319045209456539469e-01
2.238459836891575072e-01 3.186949411463650406e-01 9.090479733232607051e-01
8.052199364362488954e-01 -4.662412204848002673e-01 3.480597156701557837e-02
-2.298822655174427854e-01 7.797269167564155889e-01 -3.751383317686481922e-01
5.720419153044588034e-01 -1.754892029523942576e-01 7.313863463308283019e-02
-2.708941240743119039e-01 8.837942908452097734e-01 3.183365347295790126e-01
4.646372239694778750e-01 -8.190366110600878768e-02 -4.325775301780542814e-01
-7.838046664645205441e-02 6.471755506234083688e-01 3.311716355892900809e-01
1.157177612700428654e-01 3.732022143147175064e-01 -1.152770280190226759e-01
-6.767328308034220585e-02 6.476313735933613147e-01 5.085472250418969775e-01
8.252902794721476143e-01 -4.717036849323948955e-01 2.853332380017644665e-01
6.958336600782780712e-01 -3.211323295116523258e-01 1.658489121929931920e-01
8.117098881999313953e-01 -5.073304091122353698e-01 -3.943791557727064911e-01
3.750809420667468586e-01 1.323566985891211079e-01 9.132250321723984765e-01
2.521036433226572782e-01 2.558124038698184055e-01 5.456855251596878231e-01
1.166951826795245839e-01 3.855557734837586348e-01 6.065680170769529450e-02
1.470422607656128033e-01 3.596921813205828378e-01 2.110573149143001037e-01
-1.354873608731317070e-01 7.184588862525108643e-01 3.415479078834234850e-01
2.302352309424953170e-01 2.485460939200752617e-01 1.012145851782054323e-01
1.850059390896556044e-03 4.751879083227256162e-01 -6.155017441305469239e-01
7.281348022922057295e-01 -3.274430482500553241e-01 6.012306747782597549e-01
7.131904702803680829e-01 -3.365124899262180724e-01 2.442449989078347705e-01
-7.556963894963245054e-02 6.450835956005918082e-01 3.490412060464133659e-01
3.947937454348094399e-01 1.388765413671383571e-02 -3.081812622003131663e-01
-1.849758275571536936e-01 7.890736651705329008e-01 4.652490886393888525e-01
2.931876716855379983e-01 1.861587881959877455e-01 2.998689387640832704e-01
4.573075383692339346e-01 -5.046566341390276017e-03 4.472323762668599101e-01
-1.806583113280832986e-01 7.800263976397507903e-01 4.170043410813661366e-01
5.239375012406475296e-01 -6.019917688378316478e-02 7.986442409706857593e-01
-1.377743512693265504e-01 6.531615727506666635e-01 -5.422776405565341573e-01
3.237461059502342309e-01 1.723937123138182814e-01 6.106266887231702745e-01
5.578523423160001160e-01 -2.077972218175221097e-01 -5.732703408437455073e-01
-1.917779071608797514e-01 7.379696779754844060e-01 -3.067278552688968984e-01
-3.611554336924418379e-02 6.209084325394848003e-01 6.671852420332431421e-01
3.667030408331216872e-03 5.242030710860575704e-01 4.954369648844189622e-02
-5.954045855867780984e-02 5.634113407082762537e-01 -4.539321769298401144e-01
-1.115584798775723779e-01 7.081321799684026086e-01 5.907533127804075468e-01
-3.306404631098564528e-01 9.220448449692710824e-01 -1.421394783676854512e-01
2.942187654608253156e-01 2.099657466955188179e-01 6.252648122325690228e-01
2.911016793933502433e-01 1.405474518539561735e-01 -3.253214534286313353e-01
4.545909322364085070e-01 -2.039806328489294010e-02 2.045509309043068713e-01
7.018696190617230990e-02 3.961169000734477419e-01 -5.470856119412265128e-01
1.292800971773728769e-01 3.880663690273009614e-01 2.947615109411531598e-01
2.721189090100713526e-01 2.032662394433995823e-01 1.844416015676047793e-01
-4.583005615341597533e-02 5.782623153114357928e-01 -4.169355307562469526e-02
3.328363989201129081e-01 1.215275320102557066e-01 9.623067589206926731e-02
-1.109093350146692913e-01 6.408736400501232611e-01 -2.714998858737840415e-01
-2.635559462955475718e-01 8.429157490395960961e-01 -9.453232086276341928e-02
5.153637732457638787e-01 -1.427000955242197777e-01 -4.090639703872280264e-01
-3.260198469440104829e-01 9.116718442734924599e-01 -2.027312518395504026e-01
7.061384650778974592e-01 -3.298305455108003770e-01 2.180115212334762242e-01
3.463636736383927106e-01 9.411772525787817645e-02 -4.277731324443165978e-02
1.719621616444735879e-01 3.586579481077571407e-01 5.966981370002908402e-01
-2.350953859738609819e-01 8.512019342402249444e-01 4.687356288357775735e-01
1.144902720036584665e-01 3.615914269083356225e-01 -2.855782468217523129e-01
4.482691643380894986e-01 -7.944614483299330954e-02 -6.628053957952622088e-01
-9.854803960858041223e-02 6.413306858241867303e-01 -6.762000009465496397e-02
1.689271644272190009e-01 2.729499124834465218e-01 -5.639254248400230596e-01
7.534983074736497644e-01 -4.454833956244262372e-01 -5.241248974570225094e-01
7.923267104636663727e-02 3.602077770967954673e-01 -8.681346854484415232e-01
3.805133806220765136e-01 7.629790998466971785e-02 2.728815922624384660e-01
-1.395805683719090751e-01 7.205516955390502964e-01 3.031537909888780691e-01
7.921720538081466687e-03 4.484736624904231972e-01 -8.648770224740296442e-01
9.997564711208377364e-02 4.281431302154862784e-01 3.454666023232879080e-01
5.155680035189382782e-01 -1.589106570881491098e-01 -6.161180182316627896e-01
7.583336077760636229e-01 -3.787649639237246069e-01 4.189468412656723872e-01
-1.228523549996468067e-01 7.137513112950434335e-01 4.828023459106887683e-01
2.426028404760796620e-01 1.994485772554109304e-01 -3.377519110637449140e-01
5.201603527781473169e-01 -8.737984960056129069e-02 3.855015250659666881e-01
7.970006814102778003e-01 -4.465169357376432280e-01 1.590988440687613747e-01
1.495735721346050928e-01 2.967290513369262861e-01 -5.653245021353615618e-01
3.667813986003203297e-01 7.538508866200255287e-02 4.113848196942254676e-02
5.069372671696228405e-01 -1.564843889433813473e-01 -7.228482324376468426e-01
6.496853915841117599e-01 -2.421266222422245318e-01 4.519073935647729967e-01
5.754446654691254548e-02 4.075982752646748475e-01 -6.005730637775311687e-01
2.754043602593084783e-01 1.545014124051171389e-01 -3.956472504804923740e-01
1.954008004787572417e-01 3.044271277227331707e-01 2.684174123219745245e-01
5.915645879166990806e-01 -2.015140618123629768e-01 4.810813453250518262e-02
-6.716158917378790838e-02 6.321019040087954011e-01 3.152536568675133877e-01
4.493105089903337568e-01 -4.470703741646040591e-02 -1.954057994394971798e-01
-3.329478275842305823e-01 9.166616776114553389e-01 -2.489329963250460631e-01
6.377203308312963115e-01 -2.405839166667269047e-01 2.803185334155167130e-01
3.443373665555433949e-02 4.805607042683728292e-01 -2.400736203481847533e-02
-1.651579947747534305e-01 7.663353255835657629e-01 4.875862567152662308e-01
2.805713164152218719e-01 1.172637468003077110e-01 -7.960466895445074131e-01
8.881826840671318279e-02 4.364482826710401886e-01 2.745513265018094118e-01
-6.185914540434602621e-02 6.383913175222072356e-01 4.817675644541170032e-01
7.833697954724780921e-01 -4.093629786020299699e-01 4.228734732913829175e-01
2.531668670313154679e-01 1.921908141754084531e-01 -2.627489994718691380e-01
5.874684648591296243e-01 -1.698036783545787687e-01 3.939416351112681181e-01
5.233259254868513066e-01 -1.064386288415176546e-01 1.889151861062232374e-01
3.459897887641062986e-01 4.956477991732729377e-02 -6.268184183256819697e-01
7.328273206180480059e-01 -3.641849619503250701e-01 1.996658876374437508e-01
4.787458080283595319e-01 -3.263524177242621560e-02 4.325878540434655584e-01
4.520430781598826497e-01 -7.091080542478815640e-02 -4.916290417737690377e-01
5.967270907095879595e-01 -2.023107893386307254e-01 1.204416732111420058e-01
5.411466723015099234e-01 -1.994898985311925332e-01 -7.330060573907488664e-01
1.267479635245402914e-01 3.236147731926991011e-01 -5.820168901338834688e-01
1.219189009723275069e-01 3.527667608130726773e-01 -2.811144549520803726e-01
5.286231815992210592e-01 -1.436681071485391148e-01 -2.092914437052997290e-01
7.073487912429905489e-01 -2.956988018057885581e-01 6.802368719901744631e-01
-2.970268351361340375e-01 8.683488007372600626e-01 -3.005426281455326198e-01
2.825876841610820978e-01 2.084435296445627528e-01 4.192582434225640142e-01
-2.675995023504594283e-01 8.709036081607045565e-01 2.038449422642689690e-01
-2.517940803861081212e-01 8.183079832142815535e-01 -2.254558327967085274e-01
-2.828610752484769439e-02 5.208270894977902188e-01 -5.059456840645305542e-01
-7.312947749572067113e-02 6.404795896874869721e-01 3.283823461720942194e-01
-1.599362906406050500e-01 7.207002963848117005e-01 -2.088836836450478837e-02
-3.829008181342453965e-02 6.238902615274938279e-01 6.710507116972135311e-01
8.491103780943063395e-01 -5.245269776124037442e-01 -1.857688860838889455e-02
5.733678266039862748e-02 4.382892819144353913e-01 -2.056972532213376670e-01
-9.808540584372712687e-03 4.974174537668411000e-01 -5.137808716196703429e-01
6.709907910521664132e-01 -3.069831430508996317e-01 -4.839790214984089622e-02
5.093462825606553945e-02 4.380642726629240258e-01 -3.111387475335074537e-01
1.625026515724345144e-01 2.723650393741637310e-01 -6.743940272724827656e-01
2.070547524186141519e-01 2.457170313782201521e-01 -3.066961429023021823e-01
-1.084990427031385651e-01 6.678560644191448015e-01 1.171822415309082960e-01
-2.289264174666822138e-01 8.031296008763497696e-01 -5.619269267964713266e-02
-2.366447461395113361e-01 8.290799933820418577e-01 1.569027224778583307e-01
2.089257350135988456e-01 2.592906857086252348e-01 -1.006229335115860629e-01
6.435040133294356313e-01 -2.464077608938529951e-01 2.973749394327306894e-01
-1.650961944585949415e-01 7.672045472983320957e-01 4.998536568344972286e-01
4.818973071569387367e-01 -1.170390973597190687e-01 -6.120459532781599155e-01
1.329429194705097073e-01 3.484857605225676336e-01 -1.601232574907009709e-01
7.991789995177446260e-01 -4.527290242724294478e-01 1.133827793565007486e-01
-7.865493970234140042e-02 6.408424675371733326e-01 2.446074900671651731e-01
3.677209220121553379e-01 5.569426235097812289e-02 -1.992956339967115742e-01
4.675846081285977007e-01 -1.129638161756038456e-01 -7.883701649727227201e-01
4.106153736066118221e-01 7.803135190437313073e-02 7.774161236751588877e-01
2.084944384525197481e-01 3.181712815791615245e-01 6.564188764471233783e-01
2.129597034560016255e-01 1.898697916300419453e-01 -9.367281669006823908e-01
6.087851270330943421e-02 5.169683345421690612e-01 8.718431713856484855e-01
-4.938656371831146724e-02 5.984345512925335342e-01 1.630790625100267677e-01
3.541003714020114490e-01 1.450418212030613330e-01 7.418323086814307965e-01
7.309968123751495739e-01 -3.701639546136326619e-01 9.277803925815587827e-02
2.043199924366810305e-01 3.092962595449463836e-01 4.744213000800995839e-01
7.091461207385063581e-01 -3.419198424875526388e-01 1.093221521143350750e-01
5.210383161983144218e-01 -1.587740361984258664e-01 -5.267455446710157529e-01
4.832186382789620538e-01 -8.772395949141384430e-02 -2.105362334988678807e-01
2.957885061127480952e-01 9.413052445565432691e-02 -8.525062055467014233e-01
3.393722789440323795e-01 1.300605580131851124e-01 3.116062797244011917e-01
7.436657734056468794e-01 -4.249863575890336365e-01 -4.156404562925716806e-01
-1.311354915387032416e-01 7.144114901556799513e-01 3.587242962057707318e-01
2.086135543669951908e-01 2.615347148796225429e-01 -7.650685791944007719e-02
3.717424715121245282e-02 5.137382110270103386e-01 4.503411008678999683e-01
4.986358073758150877e-01 -1.028001840340948270e-01 -1.592575272195420888e-01
4.917378083636343711e-02 3.982122511958598454e-01 -8.563979283178433377e-01
3.580866388777572684e-01 1.482420954127289803e-01 8.471892280693540389e-01
4.712504247812577818e-01 1.070353761209141656e-02 8.748597133357348676e-01
6.350377632780387360e-01 -2.762275365545800998e-01 -2.250987248565964882e-01
3.238769446498664939e-01 7.274359535730448578e-02 -6.801922117778664845e-01
-3.479489034614249854e-01 9.461942683083282013e-01 -1.059838607704211982e-01
-1.770165367904276699e-01 7.915384475154888522e-01 6.246860973623671320e-01
2.362749584636812394e-01 1.624783106764218499e-01 -9.187567242669257839e-01
5.415046476759298733e-01 -1.715472433931320428e-01 -3.647305437426058838e-01
2.267064964572710062e-01 2.144534031567753574e-01 -3.976303393658874863e-01
-2.372183270654278364e-01 7.784775471811060665e-01 -5.088257244777079080e-01
-1.444505674183809742e-02 4.796120587997404483e-01 -8.190453474422833002e-01
4.797064590119662353e-02 4.845416082074040509e-01 2.444188645175980057e-01
6.079683381013214483e-01 -2.407977828470697634e-01 -1.988954117356667439e-01
8.655874472874873493e-02 4.195568739887952647e-01 1.920981544650690598e-02
8.049388212595168790e-01 -4.640912171582138868e-01 5.819957812344622033e-02
5.565997064412447903e-01 -1.491998357738129055e-01 1.669442812371322582e-01
-2.730350302267977453e-03 5.682783961113452298e-01 5.189549644100314163e-01
-1.601288306918333126e-01 6.917424256712894071e-01 -3.996866042085850945e-01
5.982738355406701514e-01 -2.072293304241577816e-01 8.139497006501587861e-02
5.395372531416354756e-01 -1.966202915943781049e-01 -7.215469729295564960e-01
5.306036849527697719e-01 -1.633520872874803798e-01 -4.329668057040857998e-01
-4.679642434855654787e-02 5.689424173013259978e-01 -1.780900316987899801e-01
6.493874425267737172e-01 -2.414276099386404861e-01 4.562054911688265268e-01
-7.625231350787102513e-02 6.596616386645871577e-01 5.272524249880653491e-01
8.512121528255751635e-01 -5.369107538634168009e-01 -1.455934845266315392e-01
-9.797686823411164148e-02 6.801169480713118443e-01 4.447603473874134905e-01
6.496675783753287359e-01 -2.291808829096571576e-01 6.195871099055392239e-01
2.093601459961026701e-02 5.331355495951248802e-01 4.419785935381362885e-01
3.012493996980444289e-01 1.617707520324475068e-01 1.125434633820032171e-01
-5.074049725611187722e-02 6.015434348375900964e-01 1.817339171865725578e-01
2.546510950482480662e-01 2.135415086425213327e-01 3.803433628338943884e-02
2.363077182348506666e-01 2.465503062051635219e-01 1.725630812084667787e-01
-1.533169205444752381e-01 7.137977283333255540e-01 -4.445463811138600924e-03
-1.126447379638656210e-01 6.878964938011123964e-01 3.108096595787865901e-01
1.723973629526800166e-01 3.246197300340600278e-01 1.620372016292520312e-01
1.909016761711057608e-01 3.315544946557302808e-01 5.483348599931635592e-01
3.242321962121401113e-01 1.880036847714456338e-01 8.209429488050090651e-01
9.666376692870325138e-02 4.725434392644056736e-01 8.685046303514007970e-01
-2.484190153469611750e-01 7.936266771334173908e-01 -4.916371083796884922e-01
1.322914759124950712e-01 3.101909348746009765e-01 -6.674128964335707126e-01
-1.063906555709962787e-01 6.828629845417022448e-01 3.456531329014441156e-01
4.054704720593788614e-01 -4.320937491227276606e-02 -8.780149977771247727e-01
7.002826871109233409e-01 -3.107833652529239377e-01 3.713672609568143268e-01
-2.367839874967053726e-01 8.179794163029834309e-01 1.064810888977503478e-02
3.869079342595694859e-01 7.895089213508872661e-02 4.097031940172253250e-01
4.232864402310220209e-01 3.674728618859984808e-02 4.446850015764143293e-01
5.304614084903260807e-01 -1.597370399643523453e-01 -3.883416120252934922e-01
1.101289182067617389e-01 4.509738417300440116e-01 8.042758253025643622e-01
2.468850719920714643e-01 2.211431853996334018e-01 1.229990055889291015e-02
5.218159449157528870e-03 4.811172760565687323e-01 -4.846352405418305476e-01
-1.229370516078865383e-01 6.812650531606014859e-01 5.995188884674959584e-02
-1.200737337104832575e-01 6.363514743160058051e-01 -4.769287135588935467e-01
-9.339505431850025907e-02 5.975211720824669115e-01 -5.535098498112581700e-01
6.158645903166334312e-01 -2.194179532083782858e-01 2.049460946744539880e-01
4.812535213791307998e-01 -7.300805462862904049e-02 -5.107295317780324168e-02
6.468514673013694427e-01 -2.814298506559299584e-01 -1.034153696886345730e-01
-2.727606080082031759e-01 8.534629082263482935e-01 -1.050883970445399967e-01
4.041048408844938877e-01 -3.063462085037083581e-03 -3.790091656388860919e-01
8.146881721586675396e-02 3.592803775787185572e-01 -8.443583174353146426e-01
-1.183102334682726575e-01 6.792903371917893285e-01 1.084232861831343625e-01
-1.442582366419335460e-01 6.810117548929420783e-01 -2.847653448985739688e-01
5.516362055104053752e-01 -9.233219610969785329e-02 8.252916098296299019e-01
3.950514823583449742e-01 1.107604275627896012e-01 9.528254212439353221e-01
-2.155085566973433953e-01 7.696178666205112373e-01 -2.761224856717050535e-01
5.565138728770731014e-01 -1.700893122670479596e-01 -1.054615123973494106e-01
3.112547742777271864e-01 1.347576351366066849e-01 -7.771626878050495735e-02
-2.859315871848418511e-01 8.781697784806580254e-01 4.555848659740366867e-03
3.471713882527413531e-02 4.535373786525184192e-01 -3.700841810403132093e-01
3.999194756425208386e-01 4.222492064493113973e-04 -4.008068095480060711e-01
-1.731086995546771423e-01 7.528161565986868364e-01 1.848611949294691748e-01
4.861949867847136786e-01 -8.410411652227683943e-02 -1.159081311405930348e-01
6.335321128400410728e-01 -2.984131670268874714e-01 -5.370580205139231511e-01
-1.291754748348251935e-01 6.475620998785697191e-01 -4.772284826297301108e-01
6.817841653081748721e-01 -2.978912013285598404e-01 2.424075587764686068e-01
-2.293414833316703427e-01 8.235405687588680523e-01 2.019834261666514641e-01
1.029966235693942356e-01 4.393743990720057058e-01 5.395640881324310634e-01
-2.001659398521200665e-03 4.959257083575605574e-01 -4.081186173701233377e-01
-2.813779378872595105e-01 8.361924075864600736e-01 -4.671603758621820091e-01
2.464388406051739588e-01 2.818294271395799799e-01 7.925299676752025624e-01
4.238093188757067753e-01 -5.672920703629513728e-02 -7.597559851803660225e-01
1.684822437881061952e-01 3.855019446591199106e-01 8.892602393960482576e-01
5.306700464718290267e-01 -7.855963358495736404e-02 6.682386987761825825e-01
1.658126018184250261e-01 2.682927480116884533e-01 -6.742256107489641437e-01
4.173513313389304313e-01 7.223756497381650377e-02 8.101119477335244623e-01
2.283663578554827878e-01 2.917926396081346740e-01 6.323909335092064987e-01
-2.506860758403124390e-01 8.381626139834693623e-01 4.989204413411493788e-02
7.233476479755259758e-01 -3.900414203749552056e-01 -2.876142045202460529e-01
4.776215183118291963e-01 -3.326099492207084448e-03 7.948563746408341402e-01
-1.792469931577687914e-02 5.019956261908816719e-01 -5.843508390894742721e-01
-1.536568174175785839e-01 6.873225017210934373e-01 -3.533922685536114994e-01
6.443908632046015938e-01 -3.203300448733470418e-01 -6.475307179244682576e-01
-2.765797704555708614e-01 8.487914206829059172e-01 -2.268576601911390100e-01
2.312471374389659939e-01 2.221867666341971193e-01 -2.245811220193305868e-01
4.568600115632107106e-01 1.819703439566289563e-02 7.416407749712996544e-01
6.827050440337673054e-01 -3.533614608543374502e-01 -4.625467006823620331e-01
3.268874562359093128e-01 1.219641519519910067e-01 6.631105010522882030e-03
3.286356986889555909e-01 6.000936658501924287e-02 -7.692077290359671249e-01
2.984309605168506407e-01 1.267771068681247115e-01 -3.866164797787455809e-01
6.329547188398333413e-01 -2.959649695942415115e-01 -5.145400002074891344e-01
4.789910616222276540e-01 -2.788789073625812590e-02 4.981099493605471440e-01
5.779755817806396800e-01 -1.744533052993971212e-01 1.815988108216773089e-01
9.484523595636901172e-02 4.143245027924067347e-01 8.401950832273478997e-02
7.428463124549210539e-01 -4.099832376614033769e-01 -2.341045165555331875e-01
4.279492115765570759e-02 4.644662363670104543e-01 -9.893222789923153404e-02
1.237352259963185033e-03 5.103729834766713713e-01 -1.688033922281226562e-01
6.766857050968885234e-01 -2.824034144117467671e-01 3.617092688694596991e-01
1.137963147976797512e-01 3.743954821481882966e-01 -1.305643750071212583e-01
-1.285378357512914627e-01 6.596741813070656768e-01 -3.098688829101560183e-01
6.820163562852271655e-01 -3.349095960716871323e-01 -2.341707326084245810e-01
6.085379317948558242e-01 -1.665847176757280501e-01 7.731060298743781534e-01
-6.498608185159064632e-02 6.261545309310271312e-01 2.729271415581476234e-01
4.606008589970485012e-01 -7.238789609762232014e-02 -3.737519763317783683e-01
5.880926534411706763e-01 -1.581505851101963900e-01 5.551306836054258342e-01
-4.158042963727661134e-01 8.315064288351439181e-01 -3.196729594748896064e-01
-3.532488729153028251e-01 9.502910834480233770e-01 -2.635477007160602278e-02
4.076564414474633247e-01 -6.872588411373664607e-01 6.141359875125949053e-01
-7.852671902521243252e-01 6.002565468799366810e-01 3.590714085627909986e-04
7.657143102240252519e-01 -5.751898006393671992e-01 -3.587617122516006951e-01
6.456130643304839323e-01 -2.710930367867031010e-01 7.662514477484831943e-01
1.776346466136126956e-01 -6.489624594826739479e-01 7.962152580804237045e-01
7.948658018059687747e-01 -5.490876117465508521e-01 3.558822645444262855e-01
-6.390091482170533466e-01 6.659180104903321684e-01 -2.693036929884646824e-01
3.103059804428018875e-01 1.420201543064762151e-01 9.694751151408474987e-01
-5.326588746610202429e-01 7.652205712082715827e-01 2.498193372404063639e-01
4.077571446656931831e-01 -6.370843147871835255e-01 -6.348711978112806520e-01
8.127445483771952861e-02 -2.459018028902549002e-01 -9.404989167864001853e-01
2.213793594656047747e-01 -4.193187721182103922e-01 -8.580980875961291554e-01
7.602712353457050654e-01 -3.810563652599510132e-01 6.115206767064621518e-01
5.530360168884296268e-01 -5.043628640853188294e-01 6.632401127965303900e-01
4.262490278996207693e-01 -5.835982302039172120e-01 6.899187628949848827e-01
-1.751900882979688101e-01 2.381201360996530181e-01 9.357922614349729606e-01
-5.281955994000070431e-01 4.730533464009690214e-01 -6.520805019816938719e-01
-5.271176434190095739e-01 7.381768035257947336e-01 -3.196517311472087952e-01
2.809563964301078354e-01 -6.792209992270322738e-01 -6.786999386505003784e-01
-2.097373297973146311e-01 -2.849278889180979490e-01 -9.518925903316480808e-01
-1.264844304437229561e-01 -1.919518526205787889e-01 9.970921874108082950e-01
7.264694766769292933e-01 -4.921764223302076413e-01 -5.346969799547038882e-01
5.657167035633190455e-01 -3.922079394850590539e-01 -7.388548710067196490e-01
-6.478155870496511426e-01 6.732434877388500105e-01 2.529418449952620662e-01
2.229892937629618377e-01 -5.741398016055868636e-01 -7.792954687310513773e-01
-4.189650786935397164e-01 2.165869799719659095e-01 -8.524904424948790416e-01
-4.073824728870403256e-01 3.884774362525057478e-01 -7.801076845140393345e-01
-3.892378660648874167e-01 8.836191713879456566e-01 -2.420104197848326200e-01
-8.540574195820308523e-01 5.432991628546255392e-01 -2.329906605863111407e-02
3.517584428580282085e-01 -1.097578550154729993e-01 -9.372609693550622012e-01
4.615117613645733363e-01 -8.105461174556056747e-01 -3.615274956417271479e-01
-4.379792962549073354e-01 3.904101306094154289e-01 7.893285372441882775e-01
5.871635519692310935e-03 5.283289949583369616e-01 8.746132083151079151e-01
-4.193708080802882598e-01 8.832428679183940146e-01 -1.469788532717503371e-01
6.084467850904976549e-01 -5.863238937814349017e-01 -5.291493430433195089e-01
-7.212517727427844028e-01 6.460355862064348642e-01 1.139035935763206969e-01
4.038373804132920353e-01 -5.130662587461335550e-02 9.342137470269270549e-01
-9.136626465936834030e-02 -2.670690815062934376e-01 -9.505178121455988283e-01
-5.466577323192897131e-01 7.513523069424431489e-01 -2.462473873365188803e-01
6.246641251026029407e-01 -5.114833909362863640e-01 -5.996935554452625938e-01
5.403269009599277473e-01 -8.081401808313722901e-01 -2.188521645365948121e-01
5.115544451492982647e-01 -3.218240345470765873e-01 8.057724803587774653e-01
6.623465169145236198e-01 -3.994611545140898667e-01 -6.784140450596010119e-01
-7.758158231013333184e-02 -3.615117116582189372e-01 9.779582818755157003e-01
5.634781786933065195e-01 -8.247062652887648948e-01 3.553025781673622291e-02
-6.942117494165259695e-01 5.550239561529534127e-01 -3.985107302544743102e-01
-7.862274401832962667e-01 5.872697382229024043e-01 1.574631846494601861e-01
-2.138299740858752296e-01 6.015613109860614705e-01 -7.601271663806959955e-01
-8.979388496889838256e-02 2.446175746581082666e-01 -9.388986071573601766e-01
4.106855884468364470e-01 -9.137684130755422407e-01 -2.088407744903649776e-01
1.187489643289703529e-02 -3.144102711827321261e-01 9.684932369660386176e-01
-5.577949256910393894e-01 7.559096568466191490e-01 2.149103782502375382e-01
2.786968422777739152e-01 -4.227355720419797430e-02 -9.615479711043745104e-01
-3.238498392011397997e-01 8.894371390285878975e-01 3.469889475646050214e-01
3.299720326828562977e-01 -1.617104159464722302e-01 -9.261729492990072865e-01
2.999627317781167549e-02 1.905460995113605893e-01 -9.670451405416018442e-01
6.733428261902348055e-02 3.409715595093582713e-02 9.842689544699345650e-01
-6.138966391183965365e-01 5.242815900138448892e-01 -5.320156381880082330e-01
6.978069061558893615e-01 -4.549588495219932804e-01 5.932979914163148960e-01
-5.649868837116259757e-01 1.307034884525067053e-01 -8.308454370878273210e-01
3.110638268591151556e-01 7.930108037995307890e-02 9.666984976224896053e-01
-7.521990944962072545e-01 6.089393037671170239e-01 -1.485197663424098757e-01
1.381437970218671873e-01 -2.565317721481346624e-01 9.527668142025157438e-01
-7.391803815798756450e-01 5.515876621309012684e-01 3.756515195898758042e-01
-8.270419490047289379e-01 5.656559078384928441e-01 -1.673087917497630486e-02
7.540630977334907836e-01 -6.021950586802764516e-01 3.168689739495149649e-01
-3.746063090370718163e-01 9.127369024904062877e-01 1.705634409599383061e-01
-6.061924881754354733e-01 6.935622593503184552e-01 2.886669996978883379e-01
-6.267886812463102642e-02 -3.727179024485329784e-01 -9.292935779662798712e-01
7.413154444827526612e-01 -6.723652694829092002e-01 -1.134031865819665336e-01
3.917138090464689082e-01 -8.716496474562733798e-01 -3.484298430167124816e-01
4.058762311849568039e-01 -9.259684766274466350e-01 2.222820488026969465e-01
-4.352950051542406329e-01 5.952081166085315678e-01 -6.176684298861521150e-01
5.353548860366060813e-01 -2.696180892499446813e-01 -8.275164432658814739e-01
2.899531345837908503e-01 -5.221725140165621726e-01 -7.821317066967575782e-01
2.770927836565406643e-01 -6.680352300977319135e-01 7.263269965142524764e-01
-4.924159932477372159e-01 6.576959957130280587e-01 -4.979498324017058164e-01
2.606733787609574748e-01 2.290065597827798671e-01 9.705278452277062984e-01
5.998743727852086094e-01 -3.171999862911624168e-01 7.638724904355810308e-01
7.103728765346095653e-02 5.614943498402725358e-02 9.833204191152222773e-01
-2.116351853186508314e-01 4.940122918533386143e-01 -8.191664680235559715e-01
-4.675245354409776066e-01 6.491994363700342996e-01 -5.339785776684146112e-01
-1.140262625194299190e-01 -9.650841855905076261e-03 -9.631368016889865213e-01
-5.540343263204309254e-01 6.608583953978334202e-01 -4.196244771081054092e-01
5.094004827183569173e-01 -6.578835719982063512e-01 5.520024106054011170e-01
-3.540558906305033005e-01 6.311858680310598047e-01 6.537169811256574592e-01
4.406016709617771032e-01 -1.870646946905702990e-01 8.889564738713152670e-01
4.889907497743217757e-01 -7.759850019954954714e-01 -3.857697525464957033e-01
-3.629583757443810565e-01 9.339754807098228362e-01 -1.213449322353303272e-01
1.146086790601065081e-01 1.360413500848884349e-01 -9.782977463774070737e-01
7.522071481365203427e-01 -4.641752207802827268e-01 5.333894059961690193e-01
2.120286349362587586e-01 -2.659126526028172677e-01 -9.162224932945612910e-01
-4.679990367015759989e-01 4.546631853492861253e-01 7.302569515873844619e-01
-3.885906465626502437e-01 -1.267432254716451684e-02 -9.230100212346443733e-01
-3.244191961282677505e-01 1.745044019195117480e-01 9.271141861738959600e-01
1.028617622396778702e-01 9.753412379439182697e-03 -9.745196707709008477e-01
-1.881266620330571959e-01 -1.375463036709242970e-01 -9.594291026643783082e-01
4.905999080580230598e-01 -5.357897230708371650e-01 -6.700836394987870204e-01
-5.669332118532655063e-01 6.962576755038193399e-01 -3.374716314878421497e-01
3.540996245408947751e-02 -5.049270943237645914e-01 9.175891848844028864e-01
6.305736039163579720e-01 -3.022512665265152387e-01 7.560931685337490826e-01
-4.366072489026729952e-01 6.611304732549664331e-01 5.598679183899942791e-01
-4.156479302971350931e-01 2.332843751454256875e-01 8.811871675239918433e-01
4.735816585397535916e-01 -8.976780342515091604e-01 -3.142839086275874493e-04
-3.391055929257311141e-01 9.495134548527922602e-01 1.296594608451874797e-01
2.125715409196140271e-01 -5.111204714821170059e-02 9.688488466766765894e-01
-4.493667138904868241e-01 -1.339967127856498894e-02 -9.098120810419521032e-01
-6.095244634745831114e-01 7.270839400903464922e-01 1.638277599990111411e-01
