-3.152446072323261128e-01 7.583340273352811023e-01 -4.586851751631699226e-01
-4.232765174038055633e-01 -6.409267736768636814e-01 -5.658701676799400282e-01
1.363495733293052792e-01 -7.975284916300966476e-01 2.533844295785082634e-01
2.281823040856457430e-01 -8.697971868819021068e-01 3.894817271954408300e-01
-2.357413856618916642e-02 7.472988310984087779e-01 -3.421597234488987782e-02
2.098586444541718776e-01 3.872916979579628105e-01 3.180203243294048576e-01
2.237173301243033929e-01 6.926951333945977618e-01 3.272815278313603859e-01
-2.381957916707988232e-01 5.281217111297278333e-01 -3.384517824519099327e-01
3.615369713156322273e-01 4.555817194730670816e-01 5.361190194613524307e-01
2.444258966913677444e-02 7.549130336739942049e-01 3.532672055358328927e-02
1.823696870034290790e-02 9.356212774736208937e-01 1.986114414734812747e-02
2.168090645600237731e-01 -5.382531212632618578e-01 3.611248398093811485e-01
1.859593809040255841e-01 -6.156649901693849181e-01 3.190307900206092451e-01
-3.615750378889684979e-01 5.025213709211582280e-01 -5.169269223105475985e-01
-3.343104681869010220e-01 1.582194401807205664e-01 -4.650098920896509336e-01
-4.773413987924440272e-01 4.399241116028081988e-01 -6.830141990564633225e-01
-3.441083704889881245e-01 -5.763070969170198676e-01 -4.530671563259101031e-01
1.787067047912457851e-01 -1.108801722829464292e-01 2.904883767064618261e-01
3.886823993436441804e-01 -3.146325188876505363e-01 6.030480896404927238e-01
1.903233622016264545e-02 -3.112776497059450628e-02 5.548556463638817937e-02
3.227891496446345099e-01 -2.536119633928711203e-01 5.050666678681745569e-01
4.891286969993138278e-01 -2.991401203733138336e-01 7.485401360037614582e-01
-3.518574380295839688e-01 -7.315081305256972977e-01 -4.588004916044480241e-01
-7.073061103562615359e-02 -6.449751087043267272e-01 -5.313991910248661715e-02
-2.515480805858170688e-01 4.832406439916404062e-01 -3.562652433871640323e-01
3.347739519364640870e-01 -1.934087105365825676e-01 5.203455750562790971e-01
-4.065861404248253264e-01 6.807885101415411810e-01 -5.887268918108253812e-01
-2.815771470339194574e-02 -1.914796809701251878e-01 -7.409541752481462080e-03
4.702835816779014633e-01 -4.198635312237350981e-01 7.254443975980486847e-01
-2.758873513884340101e-01 -8.778310955733999166e-02 -3.712944515295114600e-01
9.227158912416794090e-02 1.112337631211899464e-01 1.568964609416744482e-01
1.514714276943542048e-02 -1.820249029043044531e-01 5.521667975044314280e-02
-2.324070321835731423e-01 4.551183155734770946e-01 -3.274323592623317736e-01
2.715814623877432776e-01 -6.327510813781306309e-01 4.441306293313717624e-01
-2.828892347037639809e-01 4.759245618448762483e-01 -4.015730296359325546e-01
-1.334143399992317736e-01 1.053808665113658560e-01 -1.710320657511475995e-01
3.801603484150795076e-02 -3.332369713041836712e-01 9.385826177688490202e-02
2.550398731584809231e-01 4.937163135601990716e-01 3.799173907249827620e-01
2.380768838933026432e-01 3.730273147063501993e-01 3.595569521502884336e-01
5.216141175480220049e-01 9.505929834990926863e-03 7.847681647108095682e-01
-2.593600518473878833e-02 -9.528355290437693359e-01 2.296572864275105846e-02
1.349312620980860737e-02 9.505556224480059269e-02 4.293292421554617544e-02
1.740232700759473672e-01 -7.258475676870527193e-01 3.056046161365561509e-01
-9.093472969439750364e-02 -6.910831464242191136e-02 -1.030474696852443778e-01
5.030402876812906793e-03 -3.513245100070930271e-01 4.654351879053200691e-02
-2.592501202801926197e-01 -5.717480630341139625e-01 -3.298496179532797168e-01
3.698119872830257782e-01 -4.298530564033800072e-01 5.797193741902261221e-01
1.657629099044532484e-01 2.615983894306853075e-01 2.583885141134729668e-01
3.091093819177458402e-01 3.175932637351681631e-01 4.648114316619538222e-01
-1.402879830052476962e-01 -1.620139766667930137e-01 -1.714924705277288686e-01
3.513073439328983638e-01 3.844006298275549072e-01 5.237834561064960148e-01
1.174733253676392003e-01 5.815909666482493856e-01 1.767687704396178894e-01
2.426418637861369187e-01 -8.593522368826617130e-01 4.101328783888614216e-01
1.469997091860319738e-01 -2.832986956396885692e-01 2.505351540865604076e-01
-1.520598042479772427e-01 -4.635533833063151254e-01 -1.778572330658283185e-01
-4.417522235617408199e-01 -3.781163749468928192e-01 -6.021031263636117403e-01
4.650090418041232798e-01 -4.857279904642575752e-01 7.201237523862609180e-01
3.179942900081526580e-01 -6.447718930118699898e-01 5.120413798619215529e-01
1.210609781662402989e-01 1.503285018202787926e-01 1.973610749061307790e-01
-2.706268833015831876e-01 -4.290932492099141515e-01 -3.514770644556914347e-01
3.516915818515215508e-01 3.237879422966140064e-01 5.265031755394572466e-01
-2.176187244565934154e-01 -4.310349970131370778e-01 -2.743363525445527418e-01
-1.203325340834383722e-01 -6.272630621065741208e-01 -1.258903836024185263e-01
2.614187320361978650e-01 4.722880696210065565e-01 3.899559569932496417e-01
-7.408388611382432654e-02 5.176298734421915793e-01 -9.946637300892108291e-02
-2.412741245150693548e-01 -5.013952471351641460e-01 -3.062216520806702591e-01
-1.098334400388313870e-01 -6.969519474141510074e-01 -1.081405194658267843e-01
-4.673716114879660766e-01 4.628211921930978079e-01 -6.693349373436606742e-01
-1.711101982769414054e-01 6.189107005183546173e-01 -2.441492888797185679e-01
-1.241350705132655136e-01 -4.696156555949464462e-01 -1.370397833591258663e-01
-1.988993502214351505e-01 -1.369369985373338761e-01 -2.576048477611624921e-01
-5.791523394051444340e-01 4.263038104937051653e-02 -8.168778192677098593e-01
1.136249237899255721e-01 6.587099270517305927e-01 1.684238061762347305e-01
3.114940527673999426e-01 -7.534385012588800112e-01 5.064646723724861577e-01
-8.457633810275677622e-02 8.560459297043242488e-01 -1.267876454351890836e-01
1.086154665385843238e-01 -4.918954095724905606e-01 2.021633935135168647e-01
2.970994148956334069e-01 -6.046179173749045566e-01 4.802295400889163290e-01
5.086985220679877268e-02 2.674402635291154295e-01 9.113088601216133566e-02
1.612687361569437872e-01 4.848911027487108338e-01 2.438930194895425341e-01
2.046229672642427277e-01 -6.705223993344313627e-01 3.481226651200525213e-01
-4.321834657169842386e-01 -5.483079830145879408e-01 -5.821226549391743665e-01
3.258294792785151328e-01 2.677010943736622406e-01 4.909005328568297188e-01
3.553577240237871249e-01 -3.972046751402618647e-01 5.575394954817155524e-01
-1.775340541762937263e-01 4.846223028944429689e-01 -2.487014347335368969e-01
1.314405908991161422e-02 -3.885110450007435157e-01 5.966624076541451882e-02
4.222546912299834365e-01 9.633891697733083792e-02 6.372081217976143241e-01
4.201746120297880083e-01 -1.213069621239688256e-01 6.419436185236153669e-01
-1.802450750975910232e-01 -6.128563159422879547e-01 -2.135141779194334455e-01
3.638212956471452708e-01 -1.656294669517030249e-01 5.615886805833103512e-01
4.771378593201136380e-03 7.815591375611298242e-01 5.775636295227691910e-03
5.377393204385705339e-01 -1.406651162830336033e-01 8.135676095055148771e-01
-1.342800298483591281e-01 3.225926642547047307e-01 -1.800351018269263359e-01
6.912209725584995967e-02 -1.512668587860362401e-01 1.325972068994359931e-01
3.484325948698750453e-01 -6.669375138064211894e-01 5.570875898927702963e-01
7.049682293495046492e-02 -6.210151066672936482e-01 1.513441677999907975e-01
-2.635752716893973724e-01 5.357622894102851419e-01 -3.756248197306231718e-01
-9.337643402209576393e-02 -2.388017178620084058e-01 -1.005474334900319233e-01
-1.378468112290211212e-01 5.224965652573386743e-01 -1.923483164711513593e-01
3.025952411163170264e-01 6.677359284395516514e-01 4.428563503006881508e-01
-4.412959090333458401e-02 8.230641119030972508e-01 -6.680397449739725046e-02
-1.419705162644681606e-01 -2.603390362701044070e-01 -1.704331652992817081e-01
4.762234679198735360e-02 3.069835785212788881e-01 8.499930123948014338e-02
-4.114150017598801334e-03 1.659211307151587100e-01 1.480612961074937936e-02
5.307078971366535614e-01 -2.303941282863238016e-01 8.065433896615494813e-01
2.979461551399147368e-01 -6.244354902872546464e-01 4.821672283033563433e-01
-2.892891160903046655e-01 7.278592213201612315e-01 -4.198605233325328756e-01
4.415498255067965699e-02 9.595727781060389150e-01 5.669081708177573647e-02
7.406362054754063451e-02 4.965080592876763288e-01 1.166865134914993052e-01
1.594784304192805868e-01 -6.328941984810619870e-01 2.811429592242254971e-01
-1.017285519172774627e-01 -4.577634475466885178e-01 -1.048842845966734827e-01
4.756688571867216941e-01 2.718356122092804306e-01 7.086128473905375369e-01
-2.230168175708012179e-01 8.598533884521345483e-01 -3.282096329856338812e-01
3.439580641484590307e-01 7.058005453762545844e-01 5.016388999304597363e-01
-4.027976856282093898e-01 6.039732145235134908e-01 -5.804799141882601710e-01
-1.984196172394302182e-01 4.890133451112292917e-01 -2.792246612786012383e-01
-4.989782203555498952e-01 4.874518717426044589e-01 -7.161676969026870010e-01
3.886074576056682828e-01 5.775159532625180336e-01 5.711309076841345478e-01
-1.467078283881291245e-01 -8.387963095186544704e-01 -1.566969750245091053e-01
4.022323806174782357e-01 -2.814678770105990546e-01 6.215667180119139879e-01
3.257205909404951583e-01 1.054400321513429134e-01 4.965273897021645899e-01
-6.027955117214942038e-02 7.295289725644533707e-01 -8.695043569992685906e-02
3.559447658786696889e-01 4.040529459625262776e-01 5.298253853472341124e-01
-2.006350304730110945e-01 -8.227769339765336198e-01 -2.356758512937124905e-01
2.945359404677083126e-01 -4.610692494155576027e-01 4.713843502692547927e-01
-1.872750048803404066e-01 -5.685059560427939696e-01 -2.253166258136432287e-01
-2.263789692223289879e-02 1.526861037218880113e-01 -1.165469118715927246e-02
-2.121239013099536219e-01 -3.082092935759507268e-01 -2.707262933555620865e-01
-4.603811308261241408e-01 -4.795586422952246575e-01 -6.255719483133849179e-01
2.020019406003561724e-01 -6.493918970254677347e-01 3.435584336188849952e-01
-4.036508399448826556e-01 -8.588457484278631815e-02 -5.571245140799762074e-01
-8.447790692574516647e-02 2.685538818708362863e-01 -1.056983802452249321e-01
2.536508593492642349e-01 4.619249257179091628e-01 3.790313014480986009e-01
-1.120114309028127225e-01 -8.135495588309771264e-01 -1.071501068204691182e-01
1.093573612272823598e-01 7.652399289860233322e-01 1.584207939527363940e-01
-3.452684999399333043e-01 -2.660000929646251233e-01 -4.658174647587682293e-01
-1.494669654787117614e-02 9.394349604282572486e-01 -2.852238565388784397e-02
-3.211029705733207118e-01 2.588977402245633552e-01 -4.493963181264028495e-01
3.156601364068832294e-01 7.830779658360774720e-01 4.577397732586680479e-01
1.185142556211236931e-01 -5.416011795563547837e-01 2.183279730987621736e-01
-3.371850395865559347e-01 8.032095219763798477e-01 -4.921855468999849492e-01
2.205659630691940987e-01 -5.730953289819900043e-01 3.678294483071554155e-01
5.397471428703238747e-03 6.227039855835624360e-01 1.234969011295243384e-02
3.098733136506966468e-01 8.357413212422164506e-01 4.474483597127433265e-01
-4.213449839173905032e-01 -5.921767567733804416e-02 -5.838017730057808441e-01
2.811718748897586162e-02 3.381700442663690964e-01 5.552776898546882278e-02
-2.454582887601070018e-01 2.348921849981995547e-01 -3.385564665994695854e-01
-2.488482640624384845e-01 -2.465759931132351646e-01 -3.263193103007628326e-01
-3.917866127340365878e-01 -4.045091435135367286e-02 -5.414943299076897532e-01
2.616580987222938970e-01 3.770331336713013126e-01 3.937001577399475982e-01
6.136458962891596335e-03 6.294973426834994390e-01 1.318193780030560251e-02
-1.228938449412306927e-01 4.225558750152357268e-01 -1.670441392848285855e-01
-2.925252011924900364e-01 4.598936346477089376e-01 -4.150117333126137620e-01
-1.187283313784933958e-01 -4.410353511366744694e-01 -1.301976155604181451e-01
2.242409335020748851e-01 7.042424557657488426e-01 3.276311211058035022e-01
-1.170252675433568028e-02 -3.982265363924371131e-03 9.830622296909423061e-03
-3.302499851190851543e-01 -1.509308855929791804e-01 -4.480838394150863380e-01
4.672865417447527592e-01 -2.037972867685721168e-01 7.133833172317959326e-01
1.367872530820307339e-02 9.058026944286770021e-01 1.429680001520356250e-02
-3.581995383260324073e-01 -2.487412700684011879e-01 -4.852339512295056889e-01
-2.845526091600613094e-01 -5.438803525576723086e-01 -3.676318817341852063e-01
2.465246159081712074e-01 -4.675030819894943068e-01 4.018074297448551713e-01
-4.576530485326231745e-01 -5.591858919440620967e-01 -6.187664486604845804e-01
1.646244099445029752e-01 5.492804318605567504e-01 2.464763131682662922e-01
-6.486385691643599405e-02 -7.436985445098480696e-01 -4.109008563730973812e-02
-4.873433611813018582e-03 2.099269350725193606e-01 1.213320420549588753e-02
-5.987669062913458101e-02 -4.164294461675036724e-02 -5.886971274200881316e-02
2.380849980772367924e-01 5.728383789812188098e-01 3.524447850248517700e-01
-2.128621629284263017e-01 5.997693078690881086e-01 -3.041723122157350412e-01
-1.002609851064741181e-01 3.810297747409792657e-01 -1.326564267445595191e-01
-1.785214062404535118e-01 -3.707862378753160049e-01 -2.196386875746116907e-01
3.772409106444830074e-01 -5.417361584725940427e-01 5.945097197871692662e-01
-1.611278121762578508e-01 4.048030672784847517e-01 -2.220016603274417577e-01
-1.225421198419375940e-01 2.605970589203603915e-01 -1.607583473265506158e-01
1.592047468585777725e-01 -8.028978553537798879e-01 2.868062618557818966e-01
-1.359953782546771683e-01 -1.058492418607002855e-01 -1.672536857019804868e-01
6.113963359258263452e-02 -4.199067919476442978e-01 1.305690185182137031e-01
4.277159247835906619e-01 8.972308865928144139e-02 6.453843875302176514e-01
4.259231909930568105e-01 -4.841198368162778487e-01 6.632373447572689207e-01
-3.839428843022195115e-01 6.496927229074205001e-02 -5.338485002680279923e-01
2.081696889627160374e-01 -5.518936543176825582e-01 3.490499085916614619e-01
-2.700498312738868756e-01 4.733055162321161413e-01 -3.828117356481898215e-01
-8.802978719705530086e-02 2.475275487843483502e-01 -1.101129921343207418e-01
1.330501479776515783e-01 8.329183142741497514e-01 1.904560699407643332e-01
2.293285438138368548e-01 7.360691244224577545e-01 3.338935456690849124e-01
-3.069663986223214458e-01 7.119517163065020027e-01 -4.449953397479112782e-01
-4.768582408714178156e-02 -3.656376524244269177e-01 -2.959319346919482563e-02
1.945715074264708633e-01 2.826000042388331912e-01 2.995261396284933375e-01
1.085211926387285100e-02 -6.724496379787404665e-01 6.645726926576306370e-02
-4.239421403207849770e-01 3.145117052133384328e-01 -6.009026841101505756e-01
-2.232500306121062705e-01 4.317769951689291730e-02 -2.994313634914987921e-01
-4.423676488263835610e-02 6.744851302068204102e-02 -4.001945609646621188e-02
-2.599723294757682046e-01 -8.228957506204815919e-01 -3.219453823398528702e-01
1.466682721305773707e-01 -9.073355932330972040e-01 2.723023621610994871e-01
-3.858086428685695846e-01 1.348740755504467259e-01 -5.390535806666510998e-01
2.111979289720457564e-01 -1.348745714635874449e-01 3.385846415680202615e-01
-3.273655268622254616e-02 -8.114088677010428130e-01 8.035681880069376129e-03
3.766866910984298933e-01 5.385119616356879302e-01 5.551892776834995713e-01
-1.929177987857410570e-01 8.181327699865333924e-01 -2.829595254615289712e-01
-5.160911608444833654e-01 -4.502274570061472470e-01 -7.076175889876726854e-01
1.843326402087366866e-01 -2.888602564901656122e-01 3.050138479092537325e-01
-6.883404415623783912e-02 -6.987260173503082594e-01 -4.846598776343780807e-02
-3.088966033495390562e-01 -1.983797364804255059e-01 -4.153452636878050552e-01
-2.191900949649021046e-01 3.287262113641330474e-01 -3.037092047380101634e-01
-4.509813838878706238e-01 -2.736887650168831621e-01 -6.192451212127957350e-01
4.602909022566806230e-01 7.289350440675136135e-03 6.956859931846162137e-01
-2.319154694516890602e-01 -7.017608059664889875e-02 -3.079890627375220236e-01
-1.583303588174558574e-01 -5.622901606468732050e-01 -1.834540255448724178e-01
-3.864440522119244048e-01 -6.383237097085693590e-02 -5.328928560190918651e-01
4.259108334467056056e-01 3.000968372978433663e-01 6.352593043079537427e-01
-8.475433230768378290e-02 -4.510122314034034074e-01 -8.044523629714761537e-02
-1.693683955597785340e-01 3.524907107119272243e-01 -2.321179795263915158e-01
-5.248100254983596447e-01 3.427095752003134210e-01 -7.485654109998557404e-01
-4.042378713896155329e-02 6.862428820091164283e-01 -5.653774588366984599e-02
-1.446703081669073188e-01 8.815465147180868710e-01 -2.150707636801556799e-01
-6.527772025978722040e-03 -3.067647444021313063e-01 2.814973985642910126e-02
1.134327293100625828e-01 -3.967701355990331802e-01 2.057759277546294396e-01
3.042858157600686342e-01 7.322038451397823167e-01 4.430158626987868997e-01
2.765615902363181486e-03 9.060293055932062689e-01 -1.578450318474613990e-03
2.218869896128579655e-01 2.596897588139049362e-01 3.400584542468421123e-01
3.084364774698472034e-01 5.962617078972452106e-02 4.730304898669425717e-01
-1.709857429996016198e-01 8.842683684767772556e-01 -2.534292674453402228e-01
-4.645044009326413925e-01 -1.155083805655430507e-01 -6.445466656643179526e-01
4.692946263640149218e-01 -4.077347915491024710e-01 7.235740689152910798e-01
9.801396604214482680e-03 5.396193606504340323e-01 2.171505758330601749e-02
2.102812612268455394e-01 2.524863092340164372e-01 3.234410747370297656e-01
2.958234869644944531e-01 -3.661711097962441208e-01 4.698729337401903461e-01
-2.098285106929912158e-01 -2.658168021366100753e-01 -2.689003394156914140e-01
4.113348187751890705e-01 6.613589345107412365e-01 6.011861737419116336e-01
1.280044393523182278e-01 -8.796780905214046653e-01 2.441799007823347023e-01
2.191545363429904525e-01 -1.245456418495655138e-01 3.497849287249533146e-01
1.834203787421050391e-01 3.671543442213894282e-01 2.802982408525875324e-01
-1.316069533432926986e-01 -6.853556575237128579e-01 -1.402116781085616659e-01
-3.331386023196253876e-01 -3.028531318315829113e-01 -4.468671984960791432e-01
2.170025322865171136e-01 -1.938815889472995935e-01 3.491280810347418551e-01
-1.231398578872877209e-01 -7.896189120265881822e-01 -1.241835511950855897e-01
-3.151760156515120981e-01 1.410895124851638538e-01 -4.365785156733465455e-01
-1.777766103000403275e-01 6.977042268332054320e-01 -2.566512178877777273e-01
-3.121261444181602784e-01 4.999958812462083207e-02 -4.288964648264476653e-01
-4.514685426169912641e-01 -2.501117037524233089e-01 -6.207940329937090551e-01
-1.764159570300425917e-01 -1.078603273311264966e-02 -2.294127281243759919e-01
-3.025103416748917695e-01 -1.042136304445819978e-01 -4.094172778231568999e-01
-4.519509907207460153e-01 -2.694342963123304568e-01 -6.208065727137026535e-01
-5.124178997619519560e-01 -4.895928966980809260e-01 -7.008733164772874558e-01
8.516543756864863868e-02 -6.765506924836949265e-01 1.746517128407203689e-01
1.754949695231102225e-01 -2.287941404107972088e-01 2.900227041553323226e-01
-4.535098697151688230e-01 -5.823027049703286551e-01 -6.119182573650537860e-01
-3.456825941236476019e-01 3.716853212235450843e-01 -4.891552592202697558e-01
2.147058952476998683e-01 -1.987347497292455134e-01 3.459619061392169570e-01
4.897716027432885699e-01 3.159900766612690481e-01 7.275433445040730973e-01
-1.661555215653309214e-01 -3.520336627196763990e-01 -2.023278417739605428e-01
2.656920236063017304e-01 -6.123871082727680992e-01 4.348416028835104252e-01
3.903554932332503613e-01 5.926255552172657870e-01 5.731337626943889818e-01
1.204138416784403254e-01 -5.975981553950567848e-01 2.230863743548396338e-01
2.436700404399407827e-01 -8.178550061680983640e-02 3.839048215175246970e-01
1.208771571276370665e-01 1.674960462224685809e-01 1.964817242427464583e-01
3.873824744594127345e-02 3.855074786248916530e-01 6.928256760343942666e-02
3.196884529038153677e-01 -8.497909484355879728e-02 4.945460412661683569e-01
2.407952844390809921e-01 -1.363944661259642796e-02 3.772954097494333192e-01
4.442872497761338885e-02 7.385809900480919676e-01 6.496795810006823768e-02
-5.366747871361379763e-02 2.634130362963008620e-01 -6.071811248780336484e-02
-1.269191751353686837e-01 -8.776416513980823675e-01 -1.265401895235650498e-01
3.056472127251482762e-01 1.738105238739831582e-01 4.649039518173400110e-01
-4.653023297762953758e-01 -3.933783827605172867e-01 -6.357997788396110295e-01
8.061464696849675315e-02 -6.551163840502554070e-01 1.672708595094179462e-01
-5.022345041836393520e-01 -1.862737598589329913e-01 -6.968815071216466484e-01
-3.367404084642122708e-01 5.662027956111471694e-01 -4.830889527115789228e-01
-2.642066824673492964e-01 6.072778848258861828e-01 -3.790926442789303019e-01
2.728663301876614877e-01 3.892550351057251778e-01 4.095606691845707359e-01
2.009039113331764215e-01 -1.341948525314894392e-01 3.235933679734025459e-01
1.482196074647948794e-02 -8.937766744596932211e-01 8.012032506091640305e-02
2.480143985553951436e-01 -5.302431609586131245e-01 4.062104105126725928e-01
3.349759871191556604e-01 5.033504978065275193e-01 4.957974171997480695e-01
-4.348466262020791451e-01 2.585897350648237447e-01 -6.147635025004645204e-01
-2.661388919416053378e-01 7.087582479023994964e-01 -3.855201206932548641e-01
3.235416265769864297e-01 5.791201674025043822e-01 4.764709163153544313e-01
-2.565960962531810274e-01 4.496995217946173073e-01 -3.624089728381940656e-01
4.700812291878174731e-01 5.097736900189842046e-01 6.920053608273166734e-01
1.574689518774445574e-01 -8.201873306553204845e-02 2.585806265167008289e-01
-5.043621820621985857e-02 -7.299592598686712730e-01 -2.060280070654910145e-02
-3.537957775346849409e-01 2.021706782466563615e-02 -4.884203883108469979e-01
3.670077784056883785e-01 -4.597950550554422700e-01 5.767097176490836308e-01
3.915696479184101464e-01 -4.463265492116669786e-01 6.119413731429808045e-01
3.401199362512321023e-01 4.699509510295095116e-01 5.044672990767823384e-01
-4.241425067708013419e-01 -6.492323848851214718e-01 -5.668331531677301971e-01
4.640545398994460058e-01 -2.052655774747570994e-01 7.087364814426347914e-01
2.737088008515189963e-01 -6.811985622904598303e-01 4.489510064003377487e-01
2.041675661968752886e-01 -4.537155914979559834e-01 3.397306098121660733e-01
4.643266533407011676e-01 -1.437065801118491970e-01 7.069373281408125598e-01
-7.721770773884317762e-02 1.234503243912220827e-01 -8.996892634493201812e-02
-2.052489340335831025e-01 -3.933032138916446319e-01 -2.576965032485226126e-01
-2.891328091752365381e-01 6.958266118513878329e-01 -4.184911852967505563e-01
3.128791772627517176e-01 5.722478264248206381e-01 4.612132170209209958e-01
1.051159922442458233e-01 -3.389860340465577493e-01 1.916235598996033351e-01
-1.334315043245730414e-01 2.121770258133241164e-03 -1.673754732019113178e-01
-1.565392766807738867e-01 -4.399770487923194140e-01 -1.852107637230883952e-01
4.770739768534414393e-01 5.071416695614614500e-01 7.022663425685010674e-01
-3.225478903062309333e-01 3.548930031329430301e-01 -4.549197340998025751e-01
-6.103287140651520587e-02 2.000796622983896378e-01 -6.916900583640583910e-02
-2.566690400561110197e-01 -8.516749709024309389e-01 -3.161164678348349355e-01
3.020785764984249000e-01 8.062211933146946619e-01 4.371676580679603741e-01
2.765641669729261842e-01 -6.992440954468890357e-01 4.537459669828587394e-01
2.837126533903356826e-02 -4.849436712503926716e-01 8.524407575927081537e-02
-5.359164410876061657e-01 -8.242079492095910620e-02 -7.495562525706208623e-01
-1.698117752165787323e-02 -6.350136801338698289e-01 2.465418292009177378e-02
-1.247075501628308464e-01 -1.021778453680499826e-01 -1.509725888670781502e-01
4.547606198229243724e-01 3.308373035089662989e-02 6.867255508964178468e-01
-3.979696899320886438e-01 -7.219365939793314091e-01 -5.261868933016035088e-01
-3.018410621957768325e-01 -7.371349632142265573e-01 -3.858783116060494067e-01
-2.376419986519102412e-01 6.725718906031463717e-01 -3.427967474790933888e-01
3.790344279543000471e-03 -4.975070361267795449e-01 4.995244872415083998e-02
-3.155510631780770181e-01 3.924680843179846335e-01 -4.460863451038474814e-01
1.235563391926137317e-02 2.128752714925312081e-02 4.390915053210057983e-02
3.674864444618819448e-01 6.744760793423268952e-01 5.369649350016258982e-01
-1.160687273943039055e-01 5.015147630555139013e-01 -1.599358860723699982e-01
-1.653600242770441597e-01 4.802058243174963659e-01 -2.308434791850476342e-01
-1.462095451606266749e-01 3.209148787310855955e-01 -1.973202622739749779e-01
3.544747257247525818e-01 5.488822657323686460e-01 5.225243401183656822e-01
-5.242125148950717017e-01 3.923718984079614391e-01 -7.494672933133688097e-01
-3.696576726765539167e-01 1.693051285664227967e-01 -5.167983832423894697e-01
3.553218916950846573e-01 4.557286249784492371e-02 5.417008257217993394e-01
5.139585813662785885e-01 -3.406060256841478839e-01 7.861200773605115932e-01
3.612558682994627124e-01 3.883470142296412408e-01 5.381074612045118055e-01
-1.523763762139067612e-01 -9.568081893465654741e-02 -1.914334608064162946e-01
-1.826083052692476227e-01 -5.919135049434741669e-01 -2.176968930482323372e-01
5.759142102520039413e-02 5.893545544270695213e-01 8.942637234793851531e-02
8.769829283507778184e-02 9.569423060004250692e-02 1.508011323739338327e-01
-3.096148140277555361e-01 -1.111615001030174799e-01 -4.194991455804367164e-01
-3.851686825187757290e-01 -4.925654667841602996e-01 -5.157526881893673698e-01
3.768995055110421211e-01 -5.373507124127204770e-01 5.938569755361726710e-01
2.053281143617467080e-02 1.555115125570914573e-02 5.600292122376159670e-02
-4.054543062089228100e-01 -3.846247882771097748e-01 -5.490955373137315076e-01
-5.015687015098114765e-01 -1.051695379650886136e-01 -6.988051097251599675e-01
-4.552783734015142802e-01 -2.598766992861978320e-02 -6.343241631804651393e-01
-3.968295014648931529e-01 -6.883299922282631877e-01 -5.257273036328251603e-01
1.803601602719830388e-01 -1.809652067625652505e-01 2.953912038301160226e-01
-1.710029544145900138e-01 -4.978284484062777682e-01 -2.041776962623734759e-01
-3.310641811982393268e-01 5.899984802666681238e-01 -4.756843728095201951e-01
5.201938555323052382e-01 2.053223184166557969e-01 7.757216269446693957e-01
3.785222075495780492e-01 -6.597483831905928131e-01 6.005802173775178776e-01
-2.390292326768400921e-01 -7.816771824088127874e-01 -2.929646468020508654e-01
-1.943845765158202510e-01 5.037675598836560686e-01 -2.738839327939414647e-01
3.928162500946297264e-01 4.931484988489261423e-01 5.802582983610743428e-01
-2.381137535383121562e-01 -6.337051120821937111e-01 -2.969093042117143533e-01
-2.724886608968620227e-01 1.879300298264761637e-01 -3.761830480271473043e-01
-6.234626368949696545e-02 1.487101336877618973e-01 -6.924711547083316210e-02
-5.735853613166481263e-02 2.061490044224051355e-01 -6.404308072047422418e-02
-1.575158044618185094e-01 -9.052125849796265333e-01 -1.700433137226530500e-01
3.115730748693447127e-01 8.281056773655682823e-01 4.501919736374969117e-01
-2.219304700715274969e-01 1.367646246053330628e-01 -3.008494836451158783e-01
-1.967655905957843010e-01 5.399789251087030451e-01 -2.786368824013987777e-01
-4.847287841791216301e-01 -4.577851341130595997e-01 -6.617486444579880889e-01
-4.826725833149779765e-01 -3.387044311457279022e-01 -6.630046652092913551e-01
3.842034790933289701e-01 8.437848125596168411e-03 5.850173498387758464e-01
-7.093952862556078542e-02 -1.864791817129997364e-01 -6.979066273092668360e-02
-4.613807511417306606e-01 3.548383485687383598e-01 -6.567745286560936480e-01
1.768440175150019777e-01 -7.312760422486206391e-01 3.098994003480067261e-01
2.893671227306212068e-01 7.729416337747658794e-01 4.198723082405209639e-01
-1.201811399343971631e-01 2.603113762830877032e-01 -1.573154030105548273e-01
-2.687308652157757161e-01 -7.520001689849828974e-01 -3.372075758422777847e-01
-6.354277021308205042e-02 -6.486780043438139520e-01 -4.255710022118247560e-02
-1.920432326566181014e-01 -3.170601116124249219e-01 -2.412143404863116292e-01
-5.610964774735023308e-01 -2.428423197617484222e-02 -7.882396666095565774e-01
-2.794732383068128101e-01 7.083027917957021025e-01 -4.048914227132688337e-01
-2.877175149253198908e-02 6.939561943884903217e-01 -3.987121609325029736e-02
8.401906517585377987e-02 -2.898435301581874790e-01 1.591974731218899486e-01
-1.229856824807264160e-01 -3.222492451521445922e-01 -1.406227538465409377e-01
-2.283000703882919757e-01 3.328820624568554765e-01 -3.171028704348067828e-01
4.311206534160431092e-01 -2.787596848010489570e-01 6.634724124345260377e-01
-2.213040313778403267e-01 -4.979922227786739986e-01 -2.773073634760528927e-01
1.424222051867438665e-01 -6.802090631415315114e-01 2.580309146789738217e-01
-4.029845504136199685e-01 4.230328837506229789e-01 -5.743004501995228051e-01
1.937631015610878638e-01 -5.136560466237284350e-01 3.267400729258393977e-01
2.765767113791847698e-01 6.234806501106392451e-01 4.066044326222550964e-01
-4.254054103463885128e-01 -4.541163811060815181e-02 -5.901976842660497935e-01
-2.552181855038749281e-01 1.941840154216392944e-01 -3.512955291147433212e-01
-2.917603817418132350e-01 -4.351206803074899043e-01 -3.819893228109373373e-01
-3.037776091280879887e-01 1.008286967082018953e-01 -4.185703054152329905e-01
-1.691140625919027307e-01 7.625032105102118596e-01 -2.463665735382159772e-01
-4.448169217115387486e-01 3.467763812230253428e-01 -6.324040273304200044e-01
-3.203244015020134117e-01 7.865748049158690636e-01 -4.670778505486996579e-01
1.977740005358272213e-02 -1.447105533281594913e-01 6.061847849695668061e-02
-1.969965250027747861e-01 7.072244395800100780e-02 -2.622420123462163577e-01
-2.400860377667460299e-01 -9.010635788987478856e-01 -2.902446504430364338e-01
-1.028195934641380205e-01 -4.731904267196309077e-01 -1.059205841159603367e-01
-3.391868184791778096e-01 -3.585817689696416122e-01 -4.536741118575618459e-01
3.056060204030277561e-01 2.682645323421382899e-02 4.700845573326679627e-01
2.193267408677542496e-01 -1.175696276128820467e-01 3.497865870097597307e-01
-2.475896184106125553e-01 -4.980240536887152181e-01 -3.155242913707585473e-01
2.115648671583428841e-01 4.011456863309138532e-01 3.200071522524353673e-01
2.828563339177114222e-01 3.233648453162118463e-01 4.264349020627531961e-01
3.965596338258862708e-01 2.487726996534226145e-02 6.023965207633873442e-01
2.992252872422175858e-01 5.639603553543428571e-01 4.416565516650676204e-01
-1.445200525620998488e-01 -4.595574239887480483e-01 -1.670372427612322186e-01
-4.707560851244695366e-01 -7.551807777404844282e-03 -6.574853638595911098e-01
-1.355295554634859678e-01 -2.338333951526768220e-02 -1.695165987524321627e-01
-1.678995783667207309e-02 -3.477975621602338863e-01 1.469194644660351545e-02
-3.325421986348247594e-01 -6.323619676139625723e-01 -4.342519093965697130e-01
-1.745208984826857879e-01 -3.795794309025780633e-01 -2.135086208487046167e-01
4.843932333962711057e-01 1.490058485632120289e-01 7.256770100894839315e-01
-4.781269339841308086e-01 -3.188017481379968876e-01 -6.571050956847178659e-01
-5.771636245182704128e-03 4.598778578742825363e-01 1.915631442107869732e-03
3.862048197025036433e-01 -5.195218209776424345e-01 6.067508218987768265e-01
-1.085643332017347390e-01 4.132422842260285445e-01 -1.458776107515394049e-01
3.326595113172597928e-01 -5.670813046512083178e-01 5.305940110905044138e-01
2.728181405975603213e-01 1.080397394976786579e-01 4.195169146406347860e-01
-2.676937016262284641e-01 4.013399256318225250e-01 -3.768202034333599237e-01
1.991847533071931797e-01 -8.440286560298094765e-01 3.464018525101141277e-01
5.223439666481143329e-01 1.685964588124678198e-01 7.801571975425050098e-01
-2.371893073910629479e-01 -6.718928028208506209e-01 -2.942036760167149878e-01
-1.428942126000206092e-01 -8.825304616745872632e-01 -1.495928731652564625e-01
2.542932512428358605e-01 -7.450599509605191351e-01 4.229985517716526866e-01
-1.940346692024366715e-01 -2.047371932847826537e-01 -2.481145055003068089e-01
-5.140072433112732320e-01 -3.676260346183168881e-01 -7.075326967337187689e-01
2.876144465850117848e-01 -3.762793508759786076e-02 4.462236420536626613e-01
-3.942944585928043894e-02 9.817224296064610556e-01 -6.562689986489059213e-02
-4.838853203567839434e-01 -4.336297228760044135e-03 -6.766893263342146358e-01
1.236395873493776471e-01 3.980624565392247294e-01 1.922776730257452493e-01
3.043558755439609298e-01 7.768119887043695160e-01 4.415272898066482932e-01
1.635154157393848007e-01 4.498660341684497244e-01 2.484083571386161426e-01
-1.342571455754160425e-01 -8.097830682462863194e-01 -1.396286652519578009e-01
-5.103871040079084320e-01 -2.743535118853965282e-01 -7.055946691639312096e-01
3.631613096259461160e-01 -4.861805434738566412e-01 5.720578599734170711e-01
-3.195622387346822579e-01 5.679453124693696342e-01 -4.581747924141174044e-01
1.283968595930555234e-01 -5.745177507196490563e-01 2.338704264756985840e-01
1.857636917925155617e-01 9.245414679562686810e-01 2.638325081470502265e-01
-3.026211391778465543e-01 5.777396687825744337e-01 -4.338923977968682233e-01
-1.834255801058349289e-01 -4.143833735104380800e-01 -2.252147453813790057e-01
4.123808514529022085e-01 -5.226590268737716372e-01 6.449214486039095418e-01
-4.427485252704276286e-01 3.623531954167320546e-01 -6.299520398420420664e-01
-1.804908411327230122e-02 5.205109957108947638e-01 -1.809701013092700900e-02
-1.487863963248057253e-01 1.744949615224399564e-01 -1.958465048585772139e-01
-4.156897351070540925e-01 2.613680209370878305e-01 -5.870092990189051951e-01
2.850025456274730140e-01 -7.352256754792766413e-01 4.672978599330739891e-01
-2.661517617542641934e-01 -6.855684342776658946e-01 -3.358261994516941185e-01
-1.891798584923689019e-01 -4.429909738024691568e-01 -2.325612464482897657e-01
-1.521515032764458597e-01 -4.317203393099398601e-01 -1.791255189281543703e-01
7.750036688542331909e-02 4.739571080512336998e-01 1.224874087389191402e-01
-4.563195056364964253e-01 -1.635112623126027398e-01 -6.309347245894609824e-01
3.436692910040295423e-01 -1.236815843132923858e-02 5.268242682411030664e-01
3.618635167087686511e-01 6.393781853251607750e-01 5.300408135752937566e-01
-1.758968456279103865e-01 -5.353468036552306852e-01 -2.099555333819985159e-01
-3.971472378767192946e-01 2.907075001090435595e-01 -5.610953962564001474e-01
-4.224987588120033277e-01 -4.999749190233299112e-01 -5.697647692832528143e-01
-4.239077099844629770e-01 -1.815254644565368891e-01 -5.831671602258474696e-01
-3.607906933213122502e-01 3.340544723015766992e-01 -5.097800851258419419e-01
2.630091962154718077e-01 9.510677151472266000e-02 4.057162557728812291e-01
-3.298968431272642499e-01 -2.863860495945705353e-01 -4.427409354518370699e-01
1.446620733775523249e-01 7.733148979808784906e-02 2.342786065002625817e-01
-1.804258432800902659e-02 -7.076570656278030613e-01 2.570093641262899062e-02
-3.444082557708748049e-01 -5.795078399722463081e-01 -4.533890583461046564e-01
3.029036486960934305e-01 -6.816700845090679639e-01 4.914158151326222801e-01
1.832324966261791310e-01 5.041964830566064704e-01 2.751390361100903847e-01
5.649259839962143120e-02 -6.597697775606047310e-01 1.323643942589161071e-01
1.329607916716649962e-01 3.696995125321616005e-01 2.068415237618723701e-01
-1.096909896105809357e-01 2.369234219498644878e-02 -1.336268977436908256e-01
1.701038310016224631e-01 -7.171399126712988403e-01 2.995954693646346034e-01
-1.296197826822804156e-01 -4.286196418211705161e-01 -1.464759600587974830e-01
-1.341368146264519112e-01 -8.117323661707191995e-01 -1.393842101541705181e-01
2.081420116341118065e-01 2.859224341625993260e-01 3.191385868776295265e-01
-2.129053401458352035e-01 -5.379432654463471852e-01 -2.636716489994078150e-01
-1.014267869910863984e-01 6.708836579408100631e-02 -1.231583387143588698e-01
-2.633190547261168336e-03 4.225727760635629715e-01 7.808847427487858317e-03
1.877985190996203646e-01 -4.360561804395964858e-01 3.153011307411746622e-01
3.691354609357460070e-01 -4.769952800358195355e-01 5.804165207785482172e-01
-6.567440163027836453e-02 -1.118675449747632694e-01 -6.479557095851690152e-02
-2.412773398307151151e-01 -6.254999215208006946e-01 -3.018015603732217556e-01
2.813773154027009449e-01 -2.945801350733704416e-01 4.463163800446358631e-01
-3.571443023463536925e-01 -4.630641360283304087e-01 -4.760583241383132269e-01
-6.955821761140250359e-02 6.997507494053489818e-01 -9.937950186917564321e-02
6.952480487874337922e-02 -8.786470410536749709e-01 1.591163786775270927e-01
7.898984979625403580e-02 9.767116475611681281e-02 1.380689627531254959e-01
-5.322231979823965897e-01 2.045026467321529318e-01 -7.544162693678443388e-01
-1.030138518741929438e-01 -9.198861042479731243e-01 -9.027676053408695278e-02
2.127521593116281085e-01 -6.869971768560355629e-01 3.605295287509793223e-01
1.164900146019542775e-02 -6.245874461283955625e-01 6.590944528500250477e-02
-7.611905955934676442e-03 3.201768424884425812e-01 4.220792803112213137e-03
-5.414843148481176399e-02 -1.771794806515914478e-01 -4.570872869494529284e-02
2.670045845090476266e-01 4.175218230332163327e-01 4.000301442162462195e-01
-1.280213622431609910e-01 5.000596635545067059e-01 -1.772626008243000650e-01
-8.341511175122533206e-02 7.622764482711478218e-01 -1.217560638056167238e-01
-3.465684256390707541e-01 3.399867698864530996e-01 -4.893130539920925726e-01
-3.703315777780954443e-01 2.966542061215212689e-01 -5.223186519644019699e-01
-2.887512910297771601e-02 6.401767466363591508e-01 -3.810409668431379709e-02
1.120966681720526187e-01 -6.131074497224678899e-01 2.115465383932075560e-01
7.185940199667768813e-02 1.344670817111598415e-01 1.263897085472797110e-01
1.695201704655133479e-01 3.304081992790572353e-01 2.613980912891438191e-01
-8.415123276940661423e-02 7.200264357473343813e-01 -1.213199896651000753e-01
-2.593054467593615131e-01 7.719551819944279192e-01 -3.778377905688145022e-01
-4.014158101643026111e-01 1.762056026093366812e-01 -5.632193146372189707e-01
-3.759778006732698019e-01 -7.028398232211260366e-01 -4.948925410229381150e-01
-1.876281755151003594e-01 8.307862513593139431e-01 -2.757197918014122617e-01
-1.633291476362584704e-01 1.619291281516493652e-01 -2.165429959913617031e-01
5.050339204654194503e-02 8.107780782318768642e-02 9.724254415197733370e-02
-7.527122283858975194e-02 1.132670612963652818e-01 -8.677575571552827161e-02
-3.959598677250465992e-01 -9.192040153223213911e-03 -5.486765436273404184e-01
1.694302143416571149e-01 -1.886807799506148298e-01 2.797746406558763721e-01
4.072817452428539875e-01 -2.008497618305133681e-01 6.260339489813645519e-01
3.371717265955971321e-01 6.855756260356914156e-02 5.144918158648452700e-01
-4.552982431100438543e-01 -3.311876290428658054e-01 -6.234716045678794227e-01
-4.108264041858835647e-01 -7.112561789403908374e-01 -5.452607725250609993e-01
-1.130109673386471558e-01 -3.084302658998309132e-01 -1.266126611475476282e-01
5.312519547732535985e-01 -2.229330328496698932e-01 8.070684108220558262e-01
-5.674874449897602258e-01 1.825795029022493077e-01 -8.049072635025410483e-01
-1.819642207165464431e-01 -1.059904820868685649e-01 -2.340852819790306127e-01
-3.235241448850659229e-02 5.355779621547838154e-01 -3.943060014448639822e-02
2.124836472325080938e-01 1.282799742377290497e-01 3.310716362455589645e-01
5.312476186240484149e-02 3.031171295555130651e-01 9.313741803706708511e-02
6.844501721413219497e-02 -6.613215668446233986e-01 1.497980010310208110e-01
-9.376469467328632512e-02 -8.558268784666309692e-01 -7.911283737110723357e-02
4.150959347194251858e-01 3.329560934483929424e-01 6.183633797171849134e-01
-4.925173923138877474e-01 2.455067728059601440e-01 -6.981477523541798069e-01
3.584233914713942371e-01 -1.037162186816291271e-01 5.515329460811225770e-01
2.409901964231725424e-01 1.604893401780253248e-01 3.713705014436989860e-01
-1.481823306973826387e-02 -2.539527863326581855e-02 6.063974250298900283e-03
-5.007684817743216499e-01 -4.586833821385493115e-01 -6.850376185561903863e-01
-1.362045795818311034e-01 -6.440321980870525320e-02 -1.690355509897286113e-01
2.409672532320435712e-01 -2.247811879895416920e-01 3.850733877868287025e-01
3.409008940136512567e-01 -7.346150390383403561e-01 5.485497761632348590e-01
1.601734223967302140e-01 -7.133456329954485087e-01 2.850218219647094875e-01
-1.401554331696551192e-01 -8.342349135280348049e-01 -1.473327164700208858e-01
-6.621564318232685264e-02 -7.366244769884173760e-01 -4.330773744663572733e-02
4.553718945167694598e-01 1.018706548363235848e-02 6.884306631982952673e-01
2.029452171820501916e-01 -7.303811109848133976e-01 3.478174647429614352e-01
-1.439986107831310591e-01 -8.395037890824192939e-01 -1.527326702006585324e-01
7.889913836643647205e-02 -5.769082368216786882e-01 1.619881924936087125e-01
-4.698369676081466662e-02 -6.075526911678408304e-01 -1.994721282706617138e-02
4.391574653733993361e-01 -1.030990321616845756e-01 6.688946580394063979e-01
-3.552386052929381033e-01 -2.082436086001190345e-01 -4.823727711833255549e-01
1.712450263825894825e-01 -5.836509625629570097e-01 2.964953672316368305e-01
-3.107879734870457322e-01 2.150634250083246490e-01 -4.328359287421558177e-01
2.818294291509139127e-01 -5.941518171950066485e-01 4.576545135994457558e-01
-1.032322196798641373e-01 -6.277789139298847187e-01 -1.010089026924419764e-01
8.085952224380309195e-02 8.257181648782196959e-01 1.148299551267886048e-01
1.884752803546231592e-01 7.109642821262650569e-01 2.753898113782874968e-01
9.121824045455718954e-02 1.461888471380453081e-01 1.541186680295580924e-01
1.278092454327575678e-01 6.198858257799151339e-01 1.904313879648305841e-01
-3.621898420267840035e-01 -7.711831704700674583e-01 -4.724087886413091963e-01
-1.382779281234374491e-01 4.820152829965564933e-01 -1.915318414690071469e-01
1.212756900502407337e-01 9.616608324074111813e-01 1.687464150140803310e-01
1.309379900474441638e-02 1.134784967088508512e-01 4.169547821093912143e-02
-7.328257783321782959e-02 -6.325161237491719879e-01 -5.729457067272285958e-02
-1.824690754807110210e-02 -9.817239808434093939e-01 3.517530576811468690e-02
3.906921063970063557e-01 4.396556030093342615e-01 5.790770980734634144e-01
3.300609969491268836e-01 -3.752308495127795185e-01 5.199757467598439264e-01
1.178177913871928939e-01 3.520597461062205391e-01 1.854532010836158762e-01
1.127559003742523158e-01 7.245098990246946480e-01 1.648142855355500813e-01
-1.869374321798198801e-03 9.742795578524416911e-01 -1.075087860927085616e-02
-3.054158211109739285e-01 8.535980491535534176e-01 -4.477910579395487090e-01
4.663881300271793262e-01 2.083218312729464838e-01 6.973835759053238492e-01
-3.987095770916941340e-01 3.417979651993637846e-01 -5.651885214474551278e-01
3.554926335245745528e-01 7.422520371119185889e-02 5.409275202805742255e-01
-1.787143535661271376e-01 1.412548381465674185e-01 -2.381752833962928473e-01
-2.655618505549318595e-02 1.203974134098547422e-01 -1.620050113828046950e-02
-2.188530126274959575e-01 -7.106068659344043636e-01 -2.661632350662114233e-01
-5.321344607575709262e-02 -8.538229877314917893e-01 -2.022458922988641661e-02
8.389473277484559011e-02 -8.851698385586858064e-01 1.802421689246144210e-01
-2.540660425296107153e-02 -6.726230455170875144e-01 1.374489662670904354e-02
-1.683942646801793730e-01 -4.843468989132064806e-01 -2.008654430653654399e-01
-3.768003378958705019e-02 -2.161732137731605663e-01 -2.037415495849818209e-02
5.122668577541199531e-01 -1.770440391834329219e-01 7.778288291140997845e-01
-1.890021197251619822e-01 -3.495215289012148507e-01 -2.356353355884916734e-01
2.536080507796122929e-01 -2.071757474749496009e-01 4.028248439254231705e-01
-1.366736906684434816e-01 -7.766948395526798166e-01 -1.443219245923100247e-01
4.939730998923208549e-02 6.699833071076563007e-01 7.463780534804863309e-02
3.084679756371517811e-01 -8.675884100592709536e-02 4.782954255410760136e-01
-4.270234494041888484e-01 2.679326026512749426e-01 -6.037220608354995077e-01
-2.834881087463095306e-01 7.358764913695950982e-01 -4.117119630177797363e-01
-2.926124680322363392e-01 -3.727404476113420628e-01 -3.854522919408424064e-01
2.649585592843461956e-01 4.037353359744033088e-01 3.975468520340945111e-01
1.419068284794713919e-01 -4.453692845603905992e-01 2.489087188717348798e-01
2.540925140347291555e-01 3.900914900661031082e-01 3.822345612803683679e-01
-2.941756252330180454e-01 8.633877556957981758e-01 -4.317973554020737570e-01
-3.725063561140889989e-01 4.164408515005799671e-01 -5.297514957354074738e-01
2.115724077501994760e-01 6.494821044263280330e-01 3.111640522035530321e-01
-4.879058048013696358e-01 4.107901226704470110e-01 -6.973356420119130039e-01
2.361183829010856383e-01 -8.315602778405403184e-01 3.996571494700481564e-01
2.701998741862667308e-01 -2.906148145901131796e-01 4.299235050408421466e-01
-2.332232049413546920e-02 9.091227258501248798e-01 -3.961942922483561308e-02
1.292031310919068976e-01 9.248828700935864955e-01 1.815838214465254064e-01
-1.047316898004899410e-01 -7.321687890715929958e-01 -9.946719995252562008e-02
-2.160548629253807584e-01 -8.225352079561334406e-01 -2.581042133894009827e-01
-1.678632511216287537e-01 -6.700930069015490487e-01 -1.934708734100137051e-01
1.179150482323516741e-01 9.360929813198350935e-01 1.647717762805678277e-01
-1.416247974654822050e-01 3.336477057565405691e-01 -1.911082149877394443e-01
5.291066718982086192e-02 3.943439882049852852e-01 8.957357673704775813e-02
-2.220540770011688592e-01 7.311999672048855037e-02 -2.987600485081298718e-01
-3.123506054259854725e-01 -2.328636842829154840e-01 -4.191377539444122169e-01
3.357347317619887583e-01 3.942457369277980739e-01 5.007905649674279092e-01
-2.999831650602628463e-01 -6.927935477660611685e-01 -3.847579395076275444e-01
5.375833555711087008e-01 1.563510643504030517e-01 8.027511757052503416e-01
5.513652274955510579e-03 7.452915591586803945e-01 8.147935173886015209e-03
-1.354463134013488834e-01 4.012170667361514287e-01 -1.845340612517206158e-01
-2.831951125024687599e-01 9.417204983838393939e-02 -3.884069471094729886e-01
-2.331993386097894194e-01 7.875150762306514229e-01 -3.404354467918062621e-01
3.559618159737287235e-01 1.964275272480606460e-01 5.372527493292169609e-01
-1.746424323680102197e-01 5.592899916999424237e-01 -2.471593113361290617e-01
3.661147836105693165e-01 -2.106345750282307971e-01 5.665278989040073432e-01
6.629041233450980175e-02 -4.441448274341179836e-01 1.389221903523364110e-01
2.519785472808719895e-01 -3.358986318309281627e-02 3.942666738386724212e-01
2.115657356390162128e-02 -8.629265386669607851e-01 8.823065207055404147e-02
-3.925872435712181308e-02 -5.908500794835246372e-01 -9.310956613035862098e-03
-1.709141984593592622e-01 7.428304048802752968e-01 -2.482824857516994221e-01
1.176655435431503555e-01 -7.784594566108241631e-01 2.255388116335647897e-01
-3.744554008475337037e-01 -2.250440239281562838e-01 -5.097141349951220812e-01
3.645256610921670526e-01 -3.335142565175874263e-01 5.685984774883532378e-01
2.061780722065399973e-01 2.873525251080481513e-01 3.162321194167973526e-01
4.143236954698760743e-01 -6.233261708854150214e-03 6.293338679167592709e-01
-7.811826944192314104e-02 -4.755882619167341452e-01 -6.992047735961097465e-02
2.341209693460823971e-01 7.414506200371706601e-01 3.406696479328288341e-01
-6.185918227741415976e-02 8.909428122637839120e-01 -9.500211751381092140e-02
1.616892229484745425e-01 1.644140708103010440e-01 2.559305178648054735e-01
2.773485905758795722e-01 -3.240597398546113950e-01 4.415098463568817300e-01
-1.802347392903115852e-01 -8.345677267294652202e-01 -2.055943612211105220e-01
-9.757152606429593533e-02 8.969682513300116788e-01 -1.471410891778560381e-01
-1.524690076735167599e-01 -8.943295881310280304e-01 -1.630935148810359059e-01
3.446373557837125595e-02 8.279671990335240039e-01 4.729237949672505936e-02
2.795111679083088219e-01 8.297090752749733955e-01 4.035182344045998848e-01
-1.331919052934336413e-02 -8.931391943205266859e-01 3.918162682523571028e-02
4.309422307412773441e-03 -3.495048146531049560e-01 4.543036691213956507e-02
8.634388799420474048e-02 3.853809613796695902e-03 1.521063214873684122e-01
-3.037572131395049890e-02 -5.377225995779151280e-01 1.710349909027970416e-03
-3.561508264395864543e-01 4.898112881247469463e-01 -5.085872035217540166e-01
-2.224469657854888927e-01 2.312543753192783380e-02 -2.975488098843812046e-01
2.670173476128456791e-01 -4.499080715355959770e-01 4.309756173015851788e-01
8.192907690446325775e-02 6.181382221167596169e-01 1.237859920907759120e-01
-2.658309644125751992e-01 7.576546036167811637e-01 -3.868157343625882039e-01
