-3.585669262203641794e-01 -5.213952556707965869e-01 2.217927125255533261e-01
-6.642048682764582768e-02 -8.926452105147754112e-01 -3.297174819948975322e-01
-6.719456210739107593e-01 1.775882715775532750e-01 4.064974888869301445e-02
6.185835653555114000e-01 2.668803875213283661e-01 1.046012029194793164e-01
-4.817101953960726268e-01 -3.012281244971602434e-01 5.341614359032019754e-01
-4.229882652224282308e-02 6.975282423127746600e-01 -9.424519463877427394e-02
-4.604660882885865114e-02 5.591957050931813944e-01 -3.699338289683575809e-01
4.076928625382074123e-01 -4.202692018131850560e-01 3.296271618290190220e-01
-5.454386776259950720e-01 6.395422880979353963e-02 -5.591154962478210866e-01
4.558973528687680354e-01 4.639221449747239490e-01 -1.487146939531615031e-01
5.875695167461230106e-01 -2.107119821875892973e-01 2.459223260413778422e-01
-1.702689144274912858e-01 -7.875814082603321831e-01 -1.697769524869746915e-01
-1.436884822335763277e-02 6.404954797347519602e-01 -2.101785388514021691e-01
-5.631113116497735716e-01 6.456852005306199516e-01 2.966925909082144819e-01
3.906384551203554989e-01 7.440687168908610705e-01 4.390829174146848035e-01
5.760064202175629866e-01 3.419784438747434652e-01 -2.192488484045024624e-02
-2.221811060834118778e-01 -8.080087865570279027e-01 -2.701765994325360798e-01
-1.822493485848387107e-01 -2.989770649489302823e-01 8.896596900656056350e-01
5.812822830638549876e-01 3.296740450869748429e-01 7.171978571788715229e-01
-5.373182876546029885e-01 -5.330127507870824344e-01 -4.207857561150717962e-01
-3.686613757463482743e-01 -6.972946320969316547e-01 -2.431560084380404163e-01
-3.426812432382331797e-01 -6.908051939154666865e-01 -1.717645775751711901e-01
1.077515965309230467e-01 -5.640689292589657899e-01 3.484188726885180110e-01
2.816965120515297349e-01 -8.657581066518011959e-01 -3.132668890501185133e-01
-7.049900654744477579e-01 4.964418770266723624e-01 4.759343781388481465e-01
-6.576694233195561345e-01 -1.277972592875668001e-01 -1.394643791666922567e-02
-5.419458639665570843e-01 -4.223517991640253766e-01 -3.366534034978829748e-02
-6.452776077219164463e-01 -1.801860561894907953e-01 -6.864249031427889502e-02
6.632277967011281916e-01 -3.711956716881723572e-01 -1.928831921838086993e-01
5.852203835543924315e-01 2.024794777849997854e-02 5.120223181840363180e-01
-7.086144027727714345e-01 4.997787175445363994e-01 4.929730132788675001e-01
6.752690456641581296e-01 -5.454561323508060333e-01 -4.358320528879678912e-01
4.674919881387128995e-01 6.269124143195141663e-01 3.648489593510870210e-01
-4.904156497504389978e-01 -3.468369433579269190e-01 3.884928999090124235e-01
5.767510849777821580e-01 3.832692253473952704e-01 1.587602757886408811e-01
3.778041424395805481e-01 -1.473210457593528699e-01 8.171080356409899936e-01
-3.228711326710180241e-01 4.944021733847491218e-01 -3.135961405129869539e-01
-5.399572333088865639e-01 2.588626194739341302e-01 -3.168179108046701997e-01
6.050845516877983998e-01 -3.574212775883134907e-01 9.513154363622227175e-03
-7.043243581130147479e-01 6.840909871163171341e-02 6.643330445102495485e-01
-5.477899741931790967e-01 6.907742109395347274e-01 3.367206716110998643e-01
6.430037274974726991e-01 -6.447194030317416891e-01 -4.745945815960916914e-01
5.056451086468914946e-01 5.476692404811327464e-01 2.887003214221912084e-01
-2.637874716364862482e-01 1.799655298977009266e-01 -9.250272311495540967e-01
-7.117731847906751952e-01 8.105207549259550726e-02 5.984924228028342119e-01
6.519241232231709482e-01 1.418093857174985983e-01 -1.106115335582208703e-01
-6.509573893475472106e-01 -2.125597934172701944e-02 7.489735223709043099e-01
1.968329588659075424e-01 4.913316136227797726e-01 -4.599973208741139907e-01
6.727696559962936806e-02 9.021498415889035449e-01 3.583778360854028011e-01
-5.553655168034512535e-01 -1.984363651532696782e-01 6.077364406445345812e-01
-5.490691365449926753e-01 -5.116324689989013574e-01 -4.398096453869351774e-01
6.307432546919014560e-02 -2.729019042620557944e-01 9.252888417377748143e-01
4.383134839470829713e-01 5.526129594552086077e-01 4.596521549378908278e-02
2.875325785873615939e-02 -3.052371498226851831e-01 8.771308262907876463e-01
6.094944618271368464e-01 1.588869962904269628e-01 -4.806835175284763784e-01
-1.632356715209049847e-01 -2.686287975227347191e-01 9.596436308555968964e-01
7.720063848976105314e-02 6.343987776716166760e-01 -2.092592507585437078e-01
-4.366431014099294017e-01 2.189554309453274894e-01 -5.990012992851067031e-01
4.299125678144923302e-01 5.146239463416768523e-01 -7.999752124430119238e-02
-5.834471860086498651e-01 -2.917671828276364177e-01 -7.170416421200198620e-01
7.180096160635511815e-01 -1.716931281121089059e-01 -3.653126815914701231e-01
-2.085309875289455828e-01 -7.281560227286912879e-01 -7.077984291186392718e-02
2.573926426164596486e-03 5.807124192762274095e-01 -3.313021028479273822e-01
4.782924105732867526e-01 -1.586314252036094830e-01 6.032472060989403362e-01
4.546465395561296030e-01 -4.099976082252838050e-01 2.695553182675100579e-01
4.632593395976659090e-01 -5.198273824575249114e-01 8.063446259703309360e-02
-1.620312441036619866e-01 -3.236386527648735245e-01 8.444180433230371596e-01
-6.522485298274981469e-01 -1.468406498255304671e-01 -6.775581385625664699e-02
-5.013435079277718254e-01 2.170807802015652099e-01 -4.675930967457283538e-01
6.557411804583282988e-01 8.281438426667343811e-02 -4.361994270806551222e-01
-4.189374456217183074e-01 -5.387349152551945686e-01 5.630693145387782872e-02
-2.955920390871085712e-01 -5.859188952487354163e-01 1.596932802250072558e-01
5.241337978024913635e-01 -1.815954411607319588e-02 6.772052657011350396e-01
6.580685935532323283e-01 5.956330534283530570e-02 1.047766520093406373e-01
1.842014794932131660e-01 -4.494052098461574496e-01 5.232232033216169809e-01
5.612841831720168928e-01 -5.297091588817708363e-01 -1.200255612802034189e-01
-6.076051847782321103e-01 -3.136783938778270331e-01 -4.429071407691911322e-01
1.657926203591252035e-01 -5.245192922291358473e-01 3.955448685836294720e-01
-6.079311525679255146e-01 -2.514541221435670493e-01 1.684290648749017794e-01
-6.087027705164109737e-01 2.296905952693495123e-01 -1.593329313312666362e-01
-5.445628687313054384e-01 3.698993962477396535e-01 -1.494953521439919275e-01
6.207115889665134612e-01 -2.762122763854203342e-02 3.149502379077517289e-01
-3.269970046019143317e-01 -5.783872756976924379e-01 1.332458990161504431e-01
3.527252969465085597e-01 4.460729961331698079e-01 -4.035235208720802658e-01
-5.800485836474352785e-01 -1.470309387043605420e-01 -6.557003261789410287e-01
5.667213314684617087e-01 -4.162664428631742686e-01 3.067342704245194090e-02
-6.254505445306074440e-01 -1.590408290961925486e-01 4.046424931744522779e-01
-5.920841525734067412e-01 -3.825958567326927517e-01 -5.201093551240231205e-01
4.904890446468846976e-01 -3.571803087821704970e-01 2.839857590126326770e-01
4.501349525389075068e-01 6.940080330117679441e-01 5.007344218532924218e-01
-6.611941475283859004e-01 -1.197580091306769678e-01 1.147459375696341377e-01
-6.797994228663502003e-01 -2.726164305448238942e-02 4.670838134544696429e-01
3.616743284316813467e-01 -5.186225244013229485e-01 2.287835874207921061e-01
4.987703430587642206e-01 -7.389506816085982255e-01 -3.293708206057537891e-01
3.379325135402667657e-01 7.325318002738404610e-01 2.803624764179418194e-01
-6.570513462908499358e-01 -8.850933497862530086e-02 -1.193529218002787051e-01
-5.743959897992174657e-01 -1.454551945996813977e-02 -5.536683585838626520e-01
-5.215736052851072113e-01 -1.309238549906449889e-01 -8.697146520145503379e-01
-1.038211753593281939e-01 8.153027807160582174e-01 1.475222937823649216e-01
6.145900445129232059e-01 -6.469993552684135674e-01 -4.090178400501702227e-01
4.028413352007204074e-01 3.881421533434672444e-01 -4.635338467408576801e-01
-6.905818340705145442e-01 2.569780645012361697e-01 1.921055535522548374e-01
3.983988497942692747e-02 6.731336184236557107e-01 -1.378531695481043096e-01
5.699723903250732970e-01 -6.211403120771563646e-01 -2.736569336434916400e-01
1.501704955841068334e-01 3.927010855622991570e-01 -6.954718865245842485e-01
1.224146318228006569e-01 -7.083266304662220181e-01 6.392146314442528898e-02
7.123409638335781446e-01 -1.082845028235222828e-01 -7.273507994455398196e-01
-9.143410673457759430e-03 -8.726276442075623363e-01 -2.645676409719538436e-01
6.288139220644353156e-01 -1.832564639855869537e-01 1.352632384080370009e-01
-6.095188097570662933e-01 -1.513823454591384787e-01 5.284956514512139103e-01
6.831745001944772300e-02 8.173530388588379214e-01 1.761075043851794419e-01
5.282598112214089703e-01 2.299767042743703083e-01 -5.885606228881273827e-01
-4.166380685484558088e-01 3.732948361614042976e-01 -3.905112381839768720e-01
5.836147931194762828e-01 3.253937079747259431e-01 6.978372850890067758e-01
-5.977932097760535468e-01 -1.352718585158010356e-01 6.363475360418044957e-01
-7.040898306535638973e-01 2.227319931057190616e-01 2.443735453535725577e-01
4.723053097030175396e-01 -4.637973883263199482e-01 1.539857438158158676e-01
2.764974206005887947e-01 4.943579165045995927e-01 -3.860363596970423083e-01
-4.799195288035160156e-01 -5.844024143842784236e-01 -2.660508761681543710e-01
3.658802657022813820e-02 7.205645022504896247e-01 -3.973601521921833746e-02
-6.753602958281696989e-01 4.304561627234625987e-01 2.971567626154982267e-01
-3.061781520904057752e-01 -4.485277180946265485e-01 4.685985689112509567e-01
6.468704236840436828e-01 -2.594960919707806624e-01 -1.285961209879776454e-02
3.198708097462169553e-01 4.632805690795256393e-01 -4.078375287343852795e-01
6.350495400133807644e-01 -2.992551886400721117e-01 -1.355003498964848715e-02
3.839751894382538722e-01 7.856266220922876187e-01 5.352618501467590884e-01
5.968117169573636804e-01 1.804149968545976368e-01 -4.750040560911754639e-01
-5.397954101644495406e-01 -1.267079584509158141e-01 8.548608755374390578e-01
3.968738502490387066e-01 4.346735487618205718e-01 -3.582298613124452746e-01
-6.464032472314776845e-01 -1.717479938334436351e-01 8.674591218491575773e-02
6.046048638919665486e-01 1.885630130930584236e-01 5.316732284526825003e-01
-6.037795456917468551e-01 4.055889122605640246e-02 -3.833965982071816936e-01
4.110743577298393014e-01 6.744135465730709544e-01 3.050548655138106136e-01
-4.856540457148053602e-01 -5.006748542233807608e-01 -3.412012195194515096e-02
6.125956139689017199e-01 2.802556734281010931e-01 3.948970282087646555e-01
-6.391897189399006196e-01 -1.005400272704697479e-01 -2.825095460613298859e-01
9.458856072888439936e-02 -8.041708298488966511e-01 -1.184263398564317366e-01
-5.371599732435432262e-02 -8.146891341313654555e-01 -1.569402048445297515e-01
6.201559494566079023e-01 5.295962972423516602e-02 -7.791060915091466699e-01
5.465209401087496310e-01 5.442405534074464812e-01 6.561980550055751538e-01
-7.358128392473443913e-02 2.954582825950778369e-01 -8.727408602024827600e-01
5.073484444677811567e-02 -3.029270359200512686e-01 8.733342949765987573e-01
-6.820506435100871512e-01 1.641966662395060728e-01 8.546163101638222515e-02
6.952898352173063172e-03 7.534661918046278162e-01 2.262969659107848946e-02
-5.802219322285557396e-02 4.519029878107300169e-01 -5.776984424505853255e-01
-5.792284970582664005e-01 1.880823093387288397e-02 -5.000824477538927670e-01
-2.723897968297650518e-01 5.220368345456068981e-01 -3.161000724624303815e-01
-2.711371058695676850e-01 2.770653141414480269e-01 -7.489093320481465810e-01
5.686714640057530801e-01 4.632795010353132903e-01 6.717586710692592389e-01
-5.717986392648042315e-01 -4.585807180043152687e-01 -4.805739581555970585e-01
6.645607669367076253e-01 6.309292625637791252e-02 -4.321243278124011211e-01
-3.889983206129571935e-01 -6.663269738578045942e-01 -2.096055367217861676e-01
-3.772486125206012120e-01 3.265987979111222850e-01 -5.271884439905066833e-01
7.643327381182365987e-02 -6.161359682632711054e-01 2.567357815610044613e-01
-5.232069495668991710e-01 -6.053074950678298816e-01 -6.115641923801103941e-01
3.929225208003111480e-01 4.634567149983360723e-01 -2.933970294334045104e-01
5.001063008807270505e-01 5.370883382425680752e-01 2.254558824690822694e-01
2.817824161510772973e-01 6.824320123032945329e-01 6.108799854755783687e-02
5.291682036308974491e-01 -7.055419168173227007e-02 5.956888983741264187e-01
-6.506211279231408628e-01 -1.558776787662939090e-01 -6.359968462173623549e-02
6.025920074751665023e-01 3.349936578013508193e-01 3.465834956415639878e-01
6.239281104542502288e-01 -6.172848740768290821e-01 -3.892368346842032256e-01
1.257695394011885681e-01 5.462580825763282411e-01 -3.785871575057103144e-01
5.540814487424158830e-02 -4.244727653154663494e-01 6.369617634232340730e-01
-5.304381228146785032e-01 -3.173108144608056680e-01 3.467802516571506510e-01
1.870733344841159773e-01 8.197958816391166526e-01 2.677698042843648096e-01
-4.761752401784351552e-01 -3.587087270190121857e-01 3.943485993819973445e-01
-2.810513431763075887e-01 -4.912588976314266609e-01 3.975580763960982478e-01
3.066186812107329351e-01 5.476158832408826171e-01 -2.257981472031012071e-01
-6.830738632537383115e-01 2.889670518773159169e-01 1.833993318695837926e-01
-4.141987453428231380e-01 -6.612535022426786480e-01 -2.628281204507175173e-01
3.187495586330920117e-01 6.293432714153246454e-01 -1.160468409605770398e-02
4.432166032247511489e-01 -5.237355412673958543e-01 1.065027536856408691e-01
-5.631744025856724178e-01 6.461472918900981188e-01 2.975174084191259394e-01
-6.489353090694174320e-01 -2.905676022410957904e-02 7.332009167201002375e-01
-6.035669821559402903e-01 1.884130705993491972e-01 -2.246597418101231869e-01
3.247060080091940248e-02 -7.319661253391767097e-01 3.092516352266557952e-02
3.773422123104652748e-01 3.615902700278658677e-01 -5.705277804798053465e-01
-4.238387890983451034e-01 -6.489579208800628773e-01 -2.569444509908100360e-01
5.356107491937946996e-01 5.507985421293486450e-01 5.213447366331076527e-01
-4.173274960078359186e-01 7.411418603440979025e-01 2.220804049664360236e-01
-3.591380117179515108e-01 1.564294576451659979e-01 -8.321503394898315253e-01
-1.420754787739509084e-01 7.168493125242971775e-01 -3.583004756764007759e-02
-4.789447066383527574e-01 3.789629800738300025e-01 -2.730731317781417977e-01
6.315091001927243264e-01 1.067368474941208512e-01 3.248122022681476095e-01
-3.359652509150574118e-01 2.950702644671675534e-01 -6.379612457668787373e-01
-1.611860538599400317e-01 2.649572586959954568e-01 -8.747927585832309116e-01
2.780782129181783024e-01 7.144168977910613227e-01 1.324012787889529974e-01
3.160855093978769959e-01 4.104561822873942778e-01 -5.361488808710317411e-01
5.554662199817229640e-01 4.130267257737234576e-01 1.066406297411926218e-01
-4.826180192463386809e-01 -5.016855692986506021e-01 -2.620630290709496935e-02
3.773804171883348713e-01 4.341397638783998647e-01 -3.937735265050961164e-01
-5.951398460906677235e-01 -3.227567344737981014e-01 -2.761693525547239542e-02
6.925885488517062871e-01 -1.427463029428591330e-02 -4.085294574092434572e-01
2.993780963911042425e-01 -4.726268979989596275e-01 3.799344094091992030e-01
-6.148227592723231050e-01 -2.407339357484735709e-01 -4.594962111824183459e-01
-5.241244921256021927e-01 -5.611962700428966277e-01 -4.294923720636564246e-01
5.220819707491000106e-01 3.614874415297260057e-01 -2.291432969590185831e-01
-5.664867754206064782e-02 -7.866282657949035251e-01 -9.845821932551125644e-02
5.854276790741238523e-01 3.290301229279559148e-01 6.800391625703087195e-01
5.523538099226420472e-01 1.773106131430631505e-01 -6.626357184906664921e-01
-6.055493868311135897e-01 -8.854820070257660158e-02 -4.863487466808374959e-01
-6.808822762314754584e-01 1.843613752449218060e-02 5.578186478179333191e-02
6.013567900374174879e-01 -4.230314004223140883e-02 3.854409484400116437e-01
-3.331534605308902330e-01 -8.309438688398032014e-01 -5.117481357347185567e-01
-4.627337542597091957e-01 -4.428620583485284867e-01 2.018125205499078645e-01
-5.613072469822866228e-01 -2.365831965030888717e-01 4.731976092512319987e-01
-1.958047503117421040e-01 7.124740529699409297e-01 -2.069556671516325705e-02
5.971698696165470555e-01 -6.071365959658149292e-01 -3.119783493984351064e-01
5.736878642127437589e-01 2.822585922439534434e-01 7.653453883705020333e-01
5.923968046585628144e-01 -5.105333229622796010e-01 -1.634382738190146289e-01
-4.855880491485558420e-02 -2.684155884348384813e-01 9.675920879293578025e-01
-5.053280351217122046e-01 5.903617082164037688e-01 1.037509064778794760e-01
-1.708858731337128678e-01 4.813739848660799625e-01 -4.688251943804642163e-01
-1.367406423500560630e-01 3.813661428725571012e-01 -6.765485851442258891e-01
5.268239165276938918e-02 8.237725206435904113e-01 1.830917236994822062e-01
2.291305622789773788e-01 -3.669843668099887490e-01 6.364415953306500340e-01
-4.742126515149048260e-01 2.731376792208047299e-01 -4.432527452788135314e-01
-5.853547383843181739e-01 -3.042705322924999511e-01 -7.043323305429050052e-01
-4.293894728639043729e-02 6.869922481565297057e-01 -1.153992064356387792e-01
7.136271575393225985e-01 -1.976576868178523128e-01 -3.182049773354976296e-01
6.087511998011113645e-01 9.196390940129711700e-02 -7.059959995379015973e-01
-5.995307921071149071e-01 -1.888498248692523085e-01 -5.781410543218292730e-01
-6.355123816714802754e-01 -2.063676233440285834e-01 -2.219264412538037856e-01
-2.945622836362846164e-01 3.585940065559954371e-01 -5.810794226102024007e-01
-6.895755471832399897e-01 1.991105682009429445e-01 1.477927648789703896e-01
-5.493277332924587641e-01 5.390816517002559038e-01 1.084736718023199403e-01
7.174038435809346748e-01 -2.081806481021259703e-01 -3.479897318332357825e-01
-6.760614318710600479e-01 5.591491497251673826e-01 4.519724151507362175e-01
-5.435672141181694395e-01 -2.757325678798542845e-01 4.224748075275089332e-01
-5.045992788504951587e-01 -1.874269173742162259e-02 -7.831920298014771742e-01
-5.766645222228280465e-01 4.032988275377247800e-01 -2.577508358448567238e-02
-1.274204490794023648e-01 -2.585228117461310093e-01 9.876769767617281648e-01
2.171082694391131551e-01 7.330111212550909361e-01 9.991395429347740831e-02
-4.962260693780753407e-01 4.851078430164678101e-01 -7.699156664865863808e-02
-6.137098219309530256e-01 -2.702184649822365614e-01 2.235359896834208243e-02
5.725938085522673804e-01 -4.633598383125251408e-01 -4.976358342693421727e-02
-6.205439844005394834e-01 -1.019811714346972181e-01 6.375968426060049099e-01
7.127014654237153746e-01 -9.090037788294458299e-02 -5.234146923190052814e-01
5.035543134267176368e-01 -1.500430912292948504e-01 5.563225859083072988e-01
-2.828728716962339296e-01 5.291309329817619478e-01 -2.936583653511792291e-01
-1.439423094681365201e-01 -4.442689385653643686e-01 5.955821385833178772e-01
4.592437121415174350e-01 6.312911997965013899e-01 3.442194357016125084e-01
-1.153343081545137733e-01 -5.865454302731076819e-01 3.042297770199976492e-01
-3.699808137798329399e-01 9.162770305366743639e-02 -9.177566573784140536e-01
6.625706628888543559e-01 8.045263202988617302e-02 -3.611348800926901248e-01
9.696022414419057378e-02 -7.792037658107586751e-01 -6.921659984973217716e-02
5.926228622189685380e-01 3.483730650151784652e-02 4.949879455823326668e-01
-6.561541518479410695e-02 2.831841544098419594e-01 -8.998611758624764922e-01
6.308170657430802741e-01 1.903264751774117747e-01 -1.852083969553239284e-01
-6.837652790638133471e-01 -3.259750297508860056e-02 2.759265101388823083e-01
6.840102762236358602e-01 -4.798961908378007180e-01 -3.873028144075113532e-01
4.832235118951174191e-01 4.365017805621709268e-01 -1.443465411777584972e-01
5.214822176051154834e-01 4.589463470746193430e-01 7.280587347650219199e-02
4.207064802556911842e-01 -6.197399439792089515e-02 8.688304508975573937e-01
1.585845102530624162e-01 5.959171755186079000e-01 -2.550914080995270172e-01
7.015109553828278166e-01 -3.303077010480826581e-01 -3.102403488356365036e-01
1.731879061011098453e-01 -8.657771513058105661e-01 -2.583147376001666551e-01
-1.247103315478509528e-01 5.441008610138295953e-01 -3.750267669513759894e-01
4.217790646353994366e-01 -1.278830835088959339e-01 7.671606544061855271e-01
4.330790656561849805e-01 -4.653723273362048163e-01 2.169719683483462003e-01
-6.418419444131411300e-01 -1.916571036900087122e-01 -1.174254451317791326e-01
6.594200103724952022e-01 1.136092519674846840e-01 -5.498193543808405775e-02
-2.284629963423078780e-01 6.204127611279569576e-01 -1.727893269864783365e-01
1.060566590225226896e-01 -3.573063299652001201e-01 7.436029049623535947e-01
-5.540687969037455529e-01 3.848953336568273209e-01 -1.060367530531542840e-01
-2.271353499167763634e-02 8.104195449222058034e-01 1.359342497657782534e-01
6.981542495906448709e-01 -5.022306873420639278e-02 -5.946992111277470405e-01
2.437597278633813758e-01 -1.796667163984277671e-01 9.513837278631289696e-01
-1.377193194527999154e-01 -2.745612158124897118e-01 9.529616282719139964e-01
-5.555831132285473650e-01 -5.077983251888880112e-01 -5.067648821822362537e-01
-5.246324766530180428e-01 2.681967433245341925e-01 -3.407361640743079012e-01
-4.946438239496893097e-01 -6.495043077622080219e-01 -5.616764984383230130e-01
-7.121238940204297485e-01 1.001630075666779252e-01 3.490545600421875450e-01
-1.515611001239009770e-01 5.959685235820503246e-01 -2.637932359405248395e-01
-4.261733828174654182e-01 -5.140148703295833732e-01 1.043446016820879924e-01
-1.039786521859149410e-01 4.192826479053571309e-01 -6.226500969927343254e-01
3.025407493493659783e-01 3.285843971113296402e-01 -7.388421428386450218e-01
1.299584378954850988e-02 -6.833028927656826790e-01 1.294279766604349013e-01
-5.502454541897896373e-02 -2.875572751144194195e-01 9.300440351570949948e-01
-2.992398121781035814e-01 -2.907024324538149407e-01 8.364145088650010162e-01
1.408265690957738736e-01 -6.225329882514898383e-01 2.226890825111103034e-01
-1.330203732560399088e-01 -4.491009121412239957e-01 5.891410470151317025e-01
4.253618251452125354e-01 4.807882519612132755e-01 -1.808504758652661748e-01
-2.582544070163281247e-02 -5.392158985117435632e-01 4.212952919920627259e-01
3.932452628850151566e-01 6.036052371634559321e-01 6.711932388268117278e-02
6.780297176230215550e-01 1.252341649024311943e-02 -8.428998982953520014e-02
-6.832578122448343949e-01 -1.927888631265023064e-02 4.583746534991665622e-01
-8.605668101943939052e-02 -7.625840090205633359e-01 -5.937041692722717923e-02
4.658568452667028459e-01 3.767518516496006220e-01 -3.585566233568155403e-01
-5.219530447820670549e-01 -3.655690740534067174e-01 2.345875579018156798e-01
-6.294165880797550905e-01 -1.675988379753659552e-01 3.399289460628879822e-01
7.160801109145500387e-01 -1.767234888022299055e-01 -3.436085347996734041e-01
-7.026207220737414882e-01 2.757543562690213945e-01 2.666033105591488206e-01
1.085015621103932459e-01 -8.030915566034438902e-01 -1.185667805994027879e-01
2.347269637518502872e-01 -6.286860688884572390e-01 1.570369179900795997e-01
-2.752025708307845320e-01 -6.329311220954663142e-01 7.499593429289987123e-02
-5.331170330004426638e-01 9.818826806628365780e-03 -6.637311466588315945e-01
-6.317176331437894810e-01 2.831463881662519833e-01 -2.040304993296223127e-02
6.667068336937792550e-01 2.614170312685192704e-02 -5.878718821870941857e-01
-2.342082818875388175e-02 8.084417306373216094e-01 1.317921640560240637e-01
-1.094069624398351370e-01 8.683211322495660855e-01 2.538044266464600796e-01
-1.498869464961144482e-01 -6.543574607574351720e-01 1.406762761916976467e-01
-3.716443121598019261e-01 -6.839597340261994729e-01 -2.150828351033426955e-01
-3.535644334361885410e-01 -4.708316109962959461e-01 3.530336208445248314e-01
-2.210548580670060048e-01 -7.260145511990664380e-01 -7.877852395971263189e-02
6.081248242659278436e-01 2.936271479283871777e-01 4.410257535301050358e-01
5.462591684164243011e-01 1.953935664862331001e-01 8.408791449526578088e-01
2.763984133246539798e-01 -1.925928100162497547e-01 8.905152308734266553e-01
5.868070062994618086e-01 2.832257221940820413e-01 6.753872030120241510e-01
-3.609889025549871677e-01 -3.924224348067628654e-01 5.307475155263479127e-01
-5.911825462649274859e-02 8.935530561528830518e-01 3.030533960883736166e-01
3.117273390281309342e-01 7.469757675616101045e-01 2.664151341456815203e-01
5.635189183651981848e-01 -5.384200502419052015e-01 -1.376357000810471964e-01
4.214152339945295700e-01 -3.288855817511479596e-01 4.549139455655879516e-01
-4.935624101095401617e-01 -5.853609220048615613e-01 -3.315679184469533802e-01
-5.553503874720508993e-01 -5.173665386866534988e-01 -5.685346927780930981e-01
4.119354487582638225e-01 -5.195393025937622422e-01 1.601434681347768951e-01
-4.291170288604952976e-01 -5.717573487325500192e-01 -5.852213748042132957e-02
-6.369717117759724490e-01 1.783046869180563154e-01 -1.140287124063626423e-01
-7.157368014989130556e-01 2.660076774705834035e-01 3.348318944091330240e-01
9.222192774438929541e-02 -5.472698571401404255e-01 3.864857070508925796e-01
1.628195467834544774e-01 -6.498218169334595284e-01 1.605845910416670852e-01
4.291704546380055163e-01 6.983204014900646905e-01 4.319740277030377773e-01
-2.443476190711134019e-02 4.576152772871115437e-01 -5.748610329660747142e-01
-5.777744251457328506e-01 -4.247654719895942454e-01 -3.510097104120858402e-01
5.256472388512584137e-01 2.517946140127119703e-01 -5.351925659301988158e-01
3.752395238401838307e-01 5.853386152071203830e-01 -1.936567749264530777e-02
6.112329546200550023e-01 2.846484647524991640e-01 7.725330645878544789e-02
1.078581118545286072e-01 8.675644273492376657e-01 3.077458647842585271e-01
-7.226909641437542220e-01 1.281761861580898165e-01 4.719069832154785260e-01
6.099262907492105645e-01 -5.943067877975026503e-02 3.338316615208912208e-01
-4.705766740760431999e-01 4.863839105695532683e-01 -1.205203685606615477e-01
-1.306695402119789906e-01 6.450812283653667434e-01 -1.786269366088828747e-01
-6.060946791765032815e-01 -3.125832625404552645e-01 -4.755070109980297222e-01
5.099291095384875794e-01 2.280702419416572035e-01 -6.452245185720569820e-01
1.641454678868587980e-01 -5.201420160599951048e-01 4.047160024115738497e-01
4.361931312963117646e-01 6.177027001598232037e-01 2.221677379065905844e-01
-4.195913801556237499e-01 -6.047705045253224387e-01 -1.227187930107539182e-01
1.119397052854036352e-02 -6.445122307230399805e-01 2.080980325128012898e-01
5.362985920219933700e-01 -1.034445902516154415e-03 6.615622404638182852e-01
5.784501292256263305e-01 -5.383302706873646648e-02 4.597859959733409108e-01
6.124712076226311586e-02 5.078339500712969468e-01 -4.763754721038449547e-01
-6.680756514067114349e-01 3.728090215361697379e-01 2.073812298789508568e-01
5.523979349616259249e-01 5.027076580898771629e-01 4.790927703375310043e-01
-3.452850343531415622e-01 -5.230612618064420793e-01 2.391775137300722609e-01
-4.486490702096426753e-01 -6.461341297866232125e-01 -3.310000500761982045e-01
-6.350657038998397397e-01 -2.201087290197152602e-01 -6.663400701332536369e-02
2.360540224983760371e-01 -3.034544891155749324e-01 7.428105823059563129e-01
-5.400454609293664499e-01 -5.214400939744175123e-02 -7.164420531729626118e-01
4.487420172678367458e-01 4.306337761176257661e-01 -2.573922256082093463e-01
5.674187778997349385e-01 4.708140187308874625e-01 5.981486158049241775e-01
5.729309673809577230e-01 -3.898025574695194312e-02 4.957963988101533603e-01
-4.136136676976094328e-01 -2.085755025576208899e-01 8.958800972846043820e-01
-6.023086857330278709e-01 4.003722410704706469e-01 3.659451819128127503e-02
-6.174353909659600070e-01 2.793407379544303182e-01 -7.203834488819826909e-02
-1.323765583871887221e-03 8.754392639603735260e-01 2.745498396546792730e-01
5.740005199066038344e-01 4.158029587660450610e-01 7.293399265974389589e-01
-5.203003168387630994e-01 3.502135885645545899e-01 -2.322977022316137508e-01
6.061936664296502242e-01 -1.341383808774156972e-01 2.719744122615742055e-01
7.183144414289682755e-01 -4.280789568052072447e-01 -4.692530402751686758e-01
-4.904074714800727430e-01 -4.415709985474257637e-01 1.222081063021667052e-01
2.200635365997348492e-01 -7.651701450841240648e-01 -8.741388664454985413e-02
3.831301916265554830e-01 -8.219560589844134846e-01 -3.208852510491249643e-01
4.669735446874082596e-01 6.474927515305540782e-01 4.277461799363923012e-01
1.445347577314484988e-01 -8.133106229631548167e-01 -1.472628633664308240e-01
-8.159350869382235583e-02 -5.396741477416824306e-01 4.133609031807519152e-01
-5.456442058935133677e-01 -7.728346286609363500e-03 -6.457860410821849584e-01
-6.282189645358615682e-01 -2.473820403819133873e-01 -1.487321319122102969e-01
1.863166032184984319e-02 9.352022654864395879e-01 4.067805024270460534e-01
-3.861166540159592375e-01 5.083341731059578539e-01 -2.125868726562857025e-01
4.771602528237768315e-01 -2.153795537229896695e-01 5.229308805993152509e-01
-5.502163077736390573e-01 -1.573938660889782348e-01 -7.939906385690380652e-01
-7.381474057673269584e-01 1.782954060443203703e-01 6.735144452624109990e-01
2.017902072943854597e-01 8.100297337426189959e-01 2.609263757900061043e-01
-7.303201117367063011e-01 1.864626969462318817e-01 4.643302837915004866e-01
-2.189001696547893030e-03 3.636535149312134507e-01 -7.648169382363638746e-01
-6.836856217685812753e-01 -2.984228513574817623e-02 2.107966596860615938e-01
5.033430762111367196e-01 -3.655062702524735641e-01 2.453515562756580781e-01
1.529522279027094034e-01 -2.660729275387300752e-01 8.828204393814496065e-01
5.405760532659309447e-01 4.324064634403669838e-01 8.366616181767823346e-02
-5.536136293857457646e-01 -1.999605411505946950e-01 6.092180592468864342e-01
-5.639968412864134750e-01 -4.134297713376434147e-01 -1.430251470609924247e-01
6.124211457818453663e-01 1.581430124513280855e-01 4.703756424075209996e-01
-5.938392140372854566e-01 -2.961699793652419754e-01 9.824629593072910227e-02
2.877605405004739492e-01 8.181296013240532128e-01 4.006531375560677954e-01
-6.772590003853139473e-01 -4.319608927794560405e-02 4.063031771643983991e-01
5.671918201021820538e-01 4.419221281205245599e-01 3.429891508000564304e-01
7.377865783011655632e-02 -3.091440535833487879e-01 8.512318214730928423e-01
6.074888532776542283e-01 2.680322502297987630e-01 4.909470839348494264e-01
4.017276876700696664e-01 -4.027961285423657389e-01 3.672239557135845156e-01
8.465195364618768870e-02 2.683115688309524738e-01 -9.642024992651033743e-01
6.658825404408854620e-01 4.344495025129779808e-02 -5.163571850748004399e-01
-7.021027587098565004e-01 7.690877281014800448e-02 7.423349899705985466e-01
5.900818272399526495e-04 8.394280307704848898e-01 1.998521672658247206e-01
-4.249804762609032394e-01 4.929375641667990138e-01 -1.831442826081434438e-01
-2.897913488705879392e-01 -5.623705214187753043e-01 2.224793178436522967e-01
-5.380840576071632686e-01 -1.262257675608169094e-01 8.606594667359314110e-01
6.340066689856043158e-01 -6.746818180869433579e-02 2.201167662076027043e-01
9.908775871077123154e-02 8.195953580084118784e-01 1.970722274753057834e-01
-6.926974551641823519e-01 3.148982057146058108e-03 3.924275923907389885e-01
-6.023182047782060788e-01 -2.642856947403166568e-01 -5.687456173718297148e-01
-7.332364410114917685e-01 1.598942850382394920e-01 6.229116461695902718e-01
5.375979546113802687e-01 5.685691447885352634e-01 6.482618125962207323e-01
3.074912365760708033e-01 -1.287466975396402424e-01 9.567214563081836154e-01
-6.586587962196724932e-01 5.732081794029886268e-02 -1.066527049584136966e-01
6.619314995459865125e-01 5.851976198370914539e-02 6.327367566780742192e-02
6.595963461520831794e-01 9.847906078395758656e-02 -2.955923060183610618e-01
6.281108136704028899e-01 -3.896223657784929073e-01 -9.904066333703177849e-02
-5.158433746469061054e-01 -3.255664475689377668e-01 3.721097620041569631e-01
-5.601576622272368411e-01 -3.186790207315976561e-03 -5.920618908919027534e-01
-6.097912303333159062e-02 -8.548836941668420675e-01 -2.458049910108790204e-01
1.639335884006095645e-01 7.775009499966543114e-01 1.502973008196775428e-01
-4.226601950905202187e-01 -6.943757852491855287e-01 -3.820835863164068202e-01
-6.166850262284561124e-01 -1.054215592771953341e-01 -4.357623739177395317e-01
-6.171128770033067479e-01 -8.304688667575631233e-02 -4.211361253160162965e-01
-5.360088335557315897e-01 -5.520695939037496558e-01 -4.937491166656242658e-01
2.890581147894839553e-01 5.297575474146658525e-01 -2.899629535501622724e-01
3.023073383169042616e-01 -2.195352831703439034e-01 8.118384931373359148e-01
5.595619044903886730e-01 2.707748958267315875e-01 -3.566754619619645350e-01
6.433976602237952980e-01 1.018442198797401416e-01 -4.673253366503926642e-01
-4.541939504942802408e-01 6.521353286430294771e-01 1.217308051213288889e-01
6.097748485859421086e-01 2.913461033870012873e-01 9.592460897855181745e-02
-4.801621850422271853e-01 -6.270070036822240622e-01 -4.030719146114840057e-01
-5.739543853102114790e-01 3.608873257528767975e-01 -9.097397116725239319e-02
-3.612770163670880885e-01 3.660100809838279234e-01 -4.847369702766404220e-01
6.814556719417724784e-01 -2.346641082267731521e-02 -8.386683097225321182e-02
6.778831046636230387e-04 6.207466098769012230e-01 -2.500997637381853766e-01
-6.573904074914073137e-01 -5.362779362048962495e-02 5.829548347871981173e-01
5.892893068434014170e-01 3.146766715963706385e-01 6.495308884213036871e-01
-4.806993184678262643e-01 -5.667030454287077523e-01 -2.144446931048939187e-01
-6.475108792388933887e-01 -1.716914437281152339e-01 -4.878368266090468003e-02
-6.543716437753448467e-01 -1.343312382484542489e-01 2.076141298184391859e-01
-6.233480846892068827e-01 2.963834320518965448e-01 -3.265729071248673482e-02
6.134335612509551616e-01 2.920214317346223609e-01 2.144451620200305275e-01
4.037235422026517750e-01 6.529110085426245158e-01 2.251347530778733397e-01
3.349173968402344714e-01 -4.206427487180177116e-01 4.290476231626357828e-01
5.461935917105839033e-01 -5.778319170975622192e-03 6.243164838359288593e-01
-4.450281796813172486e-01 5.632835195860533828e-01 -3.782638534506726352e-02
1.268643950823830080e-01 -5.549335472953562665e-01 3.580977244476463150e-01
-6.999649980959010698e-01 1.534727166781091889e-01 1.950866935100432631e-01
-1.026850197485511818e-01 -4.098382821142433907e-01 6.789117193292180108e-01
5.003621903253127057e-01 5.697663368236883796e-01 3.357710321423951205e-01
-8.135653824178884497e-02 7.262676456522428881e-01 -3.277118671397181993e-02
5.875797065686548803e-01 3.623093224683761604e-01 1.790656170977789896e-01
5.835861332222794795e-01 2.807585619723521608e-01 -2.009024141900956073e-01
4.771630546092962000e-01 4.546169342768714983e-01 -1.120115436647926288e-01
-3.445960678462545168e-01 6.938874548818300125e-01 5.885187066103338832e-02
-6.419566065503213848e-01 -4.958681231171330889e-02 -2.546962118208505599e-01
-5.528740374052825146e-01 4.218281037559731272e-01 -5.598202364383160490e-02
4.670069636212508812e-01 2.559652484988204080e-01 -6.729213855022507795e-01
-5.846558471609482055e-01 -1.699879624850975379e-01 -6.505148668069823392e-01
-4.960943084903080558e-01 -4.926289816149584944e-01 -4.937240209516530892e-02
-5.693642770386483365e-01 -3.000845239521489627e-01 2.360663805828635553e-01
4.802450675221630605e-01 -2.553743406003127214e-01 4.572833116576945356e-01
-4.775946389782045887e-01 6.213669971311158724e-01 1.070020899377942258e-01
5.979369277451790365e-01 1.464330576298264117e-02 4.536746143775179929e-01
-4.410766703115642229e-01 4.198667174064188989e-01 -2.759890780034446878e-01
-6.303457647596648616e-01 -2.383241744634933268e-01 -1.789656987477810934e-01
5.982885859310222987e-01 1.467006898843331020e-01 5.526555707372537984e-01
-5.769289083867212842e-01 -3.118858818581667913e-01 -7.670637147028483982e-01
2.219944894896571375e-01 5.312841652277185966e-01 -3.531569929359126281e-01
4.572861471239469400e-01 6.169957676305261041e-01 2.932522841998302376e-01
1.871713888475228238e-01 2.869621468262240072e-01 -9.061392134818030408e-01
6.100664553236826437e-01 1.225993999217235703e-01 -6.006217626301111334e-01
-6.481170546310072167e-01 3.168539674381237736e-01 7.445278465718313532e-02
5.758254524479676784e-01 -5.038653709095751720e-01 -1.149805592969133372e-01
-5.947340602161361733e-01 -3.609612839890230518e-01 -2.302738615979053327e-01
5.703734207026469605e-01 4.042035439443654177e-01 1.915216566493395389e-01
6.075663511157116670e-01 2.537568077314589221e-01 5.012382084946169769e-01
-6.007973375076960387e-01 -1.939227135422986747e-01 -5.722277965067450456e-01
6.189303463438567965e-01 -9.455980648721643012e-02 2.629852318129008992e-01
5.810830338825276886e-01 3.368527444022997308e-01 -3.853643659210913633e-03
5.656027943648891387e-01 4.730138856364505817e-01 5.322674822707773590e-01
5.288594198582265982e-01 1.458483006442309882e-01 -8.178743845907463506e-01
-3.748684873004439755e-01 3.602353725085216674e-01 -4.752120566912862998e-01
-7.256200100569820677e-01 4.488370521940635016e-01 5.126627512940848952e-01
-9.685381287334195177e-02 8.999857876247243649e-01 3.160394441158312917e-01
-2.772675778882562406e-02 6.677572212955167341e-01 -1.548337258198505539e-01
-3.199123024986759711e-01 4.786224636513734532e-01 -3.443147345004540782e-01
-7.283557575536930839e-01 4.701261298746599038e-01 5.435889198386358867e-01
-6.813368390371644656e-01 -1.916150684030912960e-02 4.924665121214550911e-01
5.710113493248415439e-01 -4.630022905259949528e-01 -4.554237295103176486e-02
5.642943012012999748e-01 4.745083347866549950e-01 5.081028828322136093e-01
6.423176426089857172e-01 -1.700179794046589865e-01 9.391093576250725272e-02
-5.183923900393002659e-01 6.519640683970565620e-01 2.235646359254411797e-01
-8.004898375738651872e-02 8.329605399017163680e-01 1.802826404711176667e-01
-5.609755737938149078e-01 -4.338356049009586268e-01 -2.027057802200774028e-01
4.901163481548350132e-01 -1.442445553030517469e-01 5.966801245345880744e-01
8.206818728474189750e-02 4.354921151025710202e-01 -6.226448512152421566e-01
-6.831313509868156553e-01 2.682982341096758205e-02 7.359347628928195051e-02
6.485129438621243247e-01 -2.606069078201930789e-02 1.705537715823757794e-01
1.447388904943242294e-01 -6.768689838542242265e-01 1.168431382267407781e-01
-2.751005941620637829e-01 -2.966648151963918179e-01 8.428461741495046899e-01
3.919422426464955894e-02 3.862195923932986164e-01 -7.249822072343425905e-01
-6.350821375730589802e-01 -1.928291451862768624e-01 -2.649601512790767943e-01
1.187186170606790298e-01 -8.295968957677353206e-01 -1.729103430501774119e-01
-7.300978809238015677e-01 2.412634725943830216e-01 4.304833019326947952e-01
6.497365944739400545e-01 1.526253446621519128e-01 -3.327783573941408418e-02
-2.021634107903826361e-01 7.573085203291618495e-01 6.744555003219566969e-02
3.383663898290543703e-01 -8.853172479291036012e-01 -3.919122014200428494e-01
1.638569527218468880e-01 7.693138679815904046e-01 1.318738171776881740e-01
-1.451189386717352666e-03 -4.835634045293676908e-01 5.326781870703862776e-01
-4.484233096182824729e-01 -6.117576929026979915e-01 -2.293355287962909606e-01
6.371256206577797787e-01 1.417205873799969595e-01 -3.509067290966261798e-01
5.771251078696342240e-01 2.879129981368270252e-01 -2.136976982496778810e-01
-5.583246420395756582e-01 3.724375731874917522e-02 -5.512506394805102294e-01
-2.739516836102773856e-01 -7.552046022539756764e-01 -2.139792958795793121e-01
3.485982714832084883e-01 6.885777918719179214e-01 1.898900650543048352e-01
-6.672171968020804700e-01 -4.434815395591458834e-03 7.048247182671804056e-01
6.423074947431234305e-01 5.723094763108120542e-02 2.392276511927792226e-01
6.959505746877931998e-01 -5.306792661282525025e-02 -6.488162249198727860e-01
-2.293777141268006081e-01 5.393773866113574789e-01 -3.209622228054928028e-01
9.954669842260296941e-02 4.355144773125051438e-01 -6.196055571388700001e-01
-5.678907401233225238e-01 -1.422150022429922167e-01 -7.063125751442895783e-01
4.700520103298905239e-01 5.820113686096343164e-01 2.367276397363416995e-01
4.838087753548276915e-01 -1.084366628469278504e-02 7.976322006497271744e-01
-4.888735800354434002e-01 -1.193618819000947205e-02 -8.169791614608534758e-01
-3.147199887738482693e-01 2.199531052383158214e-01 -7.925998494340658063e-01
-3.554761501282230340e-01 1.809079958667940968e-01 -7.982550431272398272e-01
-5.862626154935844658e-02 7.462286661343150440e-01 4.632586208196545242e-03
5.530612522059925595e-01 3.251912925950228850e-01 -2.124862205941819848e-01
6.631094014975986994e-02 -4.718532331615868380e-01 5.414107576892641660e-01
-7.037241260988651437e-01 4.780052605842996516e-02 3.665431572787904435e-01
5.117132995269275259e-02 -2.683449354851237811e-01 9.394107004541633055e-01
2.737450014041094559e-01 7.948221885366472117e-01 3.201211511974066948e-01
-2.390197285934494154e-01 8.625173016094810352e-01 2.856203052234441708e-01
6.182877803400906869e-01 -6.662637818064677253e-01 -4.450845111894208839e-01
6.829485937287951280e-01 -1.993350115379800835e-02 -1.043946346644374218e-01
-5.777881278943934884e-01 6.846073459177279830e-01 3.847192032570075360e-01
-5.849049531973967708e-01 -4.143627888826668659e-01 -4.656689659937307546e-01
6.921515861953904114e-01 -6.061194815714898709e-02 -1.713688730546948924e-01
-6.686136671566090817e-01 -1.334021697801174300e-02 -4.763410054058057203e-02
1.468133070658522721e-01 5.706048794414928516e-01 -3.165960119177743115e-01
-4.517929840744216441e-01 -6.941146527947111844e-01 -4.893269844870027363e-01
-5.348421790381935326e-01 -1.698328437898891097e-01 7.507824350680590841e-01
-1.660361176821728291e-01 9.005805156827826341e-01 3.289582335818493353e-01
2.860007473486435026e-01 -8.594414474624729738e-01 -3.045315907051732163e-01
5.970652237980670352e-01 3.517679516046893773e-01 4.636417437100468497e-01
4.436801769012648777e-01 -1.734242514374373101e-01 6.548605521034597254e-01
-4.904643804978389143e-01 1.858431023486208367e-01 -5.372363887953307549e-01
-2.950653314700452667e-01 -8.116358112011972104e-01 -3.860993247050783506e-01
-2.778613554640725347e-01 7.272989770983449009e-01 5.967508846703860337e-02
5.811589334144614538e-01 3.279455967320780152e-01 -3.910318165358837861e-02
-4.874963119123609800e-01 -6.598027619141637601e-01 -5.543532615989131829e-01
4.084713066640802137e-01 7.283498362564635453e-01 4.491536962226156393e-01
3.855887074659732350e-01 3.222790530905893513e-01 -6.530429252986134081e-01
2.443984397903081751e-01 6.147240482506719506e-01 -1.432168566516097974e-01
-4.089172930274824758e-01 -6.071121919130906264e-01 -1.011375216635474333e-01
-4.714807656002327207e-01 3.472595587771138415e-01 -3.359140745586572940e-01
4.464053722354673903e-01 -2.865890889324924640e-01 4.769056063964231540e-01
6.660758330138615291e-01 7.561168821172831178e-02 -3.308000533356023065e-01
6.712831008210327077e-01 6.115120105739446643e-02 -3.261264217965772483e-01
-6.656884352187120157e-01 1.538316544271138286e-01 -8.055816173052897031e-03
6.919714265976123491e-01 -4.552927809696270117e-02 -1.869794508300289260e-01
-5.709663021262915139e-01 1.826169307022670607e-01 -3.340767489050385786e-01
-3.896491577320786992e-01 -6.257450105786779293e-01 -1.039205058291355760e-01
-6.663961668486259038e-01 -4.232201717351913306e-02 5.527921167498281996e-01
-7.322520632941585950e-01 3.657841134485032564e-01 4.831626070303998710e-01
1.922076065897118935e-01 -4.686119950893606334e-01 4.821489611188340407e-01
-6.032473544954682909e-01 4.108682580465310430e-01 5.307647351709486594e-02
4.659630670188583124e-02 -8.942859339519904083e-01 -2.992505477602067088e-01
2.648041385158725336e-01 -1.773759410536936421e-01 9.307098461762950414e-01
-6.462959957182349280e-01 -9.117091590144989210e-02 -2.248368678506348917e-01
-7.008032619168417243e-01 3.103844984214510494e-01 2.828607656558151939e-01
-2.346217739320118900e-01 -2.674602977587707264e-01 9.333592266989266806e-01
8.611316231437494972e-03 6.488342183396741403e-01 -1.924179689217939138e-01
-4.807715824286645789e-01 -6.473774155193748325e-02 -9.091600449058273581e-01
-6.128195659209859647e-01 -1.606417997498658101e-01 -4.825274831328179026e-01
1.267609722513477477e-01 6.524423262913501276e-01 -1.502230329533505993e-01
-4.306012370982988391e-01 3.439359874554762109e-02 -8.894294594456378933e-01
-5.178380356318893485e-01 -3.339682809441458233e-01 3.414933380105439342e-01
4.987616318356430378e-01 -3.589552865382246716e-01 2.645627143913042989e-01
4.930920155892531964e-01 1.729186059170463308e-01 -8.312735988344180926e-01
1.891008985060473740e-02 -7.085550716438040464e-01 7.825372558005475043e-02
3.903832163877819506e-01 -2.805275964612958806e-01 5.833488326727244155e-01
-4.768715416502432580e-01 1.058956620913435037e-01 -6.830485065523383970e-01
2.924284580280908097e-01 -2.026040265290617037e-01 8.532752889948138630e-01
-3.832187846642085005e-01 2.587856376581503248e-01 -6.285664870844808183e-01
2.460684387168849963e-01 8.145525298494714628e-01 3.265686323360159071e-01
-6.486176172913015181e-01 -1.652102069059099565e-01 8.055925702864612237e-02
4.989369597796344813e-01 -4.154318231210492596e-01 1.790942929664294803e-01
-7.402871532147253797e-01 3.979158388792992107e-01 5.467553582606859974e-01
5.981911177035191818e-01 -3.660547085461621220e-01 1.776682095729633856e-02
7.083763107542364601e-01 -1.370477942193202292e-01 -2.881941294981489321e-01
-2.924524845900287606e-01 1.969269046696395520e-01 -8.606508982715255218e-01
3.811834742971517698e-01 -2.403529497562336137e-01 6.628345961977467615e-01
6.189016118481019957e-01 1.788702557644019087e-01 -3.470613530100898347e-01
5.732540456100558568e-02 -3.929100073241437729e-01 6.974480459200481652e-01
2.572654237121533294e-01 -4.046093794628026763e-01 5.427563747144432682e-01
-2.200859365509623133e-01 3.176936776893721226e-01 -7.295995505686656557e-01
4.741971569857428848e-01 -9.978591016445743922e-02 6.970891758356313472e-01
-5.780512129590947845e-01 -1.076792349487976086e-01 7.942282877115807160e-01
-2.149828350622840500e-01 -8.144406806266084597e-01 -2.766507912109135159e-01
4.636621756215540402e-01 -1.470337599899595449e-01 6.524032111516275823e-01
-3.031857233120289763e-01 -7.455517938685637391e-01 -2.366574934466958990e-01
-5.893561761686114675e-01 -7.793556905816080571e-02 -5.548692807277356698e-01
6.094079812949578789e-01 2.911121393821896608e-01 8.754944704274994494e-02
5.594713802716977380e-01 1.785977419433260327e-01 -6.351656914376330176e-01
5.618607863668896307e-01 2.287136513867952040e-02 6.036242237010936984e-01
-1.148364261873098396e-01 -3.103275621720767985e-01 8.826194371297532149e-01
-5.860569796370471707e-01 5.698451433364196683e-01 2.324429814509379744e-01
6.945200933286767020e-01 -4.601318885298683603e-01 -4.034098440008834219e-01
3.898188823702910533e-01 -6.241742581171590976e-01 1.388127743372917500e-02
-5.928535379527940519e-01 -1.288044946104973110e-01 6.769857903364312479e-01
6.587207672302103356e-01 -5.270991016261358242e-01 -3.627582858208679983e-01
5.528357571782611668e-01 -4.643171295824405354e-01 -6.044608417725469592e-03
7.097719803051728560e-01 -2.804022740594537266e-01 -3.186169706509218158e-01
2.767400906846363418e-01 -5.322604156875804238e-01 2.970854316796864292e-01
5.617792724513217539e-01 -4.260873629685851816e-01 2.851412794751069166e-02
-4.466565978814552862e-01 -7.170160659527196056e-01 -5.390639112390288590e-01
-8.528298621050953154e-02 -3.853281811927118383e-01 7.318297126262953700e-01
-6.207921619817368120e-01 -2.015341321127041563e-01 -4.212172139825434147e-01
-6.888042759761010547e-01 5.415279275595803396e-03 1.776829175158934626e-01
6.156655727760401708e-01 2.451030743902530840e-01 4.171768583121115981e-01
6.091907353226839739e-01 1.387796885925039470e-01 4.845696660415823032e-01
2.189630374239653204e-02 4.519757780547077886e-01 -5.917509014088151442e-01
-7.330734920307535596e-01 1.705164972056721351e-01 5.443663427056232296e-01
5.510650368317132619e-01 2.901287615889249771e-01 -3.322147619347750602e-01
1.823273345580056770e-01 -5.711647584223110696e-01 2.983786456558904510e-01
6.278428169289241856e-01 1.830469134715884405e-01 -2.536372497156110239e-01
6.793018226832782114e-01 -2.921944759305983991e-02 -5.781556977473422537e-02
3.756841131870657380e-01 7.413328115299850918e-01 3.905522220086596330e-01
8.972312566431359104e-02 8.425713192048576161e-01 2.416234443787848296e-01
6.059191807546658870e-01 2.285693925747528735e-02 4.252887150053719645e-01
7.128387880998479087e-01 -4.441796206327908725e-01 -4.600027725264220213e-01
6.786981215587173377e-01 -9.279035079923417251e-02 -4.768350919118363035e-02
