-1.430643857301550637e-01 -8.344302133720492287e-02 -6.721711390140516773e-01
-7.198473557725398875e-02 2.990700312794344895e-01 8.420041983273119923e-01
-3.776570338189964016e-01 -3.040307837833851612e-01 -1.494709686037087315e-01
2.077843706585990879e-01 3.518321152196440260e-01 3.152414943245395174e-01
-3.376124496750316784e-01 5.194169388414784372e-01 3.200928842966961341e-01
-1.326390113026179596e-01 4.513565134977619020e-01 -1.640151717901948136e-01
-1.206873755949994104e-01 2.528996609494604808e-01 -5.560767525571497227e-01
3.949775489548305596e-01 -5.411576974583518496e-01 -5.107383046615117106e-01
-3.177069867180439267e-01 4.053721587263107162e-01 -7.496272630060425712e-02
6.805836243232594729e-01 3.330830213252489735e-01 -4.495188052931916034e-01
-3.612463739944734020e-01 4.175705199735574302e-01 2.302611290517845872e-03
-2.027156908049178863e-01 1.628643828021562878e-02 -5.872462719434102807e-01
1.779058768069308738e-01 -4.274354748547313232e-01 1.689162727167716205e-01
-4.603384053240310858e-01 5.470580499500756755e-01 5.981242404585485062e-01
-3.332554544100156391e-01 2.499722868809770016e-01 -2.801468047259542682e-01
-3.196882368977289057e-01 -1.728746002793581371e-01 -3.738726145891629882e-01
3.195364200788370357e-01 -1.784188082498422423e-01 3.336776816564795967e-01
-4.565687771709806553e-01 -4.395123516010322473e-01 6.922520908791550687e-01
3.574649488331793079e-01 -2.748943449190365818e-01 1.999258711582651560e-01
-2.712994412658173982e-01 -3.490904272226917904e-01 -2.489020313204803048e-01
4.614284235491633579e-02 -4.774483105445981312e-01 -4.539134232636310440e-01
-4.181945651580645240e-01 -1.545922007364076700e-01 -2.357640499802637346e-01
-1.428055767504965261e-02 -3.154535273641856374e-01 6.231383366937268686e-01
2.507045162615924583e-01 -1.685337264141031077e-01 4.338558404961425641e-01
4.198960514407708566e-01 4.444157033882708552e-01 -5.989304657285017264e-01
-4.364598433074086681e-01 5.376549939512060838e-01 5.051396688056790651e-01
4.984034585383415039e-01 1.775934647855397230e-01 6.785567334752908020e-02
-4.231619111829849622e-01 -4.287189627235087341e-01 2.661172130074794806e-01
-6.540942019358597648e-01 2.069251249608373144e-01 1.160614754542670934e-01
-1.178289351126678292e-01 4.870860954153476419e-01 5.060934872828914965e-01
7.809421395881399608e-02 6.618761261216077330e-02 7.417480419781952161e-01
1.762281507967615179e-01 -4.238091417788548143e-01 -8.536550494436343506e-01
8.006947762940887225e-02 2.760315000432381899e-02 -9.841841031729210432e-01
3.969689276405800604e-01 2.420274029517423819e-01 1.659711828710781767e-01
-3.074238144696374020e-01 -3.693710533095493909e-01 8.652395338185564500e-01
7.214597773796015412e-01 3.292824941707041542e-01 -5.113981544277687030e-01
2.349031680684159906e-01 -4.814886030961103569e-01 -8.017258055171975206e-01
-4.153357694295449487e-02 -3.808491525640574915e-01 5.326448541193639086e-01
4.478622777972465774e-01 -6.834103343332216529e-02 2.037092680382145415e-01
3.747084903549347534e-01 -5.413932244459422893e-01 -7.681022089831712751e-01
-3.265787905911091138e-01 2.951757787016813794e-01 -2.393343948482604400e-01
6.700202381051360012e-01 1.320556571854884509e-01 -1.618200561513139513e-01
-2.181009277291069970e-01 5.117302540873648331e-01 5.743265109911425137e-01
6.770102838710031490e-01 -3.302741159206892263e-01 -2.787254881115398542e-01
5.369338923277074127e-02 4.136070651720163971e-02 -9.427069753120336237e-01
8.805569732505391656e-01 1.930723720788866168e-03 -4.200974759440458950e-01
4.452420181567366408e-01 4.020165843294999375e-01 -2.332364843056285997e-01
2.076527835416352736e-03 -1.278906455336428494e-01 -8.752746751662302538e-01
-8.589642188098062237e-02 -2.715417666174174127e-01 7.777424929527936293e-01
2.313982266907513019e-01 -5.285901751182990882e-01 -4.850522669221197236e-01
-3.835545991942965194e-01 3.942501420473384921e-01 -1.778513896129228430e-02
1.344645958262998819e-01 1.610791452858074402e-01 -9.831150927711802545e-01
-6.240470183275800276e-01 4.595235777195837978e-01 4.028439456501957117e-01
1.087481830787276338e-01 -4.714588371881628381e-01 -6.006214710947037627e-01
6.288719108675516756e-01 2.397743696380056633e-01 -1.986809932313350624e-01
-3.045471864275891005e-01 -4.410512542016200577e-01 6.022571298744431312e-01
4.363199591409226002e-02 1.051194031943103631e-02 7.910282600878226766e-01
1.151128766058467090e-01 1.410575087561771399e-02 6.891267257605427909e-01
-6.126399908810243461e-02 -2.461066044269547559e-01 7.781946949978906236e-01
-4.153988544034624697e-01 -4.305245452314649390e-01 7.442803190183837625e-01
3.524048947743963489e-01 -2.881629627340248981e-02 3.458787540930387538e-01
3.065943801394049317e-01 2.690735655408169613e-01 2.780628069434469274e-01
-1.154044069092510227e-01 -2.434309928793338962e-01 8.515131172540719717e-01
-2.058873958268665760e-01 -3.177106930804494966e-02 -5.859041542047506157e-01
2.834519633942672243e-02 8.877379161468063051e-02 8.112987106041040786e-01
-1.319818031334704655e-01 5.132220005963806786e-01 2.492147903654484409e-01
-2.706804939359667150e-01 5.288145757742753750e-01 3.979551452921362142e-01
-1.717924059266452141e-01 -1.866502390843819692e-01 -5.896547727009409101e-01
-8.513530381577784079e-01 -5.381247648785229126e-02 3.646945904173530262e-01
-7.639275892700339576e-02 -2.729015574922928900e-01 -6.677341704591894800e-01
-1.345402062241455032e-01 -2.294173163735927778e-01 -6.165484977927130350e-01
8.059608553829131772e-01 -9.577541894792222787e-02 -3.093151306981752890e-01
6.283652676471954690e-01 -1.772253985249734320e-01 -8.822322086301488675e-02
6.007482609561788367e-01 3.513884075492162418e-01 -3.565530366442695720e-01
4.846861613828506443e-01 3.934438061797421865e-02 1.526004631615202889e-01
-4.942565824170082611e-01 5.030524613648390542e-01 3.830398501790994725e-01
-1.579689919542919263e-01 -4.000773098294335139e-01 -3.327448517383749249e-01
-8.378656962012252796e-02 1.355155126301912649e-01 9.655787231693254702e-01
8.892094359937674497e-02 -4.600177035231509670e-01 -6.037160544697112163e-01
4.560230477046190445e-01 -5.202651883926229237e-01 -4.255983452723002269e-01
-1.798559585863777621e-01 5.019096203922194244e-01 5.544837348636102448e-01
1.610117768315634801e-01 -5.149927948590464766e-01 -1.985157034783966434e-01
6.755539053050804710e-02 1.922411927688269517e-01 7.147559123925346647e-01
2.707972872276067158e-02 1.201279852656043923e-01 -8.678413371759314821e-01
-2.729851546511533750e-02 -4.270885038734201222e-01 -4.924152890444083441e-01
4.860033573872918344e-01 9.569174150645631816e-02 1.343050286066891919e-01
8.176565365887424053e-02 -5.112112980118308503e-01 -2.162366163422477228e-01
-5.287261856332913235e-01 3.471075455549474387e-01 8.722875282586138590e-02
-2.643414526757194571e-01 5.012658107902583371e-01 1.626322230786596268e-01
1.929529476803019672e-01 -4.277262474509878620e-01 1.511634323480334219e-01
7.522724771565338919e-01 4.258268818031666486e-02 -2.420005194289797934e-01
-1.729237912694185642e-02 2.194371604226228248e-02 -8.487905367200939688e-01
-2.861643202059405144e-01 5.251762141765036196e-01 6.279370676394983031e-01
-8.045340903830554558e-01 2.293870296588629565e-01 3.354957983128579180e-01
-7.948462600611135853e-01 7.478704125063732888e-02 2.643027686202720772e-01
-5.854460771671312624e-01 1.453159406494951011e-01 -1.146434731935724524e-02
1.425845838126537646e-01 2.294328671144481128e-03 6.488347747657433606e-01
5.202816333393212034e-01 -2.282035574326195249e-02 1.058326089674525849e-01
-1.543297288787009447e-01 -7.729987900735924011e-02 -6.567377551392384882e-01
1.363787767448415567e-01 4.724312037733156555e-01 3.018194030857931920e-02
9.424342612719806278e-02 4.835286195452780378e-01 -1.430259654079135134e-01
3.500563141487156305e-01 -3.405579661554656856e-01 1.274579524787846918e-01
2.926912051557565286e-01 -1.566110148883585185e-01 3.841017034808300035e-01
-1.436336148428640214e-01 1.212725948664581527e-01 -6.333739431688830690e-01
-3.152599587277128412e-01 5.334030104890694624e-01 4.447090220864771126e-01
2.181237209171053570e-01 -3.004728824164831225e-01 3.504605104628172874e-01
-1.317559691433385083e-01 -2.991121675293174076e-01 -5.514006688601046369e-01
-5.233836148270239186e-02 -3.688031845442978768e-02 -8.071005028869954190e-01
-3.633617677434431981e-01 4.566522322718841176e-01 9.953682807678143618e-02
2.725507317218853198e-01 4.223792872517510011e-01 -6.721854112933826064e-01
4.557331586947866997e-01 -1.329711819950783469e-01 1.716681597138903781e-01
5.677607838170350973e-01 1.459619837230878014e-01 -1.539527530828270138e-02
2.466760679058399852e-01 -4.302596628525074407e-01 8.379402870420012139e-02
-4.679673087681252008e-01 -3.821380274810493582e-01 1.678063585519594947e-01
-2.159236578453022082e-01 -4.200300485980753007e-01 -1.734327106862463830e-01
1.687940868167949193e-01 3.568889911606381582e-01 -7.527339894806222009e-01
3.329804063314152351e-01 -6.961883814047323260e-02 3.655837073933526638e-01
-2.573210409598583603e-01 -4.287684339883688356e-01 6.212984761636612951e-01
1.714336487306603318e-01 -3.133286194230808230e-01 3.926135987312159292e-01
3.528033355900966339e-01 3.348003999953443888e-01 1.050047991854285434e-01
7.467361172489799248e-01 9.798328185994865588e-03 -2.254919870793121728e-01
-3.009150972920799916e-01 -4.644400894913116584e-01 3.220957508672861458e-01
5.620994223545253687e-01 -1.091914605101169510e-03 4.495772534732856568e-02
-7.547371493500104611e-01 3.801100649568702194e-01 4.204534546356964997e-01
3.662778993091367896e-01 3.573031951527608219e-01 3.661621931364298504e-02
2.027249538292067443e-01 -3.350772688489478957e-01 3.211316269500427700e-01
-4.185512487844231244e-01 -4.360007140704268980e-01 3.013390245147699598e-01
1.138627275479656975e-01 -5.142215958761831018e-01 -3.161537229714547759e-01
2.442771672067890198e-01 3.582728596837500556e-01 2.417080406813898463e-01
-1.468324567045121432e-01 2.519921150039847874e-02 -6.649715617773956922e-01
8.552710866071236984e-01 -4.947260821666486785e-02 -3.769193051732224187e-01
-1.635022989585052933e-01 -1.816609844652096739e-01 9.802346478293452181e-01
8.260789455027954531e-02 -5.091259316665586176e-01 -2.996038993904087122e-01
-2.638970276868952622e-02 -2.848823828162855287e-01 6.836918492372850986e-01
-4.068840900602939126e-01 -4.498764243092990833e-01 5.572524463368005998e-01
-2.806963353176993858e-01 -3.800550996751941302e-01 -1.680474908826296299e-01
-2.486795863696905987e-02 -3.904297862975228406e-01 4.912040222126116684e-01
3.020211510599758453e-01 -5.254901543378631690e-01 -7.262908144986076620e-01
1.511218275968638780e-01 -5.129256482039137310e-01 -4.584383032483601572e-01
4.117068900863241065e-01 -5.513403345936894739e-01 -6.714231749564567586e-01
3.952837162209507649e-02 -4.421402294277297917e-01 2.774822414418005034e-01
-2.224620490606999679e-01 -4.416213810092999847e-01 5.328644496181835777e-01
-3.389967929205660591e-01 -4.529760889693018600e-01 2.468077034206539455e-01
-2.052878059688128254e-01 5.216474839626715765e-01 3.267133679221788656e-01
-6.670800958618812171e-01 -3.253993174933713650e-01 3.716029545190157046e-01
-5.244395182628253105e-01 3.982987512391792939e-01 1.614170497601382648e-01
-6.443089881401400376e-01 4.920318018638299984e-01 5.073683327093737594e-01
-1.262628324727641527e-01 -4.773980884206709963e-01 2.414802701343032043e-01
-2.509637836002777678e-01 3.980951870457268005e-02 -5.145148262439246389e-01
-1.800657770609587205e-01 -4.747120349434967856e-01 4.400697833009219184e-02
5.573837235821723635e-01 2.164312567774839269e-01 -5.882859029870760731e-02
-8.501499844918233295e-01 -2.199567416624208793e-01 4.946004797046719692e-01
-5.729124255257137532e-01 -4.064213610571783784e-03 -5.616288987969906416e-02
9.475046823045267519e-02 4.849764050249769642e-01 -2.029146615261558442e-02
-7.159771949710286298e-01 4.001411934265942105e-01 4.015741140950992993e-01
-4.760203619991040247e-01 2.275015117639240525e-01 -1.100535466180105892e-01
2.499662620215609421e-01 4.402006538975872241e-01 -5.695105092546884906e-01
-1.869665963789396146e-01 4.638647273987075992e-01 -6.568482540004894066e-02
7.924277042485369238e-01 1.216525471993635393e-02 -2.929796469225199318e-01
1.215149336875617492e-01 1.868180050862159880e-01 6.362990113482247523e-01
2.903584358975548896e-01 2.776347194517693184e-01 2.934831804312833525e-01
1.130912653888292430e-01 4.760145448804065649e-01 5.666339678669242430e-02
1.354982629167786057e-01 3.295530317026805212e-01 4.714567812301837524e-01
2.511649420244777553e-01 2.142201106148946543e-01 4.190219440909039861e-01
-2.674761540683900374e-01 -4.480799907141608807e-01 4.374801256616105138e-02
-7.079802935520626561e-02 -4.416126108066315004e-01 -3.698853266135343487e-01
1.104256694610193656e-01 4.836786491549827094e-01 -9.141772045229037968e-02
-4.100798297345319976e-01 4.285864482028371447e-01 8.370151427583127912e-02
-7.455281125443188328e-01 3.653574897385443165e-01 3.885544598683134399e-01
-3.267968924302739331e-01 -3.924765838402515250e-01 -5.543372317557129780e-02
6.435002328567346330e-01 3.863980319144136866e-01 -5.542735599355173015e-01
6.880315459152449263e-03 4.859898174380576363e-01 -1.137698136087598039e-01
-1.950083424160415912e-01 -3.648561059257256489e-01 7.475602653246248286e-01
-1.421354682099951749e-01 4.386352829102078688e-01 7.231394164210671605e-01
-1.006154816400098989e-01 -1.605016290336781226e-01 -7.107707918281358506e-01
6.043870971797085101e-01 2.583397835271881160e-01 -1.840209168481323487e-01
-4.697011310854092847e-01 -2.955477522295913428e-01 -1.262475676954883698e-02
3.020689957884942212e-01 -1.368108517279662539e-01 3.822909938528133433e-01
-6.693000941234311663e-01 -3.944376879239753220e-01 5.982223077363351127e-01
6.497133628584067511e-02 -3.563793593658711734e-01 4.555379091603788400e-01
-4.367135319675281568e-01 -4.464598820013436220e-01 4.638492455809456461e-01
1.375791912847673659e-01 1.800777790958016655e-01 6.159688539008995045e-01
3.917474047582589214e-01 4.108221514626600457e-01 -8.312571972225077932e-01
2.224940424586412113e-01 3.384652380139386296e-01 3.146437354377402684e-01
-4.342623682898468784e-01 6.962259211667556902e-02 -2.486952805519352661e-01
2.339154204810273419e-01 -5.180415822669127701e-01 -6.216166977670932736e-01
1.661198307510589056e-01 -5.061372104683824480e-01 -1.237715309891301435e-01
-1.766335603953232691e-01 4.626628410196797492e-01 -8.036530387109568074e-02
-7.286082154638363895e-02 -4.923090911337013598e-01 -3.187267733471878858e-03
2.614869554196015689e-02 -4.588947458251240175e-01 2.310142741934083088e-01
3.971440259397596706e-01 -5.125121737500303309e-01 -3.382566924349383330e-01
6.939293304542643037e-01 1.998851387443934258e-01 -2.557328914493812722e-01
-5.482257919867342122e-02 -2.098508710481401113e-02 9.247747607942182757e-01
7.746038054411097384e-01 3.074878424973861435e-01 -5.519081066396627211e-01
-2.230284793558424128e-01 4.526149078553290961e-01 -6.481303171135614771e-02
-7.861762204820746391e-02 2.165634800652304487e-02 -7.622498837262706717e-01
-5.153041955669859231e-01 5.134602501014979836e-01 4.425835186946343036e-01
7.192078669595100004e-01 -2.512944948580796978e-01 -2.595382702196156188e-01
2.577135808760296909e-01 4.373633895167824970e-01 -5.904828241785556875e-01
-2.242048818294758716e-01 4.928627503535333854e-01 6.938807970002304204e-01
1.303540872671553885e-01 -1.278421709405197226e-01 6.232405168572151544e-01
-1.524539475222488616e-01 2.514162516930703584e-01 -5.162539010299378450e-01
1.188723221736989744e-01 2.439242921353150517e-01 5.981598143467368178e-01
5.545777256754101658e-02 -1.881673387330135283e-01 6.825882596243212364e-01
-2.793349765466265899e-01 4.529081681543600246e-01 -3.186289760217755201e-03
-3.767272339628333078e-01 -6.165046324560083391e-02 -3.341711691384536831e-01
7.143542110776878173e-01 1.041706292217440127e-01 -2.120989440701287199e-01
-6.500772056157839707e-01 -2.550688480537237068e-01 2.204823232093159890e-01
-9.499393764725985734e-02 -1.128938619254678810e-01 -7.362412094447859934e-01
4.305445190743870665e-01 3.466817390393729381e-01 -4.991853644354318081e-02
8.565071246939537364e-02 1.538303207972557818e-01 -9.235123130393630975e-01
-8.136799118053235080e-01 -2.273067922203971664e-02 2.988101862813894449e-01
-1.306033356381894606e-01 4.611597311723394932e-01 6.364548903048338202e-01
5.876872159430435172e-01 -5.288631615304151268e-01 -5.837800830873196567e-01
-1.435699832025770506e-02 -4.192254561396140805e-02 8.618149622080183425e-01
-5.646530608638813398e-01 -4.260802240168641841e-01 5.788643385575042988e-01
-1.492771652471752419e-01 -4.451506785242003716e-01 4.519817207972600115e-01
-1.433546553378014787e-01 -2.692377531134155233e-01 8.541277403821451175e-01
6.344934298418783980e-01 -1.536666617402438484e-01 -8.544494398146117164e-02
6.795261081854394591e-01 3.736749428588224120e-01 -5.718814388006344673e-01
-7.663480429147319084e-01 -2.791597361004953259e-01 4.473915288314840866e-01
5.056535562572935794e-01 -5.511355862996308863e-01 -6.394555206331543618e-01
3.834512405684809000e-01 3.891227314467468612e-01 -7.513147477642245775e-02
-2.259173658554895769e-01 -4.285717383539197067e-01 -1.257705398033989452e-01
2.364639232464589291e-01 4.451844751629776553e-01 -5.318165783814726710e-01
-6.478178211661433927e-01 -3.754996609296517573e-01 4.766426302990532937e-01
-1.750570674839642404e-01 1.019498534725531425e-01 -5.998165019027718037e-01
-8.520521808877380698e-02 3.509883272139949217e-01 7.977042233981969099e-01
4.598613150280293493e-01 -2.664171466390198306e-01 7.372615566333853843e-02
1.800908181601276747e-02 -4.946427273676539671e-01 3.706517935316241963e-02
3.494694576997192104e-01 -9.155080795455847187e-02 3.358106690814210427e-01
1.534505209629337050e-02 1.738753667528186997e-01 8.033704728759610836e-01
3.234368869851595441e-01 -5.301520747260155542e-01 -7.413246332069902689e-01
1.890320044818726564e-01 -3.360661170408372755e-01 3.367577341889936293e-01
-3.935568490785558704e-01 2.832165739597520826e-01 -1.662043443306193136e-01
-4.502132825378432068e-01 3.575749693160679699e-01 2.973206351213984050e-03
-8.281903986582581645e-01 -1.879881200709188349e-01 4.227042891308308015e-01
-2.518486045361495711e-03 -4.596399147241934241e-02 -8.789680186329718037e-01
4.621724757899706333e-03 4.196650079519338439e-01 5.143677985531336372e-01
-1.523412609457740763e-01 3.876217254086761210e-01 -3.081773285012899266e-01
-2.781770003575753103e-01 2.825374158882809107e-03 -4.810323984014763243e-01
-6.122212702868016221e-01 -4.131628561054073168e-01 5.861579910671778082e-01
-6.277237998922928774e-01 2.761609424925333123e-01 1.348237858528908983e-01
-4.299706686791021082e-01 -8.021710461411309112e-02 -2.512059847024691317e-01
5.015110327436310689e-01 3.429066500796920658e-01 -1.629897696815466590e-01
-4.644105312697824339e-01 -4.441663673631938147e-01 5.367053180419014691e-01
5.885384661414234247e-02 -5.071319893018523262e-01 -2.465792214792125181e-01
3.515996883354683966e-01 -1.752654059982054202e-01 2.921058403773527656e-01
-7.465195050078762273e-01 4.361278959382146603e-01 5.007301203401856027e-01
-2.389640235906864141e-01 4.999556725532251500e-01 6.903537402236830101e-01
5.048885067508500635e-01 -5.229016469514304877e-01 -4.815707839870616569e-01
3.070278893465619441e-01 4.557774360187377694e-01 -2.621052818226663472e-01
-3.956218308822336827e-01 -4.527577685042798450e-01 4.480626685841115897e-01
-5.157084896783592498e-02 2.120657951788620654e-01 -6.894965655692770756e-01
6.569615497697021134e-01 1.137578974254291053e-01 -1.308376799453492001e-01
-2.014404896205066742e-01 -4.906957117046156086e-02 -5.915084850796867855e-01
-1.485220348822934300e-01 1.426123408009334625e-01 -6.141349075904460886e-01
4.531595321605557530e-02 -3.985598946434695811e-02 7.786469748944433444e-01
3.309921733175622549e-01 3.959138323166928042e-01 -6.908020633300876109e-04
-4.036012761160548412e-01 1.899284818413592146e-02 -3.002241986023614917e-01
-4.122959094434418964e-02 -3.448478715954448326e-01 6.059241668377424173e-01
-3.085615032610016795e-01 -2.061739325762184383e-01 -3.673489488814922765e-01
-3.870859454545932388e-01 5.374099710595050539e-01 4.850604608624702330e-01
3.725336261574558883e-01 4.516773108681834681e-01 -4.679496389305287662e-01
-4.077355563259432158e-01 1.949801169297502024e-01 -2.267634313988968475e-01
5.852246798981914910e-01 2.995337630011781216e-01 -2.174229790327589229e-01
1.682371058475812253e-01 -3.954892575244028374e-01 -8.955214485526568069e-01
-1.348983084210955419e-01 -4.811841163768793006e-01 1.982566608376080119e-01
-6.249896038751608929e-01 -4.725120307973067896e-02 2.727676790928378753e-02
-4.726012692410593852e-01 3.390751518510318196e-01 4.731169791240476263e-03
8.508530918427009704e-01 6.361691714027070677e-02 -3.967895332646610984e-01
1.331339770282199686e-01 -3.588650791520379135e-01 -8.966924286720947546e-01
5.910542695278364622e-01 -2.684452934158060300e-01 -1.022273409371611680e-01
-6.523702193261565752e-02 -3.057149883313704519e-01 7.020939477706270582e-01
3.221851735944660788e-01 -3.740420027035591954e-01 1.093596753616643824e-01
3.904921109982957272e-01 2.686819945460224290e-01 1.450940253295411597e-01
2.266219844174447440e-01 4.055376755613113171e-01 -6.881479556486614912e-01
-2.140997878538783983e-01 3.590088836107359627e-01 -2.882419663136262522e-01
-3.141751327412304340e-01 -1.947110853158063037e-01 -3.674326149855564605e-01
-4.487276883906241021e-01 -2.916804597002123356e-01 -5.254324087197084076e-02
-6.622829661426326009e-01 5.064091996521300487e-01 5.686670033047069861e-01
-4.586638963581362027e-01 -2.135565728387640305e-01 -1.290601317467638953e-01
-1.200445746573968742e-01 -3.864729928352709787e-01 -4.291876845878541680e-01
2.743879975377744307e-01 2.531718386303015156e-01 3.466991760110081366e-01
-1.146462321568645082e-01 2.169593872290709324e-01 -6.012965234156699701e-01
-2.185436245172650838e-01 5.238575018360851487e-01 3.878271904390080405e-01
-1.190465920704907588e-01 -2.541724644220410001e-01 8.429289424024096755e-01
9.480072398878472417e-02 -2.339879948347698135e-01 -9.643121916140577898e-01
-2.713355508583111253e-01 5.278309053790478655e-01 3.776761919731984052e-01
-7.469040698338325068e-02 5.274760802521519937e-02 -7.591552938668404416e-01
-7.141351222435481372e-01 8.707214807652066679e-02 1.511259578314310958e-01
4.266668052325266469e-01 -5.032991737321966808e-01 -3.288565274220897616e-01
-7.803755050635162449e-02 -4.052321792044814019e-01 5.139004935856948952e-01
-6.575335393770114223e-01 2.806580732303189385e-01 1.785873665891685447e-01
1.288560989574627780e-01 3.017735864953748903e-01 -8.082308789918236647e-01
-5.316094304976617391e-01 -2.542853743705191794e-01 2.976282610084934541e-02
-1.528241068631758237e-01 -4.572393797681351124e-01 3.965659602122881822e-01
-3.914447107634160816e-01 -3.222284232795147307e-01 -9.756420132365635489e-02
-6.163443894054194830e-04 4.267526416211222529e-01 -3.813590549095656757e-01
8.887267789009350993e-01 -8.007106734963093803e-03 -4.300214328446820278e-01
-6.833156250278592525e-01 4.578679972523256314e-01 4.685212790806096428e-01
1.304045995267616165e-01 3.414246994878883390e-01 4.611682915189259657e-01
2.843434315918058064e-01 -5.342789177217779351e-01 -5.801735020879189575e-01
-7.196567021058827285e-01 4.278461394386354755e-01 4.528885437649015633e-01
-3.826141532043577653e-01 -4.499832047933640111e-01 3.359398348425327030e-01
-3.632563922800240430e-01 -4.388937406607082425e-01 6.565697491427212595e-01
-4.006907342523914339e-01 5.085668295331419175e-01 3.149828416918730722e-01
3.804511206210851593e-01 4.149879614075787648e-01 -1.600861194960345180e-01
-6.216618903963309073e-01 -4.714366535185064017e-03 1.468916917699128466e-02
-5.267502764197556919e-01 -3.589283750409330009e-01 2.084303726695764802e-01
-3.367683654427505724e-01 5.381700135724436507e-01 5.775902268293270359e-01
-2.351563439210906936e-01 -4.429531712500588414e-01 -4.922169015117169172e-02
7.130581984929387218e-01 -2.740745186899359864e-01 -2.698434700876257697e-01
-2.147969869828455780e-01 4.933488452313377626e-01 6.729305724129291955e-01
-5.342969020305035066e-01 5.288022092055144618e-01 5.252244929161359321e-01
-1.336126595936803357e-02 -3.753904615426633673e-01 5.116269723895680022e-01
-6.780228321564243377e-01 4.073380621560788728e-01 3.661131935914168634e-01
3.490946663787228288e-01 -5.389523134506409852e-01 -7.231639856022081814e-01
-2.871473761906832012e-01 1.689877661726537084e-01 -4.082675123578538012e-01
-3.624250486422223583e-01 -4.509671825146701063e-01 5.570428560977508381e-01
-2.622848049572160112e-01 4.278365784558897378e-01 -8.894075266129207458e-02
-3.544778944269912913e-01 -1.910325135433374732e-01 -3.084409747564057502e-01
-6.577106844983312550e-01 -2.843158586028476237e-02 7.096848301876543252e-02
-1.748042501116201797e-01 3.620208074223309480e-01 9.266886087868311250e-01
-2.367176597346472011e-01 -3.444722464693567576e-01 8.412386807780106723e-01
2.622708853984042077e-01 2.134785122537879720e-01 4.025171294846159875e-01
7.793375440273960786e-01 -2.240225094047051668e-01 -3.220896674036449192e-01
-6.420068927751033938e-02 -4.763995181477108098e-01 2.191334658711394934e-01
4.068346882916675789e-01 4.265404148599792888e-01 -2.689042345486689634e-01
-2.786407472836785471e-02 1.401885894138789890e-01 -7.799985022821140923e-01
-7.397796071004303364e-01 -4.523605997019118641e-02 1.961115469079866835e-01
-3.197051579434845303e-02 -2.638748421800744537e-01 -7.455993262959395018e-01
-3.144110249995772932e-01 -4.565290410466658622e-01 2.171019778620956187e-01
-4.716003560341986423e-01 5.525200054403696104e-01 6.704988794445392308e-01
6.938988218106245665e-01 -1.177378242486668142e-01 -1.556351878519812715e-01
-2.109869516993759242e-01 -2.276161699507687763e-01 -5.002345264842443795e-01
-3.629085208300765197e-01 -2.950361557537369284e-01 -1.865162042838431622e-01
-7.955625841341025517e-03 -4.990801688435885231e-01 -2.902641806453752985e-02
-8.485159110807427574e-01 5.180607133448423413e-02 3.401226680741935571e-01
-8.682682909636953994e-01 2.177975173989945834e-01 4.154123337611439482e-01
-6.770439019471126418e-02 3.531583764386840296e-01 7.661050260782047427e-01
2.997685969297970709e-01 -4.474174459659508440e-01 -1.995835350642579178e-02
6.745404682054469137e-02 -5.091120121775934981e-01 -2.296813430082652041e-01
-2.105716270399607681e-01 -2.563136713244054121e-01 -4.745767194449691528e-01
-8.124411477548914018e-01 -2.400088741594565978e-01 4.610998186853801362e-01
-2.937982399629271435e-01 3.951179048911648284e-01 -1.243050384840291983e-01
1.815292804795544390e-01 2.375805171490616985e-01 5.067034774911746142e-01
2.429470500371179453e-02 -4.985596345700209486e-01 -4.490066661041603423e-03
-7.870649967167145378e-02 -3.020850469119668036e-01 7.245829963554434316e-01
2.098103788876503062e-01 1.727594317066588891e-01 5.110036678836812341e-01
4.030897219927902925e-02 -3.966498259417027827e-01 4.013645414400729972e-01
1.675728652984473932e-01 3.025742147671704463e-01 4.577494955231610763e-01
-2.007597678249575801e-01 5.164794558794623125e-01 2.368913148886215014e-01
7.541500323296933539e-01 3.081905881899997812e-01 -5.184842326270548973e-01
2.690872336553594701e-01 3.784968529124227432e-01 -8.144153832344246391e-01
1.757479951716205968e-01 -3.306074578099782446e-01 3.618057342597079118e-01
-5.385408415421155670e-01 4.624042925112690772e-01 3.112230843103966360e-01
1.963668684274552101e-01 -6.917154164034995667e-02 5.576592029456156618e-01
8.862141967371867102e-01 -1.309411202229922022e-01 -4.300700709835160174e-01
2.824362317139086365e-01 1.139683724688689698e-01 4.302103116463464327e-01
6.475629502040296526e-01 -1.737233538633498886e-01 -1.128997419664957563e-01
3.200746871022711604e-01 -3.092503267425292940e-02 3.916967035241723516e-01
4.112161383104253609e-01 -4.826401490773742364e-01 -2.425651205089907891e-01
6.406264550508970063e-03 3.880067860274879488e-01 5.831193348086598505e-01
1.536552131920032038e-01 -6.787134522589744270e-03 6.320206808724347924e-01
3.259830623900153435e-01 4.534880683487609310e-01 -5.049778878440265295e-01
-4.901846767493288071e-01 -3.592662150780301378e-01 1.453973578961205715e-01
8.476535765941837219e-01 1.819776575418147538e-02 -3.757022805231427509e-01
-6.626106910734635980e-01 2.612111561707564644e-01 1.679030105553493968e-01
7.922570499325192195e-01 -8.548366259723444438e-02 -2.883411979163396643e-01
1.308267025474235123e-01 3.875863600353342542e-01 -6.358915595702409052e-01
-4.019427506289425245e-01 -4.321880041374521197e-01 2.405434860008339726e-01
-2.000122841411579311e-01 4.060098991803096080e-01 8.946717262658978598e-01
-1.639537528291067359e-01 4.116095145095696739e-01 -2.408831656800108079e-01
9.399383997980119421e-02 -3.040060855244041682e-01 5.040215319925147597e-01
1.882124817766444858e-01 -5.210484764124737600e-01 -2.735344115291624689e-01
-2.132221828761978466e-01 -4.708130606622610848e-01 9.368956694816431285e-02
7.638027481589222401e-01 2.092418656240675467e-01 -3.761051024228861950e-01
2.858121104731991546e-01 -3.468825015179162197e-01 1.988415785068896602e-01
-3.214939771640852872e-01 -1.677061107429796416e-01 -3.743281675186432289e-01
-5.813972134287362925e-01 -1.909425395019109239e-01 4.090748140305956737e-02
-4.621231725252780698e-02 -2.182517238168647788e-01 -7.600904026963481996e-01
1.991837022391599599e-01 -3.995942919214851008e-01 2.090681751884681527e-01
1.318756526745186175e-01 -3.678549534578131608e-01 -8.813020690970682081e-01
3.002601651507398606e-02 -7.978982964563116620e-02 7.856653808442199960e-01
6.056940568677428027e-01 -4.846117264957118809e-01 -4.603927746545441457e-01
-5.341208635222701728e-01 2.328228781534434633e-01 -2.775038029684312110e-02
7.166127829762225510e-01 -3.784639682371991887e-01 -3.910094664814487420e-01
3.968374502709989260e-01 -5.316874868309453550e-01 -4.386596662618014730e-01
-3.958377705383727685e-01 -2.992407552085184497e-01 -1.271268150620836479e-01
-1.170220323851586669e-01 -4.286434255497767465e-01 4.842827083949884925e-01
-6.140601004485417291e-02 1.543679804594188035e-02 -7.879389277137809344e-01
-5.099513866593130551e-01 3.989087385193965107e-01 1.447325702271127501e-01
3.185480288782410740e-01 -3.217755325603063876e-02 3.936945302673241498e-01
-2.641688501189013438e-01 -4.426791959991461245e-01 5.621805321981376835e-01
3.827336676612989874e-02 4.448794999823996732e-01 3.782889323533240589e-01
6.858103868885296883e-01 2.719607129847632088e-01 -3.365542134750362235e-01
6.482463407951318812e-01 3.907652217298115405e-01 -5.839879602205989562e-01
-1.732109903149387509e-01 -4.190059586943397640e-01 -2.543427900314535473e-01
-1.360257406413344639e-01 -1.228793467615906798e-01 9.901169003931261647e-01
5.298559423194245666e-01 -3.488984403430246406e-01 -1.125378153706592665e-01
3.949111927532477084e-01 -4.131025807672720762e-01 -5.153611476455564194e-02
-6.862595235377096925e-01 7.270440066338500207e-02 1.091906089096600502e-01
6.417026592584978983e-02 -4.651900489049031612e-02 7.501974855057597091e-01
5.146657291120597388e-02 -1.263255422452368992e-01 -9.484436416995140062e-01
2.332919902097010389e-01 -4.277577410166742422e-01 1.052128857081963409e-01
5.371549759176357658e-02 4.454932449031945296e-01 3.471359370067237382e-01
3.408248919454071602e-01 1.931277980577290054e-01 2.977902250993954003e-01
8.893252125364475846e-02 -3.983014883387481914e-02 7.172713188928722117e-01
-6.011878236575154411e-01 2.987164506476293058e-01 1.223251625124411879e-01
-3.584432079393113368e-01 4.925545594087978873e-01 2.097813705342010115e-01
5.967406902562703008e-01 3.998969786841816143e-01 -5.239855908006153529e-01
3.264125930136902443e-01 4.173059084405335017e-01 -7.434992011209055063e-01
-7.150807291268389543e-01 4.049481579108561019e-02 1.478754877608270402e-01
4.814534732089841285e-01 4.203299302284763672e-01 -3.933928050887889882e-01
7.260458004855240288e-01 -4.047038266144700747e-01 -4.419113458255396476e-01
-1.237504650805062445e-01 4.620017434503367881e-01 -1.355833673754124058e-01
3.960371823690044257e-01 1.362561717441024001e-01 2.502806885477039667e-01
2.422938468769078868e-01 1.267669860722904773e-01 4.849766409800512768e-01
4.525515954439131017e-01 4.398750178931270516e-01 -6.575022733504414241e-01
4.418504163252527372e-01 1.396920348291690595e-01 1.793409081942869965e-01
3.759546095668468979e-01 -4.888617084312024685e-01 -2.262098444819562737e-01
1.781401237534648296e-01 2.611092112817390287e-01 4.893772518679202488e-01
4.755899239805552181e-01 2.754751470983150541e-01 -3.777488222915104522e-04
-5.323324366353093806e-01 -4.175537913331437423e-01 4.360041304445759214e-01
-2.303302287683834937e-01 -3.150109670672187612e-01 8.907465494718462828e-01
-4.096864831397881712e-01 2.775854757173722986e-01 -1.512427814016461813e-01
-3.255833809787396782e-01 5.349682980878900374e-01 4.653636404706036900e-01
3.984496092977584669e-01 -2.503003526260210929e-02 2.804716568688471190e-01
-8.965432057467926930e-01 1.438419516250621921e-01 4.222655913708576181e-01
8.189704803534171296e-01 6.985745963792648616e-02 -3.519174004347285778e-01
4.794747907341906715e-03 4.277362045687650438e-01 -3.840614830962449933e-01
6.328701013315986001e-01 1.918514228211460615e-01 -1.523460369266439185e-01
-2.576379006726228771e-01 -4.117988912160184256e-01 -1.232189124335620889e-01
-1.588797809195852673e-01 4.881213607135114207e-01 9.294436569786469413e-03
5.565948895199418489e-01 1.768761232753700285e-01 -2.108481940807569247e-02
-7.150009195409988243e-03 -1.629635403794779946e-01 -8.493879116933967799e-01
5.533317627036761222e-01 -4.266728580559298045e-01 -2.684189122543013117e-01
-1.007158803253790924e-01 -1.698039347365645491e-01 9.070509935034922755e-01
-1.696170165074719401e-03 -4.684173462338280247e-01 2.154872280871605317e-01
4.556647698797809953e-01 -1.488577289443522300e-01 1.643531367021519307e-01
2.588653252355389012e-01 4.566021151529468525e-01 -4.646583070192111253e-01
1.698972690016821996e-01 -4.676823051475202386e-01 -7.276858531891527981e-01
-1.484252487861895640e-02 4.639397003845567857e-01 4.067025819161649847e-01
-4.608464621136658113e-01 -4.440466639110021707e-01 5.120671673379535438e-01
-6.575792394252412132e-01 -3.881151692197745695e-01 5.448729914525010098e-01
2.527952942008473980e-01 -5.051209550262431014e-01 -7.401009012172059531e-01
5.231521417300748489e-01 -5.329900782152426908e-01 -5.431611385014113447e-01
2.205929399982714881e-02 -3.768849932651631707e-01 -6.862042489317714544e-01
-9.571621596100171603e-02 -4.524389254857731357e-01 -2.828504031369321048e-01
7.777563046373461297e-01 -2.877725325935187040e-01 -3.681638357086912117e-01
-7.172820874816275560e-02 -3.889906862934995324e-01 -5.059368837049306178e-01
8.289858035575597972e-02 -4.556053825096478271e-01 -6.069731500136320568e-01
-3.609153513761435561e-01 5.284588091406025034e-01 3.964918036126799938e-01
-2.722192719529038518e-01 5.140991491088395815e-01 6.818062769013858437e-01
-6.816880204494355500e-01 -2.494496620400188935e-01 2.636331527606936009e-01
-2.874522488949147747e-01 -1.318305241616364804e-03 -4.679982882581565917e-01
-3.371827469981851511e-02 -4.945119739509815648e-01 3.713963169646700840e-02
-2.481862454878938917e-01 -3.886295652782116861e-01 7.475719536617981831e-01
-3.300172744610965769e-01 3.628282096590968453e-01 -1.387423862311860934e-01
-1.845266734742441461e-01 1.648905906779604136e-01 -5.504144755059932059e-01
7.414853718080054445e-01 -2.815461928983270523e-01 -3.143024756964192257e-01
6.338468093409908022e-01 -3.650932099139238551e-01 -2.671915228192989211e-01
-3.185768228463786711e-01 2.590188000424609727e-01 -2.903699344968244112e-01
-4.286964482445777130e-02 1.632384076960792518e-01 -7.431610942651862839e-01
1.404003969922172079e-01 -3.438479732573828523e-02 6.459949973226952746e-01
-4.964494223074139567e-01 -4.008194724248561602e-01 2.839329416011783791e-01
-7.675668488253346577e-01 -2.124283039920252802e-01 3.540856637513854488e-01
-2.396785881817936892e-01 5.220340739846714984e-01 3.030700302400588519e-01
7.934117907801683245e-01 -3.580103197466854570e-01 -4.625404126636792346e-01
-2.818547834146822306e-01 2.324929264714611643e-01 -3.649397446087199737e-01
3.441105546114743285e-01 -1.000081313125745497e-01 3.403191434607031329e-01
1.188621565185799395e-01 -3.688401247090533630e-01 3.668760238782759475e-01
-4.360021520982163556e-01 -4.275385600130364172e-01 2.868148846077798741e-01
2.731673923308320928e-01 5.824882615625696231e-02 4.585922887402106851e-01
-5.909510064693673792e-01 -4.167273240555719460e-01 5.625887460109531002e-01
-1.752648763923595199e-01 -2.393802856716749361e-01 -5.453736011894317892e-01
-6.139797451076085127e-02 -3.708106272176458496e-01 -5.585722359918081636e-01
4.875736466023691817e-02 -4.880271797850405102e-01 -4.042481939503342336e-01
2.166693464719222084e-01 2.554877270812212497e-01 4.347961456392707702e-01
7.153064434876754696e-01 2.648550809655903504e-01 -3.734928080917363502e-01
4.658322059680842370e-02 -2.673134336044437620e-01 -8.643307528899134562e-01
-7.840984876696073524e-02 4.994984403706198561e-01 3.316421113125133102e-01
1.443711901076777659e-01 3.714457015035788068e-02 6.475434571967203512e-01
6.697706257975075683e-01 5.472006990058197323e-02 -1.237759011373149726e-01
-4.727614568440357545e-01 5.185930499076114586e-01 4.242658412695161085e-01
1.131066494459884858e-01 -5.150225522961937585e-01 -2.559802323178146932e-01
4.023047782085653612e-01 4.467928672393260969e-01 -4.456148690370935195e-01
-1.798442176856777236e-02 4.989580166092814628e-01 6.387218773541154804e-02
2.531790822120142948e-01 4.194869927258167985e-01 6.560401290279985198e-02
3.344767827639570923e-01 4.542506372519858893e-01 -3.304422602099433837e-01
-8.314636864710975850e-01 -2.530657398032741812e-01 5.113175144605647260e-01
-3.490192474613980078e-01 3.161286982411761759e-01 -1.839179345912418106e-01
-5.985530372501650653e-01 8.387949729567761858e-02 -1.326374661573248570e-02
3.275781765579717231e-01 -5.240509191288500457e-01 -7.940347854982888753e-01
-4.708581215259580732e-01 -3.262319113277065141e-01 4.150155364760785281e-02
-6.570037574184890428e-01 9.695135027169275721e-02 7.232222791661802042e-02
5.231575987893929414e-01 4.609103256229771933e-02 9.482414623940352283e-02
-4.459180494820850771e-01 3.247713448166073547e-01 -4.845987097254388781e-02
5.416455441949884486e-01 4.186132966285903145e-01 -5.179197030045499250e-01
2.776491599460086390e-01 -3.315838144051199143e-01 2.319940204221377367e-01
4.825156281598953767e-02 2.702552216693749898e-01 6.833363306752537891e-01
5.604748798855506697e-01 4.246716257235231273e-01 -6.252105111736478982e-01
-2.801428757846056161e-01 1.280970360578079226e-01 -4.418788658946298797e-01
5.048091473488770520e-01 1.542678317282083211e-01 7.491038927421736493e-02
6.344445749448770488e-01 4.063924408481360828e-01 -6.451471976516066631e-01
-2.812676932843101718e-01 5.312389067306210189e-01 4.495062218265353238e-01
-4.023914479150971779e-01 -4.398765892991398085e-01 6.721194107094933257e-01
1.549586843275039816e-01 4.477664339359603840e-01 -4.531155688216451094e-01
5.540147926014619140e-01 3.318073334884129588e-01 -2.282866117613503443e-01
-4.869255409581918492e-01 5.166388964471624323e-01 4.286604664046700930e-01
6.607804530988176106e-01 -4.495430396270647666e-01 -4.427385545802884348e-01
7.320977407944086190e-02 4.084715768437360284e-01 4.226926834586146597e-01
-2.645335173338211332e-01 5.112226258530755407e-01 6.828261028953033218e-01
6.302395446863955364e-01 1.889423599040906121e-01 -1.455252082521218127e-01
-9.949356362932153253e-02 -4.495634533425980212e-02 -7.392217283151010232e-01
1.279276595411382444e-01 -5.113687143869745100e-01 -1.556419401202480957e-01
6.677043179841407605e-01 2.139938578433923932e-01 -2.296855427977785025e-01
-1.446638077882190232e-01 -4.572309283453526718e-01 -1.641775204562769541e-01
2.251151293313773116e-01 -5.287160087945736997e-01 -4.249457803325165095e-01
-8.167555371766902494e-01 1.310910700747031365e-01 3.063990619803343418e-01
-8.114997881385335177e-01 3.077516330133233668e-01 4.084318274291952044e-01
1.990663167609168227e-01 -3.954954727115392865e-01 2.178154022618074837e-01
-4.251123984116731563e-02 -2.057960003310922159e-01 7.969808755452874038e-01
-1.078496941152414651e-01 4.622469184593959723e-01 5.905224581473547119e-01
-2.446586976783720058e-01 -4.709343439159615619e-01 2.880472998356757852e-01
6.459399638298231050e-01 1.095424233066317893e-01 -1.118743378028731333e-01
2.970848888458767489e-01 -1.064515929716948750e-01 4.033287825226612999e-01
-2.204298542576224595e-02 4.931459204533198415e-01 2.450698793260840946e-01
1.224256258018504989e-01 3.935240579667680372e-01 -6.108576149849485049e-01
2.819099059227402893e-01 1.684969485483721052e-01 4.043949990816350093e-01
-9.717177007815788747e-02 4.485720051167571554e-01 6.151899953408955790e-01
-3.328493309014144974e-01 -3.393750491966994187e-01 -1.642709059536311689e-01
-1.162485763028600280e-02 4.631213415611129536e-01 4.038476774713350981e-01
-6.645412820785085994e-01 1.186621394323437023e-01 8.889628764784170134e-02
-5.924683362407167087e-01 9.769397827699521919e-02 -1.849191266629636107e-02
-4.661678436774105427e-01 -2.597504736669283831e-01 -6.768163598464248254e-02
1.427053213278244304e-01 3.305577004900346338e-01 -7.751002533686656149e-01
-2.215598630059708030e-01 -4.435094981062042141e-01 -7.387776833315402858e-02
1.952043371012298356e-01 -5.237802851598774012e-01 -4.430938689413679299e-01
4.643230926612428311e-01 -2.014424084747889754e-01 1.213969523634396558e-01
1.299381719903036081e-01 3.779200119257375978e-01 -6.591065776625549821e-01
1.028740031513697556e-01 3.437587003082213100e-01 5.025048755652112842e-01
-2.581269649809251887e-01 -4.512222046073212089e-01 5.083286304252755405e-01
9.194945366812756760e-02 1.151484598326524972e-01 7.120186566497832548e-01
7.322062672642150050e-01 -8.867749790082943284e-02 -2.033356823103295297e-01
1.644340188098967759e-01 -5.009818422847773789e-01 -8.920704869386253399e-02
-1.892649586552466734e-01 -4.185298456222942276e-01 5.928026715986791650e-01
-3.563200838383032143e-02 -4.617235019064467316e-01 2.762077916946601985e-01
-5.672886924197370062e-01 3.782005503023608828e-01 1.813735601045879386e-01
3.657721406904970718e-01 -1.334703460800143182e-01 2.960440093235963133e-01
2.608387205132065012e-01 -1.554679937471496187e-01 4.283467026413571022e-01
4.161625871684156430e-01 -4.438753238162084225e-01 -1.433920645085132173e-01
-1.278650717412343485e-01 -1.644410455819273198e-01 9.478931640361504263e-01
8.586512359532649796e-02 -1.747144756732072141e-03 -1.000000000000000000e+00
-4.290340736463207350e-01 1.680614771397520024e-01 -2.152705986250107451e-01
3.446527595878012135e-02 -2.089559810499499182e-01 6.920265065075336119e-01
-2.841380810771060306e-01 4.081459643403370641e-01 -1.088356285786726829e-01
6.239798315635372017e-01 4.038619880112766514e-01 -6.045650612067352547e-01
-3.064082058584675083e-01 4.346480950490609896e-01 -2.183849293560352969e-02
-4.073563055702760782e-01 -4.010605942214569564e-01 1.169533218310851441e-01
-4.270642432204950212e-01 1.620813436138776042e-01 -2.214548246402403830e-01
-2.191816355387326276e-01 -2.895539558470315300e-01 9.198061298318066514e-01
4.044808850658490607e-01 -5.443171493252862980e-01 -5.448557669118579971e-01
-5.850199070236179466e-01 -4.200018245364423725e-02 -3.277766775134623167e-02
1.013770003741445713e-01 9.742128193746337622e-03 7.084442077630526136e-01
6.877811315688300842e-02 -1.671761137525633600e-01 6.813281235827154392e-01
7.978808193766091517e-01 2.659321768526025087e-01 -5.106627249615827147e-01
-1.164095223576204485e-01 -1.942326450629834056e-01 -6.689641758950244377e-01
4.509266704184813207e-02 -2.593659905764971740e-01 -8.688610041027733377e-01
-2.292526361015109759e-01 3.929204550146457864e-01 -2.058342666876837312e-01
-4.085931284143866637e-01 8.374551494746886038e-02 -2.810595475951678801e-01
-4.885366839153915675e-01 -4.415679080113227850e-01 6.084374038731815704e-01
2.658073028970731611e-01 4.584881483832609073e-01 -4.472347084756103652e-01
-6.669984523321847991e-02 3.724621099347169562e-01 7.336368174005670761e-01
-6.985744803141505921e-01 3.784476264183884719e-01 3.469307557924276586e-01
-4.565044286430845755e-02 -2.659014293648958027e-01 7.336288283203112881e-01
7.199335832360870269e-02 8.062466503960617759e-02 7.488344175003969205e-01
1.122237668365915070e-01 3.099509618789869289e-02 6.939432464333267214e-01
-2.208588315412936265e-01 -2.511873972922452070e-01 -4.635781393453863308e-01
4.709785473129485256e-01 4.244237616961367143e-01 -3.962343471903888026e-01
7.736051586160103133e-02 -3.340262470225193181e-01 4.791780561715399678e-01
-9.976956570826918391e-02 2.034561209310638968e-02 9.967232066595286266e-01
4.023031502173606833e-01 4.453808740954374179e-01 -4.178620750234396941e-01
3.014597281103641446e-01 -5.334360337205842351e-01 -4.164975392024917178e-01
-7.502036574517934042e-01 -2.491670182472541517e-01 3.736247033516923999e-01
-6.975549778095586628e-01 -1.465092305486213331e-01 1.840348087638261354e-01
1.283577455685531443e-01 -3.545843805015544414e-01 -8.950859659676827507e-01
-8.926145950893236147e-01 -6.877998699340753808e-02 4.328895148060771247e-01
4.811555287114783197e-01 -3.576308891411464352e-01 -6.301079351389111960e-02
-4.365365632263415452e-02 4.904797206169978496e-01 -5.477170805557295824e-02
-2.279562980909361283e-02 4.310557999388951456e-01 -3.444557882602965471e-01
-1.206017115729930145e-01 -1.242743962939827918e-01 9.682162892766394968e-01
-4.643033092414101948e-02 -4.712316326090626450e-01 2.377803402221394802e-01
-5.364926451983776934e-01 -1.187716266311279190e-01 -7.710584086665223102e-02
-4.637120221203469561e-01 -2.759466374427994029e-01 -5.064799681802292092e-02
-2.582981898184659730e-01 4.327880770742934535e-01 -8.107375367298547131e-02
-3.931781857648399270e-01 4.335522998657431737e-01 7.523256924264923318e-02
-7.526989361985479687e-02 -2.396063370879528420e-01 8.039888456057134869e-01
-5.231739284208193341e-01 5.425343388769150454e-01 5.903997414111612496e-01
-2.625282726959607960e-01 5.150818403463486295e-01 2.445074811080552302e-01
5.169180657085568065e-01 -1.399057618036344264e-01 8.373061485968066875e-02
2.732840690730152164e-02 3.984330375516216827e-01 -4.913503275284087368e-01
-6.462675477135390034e-01 -3.564371566585112783e-01 4.133048415450570334e-01
-1.713063139681964345e-02 4.359261889118807853e-01 5.083854639474235659e-01
1.953901186170473869e-01 2.734952156233139142e-01 4.489071997068034836e-01
-5.818949611165645797e-01 -4.280752014920652382e-01 6.596432123484983201e-01
-3.273178362746256287e-01 -3.921097173450753259e-01 -5.552295494998157888e-02
-2.010881215331636607e-01 -4.105259859327957672e-01 -2.290021513283576060e-01
-3.438955758249448436e-02 -4.859792205341304516e-01 -2.295179323782865488e-01
-2.314468647370943044e-01 -4.419615512395493884e-01 -6.117123900490553656e-02
-3.974156251537909190e-01 3.890785556318268057e-01 -1.043668411166145948e-02
1.433039789035688572e-01 4.524128220935624833e-01 -4.200571050784321359e-01
5.400028378949124630e-02 3.130444953965575428e-01 6.258317422583208334e-01
-1.740979074278666550e-01 -4.653867569905129620e-01 -5.413049376874987800e-02
1.161302763606693322e-01 -9.763727153069121090e-02 6.583078185244628511e-01
-1.520671003633138063e-01 -3.740168554623981012e-01 6.765829803856641123e-01
1.429510447618871360e-01 -4.127947478237453116e-01 2.449139695311506326e-01
3.052746041787649522e-01 4.076521657222996198e-01 -7.610928611724286919e-01
1.047512768041276299e-01 1.606930489404174434e-01 6.756216639021155324e-01
9.644920089585350131e-02 -3.445850756663585424e-01 4.379062057025617238e-01
1.586264396702645740e-01 3.778973077831994654e-01 3.462111611265260014e-01
1.753468364188717488e-01 8.169632487781937347e-02 5.975043137276615512e-01
-4.485076924585182020e-03 -4.048538115699594764e-01 4.325473355617383553e-01
-1.310651244511697733e-01 2.647332126972228306e-01 -5.289508322994227463e-01
-4.783505614860493194e-01 1.667085050895522613e-01 -1.484780502291876414e-01
3.562679891557840040e-01 2.047553783720460763e-01 2.647930622205867945e-01
