2.835481843970488747e-01 7.967595367071858559e-02 -6.503009090096317779e-01
4.578913548885564233e-01 -3.440019124356967772e-01 1.710092753993131820e-01
-5.392817309558016470e-02 -6.887754079365745463e-01 5.389515013179546621e-01
1.898762394844006884e-01 9.194980426239074411e-02 -7.148206506341174826e-01
2.726329001575399924e-01 1.083462962485968739e-01 -7.054735086722265791e-01
-5.702415654290887703e-01 -4.179455214752123005e-01 -1.721187686837145348e-01
6.467555249400100958e-01 -4.653032360346964214e-01 4.700098915887893081e-01
6.727624728140266797e-01 -3.300245460771829009e-01 2.453026792910979748e-01
1.739103490087534898e-01 -5.340898670860050323e-01 3.730468366052991369e-01
2.108387558082688296e-01 -7.111196032380593182e-03 -5.318881234129476665e-01
-5.740689156481803002e-01 -6.200495364219729133e-01 1.796866364968519869e-01
-4.032936494885736023e-01 -6.426753900421124932e-01 2.977497693302434412e-01
5.103401296537420917e-01 2.185468632051557336e-01 -7.890201438645209064e-01
-2.692951082993310652e-01 -7.438475739898925410e-01 5.363222010430794828e-01
-1.919040676516169663e-01 4.987423898858260596e-02 -8.166629590807494843e-01
-3.868025956662496934e-01 -1.188518820619043626e-01 -6.110576339488688058e-01
2.919846616438122600e-01 2.276169963210606384e-01 -9.052345053273244124e-01
7.543977746307908294e-01 -6.505311385991553730e-02 -1.807268489308836434e-01
9.042698344204593841e-01 5.628570065038295683e-02 -3.241242476271696260e-01
4.200453720558999793e-01 -3.332964266814828491e-01 1.348885030895418113e-01
-6.692385719940133204e-02 -7.230401902674087333e-01 5.929226446398161432e-01
7.208583082531255792e-01 -1.892799971967205619e-01 2.118451383595281248e-02
-7.881689644822134078e-01 -3.117778951206665039e-01 -4.580004580585724239e-01
-2.917303663280894632e-01 -6.427668943051265682e-01 3.491796018025172810e-01
-1.691639678618370723e-01 -2.448734356354691777e-01 -2.905758446137988726e-01
1.575678987911330042e-01 1.502843668770280916e-01 -8.317196962677998462e-01
-5.012396038191649916e-01 -7.102454246134272120e-01 3.709461612350333226e-01
7.551897061016160650e-01 -1.835860249248167098e-01 2.700063369907325719e-02
2.573938517519143154e-01 -6.211793990514712371e-01 5.637682617949962838e-01
-7.761195305013871178e-03 -1.359091524340836077e-01 -4.070259955994098289e-01
2.531214003565104287e-01 -5.755154981105525813e-02 -4.242155775491537328e-01
-4.722707674395228428e-01 -1.762501662515722767e-01 -5.499216201318383179e-01
-2.976941659119059502e-01 -1.767591460331995046e-01 -4.688032000975024816e-01
5.870612422648804340e-01 -5.084883895356169248e-01 5.181257926871478681e-01
8.757742976987823447e-01 -2.357611122726604169e-01 1.736922066819281685e-01
7.104468896362765573e-01 1.627232071619076903e-01 -5.994006851979922779e-01
6.529202151299211276e-02 -8.635795441399582439e-02 -4.601395665947648483e-01
3.124782571007698184e-01 2.082755366920721329e-01 -8.619802308023167825e-01
8.554202907254794264e-01 -1.350200653853380339e-01 -1.189977829687287672e-02
-4.563638656165371343e-01 -4.867392158036953353e-01 5.634825442678378536e-04
6.025801772462414663e-01 -4.612927085433279895e-01 4.426926885265881628e-01
4.799044352450290013e-02 1.990498551605531311e-02 -6.539888807875446908e-01
-7.591450438518003718e-01 -5.550182463753419171e-01 -1.913337699853350296e-02
5.741113482306211407e-02 -3.171002211776770552e-01 -6.009673702980323357e-02
6.313673555071143140e-01 1.944046742958970009e-01 -6.911663970071358909e-01
-8.154061000239125334e-02 -3.839789422911129568e-01 -6.954263133516674737e-03
-1.478265247117387937e-01 -2.142348303971746901e-02 -6.716773098010097032e-01
-1.471330109106625539e-01 -2.606230933997769617e-01 -2.528986248530331049e-01
-6.317327152832384884e-01 -2.747421329538561330e-01 -4.509000017800977589e-01
5.017405425773133754e-01 -1.517305061761402007e-01 -1.452024533464541800e-01
-1.967241541347505840e-02 -1.104718291991654971e-01 -4.570003846521287216e-01
-7.613419199147931637e-01 -3.169863546273494204e-01 -4.365601161500715088e-01
-3.492622907544852828e-01 -5.001429960358145799e-01 7.323163116034235587e-02
-2.810448059711616597e-01 -6.693773296945974005e-01 4.006429925049330709e-01
2.241789732979770911e-01 -2.807146335338334131e-01 -4.711089383941507308e-02
-5.782897685424437384e-01 -6.923020970140518759e-01 3.041468027410925701e-01
6.895203998285726055e-01 -3.186777708765441974e-01 2.331536651289500273e-01
-5.575283525351135694e-01 -5.535581006636581813e-01 7.096669895399118633e-02
-2.389744798489358280e-01 -5.764933730201835527e-01 2.574839142988619156e-01
-7.120941662477605627e-01 -3.660689550432146833e-01 -3.280619789824545940e-01
9.864142239411287649e-01 -1.560497554476400310e-02 -1.606073657766361185e-01
5.868811404267222365e-01 1.323605731451625855e-01 -6.030693407016425311e-01
4.671408158591851545e-01 -5.160298266520425559e-01 4.762085725631071131e-01
-4.827323751255945261e-01 -4.194364348623587091e-01 -1.292950263467866345e-01
8.036721741525766349e-01 -1.255800861700756832e-01 -5.219548241780835873e-02
8.947726848854431481e-01 2.198252887130495298e-02 -2.684781670262557651e-01
8.391217873425490525e-01 -2.333254959549020957e-01 1.525873577105558709e-01
3.563681616642854766e-01 -1.251086188467846472e-01 -2.585822286602919573e-01
8.722858269164932565e-01 8.940430113609354468e-02 -3.967609989972976092e-01
-6.037656844416530166e-01 -6.819103365604730627e-01 2.742596250738398855e-01
3.032092308754378296e-01 -4.078206463568723183e-01 2.115695391484985199e-01
7.869235074284586240e-02 -2.436357969362411627e-02 -5.624353853364032485e-01
-5.928336770264693856e-01 -4.784088924686763500e-01 -7.672546793136253429e-02
7.516512950627304290e-01 -3.615696679326825258e-01 3.367422231973213886e-01
-4.347267042071192855e-01 -6.274787090394202682e-01 2.567191314007270520e-01
-7.313627489957383876e-01 -2.540383416635318969e-01 -5.329053137895918280e-01
3.022599887805372254e-01 -3.625324299347970625e-01 1.319053110807824336e-01
2.813392042753097289e-01 1.862246077113376141e-01 -8.377141385847239885e-01
-4.390163424133945447e-01 -2.414835626554799608e-01 -4.205188539613829435e-01
8.933977056178876719e-02 -5.044824921501889214e-01 2.823861268245504430e-01
5.144835062626923472e-01 -3.248252066592985376e-01 1.634685640225974346e-01
-1.699413897423359687e-01 -4.943453045555873393e-01 1.454973291858986384e-01
1.522233649299793989e-01 1.918822012988000703e-01 -9.069477953029867479e-01
6.874367976857974627e-01 -2.989099503770472066e-01 1.976139595739340449e-01
-2.184579384729745111e-01 -3.266851013003761045e-02 -6.844642651853640736e-01
4.072456784665290375e-01 -4.892735272442290118e-01 4.018753702716499343e-01
1.302554366939229734e-02 1.041472583428509208e-01 -8.174321690038993671e-01
-4.464971454028648923e-02 1.752736359713890635e-01 -9.683669986300355026e-01
-6.558825665601191179e-01 -5.184686112063039420e-01 -3.561889202275252825e-02
1.056469599483329941e-01 9.888205380895438712e-02 -7.656562535872966091e-01
3.286026231642686368e-01 -4.151824861649127119e-01 2.361181963767244596e-01
-9.556528111108054946e-03 -2.631537261351256096e-01 -1.852471751558164015e-01
5.262544067268114523e-01 -2.448227064220897808e-01 2.892019967919025325e-02
6.462896946331279091e-01 -9.073712169825963458e-02 -1.854766855932995784e-01
-5.634531009738251717e-01 -3.479303137012216274e-01 -2.914849054620761715e-01
2.584021642047381814e-02 -4.749166085962658879e-01 2.014813518980616835e-01
6.047709263143258296e-01 -2.406724924647112851e-01 5.774260526692588658e-02
-5.497988242252691560e-01 -4.774802439771801132e-02 -8.103541178538401502e-01
5.293472160614961508e-01 2.183800716536912767e-01 -7.799935050276453063e-01
-6.453728861478913448e-01 -5.188875177778075054e-01 -3.005624617064213758e-02
-2.989466677741241529e-01 7.329568545029983839e-02 -9.068290856446306059e-01
-6.143971170251978364e-01 -2.396514353467506242e-01 -5.043215752281571262e-01
-7.054395326808744482e-01 -6.024020218426613393e-01 8.844140242444534228e-02
-4.384117718678455233e-01 -8.902354149274693818e-02 -6.869572423548198081e-01
-5.553712863347440853e-01 -5.544078364445511609e-01 7.344453770786775471e-02
5.205832763855173795e-01 2.186718953113855335e-01 -7.845315614091423750e-01
-5.955054485868645914e-02 -2.697515066622834246e-01 -1.966800324370814035e-01
-3.422737652106637163e-01 -6.080590269017356331e-01 2.652334499974398629e-01
-2.547287839335667936e-01 -1.492371844135262082e-01 -4.972055330520911420e-01
7.266885661911824945e-01 -4.664874003467385233e-01 5.088153249524023369e-01
4.676024517633945443e-01 -5.669267878759178814e-01 5.654607536056514006e-01
-3.428472608220098916e-01 -4.010796968287452802e-01 -9.712335869569914404e-02
2.748478725648576537e-01 -3.368382868238185557e-01 7.435808242553072767e-02
1.075016119009727100e-01 1.411626921447944605e-01 -8.387704212452813390e-01
5.295846065237203026e-01 -3.647666956358581181e-01 2.402827275334993573e-01
2.342166997313301774e-02 -7.099963160280091667e-01 6.116224358174797704e-01
-9.738799369543159334e-02 -2.818014693114891389e-01 -1.929881040773442635e-01
-1.196984455100825462e-01 -7.434972488414978153e-01 6.044576176325531236e-01
-4.434420034894037688e-01 -5.991061859002676515e-01 2.030785620454896023e-01
7.768651371545792772e-02 -9.410798510594337030e-02 -4.408855446255143806e-01
-6.030491048399801990e-01 -5.471240470026494940e-01 3.879144599154226575e-02
5.050777917897378844e-01 3.041451780784393613e-02 -4.623164808367451473e-01
6.919355133541326142e-01 -2.988771367837720488e-02 -2.709508202210998418e-01
2.645914162562769123e-01 2.017312950620961387e-01 -8.725383812897644642e-01
5.075769332963534497e-01 -1.578691723908747235e-01 -1.317812058317710810e-01
4.148088516969637429e-01 -1.865170451297903931e-01 -1.242963928166818804e-01
4.312621533410377350e-01 -5.210486250888352044e-01 4.685002345829735737e-01
-7.455868278608344946e-02 3.132329764881659068e-02 -7.302826563230323531e-01
3.346116520408130013e-01 -4.775962318495455272e-01 3.480673878022282897e-01
4.534990585311036715e-01 -1.704580021990217131e-01 -1.346099848216576467e-01
8.739735521451400535e-01 6.279837133966340024e-02 -3.494405138666449306e-01
7.981670002767168315e-01 -3.611215672063849969e-01 3.573349532531683304e-01
6.697924530076270200e-01 1.725455643885069612e-01 -6.352671432922543104e-01
5.550068047331386811e-01 -4.915809758901216187e-01 4.738168080115735536e-01
-1.551754887847436315e-01 -1.104200003660100460e-01 -5.193625204806483486e-01
-7.879288597555645923e-01 -5.175147652627362094e-01 -9.797044277603154938e-02
9.047002863052451271e-01 -2.667440418600601215e-01 2.411874422995774481e-01
5.055800468738409492e-01 1.151125941769994554e-01 -6.102579595531628653e-01
2.567182150730742962e-01 1.136770292554209749e-01 -7.221129003739056307e-01
1.527078325314278895e-01 -4.373017350165258610e-01 1.939802108560751415e-01
6.793524938538093583e-01 -1.826316846308732866e-01 -9.520472216370022903e-03
1.345066451715992151e-01 -2.834933738642887446e-01 -8.345931580374324477e-02
-4.100054498536145897e-02 -1.976103421575121921e-01 -3.143602521973714037e-01
-5.680651723829734934e-01 -1.040162897851275858e-01 -7.203118706937784443e-01
-3.121474021327355630e-01 -6.012972325126554329e-01 2.672490475652462005e-01
3.081983754109037243e-01 -5.727773117906675981e-01 5.024404094645071872e-01
2.642821002468881408e-01 1.817780112498715295e-02 -5.515688421885268644e-01
-1.163626900921736068e-01 -2.018577005558307436e-01 -3.415630948757836793e-01
6.703857576383257522e-01 -1.177971619910813533e-02 -3.125326209829742963e-01
3.324516238521747491e-01 -1.883039755751860223e-01 -1.590181944722852680e-01
-4.472071393752483082e-01 -5.211729824905656505e-01 6.501055831568992860e-02
2.442130447703963481e-01 -5.586018510055874575e-01 4.482366666108320019e-01
-1.374872020926312111e-01 -3.346701217483860069e-01 -1.189266557695183718e-01
5.547674391412833472e-01 -5.629977535272935318e-01 5.986445636608087595e-01
-3.872815654153527465e-01 -3.325861946547928882e-01 -2.373672093181387055e-01
4.904969216405739019e-01 3.546385913611952573e-02 -4.778506362476500069e-01
-9.570725037123421763e-02 1.456102114132805381e-01 -9.399371637214608555e-01
3.582177542906923168e-03 1.210488485599195835e-01 -8.513398766353899028e-01
5.447305898008921732e-01 -3.538246013434165893e-01 2.281008882430335116e-01
-5.824906304367732934e-01 -5.890842200356579683e-01 1.216451083398283478e-01
6.262470895536474957e-01 -2.339280078206758817e-01 5.581321983158974570e-02
5.713625664006853899e-01 6.241888844884997678e-02 -4.878438145764454337e-01
-5.187818972474328438e-02 1.569057031150842829e-01 -9.395557167593506787e-01
3.114368186519629322e-01 -2.380433907361938495e-01 -8.166070619831895805e-02
-3.894390552415484819e-01 -4.162309920301713873e-01 -9.202903095207760897e-02
-1.689097503896697661e-01 3.009845209064641175e-02 -7.714996391660314812e-01
4.146683961505139848e-01 -6.048008576907702993e-01 6.073920658010520945e-01
8.193065525406972860e-01 -1.208455078163226948e-01 -5.329333924640455855e-02
-7.811461777761723457e-01 -2.989232577303124194e-01 -4.772612102654973931e-01
-3.606534603759876112e-01 -4.870919290324291495e-01 4.516496820309979371e-02
1.982089703414480902e-02 1.906371927650808429e-01 -9.656163144221279193e-01
2.798070473742894082e-01 -4.075535458827571067e-01 2.003476179114903888e-01
1.062775116535060738e-01 4.827007849163718334e-02 -6.768250053282258705e-01
5.592806626034150241e-01 1.972970791529651269e-01 -7.293544072895550290e-01
1.567407734814068587e-01 -2.921462313264784338e-01 -5.810399348078426618e-02
4.611273764386332463e-02 -1.136577888958674454e-01 -4.211947448593842958e-01
3.384353449042635242e-01 -3.607050484589468531e-01 1.453331174206738130e-01
-6.854614278874008280e-03 -6.193785289217749179e-01 4.391804004649643156e-01
-3.357438493909313815e-01 -2.663239858684422479e-01 -3.296029260151391860e-01
-3.314356730379340310e-01 -2.165677365515553954e-01 -4.146675223117152198e-01
3.203031047286758470e-01 -3.517256975053009715e-01 1.212916754994626117e-01
9.757607521125241656e-02 1.908410454457785399e-01 -9.302399557253154816e-01
5.713031297146894394e-01 1.324431632980471452e-01 -6.103728183857290990e-01
4.131091532569138303e-01 -1.495287014933221678e-02 -4.252148658047127938e-01
5.896039722651893467e-01 -5.416746200176368875e-01 5.773508946771103156e-01
1.802902147787668885e-01 1.349052382689859830e-01 -7.943729673921939849e-01
-2.217589243553051981e-01 -4.844228295057767530e-01 1.043256368393024464e-01
1.461126187609818883e-01 4.130158942023419433e-02 -6.463276831192227290e-01
1.032865814113995973e-01 -6.769807095504654093e-01 5.905668833713390020e-01
-7.957790368418042881e-01 -4.123323409155575381e-01 -2.855860211377955760e-01
-2.050782407182118183e-01 -6.777332236741671900e-02 -6.169025520068101009e-01
6.023438866007931880e-01 -5.089560126316963196e-01 5.259671158663666857e-01
9.073383615072548869e-01 -2.447152073873535560e-01 2.038621620683781777e-01
2.969184665053713479e-01 9.371620310463567305e-02 -6.687187519526680557e-01
4.229368098127845310e-01 1.563831055221560073e-01 -7.204366394789268879e-01
-2.728607238562382187e-01 -7.002055977423244926e-01 4.583355600068692026e-01
5.083788071273499520e-01 -4.086957955567073475e-02 -3.360938294547067273e-01
-6.031653662580613307e-02 -1.416031423021402169e-01 -4.212170361851755307e-01
6.191563158485359208e-01 -2.695039819231481726e-01 1.147918313156970210e-01
-6.454738339011122095e-02 -6.545744007333922365e-01 4.742395234079181954e-01
1.573759202770430021e-01 -7.082059791748113176e-02 -4.450030349648432249e-01
-3.469629683634391504e-01 -4.778170125483063302e-01 3.523083682891679086e-02
7.506634461788940227e-01 -2.260769226272402524e-02 -2.566977496578166096e-01
-8.026771489401433868e-02 -7.362283039655881378e-01 6.098618899860493991e-01
-1.206738662666318185e-01 -1.598874238285230565e-01 -4.169678636180761400e-01
-5.856743755563955656e-01 -3.137356096767676128e-01 -3.615176731610057481e-01
8.904269797972161338e-02 -4.890065102410476872e-01 2.551756518620732495e-01
9.121813923799318991e-01 2.306241560342160365e-02 -2.623670361070217782e-01
6.929833547734968180e-01 1.334511154690126433e-01 -5.562170767819069050e-01
8.499261620383216087e-01 -1.441742624326139699e-01 1.589865346456892457e-03
4.776808606445069327e-01 -4.589244512716280505e-02 -3.414142149531668169e-01
-4.508580749297297352e-01 -1.099137063476463144e-01 -6.561314161748470486e-01
2.695996843796372722e-01 2.029620452520722595e-01 -8.723898895455030056e-01
1.178322101853078313e-01 1.724960005116662198e-01 -8.888379532343095857e-01
-3.450770025154056841e-01 -3.740785636725359464e-01 -1.453843072644268875e-01
1.543896674396541546e-01 6.127510845672370313e-04 -5.713421382742688293e-01
-6.903727587021574186e-01 -4.774944814824287898e-01 -1.231499795876424830e-01
5.586945059991031970e-01 -2.296728338829773508e-01 1.732484187812993390e-02
2.454948435017791641e-01 -3.038667078256320625e-02 -4.752431333646178202e-01
4.572654836664517553e-01 1.482914987447289390e-01 -6.905050387269232592e-01
5.496330365403064855e-01 -3.619452207630165508e-01 2.445601982618372805e-01
6.156979029474677345e-01 -3.250779380751150915e-01 2.104245407843519100e-01
3.599346752247287728e-01 -1.545217719376217602e-01 -2.054873266428099976e-01
-1.047798432581949768e-01 -5.224883811481336737e-01 2.246768019605173416e-01
-5.553419548456046684e-01 -3.665540000778030327e-01 -2.551767645458700162e-01
-4.274233571763598194e-01 -6.953910640137743737e-01 3.788824996668853085e-01
5.871819833947308220e-01 9.881405669505230471e-02 -5.442442243446556915e-01
-1.056537270540184315e-01 6.513462254933351236e-02 -8.037227420806576372e-01
-7.098567042238417280e-01 -4.691195886836984075e-01 -1.467551583057302989e-01
6.368134722935302472e-01 -4.651633863122184298e-01 4.651962903083299294e-01
-6.291488490949324053e-01 -4.046888840311060331e-01 -2.223814509202785006e-01
-3.151368546415679317e-01 -4.061862853781453286e-02 -7.149857187360291189e-01
-6.773064930746712786e-01 -6.249644879739426617e-01 1.408413264985658164e-01
-2.758085935189273918e-01 -1.999098369801534814e-03 -7.644737983894693834e-01
7.568749510583859808e-01 1.855330168894030740e-01 -6.179681967327009806e-01
6.212784707000911233e-01 -3.524363056335569899e-01 2.608503389961253083e-01
-7.730138725108791631e-01 -4.756795687706686371e-01 -1.643033705088776664e-01
6.952974370319404684e-01 -4.539630017895680547e-01 4.724788918070714216e-01
-4.260781158447530248e-01 -2.791769475680898061e-01 -3.486315279749496177e-01
-5.027875110489778976e-01 -4.704731057229878666e-02 -7.899755531651441176e-01
-1.312957346127970396e-02 -5.630348116414293225e-01 3.377280124386511928e-01
3.412399984829415089e-01 -5.807027049013400166e-01 5.314897591725455950e-01
8.755976143807202572e-01 -2.740231458417675126e-01 2.405472802039966829e-01
-2.410809957517307811e-01 6.359006553614611479e-02 -8.632572960195513678e-01
9.661521470867576178e-02 -5.290904468919225279e-01 3.287791981330081548e-01
7.880741760136905638e-01 1.682932557405346086e-01 -5.734708169599036509e-01
-5.900186016683176549e-01 -4.063101793076142609e-01 -2.015625265269370969e-01
8.658921210035043226e-01 -3.016098179033997462e-01 2.843476529178649570e-01
3.074663868185483206e-01 -2.433289263795573587e-01 -7.423873992107582476e-02
7.884414132925624541e-01 -2.713939921186556137e-01 1.958944992190440326e-01
4.580354703583012776e-01 -1.321668336267949884e-01 -1.995124813090400628e-01
3.916878456907410544e-01 1.594131954480793312e-01 -7.400982302875594998e-01
-8.214131122389712880e-01 -5.039333843268302138e-01 -1.371178900586186855e-01
2.676310631238550952e-01 -5.716916098902922183e-01 4.818980474152061988e-01
-5.881462729073744233e-01 -2.414641831276366224e-01 -4.890865479996360232e-01
7.829624410303043236e-01 -1.703774930494114936e-01 1.665656845603455047e-02
-7.171693087023036650e-01 -2.002080228799012485e-01 -6.205543103022208573e-01
3.217695416514962936e-01 1.892281289187442428e-01 -8.243884827084194677e-01
9.131969153220784730e-01 -1.252829059138159395e-01 -2.382448871383152818e-03
-4.877443521503959101e-01 -4.605371283165310414e-01 -5.969604756437250914e-02
-6.329370309151794993e-01 -2.046126927358917769e-01 -5.741391215288971228e-01
8.450953626924321282e-01 -3.258011670969949702e-01 3.171111135544414927e-01
5.424856131899341571e-01 -1.910605877052670154e-01 -5.767301553979811007e-02
-1.740752727490269269e-01 -2.021239592599692880e-01 -3.676195525312164203e-01
5.932399647226126449e-01 -2.043558320601166767e-01 -1.108953552550456974e-02
-1.632333321442328844e-01 -4.320641210366353846e-01 3.962427791437605346e-02
6.746200328332476737e-01 -8.511015098819756097e-02 -1.823011845252146823e-01
2.516697605303920837e-01 -1.237831126466154841e-01 -3.090160370444198779e-01
9.315651106569423634e-01 -1.403921872333396825e-01 3.249123526047326127e-02
-7.033864794794759678e-01 -4.770042823143694766e-01 -1.299880967035161317e-01
1.000000000000000000e+00 -7.004153477315337717e-02 -5.913165198048058596e-02
-3.514483106718598315e-01 -1.830526453648115282e-01 -4.824963675756784309e-01
5.193630392414284591e-01 -3.441897770829471237e-01 1.995877080842575202e-01
1.077320426824000671e-01 -1.876463129843888855e-02 -5.588848726478083950e-01
5.755328098822057870e-01 -3.334371226721825621e-01 2.065900710016458919e-01
-6.465728939720000179e-01 -5.333029492642318292e-01 -5.389111298144255192e-03
5.289374876844790130e-01 1.729932679133781848e-01 -7.007813317760241967e-01
-2.089470294280723894e-01 -6.374540137279509633e-01 3.779288663748585630e-01
3.906160858205249276e-01 -8.036946861734592384e-02 -3.211107859162729561e-01
4.616430031929253941e-01 -3.996289916525927466e-01 2.700483576222010296e-01
8.388938140682036249e-01 -8.502942617960587701e-02 -1.069491432419145682e-01
-6.692641122387724684e-01 -2.525825271824962415e-01 -5.069142413400271607e-01
3.223997455226609854e-01 1.172563734699213350e-01 -6.981902219391005193e-01
9.352398935897404675e-01 -8.985853606386742798e-02 -5.422444216492809665e-02
-4.467220741469554168e-01 -4.000622794014963013e-01 -1.466397051734682488e-01
1.770749007553461263e-02 -2.195979979463808240e-01 -2.489149402102307507e-01
3.761701895379289673e-01 -4.220571566072193193e-01 2.700049009672075839e-01
6.096987713499456285e-02 -1.224737561850022804e-01 -3.989442265449264502e-01
-2.884040072810074018e-01 -4.671220024741258303e-01 4.343201435194479071e-02
7.273400506615338434e-01 -1.210564639975100498e-01 -9.518819259797127452e-02
6.776137050992570021e-01 -1.729131920700909542e-01 -2.732124637870149420e-02
3.277810234328378813e-01 -1.798505857447150746e-01 -1.759531121232759121e-01
8.731731708943322179e-01 -1.975366239706523586e-01 1.056262517859866273e-01
6.890894094276438508e-01 -1.555061225075422826e-01 -5.249973084309465104e-02
-3.562366904775939314e-01 -1.517048582268908374e-01 -5.395372700834512036e-01
3.767675635386145694e-01 -8.635556720334341962e-02 -3.170027940138986366e-01
-2.834623803671497133e-01 -2.448151078669251468e-01 -3.432045869918279868e-01
1.082896036876787316e-01 1.768997088337369294e-01 -9.009272546983893015e-01
-3.539323831877674298e-01 -6.919940383035715348e-01 4.067130183131411059e-01
-1.492780946895001237e-01 -3.168040223373498332e-01 -1.556005162302580569e-01
3.812029443417355723e-01 -5.713612017528255649e-01 5.335128454448626600e-01
-8.792717426787313717e-02 -1.836686707501225535e-01 -3.603155441809413051e-01
3.371514520212071098e-01 1.026784814844147464e-01 -6.659081444742136480e-01
-5.325697829871085531e-01 -4.887372258652019630e-01 -3.096217134044225092e-02
7.667352099663006515e-02 -5.656915816195640101e-01 3.836455057150435777e-01
1.149903961495547522e-01 -8.502066056123083748e-02 -4.396397866388260800e-01
8.411591695120913537e-01 3.356748824851041313e-02 -3.133835950728506292e-01
7.903747535099815424e-01 -3.719559538709829027e-01 3.727078323520218173e-01
1.030359181799551382e-01 -5.946900641090959727e-01 4.464909970350263713e-01
-3.039521857367158408e-01 8.365600215898669201e-02 -9.272539283746830119e-01
1.689681599853894156e-01 -6.261516890865204132e-01 5.318301751876585159e-01
7.189110888531922150e-01 -3.294969105592232550e-01 2.655875711777693771e-01
9.238214922354801573e-01 -1.714036471577494447e-01 8.318458618987954745e-02
-7.064016920895676011e-01 -3.575612470280918886e-01 -3.403294922572801529e-01
-3.026456814518105887e-01 -3.826496116849054108e-01 -1.108903306356412988e-01
4.022633149787723239e-01 -3.819891059523103927e-01 2.119004472484642687e-01
1.013627008131591373e-01 1.918105976336008101e-01 -9.301959347254179500e-01
8.519153162189115891e-01 -2.798852060485921833e-01 2.399190908756820007e-01
-3.469254574649222045e-01 -3.314898244900915114e-01 -2.207392627997090684e-01
4.333396183090659076e-02 -5.388511943778840907e-01 3.213690161760781594e-01
5.522000604826518000e-01 -3.545306231254830576e-01 2.327686670075942987e-01
-5.188078318985397397e-01 -2.506775640160298635e-01 -4.411034918791200132e-01
-5.268489428019763610e-01 -6.071566092452279628e-01 1.788318213752352059e-01
-1.993520059962941293e-01 -4.747795319312645423e-01 9.775275302029769187e-02
7.484515336597407087e-01 -2.425273497221863417e-01 1.270170382953740296e-01
2.607062945045152125e-01 -1.493919697772471133e-01 -2.600626474252100695e-01
3.342901780369120224e-01 -1.310158487764538915e-01 -2.583941223688696054e-01
7.612408371359441484e-01 -1.602449387708060520e-04 -2.911067857224496902e-01
3.884560293631565964e-01 1.449277888624313920e-02 -4.880571285788911640e-01
-7.229969996318335035e-01 -4.943656772659692500e-01 -1.086279325398624290e-01
5.792291447996460452e-01 -4.129157235569800855e-01 3.473300020539923927e-01
4.355632208962170182e-01 -1.875581488369588989e-01 -1.129372399616426076e-01
-3.968530815976679671e-01 -7.410105837961632469e-01 4.727388863199250557e-01
-3.544789792110378257e-02 1.585196769000712241e-02 -6.852431835663147508e-01
-4.669201037537090149e-01 -6.134494199263017533e-01 2.173813269933533299e-01
2.367852257178915398e-01 -3.472001543470671914e-01 7.499333623894137435e-02
-6.467197011084522273e-01 -5.305800474950852497e-01 -1.022006953564350701e-02
-3.813154392103577650e-01 -5.827414258916503442e-01 2.030004991443804530e-01
-2.281824537227955807e-01 -6.991391726629193615e-01 4.770021754081306686e-01
1.920737250549790220e-01 -1.211578007078387142e-02 -5.317566289743638208e-01
7.095946809504829478e-01 -4.015691811026618763e-01 3.873906338934660631e-01
-3.255960650651703592e-01 -1.726581949626979431e-02 -7.606461401892583574e-01
4.697581992247678584e-01 2.087551986554180561e-01 -7.905401689766060613e-01
4.404285754867674485e-01 -4.751540963161404729e-01 3.924240433605412082e-01
3.469332717949150102e-01 -8.602263915307271913e-02 -3.312957993117455757e-01
-4.389173570035121430e-01 -1.962124894356101767e-01 -4.996713705080402246e-01
-1.661943664812677579e-01 6.898230995390326747e-02 -8.382758638470668711e-01
3.190309574028746958e-02 -3.933875125205059664e-01 6.163916970708326754e-02
5.678846471828450371e-01 1.550440697957073954e-01 -6.514822284709120837e-01
-2.063418143075760880e-01 9.251923873396944442e-02 -8.979018423583227104e-01
4.238628770742661200e-01 1.833621193111356906e-01 -7.672086160889235451e-01
5.690359874105853644e-01 -9.349886596664563898e-02 -2.161477692967709585e-01
8.783120854362092000e-02 -9.966968021692917956e-02 -4.264937465904785618e-01
-4.016782638300794295e-01 -4.166210001847357458e-01 -9.697136505367559556e-02
8.898761610445057313e-01 1.116252510565840655e-01 -4.275509453007662608e-01
3.202814503160200665e-01 -2.977898991675703710e-01 2.692549657686543058e-02
-4.532224256759446179e-01 -5.796771724370506362e-01 1.645944393817550810e-01
2.260538555732465038e-01 1.314847384315247225e-01 -7.673580568648007416e-01
-6.765441456840013412e-01 -5.460686560480576546e-01 3.169922926715668977e-03
-5.575092459355637242e-01 -7.030134782358276047e-01 3.324353269455962434e-01
8.536642109105325726e-01 -9.923983691507608229e-02 -7.530135460372322509e-02
-3.630281950764955301e-01 -5.192473154024902504e-01 1.003268352854543577e-01
-6.748035394334135351e-01 -2.053423012999967545e-01 -5.921028032378597983e-01
1.331993248226963078e-01 -1.105899255505276013e-01 -3.865404166191451218e-01
2.121410092476237741e-01 -2.206329917772282267e-01 -1.577509048351371512e-01
8.002442216875723657e-01 1.308358131695520898e-01 -5.023492759852172806e-01
-4.740879988330311545e-01 -3.000976317139109062e-01 -3.340958238254912449e-01
-6.526814205831795723e-01 -5.430938791084024553e-01 8.932092591077746627e-03
-4.814714088071906928e-01 -1.969431112150379637e-01 -5.179492454143160840e-01
-5.714252622110411739e-01 -7.053807173805327624e-01 3.301814055696808969e-01
3.365712810888432660e-01 -5.227088199730921536e-01 4.278886996486755412e-01
8.290961586366979441e-01 -1.530911052004855222e-01 7.616559675183134405e-03
2.885490255351527145e-01 -5.162033718118032022e-01 3.944389631013405784e-01
-5.341790217693331844e-01 -2.036214271507169882e-01 -5.304882663766778972e-01
-6.056180821331182962e-01 -6.424071240935912419e-01 2.043007319391958732e-01
-7.480227991051521252e-01 -5.321966484400151298e-01 -5.394656698300668435e-02
5.476020653517351677e-01 1.374358076569164588e-01 -6.299990415830988288e-01
8.073509011685443826e-02 1.129327127239228984e-01 -8.016851604664994024e-01
-7.927714324859672645e-01 -4.625789102739270020e-01 -1.963016278616105947e-01
-3.661797084410953196e-02 -2.253747011073470308e-01 -2.637747526102778295e-01
-7.290967629162312669e-01 -4.869379441499593342e-01 -1.244253310630125120e-01
6.626139805977200314e-01 -4.033708093818123008e-01 3.689520965303318967e-01
-5.986600553685137438e-01 -5.927392371784555580e-01 1.206084772349560880e-01
-5.098955076554596566e-01 -2.998846698925604348e-02 -8.230851257974662882e-01
-1.644644748710791804e-01 -1.291841786777320755e-01 -4.908049633108478860e-01
5.753329898502315132e-01 9.338173478461951615e-02 -5.401861204252452753e-01
-2.466556781466003601e-01 -7.347521090029482949e-01 5.308145576784639719e-01
-5.462793836927903879e-01 -3.891521822653508100e-01 -2.114783366633583572e-01
2.649845735368943078e-01 1.552497174039862704e-01 -7.910420192324688626e-01
2.247681101562522266e-01 -6.597429068127858010e-01 6.162385285790845657e-01
6.374948174247755395e-01 7.466949074614358250e-02 -4.788836543945825808e-01
1.520410492995730722e-01 -2.554888133761404889e-01 -1.243929144872406578e-01
1.546587136954170189e-02 -1.044002227606999345e-01 -4.514740926619565387e-01
5.844021764460858304e-01 -2.142681635801496065e-01 2.189797667563083208e-03
7.194014646795388046e-01 -3.449255496713268809e-01 2.928040577970695280e-01
-2.870885903567998443e-01 2.888774271819299216e-02 -8.236915856935670410e-01
-5.281224589721451590e-01 -2.402039600856896717e-01 -4.637068050424369425e-01
-6.808388073717301925e-01 -2.169942540178241286e-01 -5.744922268561082346e-01
4.461243117504639089e-01 -5.236527687166445677e-01 4.798859865915128253e-01
-2.605706055078852446e-01 -6.756277153838106120e-01 4.209866005585945481e-01
-4.586870521826167391e-01 -5.152709069229594041e-01 4.940968321194924573e-02
3.050294301893259341e-01 -3.250267686476330797e-01 6.756497009139168786e-02
6.743516995418659121e-01 7.585328358752414790e-02 -4.640167424171415811e-01
2.465005151424325969e-01 -6.099151290194690933e-01 5.390562355998895772e-01
-3.239536803923925290e-01 -4.524115178257236414e-01 1.360113595632699663e-03
4.769546261569707624e-01 5.928168703103701281e-03 -4.324038482814732687e-01
3.242690328203297057e-01 -4.787502499877184792e-01 3.453332181429527026e-01
6.512674768614157284e-02 -4.578271237743657129e-02 -5.311985564052085218e-01
-3.680409037724602372e-01 -5.748426688252897820e-01 1.952826890868422094e-01
-1.586232450996763188e-01 2.015180166666966435e-02 -7.493715536598050120e-01
-6.310608497681523543e-01 -1.409789924543744521e-01 -6.845988147306385496e-01
4.792514938103085709e-01 -5.138379561702418608e-01 4.779396300144728160e-01
-5.274291176721382923e-01 -6.658962202823701659e-01 2.813252989078008359e-01
3.415926066230615676e-01 -1.607710440221075954e-01 -2.029839777346742202e-01
4.370791256445090700e-01 -1.782424351399778950e-01 -1.285376666502716647e-01
-7.523207627795007735e-01 -2.797399232388547152e-01 -4.975739324278694031e-01
4.289140715945569116e-01 -2.465847508984898573e-01 -1.273073857066070631e-02
-7.737340176177136541e-01 -4.220245245805716028e-01 -2.584993899215439206e-01
-1.610959068303425001e-01 -5.529790172381596758e-01 2.521371788432323346e-01
1.438575758851039221e-01 -6.151531116472959415e-02 -4.674943238471694351e-01
-4.480573441332679208e-01 -5.083416190053970940e-01 4.217242891748869404e-02
1.197651075354279754e-01 -6.628902181530673676e-01 5.734895633827514771e-01
4.696430207134885126e-01 1.930814215914961052e-01 -7.631731208344332273e-01
6.563285951492768833e-01 -4.849385650450079299e-01 5.087596560988840722e-01
-5.246626756288587101e-01 -5.861972512481140596e-01 1.431698701583214717e-01
8.992658881338941312e-02 -4.357540429232604207e-01 1.624210543477316859e-01
-9.700711293393014800e-02 -1.045356267885705487e-01 -5.029250278707976252e-01
7.463489175363337003e-01 1.776346851643463218e-02 -3.293065376878007711e-01
2.488721844721308862e-01 1.058914728488479923e-01 -7.120984149381585082e-01
2.614693196148835247e-02 4.608842929672409688e-02 -7.098330060562221266e-01
-1.671137462230046777e-01 -6.397707680630480009e-01 4.012066395924165363e-01
1.618667051080997232e-01 -4.592200836423223076e-01 2.365335820840439307e-01
-6.063083392347665690e-01 -2.558757409462264487e-01 -4.722212324822808172e-01
4.371724004473065417e-01 -2.971986355149504044e-01 7.960925271728194752e-02
-2.814921865355523023e-01 -6.261688128347685407e-03 -7.596286877276333671e-01
1.053561879072885121e-01 1.444582326416749829e-01 -8.455216432150678418e-01
1.783298805029317202e-01 -5.770942314737538270e-01 4.503104518680334234e-01
3.676616992905695769e-02 -5.051544984382657644e-01 2.594011492615710401e-01
3.399327406727872813e-01 -2.878948056943964606e-01 1.864574685763484979e-02
-9.714468123619209028e-02 -4.875661887092693214e-01 1.670921053173100579e-01
-5.565373817214903929e-02 -1.603589937006014154e-01 -3.862623978115914403e-01
4.082079031126548824e-02 -5.061091224345224404e-01 2.629345167139013340e-01
4.610460250211684818e-01 -1.535635108591551223e-01 -1.606972372771218183e-01
-6.196342171884846595e-01 -2.836834168777540022e-01 -4.296980069426555859e-01
7.314488122750728571e-01 -1.104116661926920068e-01 -1.119221751871782300e-01
4.071164497501932877e-01 1.183463295569146291e-02 8.087207727834402338e-01
-3.992200624498008499e-01 6.216475985732913268e-01 -6.286547408554696847e-01
5.136225553107026665e-01 6.940954204639019354e-01 -3.358924739747137789e-01
-2.368563127473712060e-01 4.631834171570837211e-01 -2.768192414954347980e-01
-8.392940888243486386e-01 3.306124585337303357e-01 -3.217521427256011535e-01
-2.815965591366811904e-01 5.827492713911995859e-01 -5.065505545433591772e-01
8.271692891830736416e-01 3.236875011471330721e-01 4.561983891129140489e-01
-2.909262199793803960e-01 2.154789541093168059e-01 1.316710355818772882e-01
7.136668100594012465e-01 6.487370035307840066e-01 -1.646098121125491587e-01
-1.676157896681189363e-01 7.199126472305684976e-02 4.393591489936545247e-01
6.632820008258243361e-01 3.324063853304524141e-01 3.656297739294949722e-01
-1.262510530524391973e-02 1.829954104666073056e-01 3.163937030710717857e-01
1.959639418241143904e-01 1.267801056095997081e-01 5.105964184333803280e-01
-3.706753260811695982e-01 -7.174340698057582455e-02 5.974935428866176013e-01
2.909345132902375064e-01 4.041400073203350041e-01 6.902260969941659274e-02
3.612111952315165686e-01 7.428211133980557879e-01 -4.911758490916369735e-01
-4.022513385832957727e-02 2.514125397763659620e-01 1.840197797634177956e-01
-4.544094725128289269e-01 2.362492045138845642e-01 2.020522761109428203e-02
7.736774255419249791e-01 5.040321321365900387e-01 1.161177505366676743e-01
4.199431533890288781e-01 2.448419932901886864e-01 4.069882366788434847e-01
5.701958515476543976e-01 1.856417995980806368e-01 5.796038568685863979e-01
3.680929384237888180e-01 2.440295730322743772e-01 3.845813391392284841e-01
1.052689513716771469e-01 5.092762901326571834e-01 -2.002286572152562616e-01
-2.336615626464688400e-01 1.914978202078368441e-01 1.999404578033718849e-01
5.805175753447507914e-01 6.060969310125120524e-01 -1.512042657884435370e-01
1.092330836394537208e-01 2.604337020027701066e-01 2.369226589687833118e-01
4.341348550610301116e-01 7.545465919809708488e-01 -4.781759848641745081e-01
1.729324631954149427e-01 -3.511374623401912476e-02 7.832320591748584970e-01
-6.905640835826672985e-01 3.392046030702879911e-01 -2.684333879497944886e-01
-6.319961919048963095e-01 2.505355700629076643e-01 -8.639891417945239072e-02
1.009667235946061781e-01 2.364443710160032686e-01 2.750911450302525041e-01
1.702882740630605463e-01 5.270328337466817503e-01 -2.014121415812779869e-01
3.904534197889430458e-01 3.459040325455746689e-01 2.166363095529080240e-01
6.460158740574588609e-01 1.626464468026927734e-01 6.546759952735812238e-01
-9.316219773974733220e-01 -3.142158933725284348e-02 2.691665609105442503e-01
-7.007978557365041918e-04 3.966115688246927284e-01 -5.183022869076577693e-02
1.538440213804940782e-01 9.754959537510332623e-02 5.423762544341211855e-01
-7.369237962473836057e-02 1.879768326720226701e-01 2.796151867852436079e-01
3.059239003627780007e-01 2.013296919536404148e-02 7.476997145366859332e-01
-1.865954436906648584e-01 -6.751177077332622123e-02 6.746859513576566325e-01
2.793429309076445599e-01 6.503137377887717729e-01 -3.669650128636289255e-01
3.957206038330837727e-01 2.730814846414460484e-01 3.464539209244291151e-01
-7.596289744783660813e-01 -4.807577238836315686e-02 3.773423691373924971e-01
-5.919332606790063123e-01 1.095506370542028568e-01 1.786538136354625383e-01
4.577287110313841834e-01 2.797607628566424753e-01 3.632653711564138854e-01
1.335576732298081049e-01 -1.293135471232592093e-01 9.299318523229040956e-01
-9.534674673992519223e-01 7.924315534461618543e-03 1.902948871514494600e-01
2.698675020321404938e-01 6.133299370031412671e-03 7.556209899520176521e-01
-4.704043619117373454e-01 -2.300737261871425299e-01 8.286481330123350864e-01
-7.836972344172465910e-01 -1.133928717135551101e-01 4.805484918208097755e-01
-8.209649030109356094e-02 6.107832042758272462e-02 4.977514872559440362e-01
-4.539858727358991319e-01 -2.364031557233790826e-01 8.472661888554836596e-01
-5.760755095354255090e-02 1.429356878484487788e-02 5.908516266633976333e-01
2.200652894157741069e-01 8.712783694418810287e-02 5.910407468359244465e-01
1.799450334327926115e-01 5.158260156219627302e-01 -1.773689012096869577e-01
-4.697472049625224244e-01 3.468050060256354095e-01 -1.802515934783876783e-01
-3.179346692873080138e-01 5.286658817556910694e-01 -4.286355825294144717e-01
-7.702193040873295260e-02 1.987362282422260318e-01 2.592623919600215432e-01
7.116104447140464417e-01 5.651509918837883673e-01 -1.932800200377316271e-02
-3.530052035290481838e-01 -1.958113886720269647e-01 8.226606755103845758e-01
-3.194911654003797508e-01 6.501822010391072881e-01 -6.419336530778450012e-01
1.901075428589113839e-02 -1.464761712870471522e-01 9.073155409588953280e-01
-6.025083469841677371e-03 2.793856810386943224e-01 1.507999706198852041e-01
3.279513406094854977e-01 9.998337993813342928e-02 6.181308888942677049e-01
-3.365674450097868031e-01 4.901306567255817592e-01 -3.697842204037850578e-01
-2.385658817428170930e-01 6.532379247679794831e-01 -6.100895613656311944e-01
-7.056039190236098602e-01 1.491503821942385677e-01 5.713911439852287916e-02
-6.343009452440143137e-02 2.614089511047736347e-01 1.558678674689319699e-01
2.193027317289365785e-01 3.954230587036329791e-01 5.135326307312065852e-02
3.644965369606018579e-01 5.765502263321873322e-01 -1.987888520108108126e-01
-1.879812627186204510e-01 6.630994355758226266e-01 -6.040949150730136052e-01
-2.085834481563804410e-01 3.576990688961004805e-01 -7.929007115666956984e-02
-4.389026723568655308e-01 1.285636793095422947e-01 2.157184335531199815e-01
3.167145003175620976e-01 3.867874754060088849e-01 1.112268207076932552e-01
-4.500996419559763484e-01 5.111870705587069352e-01 -4.587952610507871065e-01
5.256911049728141272e-01 7.364837153931447222e-01 -4.045011037618985172e-01
-3.975944617529901803e-01 -1.010249887513628292e-01 6.363483603099596708e-01
-6.488582528646977821e-01 -3.815437668353781689e-03 3.508180923202027790e-01
-4.785453385917672331e-01 -1.898270315380112261e-01 7.544986149730862346e-01
-8.004841095449756125e-03 4.648911322335094048e-02 5.573234807035619687e-01
-2.217566158457259518e-01 -3.034569317486256537e-02 5.935083827231999454e-01
-6.971466379507241795e-01 1.829714094900106169e-01 1.858626333939677501e-03
-6.498247628539324250e-01 -6.903208017404979802e-02 4.644650585743900217e-01
2.669889262906883221e-01 1.653528453116786257e-01 4.757566645650196380e-01
-1.182600809418007937e-01 -1.946544387040688162e-01 9.285155893599243981e-01
2.071144978625123756e-01 4.240793190198977741e-02 6.633228951152455588e-01
2.122786220584044724e-03 6.517376686890390403e-01 -4.968546834787092581e-01
2.917880874489106047e-01 7.762958343320132404e-02 6.406179134600085145e-01
7.443999896913751080e-01 5.083721775799627807e-01 9.507053144762696306e-02
6.839297188211868050e-02 9.933374877241401071e-03 6.563839223847177662e-01
-1.108872228713874697e-01 5.965986823277776852e-01 -4.523281850627668965e-01
-2.399983139363001672e-01 8.580422392204800630e-02 3.819305786955580762e-01
-1.936086788811035575e-01 4.785244079065878453e-01 -2.837822603011350142e-01
-5.305694386190035888e-02 1.897968822351725204e-01 2.859143313827558486e-01
6.063559612947988509e-01 5.251750635109164733e-01 2.236088652094413848e-03
-7.406855130659937281e-01 1.271764909648540609e-01 7.945861069645060448e-02
-8.574520547226982536e-02 4.040553718385768156e-01 -1.039353505073000589e-01
-7.170512858966593406e-01 3.646486473397670403e-01 -3.251180381225923233e-01
2.842187998965076123e-01 3.349833571432477841e-01 1.869202041274428960e-01
1.712479260887669330e-01 2.432933593068409839e-01 2.954076652116418567e-01
4.728250319795539447e-01 2.365405912111944176e-01 4.458131230132044154e-01
2.297393511588483594e-01 2.525077578663841860e-01 3.061680136868105140e-01
1.236629754907575124e-01 -5.283752934562838122e-02 7.915961879234941767e-01
8.489598554844487444e-01 3.813790629597554882e-01 3.652857835217153126e-01
-4.241825259684036675e-01 6.003379600656804094e-01 -6.028469766526227680e-01
1.728522137786792923e-01 4.133036271591397637e-01 -1.274003614467475714e-03
-2.539240463587649765e-01 4.046701442344756150e-01 -1.822987065397361217e-01
5.645245630997077768e-01 7.479386734986086249e-02 7.709168816002226476e-01
-8.259376927119235212e-01 1.263784744122724846e-01 4.167638874066208199e-02
-8.678338456751654162e-01 -4.401891773713188794e-03 2.512121501141109103e-01
-7.994969373965359338e-01 1.032235673761155298e-01 9.433503719248066688e-02
9.085086254155045130e-03 -7.292659911019375163e-02 7.740852189639183534e-01
-4.574171913707763548e-01 -1.250749481854402101e-01 6.509297899898068840e-01
5.418200148473358707e-02 -1.752706023993136908e-01 9.738522351022479429e-01
1.438896913149452679e-02 7.576006765975409896e-02 5.164076072782883831e-01
-6.870851015724759314e-01 2.593017481022581450e-01 -1.270511455734453232e-01
4.262649888291827893e-01 -3.859404866106124626e-02 9.057414454537567883e-01
-7.359715094310534944e-01 -1.387562377419771231e-01 5.468523263213987962e-01
-1.460846190240570885e-02 3.452809011172252585e-01 3.157716522140626564e-02
-1.917378194932990998e-01 5.393381981688303295e-01 -3.893111993269421922e-01
-3.881133004695672684e-01 -8.865662453909914364e-02 6.190680675835342761e-01
6.700397302462626214e-01 6.346330557141997009e-01 -1.599852750798362588e-01
7.657140122624392919e-01 3.275580534699217283e-01 4.211849384589527179e-01
-1.265708324309654156e-03 5.676650977203084869e-01 -3.513338680777057799e-01
8.510335512068520902e-01 3.921701146019229700e-01 3.473607119431563750e-01
2.076492891829482823e-01 4.902070545414360936e-01 -1.198189423715656510e-01
-6.947193494076164821e-01 -1.540378557538701620e-01 5.925439988880975006e-01
-5.345278684562412147e-02 4.973125996576717722e-01 -2.522409473563583249e-01
-5.870507710820037639e-01 4.341391119028937401e-02 2.965983419255536213e-01
3.271072206920474373e-02 4.965162730087205878e-01 -2.112507452817088960e-01
-3.780735881432565337e-01 -7.412891896579824891e-02 5.982668717423644811e-01
-7.958636981925736320e-01 4.301976342512208590e-02 2.013263057862738348e-01
5.400797481269973277e-01 4.251324291554670065e-01 1.467946835370690650e-01
2.054625466091341834e-01 5.199102907851543831e-01 -1.727872366957290684e-01
6.658535349357486144e-01 5.562392251956687073e-01 -2.476553682793931899e-02
2.381210900185119217e-01 -1.172152777504017057e-01 9.568198402250543966e-01
-2.698018110650043377e-01 3.683285415295020071e-01 -1.260188193986268579e-01
7.989345278593478206e-01 5.372795226303580529e-01 6.956127804039627383e-02
3.359728538253201613e-01 1.776061511458010278e-01 4.860226047112345960e-01
2.705080174876471344e-01 9.755865817025023701e-02 5.959742244774458575e-01
1.847641273114331295e-01 -4.117213895256372630e-02 7.992680482151323096e-01
6.801786488670018282e-02 5.984477812375260664e-01 -3.733458403776895307e-01
1.283012263585211754e-01 -1.042274702495919331e-01 8.836301913256897622e-01
-4.216634849211969849e-01 -1.185579326801210615e-01 6.559596963579739093e-01
3.511333475815812122e-01 6.472260347596876517e-01 -3.285715005381916187e-01
3.512368713675251275e-02 4.489997896363842056e-01 -1.270156831010190723e-01
4.256957977870174381e-01 7.679009087189868701e-03 8.245289741172135978e-01
-7.727165217304114986e-01 -1.531498254087998445e-01 5.551462707129587448e-01
-6.944458198094095591e-01 2.251352678385142025e-01 -7.066238228221297102e-02
4.074389871929822160e-01 2.144534668143174005e-01 4.544040711025559287e-01
4.981599009002962708e-01 3.434054915853788637e-01 2.705046314093995097e-01
-8.971943405344576794e-01 -9.279185086439415212e-03 2.462517340062538029e-01
-4.863132006051523737e-01 4.950701646914182352e-01 -4.472422801480607224e-01
3.892276361425230924e-01 4.482756238000454863e-01 3.698234195911845323e-02
4.814363671979342008e-01 4.985234407215655694e-01 -8.546844387692509662e-03
-7.032153757148263962e-01 1.656798305509535330e-01 2.931988199741169393e-02
2.820381924612212488e-01 6.099636252108523449e-01 -2.951371934021626009e-01
-2.208774014431711952e-01 5.079839962044138124e-01 -3.478509268792501774e-01
-8.903442366033743616e-01 1.639941830430136915e-01 -5.372770476823150732e-02
1.110046889892512961e-01 -1.517599129147935710e-01 9.588355215718082913e-01
7.678065105522207112e-01 5.236051429916119826e-01 7.917836001871476903e-02
5.316099394886358333e-03 4.448605337710669072e-02 5.669494078586744257e-01
6.461245706558692570e-01 5.438860375414344972e-01 -1.222124986432547751e-02
5.039186599605489647e-01 6.938224837423050406e-01 -3.398744924489111030e-01
-8.181015454107807283e-01 3.097248950561624081e-01 -2.754718802917832665e-01
-2.116992210563242716e-01 4.156800498449634840e-01 -1.821548888076618411e-01
4.000128606166074019e-01 3.405384267604609771e-01 2.304161075802013681e-01
1.125258999088308287e-01 1.643236068165796621e-02 6.652961050836486701e-01
6.385897655901148218e-01 4.178555428396512061e-01 2.047960215490089719e-01
-8.019578046629241008e-01 2.616056064957866800e-01 -1.838721780358000268e-01
-6.681295067777247576e-01 -1.204252018899804183e-01 5.459609991970811871e-01
-7.672799195570747521e-01 1.163260460269084640e-01 8.621890724733415057e-02
3.380764116706329592e-01 1.013271956984824890e-01 6.204330473715681249e-01
-6.925207277407616768e-01 1.170974071506221126e-01 1.192256284981487308e-01
-2.368933687687681533e-01 1.191013684580170262e-01 3.251068737006083120e-01
-1.240180095026255508e-01 3.953860467124217792e-01 -1.063576392479034793e-01
-7.304148414611721929e-02 5.740405276797748702e-01 -3.954722589928246212e-01
-1.026032965615313874e-01 4.108271927829343917e-01 -1.235293560001388818e-01
6.408307983526659868e-01 2.156214638898086566e-01 5.596177344138252296e-01
2.515886577271526647e-01 4.249967849736021042e-01 1.445371217890442130e-02
-4.042361439375135035e-01 -1.502373234769863175e-01 7.193890426109207370e-01
