-3.585148307511465959e-01 -5.469450760949865487e-01 -4.062097226200355737e-01
4.662893713967377063e-01 8.425889794354521900e-01 1.075363330631444181e-01
-6.999693103219103429e-01 -2.393183847365552286e-01 -1.314954825947326766e-01
-6.364857542409801949e-01 5.015764412227479152e-01 -2.227845840975723746e-01
4.483171310112555319e-01 -8.311779861690050675e-01 7.214383872725316053e-03
-2.182579402396459811e-01 7.877531508596550269e-01 2.106567935336418340e-01
-4.865078115398892011e-01 -1.852570488573396512e-01 -5.189524157674449967e-01
6.279757136779724469e-01 2.344437381235938700e-01 2.592997360280362984e-01
-1.773960734864730437e-01 -2.327490949594805958e-01 -7.041224764426544658e-01
3.167391009926425194e-01 -7.090873191379798435e-01 -2.558094729499447162e-01
5.229297750783472587e-01 -6.113414402953547960e-02 5.687237397554050222e-01
5.850970237997732415e-01 -7.272916822734040165e-01 2.326018181140023233e-01
-6.084817456826047133e-01 5.368907720052228383e-01 -1.033603134384274008e-01
2.244953846834780165e-01 1.874768516832471255e-01 6.764782731603542487e-01
-3.148173893037041760e-01 8.123610859407335294e-01 1.212905312387714540e-01
5.644743430541065976e-01 4.622663205255917451e-01 2.387239148980397074e-01
6.969199415861929703e-01 -1.293982450408484031e-01 1.373384582984925328e-01
7.128902986021076194e-01 5.122959105791990986e-01 -2.280962470894852892e-02
6.044146622982360384e-01 -6.019804492250199202e-01 1.274640489318721870e-01
-1.206511248286329940e-01 9.658319118506343559e-02 8.009198085513211662e-01
-1.717737746598090379e-02 -1.441664664485027836e-01 -8.054673002828728334e-01
-6.213458298091860676e-01 5.947339620774320101e-01 -4.489287196516300593e-01
-1.592736518088461173e-01 -8.755609542986191041e-02 -8.108638104786779488e-01
5.999234012267110616e-01 2.171345908255947199e-01 3.148886895334864766e-01
4.801623664584740991e-01 -1.869039048604037023e-01 6.926830932829883825e-01
5.738376374171050287e-01 6.475937679734896646e-01 1.255729718639553572e-01
5.081922752087274509e-01 5.809800462528489362e-01 2.319577643423513247e-01
-6.222375989735168256e-01 1.386962943191948350e-01 -4.499262564403104792e-01
-6.879839857137290959e-01 2.084217541960589060e-01 -1.535281419423291105e-01
3.694268926651737561e-01 8.386906950380842996e-03 -8.442769740877551499e-01
-6.282153083005597161e-01 -5.807551565622846024e-01 -1.281474917852458706e-01
4.749485132622592864e-01 -2.855761779396644440e-01 -4.929056108490774690e-01
3.297185892235179883e-01 -4.008713530558470628e-02 7.606496524444238405e-01
4.638948472789123922e-01 2.339371169202828504e-01 4.782095767630297201e-01
-4.308060849109410229e-02 8.337938173456466151e-01 2.383836837928644259e-01
-5.492899760210122606e-01 -6.500882815721328312e-01 -1.876175788739806727e-01
3.432288355802890489e-01 7.676010506087972696e-02 -9.162572363468025616e-01
7.696524518875893506e-01 2.930233420230418107e-01 -4.798957275341243500e-01
2.282689387544578619e-01 -9.446140346328125714e-01 -1.131503736518051084e-01
-2.990229268694009901e-02 -7.414676035985852121e-01 -3.595264133137452967e-01
-6.195602282156137397e-01 3.324183680330720647e-01 -5.081068946467908187e-01
6.286472585294352600e-01 -1.669326313822441232e-01 -3.648048159567152671e-01
5.341970950762096049e-01 7.610810163397109251e-01 1.010726980504516870e-01
6.333397637629823995e-01 -1.899160465902186359e-02 3.508988874572958605e-01
-6.934908248715609957e-01 -5.851523131813001211e-01 -1.964409563812985829e-02
-5.645909068947913001e-01 7.558834510098173531e-01 -2.420888392709523440e-01
-7.486451697638387692e-01 -2.842658693819170024e-01 4.500579273220216281e-02
6.771945032094285333e-01 -9.232140716903033950e-02 2.415506922864419925e-01
1.616227164864228738e-01 4.926786996511009487e-01 4.876157393239536897e-01
-4.730689748881198309e-01 2.958410244410427659e-01 4.404339396752334213e-01
-4.247750383777588179e-01 7.876671293465317136e-01 2.485148458900563254e-02
-6.073904573869874923e-01 -7.361874528004764828e-01 -7.378984843940333826e-02
-7.417849715546483980e-01 -1.218809798335606653e-01 5.761401472454580341e-02
2.992161317467379456e-01 3.269578031672076834e-01 5.457731270515121524e-01
1.634326584779824676e-01 -4.233502716718762909e-02 8.588915260063065826e-01
7.659333855020048487e-01 2.418579637754627587e-01 -3.989045600611005327e-01
-6.091917402292782446e-01 1.428103435614282712e-01 -4.829109737671311020e-01
-5.367545480205594410e-01 3.132575604883026943e-02 6.174965686191341563e-01
-1.893543239726453165e-01 -9.765395704765406082e-02 -7.918516807918828393e-01
2.884760559272042113e-01 4.349453464666384189e-02 -9.127242866492687456e-01
-2.899142181637847093e-01 -1.662492892605355599e-01 -6.946592475045063608e-01
-4.529676888559261982e-01 -1.083818833524972415e-03 -6.596788116677491098e-01
-5.681100559190177535e-01 7.228478381982059719e-01 -2.089557830522744131e-01
-6.979096837303516709e-01 -6.654800037308317151e-02 4.059001025689104036e-01
-6.278785991751203444e-01 -2.043789946915388900e-01 -3.066152191196148125e-01
-5.233114163197000179e-01 -1.485926542858197197e-01 8.034170031093166298e-01
6.799292839140564926e-01 3.536450374489957804e-01 1.087334949499402514e-01
-6.846930219432100229e-01 -3.599539072246562554e-01 -1.289452141305885147e-01
-6.284733973745136870e-01 1.601868996562303138e-01 -4.400978735850701318e-01
-7.867727495276035654e-01 -3.656185693686486715e-01 4.099190878597915866e-01
-5.689832053980002913e-01 6.657964329033265738e-01 -1.345706945445712122e-01
-7.173116815211063590e-01 3.352323143194958777e-02 -3.262051270899382627e-02
2.170637576723995488e-01 6.609096828306758598e-01 3.536869399943748382e-01
-3.358833729109019783e-01 1.130180370617795832e-01 7.174541703399572867e-01
2.974861314807156765e-01 -7.595973917453019419e-01 -2.260251058082139719e-01
-4.832425651881514517e-01 6.390085874482417383e-01 8.783309566484683029e-02
-5.038975393221873933e-01 1.852324453298478391e-01 -6.941217366159380120e-01
3.905900767488789671e-01 -1.675502497115124168e-01 7.846777380237157651e-01
-2.524193304697768814e-01 -1.845157732845475462e-01 -7.036759423209083542e-01
3.028497523929351565e-01 8.268824250930357778e-01 2.087792444835256112e-01
-2.063561737697879594e-01 7.966799883873992849e-02 7.979851417513429412e-01
6.420388612579460696e-01 -4.005253982922946654e-01 3.932570104356519769e-01
3.967246402545576145e-01 -8.272576831521194496e-01 -6.783792305314781390e-02
-5.109558078280304616e-02 8.092746713051659491e-01 2.560508869962625500e-01
-1.488576523468189416e-01 2.736352344536210901e-01 6.579122744292705827e-01
6.226991829882836393e-01 -3.355570703236228081e-01 4.697945881275044089e-01
1.231344345625917103e-01 7.139804917394122485e-01 3.354500004745027408e-01
-6.658422305785519635e-01 8.095585531283237823e-02 3.171084794762877856e-01
3.470231400746245365e-01 3.638018003046999960e-01 4.931871616978465434e-01
4.222463383286258892e-02 5.953505134269362342e-01 4.290968369780767122e-01
6.833897245343478755e-01 8.911447309471634548e-02 -5.301509845868931370e-01
4.121458669156458643e-01 -1.225673530581362775e-01 7.369007560972478110e-01
-1.595117021344820973e-01 2.922336842412099345e-01 6.406750303861005191e-01
3.946974939630330526e-01 -7.825601763716263370e-01 -1.130221842527756732e-01
-5.884848947570228139e-01 -5.870371388148085678e-01 -1.778026047878861204e-01
2.512609977825776553e-01 -1.944646206145974332e-01 9.132502929163752725e-01
3.651700008713980039e-01 -6.280181777326802051e-01 -2.873303273290607751e-01
-5.191826653857244400e-01 9.170873737973117557e-02 5.809493303691478649e-01
2.898584783322953884e-01 8.962523993459016181e-01 1.659845088679594294e-01
5.235317163373077731e-01 2.530285612013425389e-01 4.022287841577811274e-01
-5.966901130687373156e-01 5.014979021239039936e-01 -9.250757481137921248e-03
-2.361248377986710500e-02 -6.452984693269521177e-01 -4.321890006276457030e-01
-3.303437081613976312e-01 1.430148676464394475e-01 6.950989183349216560e-01
-4.111767918597513116e-01 5.266196467600627873e-01 2.912932490786508399e-01
7.053216929664425372e-01 -1.290363801564627377e-01 5.262989016874904807e-02
6.361753868307175042e-01 -5.360093077864047650e-01 2.384233628872179656e-01
3.807826583995500558e-01 4.496235841226680630e-01 4.159769252258206929e-01
7.011370193179077281e-01 1.558230583211200893e-01 1.189720604577266805e-01
3.786701151012774602e-01 4.315839283623011946e-01 4.288772226045378111e-01
3.223347117037612675e-01 6.082589161145438711e-02 7.027988964488298684e-01
-2.871714109280287253e-01 1.828207854224263296e-01 6.840290930214053544e-01
-3.861978878524536807e-01 -2.680255633510126786e-02 -7.109491319806204856e-01
-2.096977558093771343e-01 -6.147199063165507127e-01 -4.278288836124782279e-01
5.946717760034817557e-01 -1.664130964157491677e-01 4.915390864256168335e-01
-4.169815200944295697e-01 1.892342511328114207e-01 -8.065439459827381530e-01
3.602854114074455216e-01 -4.717535062059339257e-01 -4.321897759331669864e-01
-1.323744449249644184e-01 2.032396450123243742e-02 8.584640846764208799e-01
-2.428445313510594061e-01 -4.362577226992860324e-01 -5.390053848342051257e-01
-6.812648948879560518e-01 -1.548064500074192162e-01 5.637455229592656103e-01
1.794945423987820143e-01 -4.960105903670748995e-01 -5.127017725639950729e-01
-7.299390997211351317e-01 -3.019223355080445648e-02 4.451080248871303741e-02
6.343914311610191481e-01 1.173209359833289750e-01 2.968098184798150241e-01
-3.982311195639871015e-01 7.282080016633788455e-01 1.157258352175913746e-01
-5.092116065050922291e-01 2.472787373847208370e-01 -7.166068761932481435e-01
5.342126146371877216e-01 8.221865239023499194e-01 6.475498673738702693e-02
-4.364283778866622776e-01 -7.701039151881931832e-02 8.157671556370643673e-01
-2.754932740918691336e-01 -6.198942839940946303e-01 -4.003379564643118060e-01
5.535242304241742017e-01 -7.700119376102187996e-01 1.682837090112503098e-01
-2.701451423030707955e-01 3.125979178328594510e-01 5.838253372311734690e-01
-6.483799583868667948e-01 4.477231299031431133e-01 -3.018411425092910050e-01
6.296118559907875056e-01 -4.734690511699051196e-01 4.476096170256421147e-01
5.264753805052935220e-01 4.306868061802424097e-01 3.000486781051880936e-01
4.076991102432310221e-01 -6.912213731652757653e-01 -1.848680040961772630e-01
1.222676372421170263e-02 -9.659615716733748192e-01 -1.818513458940385352e-01
-4.671486295335779138e-02 -1.486141555010760465e-02 -8.945244564955071587e-01
4.678117368960963418e-01 -4.558627071847891343e-02 -7.232346978636304824e-01
-7.432924388136725735e-01 -1.347421047662367977e-01 6.014537995971284967e-02
-2.319866984525677245e-01 -2.120914624290120010e-01 -6.953923541410016451e-01
-3.475152877412192032e-01 6.274808407360003004e-01 2.596069927549832235e-01
6.096275534865781554e-01 -5.966639339955106536e-01 5.338320907705503826e-01
-5.258683178040139961e-01 6.112875199041096774e-01 4.020668267994986778e-02
1.481976209753096685e-01 -3.777483820097372880e-02 8.619259307475479748e-01
-6.532745387266134518e-01 1.845787019165472664e-01 -3.681013993978591303e-01
-7.114513386115534077e-01 -1.107182258003059083e-01 4.176364162946030745e-01
-1.841723238777508709e-01 7.655273632864290079e-01 2.468876951359154359e-01
1.168678095029452441e-01 4.040552427069695751e-01 5.610384817423558212e-01
2.184327162662224042e-01 8.908968187647504644e-01 1.907433801195848322e-01
6.446351881210484747e-01 -2.800851226528579541e-01 -1.766286440987265560e-01
1.488270056580291434e-01 -2.300669102056337734e-01 -7.337169178260087854e-01
-5.107214247413682795e-01 -1.538646848480304252e-01 8.209388483798776281e-01
6.710175509241126379e-01 3.831682750445527530e-01 1.147144970324248947e-01
-7.551409048514540201e-01 -2.906180603835152310e-01 7.606981086348658938e-02
5.658448608775623612e-01 -2.923807229752289349e-01 6.014285782721418006e-01
-5.830019738092461212e-01 -1.372912451979816373e-01 -4.148909975717874343e-01
-4.859121438551793903e-01 3.811675759102540750e-01 3.423698505425919469e-01
-7.768322316705505992e-02 9.250732110208714776e-01 1.570783261353650984e-01
-1.223869127227985854e-01 6.245974647356407061e-01 3.852282523522448376e-01
7.265865002671245687e-01 6.153584142643751809e-02 1.496928623114643538e-02
-1.411792219426487326e-04 -3.485219692185426155e-01 -6.554194672759759976e-01
6.276016658867626941e-01 -5.934865978848534729e-01 3.309312572616535664e-01
4.829133912365766723e-01 -8.420733780612512653e-01 7.891262755190754652e-02
-6.511701256937533211e-01 2.888833425492820517e-01 8.285048065850492138e-02
5.786903021585384499e-01 4.608019561402275643e-01 2.218086805474152601e-01
1.462482231937677069e-01 -7.100303508755061443e-01 -3.503975419367427180e-01
-7.036075017932864606e-01 8.879370014646688347e-02 1.268627585353905574e-01
-6.412278979758011532e-01 2.603979966074161378e-01 1.616896463810636175e-01
-5.754939480326038970e-01 1.681668294178273459e-01 4.231714296892808980e-01
2.082160443087947010e-01 -9.126943473530896300e-01 -1.528737299714496289e-01
6.301404124531487794e-01 -1.830928225808112209e-01 4.113935554962393493e-01
-5.039914982737069282e-01 7.252666671177547819e-01 -4.092299433338816156e-02
7.549482105728153591e-01 1.564258922813736852e-01 -2.854610561754297171e-01
-7.518054088986911854e-01 -5.064692600664675304e-01 8.656565439066384038e-02
-6.565974125091840197e-01 1.911354172345795521e-01 -3.563970505592486959e-01
3.374005428696642550e-01 -8.098795526442480186e-02 -7.864801948140225374e-01
2.770902293878229616e-01 3.045358273568454788e-01 5.724886994264388740e-01
-8.619647545778739983e-02 -9.699295252208797180e-01 -1.879743893458223347e-01
-5.434149026586388986e-01 4.352405045951836526e-01 1.974364830595659592e-01
6.889680101192785511e-01 -5.998333668657177681e-02 -3.175664698221171145e-01
6.485053180733308942e-01 6.792544456028548616e-02 -5.872682086447847949e-01
3.316345449303087500e-01 2.534866117415637832e-01 5.739070885238425346e-01
-2.602897529989560421e-02 -9.658292749056960336e-01 -1.875373359126387696e-01
5.179636351900536971e-03 1.600708217467743111e-02 8.604843634197715252e-01
5.117753899150017105e-01 -3.696065034539879335e-01 7.356133099250520280e-01
-5.084367294625911082e-01 1.264419516186368053e-01 5.605573381304020941e-01
3.148602917470197937e-01 1.639477575649081753e-01 6.421983656283055675e-01
-7.108419823735341314e-01 -5.666759979801549996e-01 6.768443053893072152e-03
5.489523376164630042e-01 -6.635312642999089405e-01 2.277018225843009669e-02
1.750221429085595942e-02 6.730637751982330996e-02 8.214232071736674579e-01
1.736403941046608668e-01 -7.320868918584299001e-01 -3.216282407744941452e-01
-3.859225450182796058e-01 -5.156027902060983381e-01 -4.087023738913129756e-01
-7.715495099096617571e-01 -2.697106471001760597e-01 2.369723767474676557e-01
5.062322164705306271e-01 2.194076969509087260e-01 4.410528140671849395e-01
4.168472443467299837e-01 -9.140512250526824367e-01 4.373574645074953388e-02
6.557054168063264354e-01 -2.095883203666998873e-01 3.349574144467777903e-01
-9.803440003970792516e-02 2.850698487598192776e-01 6.578798771461039641e-01
-1.964424369723815136e-02 -9.038416182442955416e-01 -2.346460399274302167e-01
6.161266864711990587e-01 -4.438005462561629977e-01 5.087763639289709650e-01
-2.965673709519101031e-02 -1.175977822312605503e-01 -8.232428088603079841e-01
-2.902649901226521112e-01 5.233874040762086927e-02 -8.348395316041065106e-01
7.913568305185035845e-01 4.089153162327258673e-01 -2.831125487595342327e-01
-2.237733426367191081e-01 8.408689332640049974e-02 -8.964309410832221880e-01
6.808324624682278170e-01 2.760391262775972465e-01 1.361416148305604756e-01
-1.189786004866658087e-01 -3.112066133230284026e-01 -6.667720473257390257e-01
-6.771240070788836496e-02 1.212901482695391275e-01 -9.862886740927431228e-01
-7.005557075151841451e-01 2.907594618830780346e-03 -1.654093177110582680e-01
4.797455229366571205e-01 6.735816051682325112e-01 2.017239550669045756e-01
-7.011533635470992842e-02 -5.490125728734025490e-01 -5.024823994154319351e-01
-5.828097962394096498e-01 -3.300072409571274679e-01 -3.201937456322896391e-01
1.950084472005327307e-01 -5.591336289221359168e-01 -4.552460686166163728e-01
7.086926667839329452e-01 5.748728703151372021e-02 1.055719733219251666e-01
-5.650532286850145081e-01 -1.919866348759059066e-02 6.297235629752364616e-01
-6.525679337754565490e-02 -5.819730290061299049e-01 -4.785081711451155684e-01
6.065129452762786366e-01 4.612936322020996793e-01 1.842848443902329048e-01
7.486523016980858314e-01 5.238327085578067255e-01 -1.127264544315931399e-01
-3.171537598921565781e-02 5.246033676927952527e-01 4.803434549939691323e-01
4.638085812158711518e-01 1.175072936377097310e-01 -8.737673981546554280e-01
-4.991047768502794302e-01 6.896047983410408255e-01 7.182301992980835020e-03
-4.434209385116748003e-01 -1.030780325770720013e-01 8.334690816426360005e-01
-6.934143622561592668e-01 7.208731208071574026e-02 -1.939679308259066037e-01
-6.018479865355659264e-01 6.363620638147506892e-01 -2.310204939279000003e-01
-1.954414624482990470e-01 -4.928671309844427362e-01 -5.174507267509759201e-01
-7.176239489008195971e-01 4.159470636955196060e-02 8.838575114066934968e-02
-4.468303975807890183e-01 7.025421184045500811e-02 6.758015335648566158e-01
-6.262563122328743681e-01 -1.487944415418986088e-01 -3.333859462883377867e-01
3.276016200012657476e-02 7.209545323451563847e-01 3.343941695329391561e-01
-3.210829819229931714e-01 -3.424902949024285492e-01 -5.614819489791550433e-01
-5.702849522719775077e-01 5.022774904601448043e-01 6.466216121707474285e-02
6.154955612615518046e-01 -1.295638613587966545e-02 3.877030712382546485e-01
-5.915094924977519764e-01 1.701385979193767994e-01 -5.325335610739918568e-01
3.180979761467862543e-01 -7.780749248119717132e-02 7.929203778387536872e-01
-1.926448251880285845e-01 5.313215488443226997e-01 4.369062243105553134e-01
-6.349884998139714298e-01 -5.078557684266779004e-01 -1.543724985432289865e-01
-5.617993541580984518e-01 5.466524339952013589e-01 3.340487957110257339e-02
-6.982460415330887793e-01 1.539319263267502347e-01 -9.566729774131327302e-02
1.275653881522252446e-02 -3.791185328902461071e-01 -6.326140503579010810e-01
6.102125927869098687e-01 -4.768122619028377640e-01 -3.085545446523356439e-02
-3.428163573462980618e-01 -3.525487136525219944e-01 -5.414171230568142201e-01
-3.532710374973030421e-01 1.917688052487503403e-01 6.394505142670994235e-01
-4.363103456916944123e-01 2.341290905274141243e-01 -8.093760322089708081e-01
-6.383253362332192982e-01 -4.221989676885878895e-01 -1.900292131953030261e-01
4.302422216695810930e-01 8.351639783228480274e-02 -8.694552563026883840e-01
2.957357400213410092e-01 -1.214346717828001937e-01 8.366303584786697334e-01
-6.052637946981882511e-01 4.525114012920679052e-01 -5.769018086665813616e-01
-5.682938303631005494e-01 -1.494971205147868631e-01 7.529670431930117758e-01
-1.000259215229904047e-01 2.721093489443229263e-01 6.676641380655946589e-01
-5.167999027410554724e-01 4.131452917830703564e-01 2.661427214232863769e-01
-5.136466142057561912e-01 8.234766898436371996e-01 -1.734184648380479310e-01
-2.305118219221773956e-01 -9.316087717545410429e-01 -1.986596597417036036e-01
6.401185610262555281e-01 -1.520810120070733851e-01 -3.535274931804230913e-01
-3.632972905506288153e-01 -1.039163367811231781e-01 8.861560208977368180e-01
6.774893707798052001e-01 2.306501693074257675e-01 1.600559868756599169e-01
2.278330605064593228e-01 -9.693762941995159865e-01 -9.201520716187547300e-02
-3.987234228172512052e-01 4.714040915910412965e-01 3.548470085369821447e-01
6.912973593884306212e-01 -2.095608876510018370e-01 1.163757612046751461e-01
-2.461938479339797203e-01 5.909681057934309534e-01 3.619953144463112782e-01
7.317561584189158364e-01 3.603159492653153495e-01 -2.129315920447396454e-02
-5.019135308915344540e-01 6.951007298564441106e-01 -4.032275267764247502e-03
6.015480094823734136e-01 -4.254647623999999739e-01 -1.248963305408225533e-01
1.902422649965707369e-01 3.418761977998541202e-01 5.847424516592234500e-01
-6.469732854475034323e-01 -6.348308002140540252e-01 -7.365316721793239985e-02
-6.587755997697058996e-01 3.777787452259034340e-01 -1.441372663940652665e-01
9.606336022229068627e-02 -5.141005156033257029e-02 8.893582776224698838e-01
-4.524302183984065806e-01 3.504938637375635824e-01 4.120031439202798129e-01
2.581207143091638345e-01 4.416862206240133037e-01 4.896713242524875498e-01
-3.016177063433221339e-01 -6.726628591939846913e-02 8.848828001157179601e-01
-3.454517627686181092e-01 -8.103317739813030718e-01 -2.400091166043780422e-01
-6.128105677460735645e-01 -5.538024170644783029e-01 -1.635588924253385812e-01
2.723699100560156294e-01 6.316231046535546456e-01 3.544949232772183767e-01
-5.746912331701800047e-01 1.198477741070350516e-01 4.748104041322113722e-01
-5.522456450989630117e-01 4.328674358200546024e-01 1.830263338717017241e-01
-4.528356380465121678e-01 5.003020746671335006e-01 2.687714522911263115e-01
3.176511541464626664e-01 -3.022663892631050411e-02 7.634795726699772356e-01
-6.183606575236337832e-01 5.752566206897383738e-01 -2.252939828879597095e-01
-1.488433489571096280e-01 4.501821288127139109e-01 5.174763032982716560e-01
-3.272083916457635966e-01 -4.043090081851085094e-01 -5.176482596251157364e-01
-3.412473099604700910e-01 7.166170703100664952e-01 1.845574031631997680e-01
-5.847077079911426889e-01 -5.486080971547864504e-02 6.373001856570519319e-01
-8.752938591492946674e-02 -7.956313844313160910e-01 -3.185502139539267419e-01
-5.953877354746442974e-01 4.469869126002921633e-01 -6.087807018842634754e-01
3.974959307222593607e-01 6.753017265765753896e-01 2.606948677810054793e-01
6.299196987561649363e-01 -8.855074395693951494e-02 3.829663307861235766e-01
-6.779616617198960249e-01 -4.879019390934726252e-01 -9.063797040902754620e-02
7.139456185060929494e-01 1.245360424074360151e-01 -4.817634665874370725e-01
2.717240708996950665e-03 -2.369264094741482529e-01 -7.387261873496134834e-01
6.375485908754127129e-01 -1.720651197267786814e-01 3.875072602754007223e-01
-5.453498944711275831e-01 -4.002681319754937683e-01 -3.318368198232850563e-01
2.507975520183833296e-01 9.143736698320249490e-01 1.657809745444634719e-01
-6.329494441859764287e-01 3.163440514220993705e-01 1.149897056188579902e-01
-6.825199125208116779e-01 -5.983079525841312751e-01 -3.370310637414420524e-02
4.878318888347702997e-01 -1.997295491557304625e-01 6.889431020698465469e-01
-5.078394310835999681e-01 5.405492261625920863e-02 6.300888463242023674e-01
-3.859040127749018695e-02 -6.634997832751975411e-01 -4.186006956919098299e-01
3.894362506090682796e-01 -6.180970321095213826e-01 -2.730997495559580601e-01
-3.174250628678569608e-02 -9.680024999149944298e-01 -1.864717141431422309e-01
6.846456597367683861e-01 -2.613438886411346140e-01 8.748500647230543492e-02
-6.573872597655274763e-01 2.896379580619921068e-01 -3.505776670826956098e-01
-6.762026964434733056e-01 2.468594549805299132e-01 1.013660235669631982e-02
5.864704026188010122e-01 -4.603151909602642977e-01 6.089660874656241951e-01
6.184746615515487322e-01 1.701265530636042467e-01 3.049270641749171618e-01
-7.010014746532760022e-01 9.347254648736168237e-02 -1.388852736826245715e-01
5.225510712520305967e-01 -6.028472900262092926e-01 -1.039128357545402587e-01
3.029271295774417158e-02 3.503835730570760143e-01 6.120509688458359854e-01
-6.703274196870399049e-01 -1.346048366739227287e-01 5.662140656839422803e-01
-4.466514010342110264e-01 3.766689048154034619e-04 -6.674297465830514309e-01
-3.040141361791324440e-03 -3.841554184193133881e-01 -6.286830231985917061e-01
-1.683764920560762157e-01 1.361431733236196651e-01 -9.592437940494703552e-01
4.570161079522158110e-01 -4.198980831984501783e-01 -3.859060058568922758e-01
5.874076256659411799e-01 -2.143370754860760008e-01 -3.998539959600528326e-01
-6.036155157727839393e-01 6.557603286005481147e-01 -2.789451290518047966e-01
6.015390188575835406e-01 -2.194723244011778304e-02 -5.785580204632190249e-01
-6.411965655224357574e-01 4.902563256944736936e-01 -2.660490178424173568e-01
6.271550998220959405e-01 -2.756822413916065750e-01 4.433339925228046430e-01
1.537377129614896365e-01 -6.776295747649744294e-01 -3.740899984245816823e-01
4.341209105466453111e-01 -6.289537143114255768e-02 6.797040538936512943e-01
5.592411617560772985e-01 -7.857317194314571429e-01 2.091310537074273501e-01
-8.457097017190867705e-02 -9.479748709505328441e-02 -8.289676805067114351e-01
-5.633269231787874087e-01 -5.290887125781145173e-01 -2.398162030972200987e-01
4.901823261536761289e-01 3.542360575396491518e-01 3.820058991244741908e-01
7.600274755463691800e-01 4.417142059333444837e-01 -1.280864434934944340e-01
1.404721986725162956e-02 5.352648495401732820e-01 4.744154566458096411e-01
-8.592990192436948671e-02 6.520003076476491022e-02 -9.416169623161837476e-01
6.366371755191079229e-01 3.653905637610647683e-01 1.847783340014645115e-01
-5.705758037498701585e-01 -8.672951562715382895e-03 -4.957922639941298448e-01
2.977022155460671282e-01 3.325346974976209347e-01 5.429459566759952116e-01
-6.860662357604582207e-01 1.805962113991484153e-01 7.225646368792046359e-02
-1.440629116124038933e-01 -8.173978395364568383e-01 -2.974016835511873458e-01
-3.608482640839696387e-01 -4.909098055574756536e-02 8.410676815159766617e-01
1.377614033638688285e-01 -1.073232246763967668e-01 9.136771773549673403e-01
-7.204271580674634912e-01 -1.724321542908680283e-01 4.701367489178599479e-01
7.612899412856743986e-01 4.083164011164480134e-01 -1.280642889414772556e-01
-2.086859425276705593e-01 -9.284576731204655653e-01 -2.059266012374439125e-01
6.862582989728682747e-01 1.737734508053125904e-01 -6.233763041736656296e-01
4.260419071751249676e-01 -9.279806788850715471e-02 -7.168338698883290894e-01
1.725810842876698281e-01 4.482027802404664474e-01 5.160851450168216781e-01
-6.442899370596953668e-02 6.151233185803530595e-02 8.309675468621533501e-01
-5.627245118188232142e-01 -5.737609034225192861e-01 -2.158310892067307474e-01
-5.906827668586691615e-01 5.082047296003820019e-02 -4.861079049249449335e-01
-3.561511467163679390e-01 7.893236183744094525e-01 1.037831593904471467e-01
2.397613426741233289e-01 8.963573391447675620e-01 1.815233198659911285e-01
-7.724857727617761016e-01 -2.811212314021234171e-01 2.223440519949972938e-01
6.850207008499704653e-01 -1.694707478692992764e-01 2.005501202168051000e-01
-5.291706212487307104e-01 5.230969069150761541e-01 1.297358669251227337e-01
4.407428017350906724e-01 -8.986788698390132946e-02 -7.072460932982576054e-01
6.388146773739500350e-01 -3.267065377655270497e-01 4.106304243366825646e-01
7.204836844793688355e-02 -3.128414647392209480e-02 -8.943846217647951624e-01
-6.237270142541361251e-01 -8.937933327627857472e-02 -3.629404569809840941e-01
7.107543937289748648e-01 -1.089716947978056072e-01 -1.808470445050428324e-02
2.585429281345539079e-02 5.896013666964599054e-01 4.335422324817577722e-01
4.415171596770623985e-01 -1.945734873454546265e-01 7.451816255493036723e-01
6.660856238320700395e-01 2.448963495765386356e-01 1.803303952256236353e-01
-1.377502587401515932e-01 6.021413243715255659e-01 3.987030003900567388e-01
-5.684185574729698764e-01 -3.622219170096691032e-02 -4.864550038381861286e-01
3.259483534675827188e-01 1.000229834917064214e-01 -9.437580112374117647e-01
-7.413365393437263418e-01 -1.698493890450438193e-01 3.694957362006557333e-01
3.844146840414812694e-01 -2.560349042095766414e-01 -6.046470602087844481e-01
9.159295167050951481e-02 7.191169752073002241e-01 3.346959774175290447e-01
-6.988836015611914476e-01 4.536568992183832166e-02 -1.691902795972668183e-01
5.423977187751748419e-01 1.654978070063392037e-01 4.251809928149322126e-01
-4.522815593399275302e-01 -5.604194740950771969e-01 -3.311399458579670774e-01
4.619845210230252297e-01 1.005110326989173269e-01 -8.600856085751359403e-01
-5.247459815105531833e-01 -4.392007052022258162e-01 -3.337763035270123746e-01
7.341702338132568562e-01 2.081125130489036024e-01 -6.147442353479586237e-03
-4.396335035661515511e-01 -1.168359496893254801e-01 -6.074755928588099207e-01
-6.930454371123062618e-01 -2.195153607887545544e-01 6.108081666023053025e-01
4.326173144415102478e-01 -4.019972071819156723e-01 -4.295329093494331674e-01
3.897898863530649960e-01 -6.737420714291840751e-01 -2.210229390289522033e-01
-6.708047532819834124e-01 -4.608054100721003521e-01 -1.157021323137727570e-01
-8.485079087862786029e-02 -6.337016762910375745e-01 -4.387311659797367702e-01
3.793899703809819335e-01 -2.458042076174011756e-02 -8.099415305844163138e-01
-6.398194379982609092e-01 -5.746159895810011298e-01 -1.142147692942161868e-01
6.944941104840054447e-01 -1.455687276070008196e-01 -1.486670817193804228e-01
7.027321893526254915e-01 1.554066771329731533e-01 1.140840155760653729e-01
-6.533193871039510991e-01 4.026938829054163005e-01 -3.184234178210376687e-01
-1.820853170917735853e-01 8.985725845425834857e-01 1.365096887400925885e-01
-1.340270282702471227e-01 -9.706399530931310027e-01 -1.858643250857306417e-01
-3.896990209496821456e-02 -8.755053648189207172e-01 -2.579677772029871363e-01
7.558194544312782925e-01 5.363160753179593287e-01 -1.359567611356995998e-01
-5.295259351417019866e-01 -5.135841718626076025e-02 7.053641130577695817e-01
-7.446122972887057045e-01 -4.479641472624169563e-01 5.100779595981113496e-02
-5.453631869187596237e-01 -1.652708273333902411e-01 7.953052760961727419e-01
4.575355911131871733e-02 -7.324933032707492409e-01 -3.587000790145233320e-01
6.435694739337418646e-01 -4.675564931990667250e-01 1.296848185621014282e-01
-2.631139803083008544e-01 -3.219518624739738880e-03 8.471946384764338367e-01
-1.390530414695044792e-01 3.659790387990108362e-01 5.870455568270955826e-01
1.333699698247924614e-01 5.674337782230632898e-01 4.403134589421630052e-01
2.149920345214024198e-01 2.796362326932300135e-01 6.181348675175666330e-01
-6.249168935247357837e-01 -3.196126824100524177e-01 -2.602032630692817650e-01
3.286978608208550034e-01 -7.922908169044403648e-01 -1.711517710760611932e-01
-6.669725356537891114e-01 3.226298795956955567e-01 -2.593959378400964022e-01
-6.038888236261484854e-01 5.381110306093669360e-01 -8.575711446777573022e-02
5.238532147369710790e-02 7.743708465174188593e-02 -9.750515846175722423e-01
4.805424499409426398e-01 1.550620635562711125e-01 5.059403076167470203e-01
-5.502515887374020975e-01 -2.999905891557250737e-01 -3.798364965079729649e-01
-2.399801057797366077e-01 4.291063406562217741e-02 8.176093224271616666e-01
-7.422308937594990219e-01 -1.599100565595809598e-01 3.470515905400085865e-02
-3.362489811840847498e-01 4.285455109137811802e-01 4.451441642824340295e-01
-7.497755431340509258e-01 -4.879876925240027585e-01 7.602612803835792632e-02
-5.221939331491679548e-01 -1.931831143978897658e-01 -4.725301530307575160e-01
-2.514225102875835005e-01 -9.218021423587433594e-01 -1.999941461643945650e-01
7.083083631695020754e-01 8.506020674964344386e-02 1.055352309077909473e-01
5.744695612275431129e-01 3.008306702362957274e-01 3.113033963494564738e-01
7.087615232760741124e-01 5.201410030071573765e-01 -1.706773074342366261e-02
6.038972859636291268e-01 7.777512907474015691e-01 1.880594598901584938e-02
-6.859490324955330731e-01 1.000237497435979422e-01 2.143194404870893688e-01
-2.378332921177686021e-01 -7.535327199733812265e-01 -3.220310899987245956e-01
4.285678207172787246e-01 7.891498992227251597e-01 1.675412963857975113e-01
-1.801302743308566823e-01 -9.830772124189167682e-01 -1.716407441675888157e-01
-1.518997721485251529e-01 4.529941193580506731e-01 5.143592035039933341e-01
3.135456199521129972e-01 4.824780666284919639e-02 -9.063432936025570541e-01
2.923549118406890135e-01 -1.797280279489568977e-01 8.757140998960564193e-01
4.433108645350251065e-01 -2.418380549646091393e-01 -5.668449177084841084e-01
-6.558546686861571606e-01 -4.713433023877741102e-01 -1.377056759659059104e-01
-5.644200422232407144e-01 -2.520251561221582559e-01 -3.859097816168503559e-01
-5.762224291480945171e-01 3.931603578543637623e-01 1.768924322958899398e-01
4.197780373103744966e-01 -3.704193619985320929e-01 -4.714726400073363521e-01
5.043684367993674922e-01 -5.035830577919742090e-01 -2.396477975513818248e-01
-4.466389067398085500e-01 5.400245225690263745e-02 -6.976502433194392561e-01
-4.018667143136931963e-01 -2.226212119147856147e-02 -6.994102108564064224e-01
6.826900310184281784e-01 7.612910600278123552e-02 -5.162650801968325931e-01
-7.798455401143480348e-01 -3.249754081858579058e-01 3.784355424660510447e-01
-5.377453827541324172e-01 7.548430997165479495e-01 -1.536749305601018967e-01
2.633924501539864904e-01 -3.206220630761914547e-01 -6.227755223723486777e-01
5.608959671627815613e-01 -5.306424074914618538e-01 -1.036103842156473054e-01
-3.092914852910912948e-01 -7.798416383351454151e-01 -2.772586041679026558e-01
3.298533902235367687e-01 -8.138306801233060606e-01 -1.505958984920023058e-01
6.011829427196037079e-01 1.810334887172578289e-01 -7.856858430385520453e-01
-4.222678522860503492e-01 6.052416292467065473e-01 2.048768167398727080e-01
-5.184520200930069489e-01 -1.312055717548024358e-01 -5.104670481345241484e-01
-2.981462587466198189e-01 2.189263485109004814e-01 6.483297575332416240e-01
-9.588732920292267203e-02 -6.676680932536714907e-01 -4.126873659923948057e-01
6.557902749540722720e-01 -1.272363157925815169e-01 -3.405593734858713972e-01
-1.030883916181888627e-01 1.241041446901933187e-01 -9.772796129039840185e-01
-1.624052323840355361e-01 -4.748560559086747145e-03 -8.663693529150104933e-01
-5.387209614467424190e-01 4.987048343844307507e-01 1.378307937688887097e-01
-3.670215946387149208e-01 -8.466692724111047896e-01 -2.048968960206791201e-01
6.687676531222344067e-01 -3.504071413635550525e-01 1.879179751906489282e-01
2.630379209193544621e-01 -7.089054319515227798e-01 -2.942013555045783768e-01
6.374168405562209427e-01 -5.260366557253509656e-01 2.220782005467307474e-01
-6.787551412192928124e-01 2.413564858662727575e-01 -2.592228328008894266e-04
2.722058329138617450e-01 -8.968915180123269160e-01 -1.239925887023291956e-01
6.496895881888451463e-01 -1.765643539723629751e-01 3.511721375179029936e-01
6.601860246341281213e-01 -2.609319936854052613e-01 3.176691137725253800e-01
4.247403059062664354e-01 -2.924343784719417028e-01 8.187946156249411578e-01
4.345059601485805612e-01 -2.016239936648942521e-01 -6.117594921131244146e-01
4.572717716801946164e-01 -8.970224520634975107e-01 9.036607529978743503e-02
-4.376030009886732186e-01 2.532814980868017818e-01 5.176346790546471066e-01
-6.903016900748991658e-01 1.692796913103173928e-01 6.173424637212884813e-02
2.439871606398235915e-01 8.696324539512663432e-02 7.339913799012873774e-01
-4.784358054075286693e-01 -5.548209248749296219e-01 -3.121927459681833050e-01
-2.906997790907930868e-01 -9.351306072361771360e-01 -1.781538978626308889e-01
4.631237354004734130e-01 6.959266133531955001e-01 2.013538331302183182e-01
6.107339401085027930e-01 -2.706153516661032321e-01 -2.870369258763708076e-01
5.762145294091288728e-01 5.795735703732771693e-01 1.605177552639641125e-01
-7.838575613097896744e-01 -3.902971983904760522e-01 2.234281739956668067e-01
-1.903977042151152044e-01 -1.612209055940732119e-02 8.777262557146550126e-01
5.965235542890134912e-01 7.840663293196279415e-01 2.371491964916704401e-02
-4.217924970494371650e-01 1.441553511618117733e-01 -7.758149980792312661e-01
-7.095833316894676335e-01 1.423034629426853277e-02 2.318218029626332721e-01
-6.092497557850651280e-01 5.783630485581185976e-01 -1.729593720438157289e-01
2.964711442895702764e-01 -6.865338521278997741e-02 -8.170443315044522148e-01
6.662098285110210627e-01 -2.020959461129802626e-01 2.919321049541705460e-01
-7.757446228425988188e-01 -3.023233180597617586e-01 2.316559184320708398e-01
-5.575065844197008014e-01 2.111828689871038944e-01 4.085177015300362480e-01
6.141841466882309586e-01 -5.095504218761509607e-02 -5.252346731103012534e-01
-5.789525949049885156e-01 3.897573391235675255e-01 1.746208884333146916e-01
-7.495757770282223120e-01 -1.392388120054172951e-01 1.962270804650937117e-01
-5.834512399736837551e-01 6.596033045237269521e-01 -1.789215352072840992e-01
7.797741562133089221e-01 3.768613768074743908e-01 -2.162699235144019683e-01
4.399230680348797246e-02 -8.675910999930487311e-01 -2.529871702059811600e-01
-6.239308003617415332e-01 3.905754468284789449e-01 -5.003120772519316084e-01
6.556989307104732490e-01 2.011806956190819329e-03 2.888801790009517534e-01
4.702350514862552178e-01 -1.603912376612199875e-01 6.915594376933829057e-01
-1.940365207144700010e-01 1.036525591338332136e-01 7.820618464671936776e-01
5.183908098981918622e-01 -6.050030815608578028e-01 -1.094898538318534870e-01
-7.460301245009355320e-01 -1.178956956518956573e-01 1.472543011642941102e-01
7.814607799606363425e-01 3.163037373850687839e-01 -2.771424816798115920e-01
-7.213450040871475233e-01 -1.769377068305255929e-01 4.729959641085103583e-01
6.912201794675280064e-01 -1.863855456568206392e-01 1.466278971196359193e-01
1.811627214110723416e-01 -8.233778577299916135e-01 -2.424768686781303417e-01
-7.457169428874358408e-01 -1.159032868839372510e-01 1.678484331910467808e-01
-3.167685176782333856e-02 2.943365096989138813e-02 -9.293231871466962613e-01
-6.015680208908198018e-02 4.449455529858359903e-01 5.388287278131970170e-01
-1.497555727424617067e-01 3.144996480389763982e-01 6.253514419584801365e-01
6.291583480165819919e-01 -5.776329626120655369e-01 2.724851880531546366e-01
4.463201778177343093e-01 -2.262915023438372697e-01 -5.782174822413232995e-01
-1.964999541860553700e-01 8.271043171229809365e-01 1.891783555250151072e-01
2.247024771996433135e-01 -6.208774138950837185e-02 8.427850442355065974e-01
-6.053719235981954716e-01 -2.182065179109300146e-01 -3.400916780977607523e-01
8.366447406226802663e-02 -6.561389091062179435e-02 9.029602839688432026e-01
-7.144537886292360307e-01 5.957493514644743998e-02 -2.457767505898482766e-02
7.291556402392362912e-01 9.452520531601089904e-02 8.940151762846400979e-03
6.680350591403463323e-01 -8.885524486279733347e-02 2.742012086492640610e-01
-5.313036781074529369e-01 8.794768788455828434e-02 -6.048537713882993216e-01
-4.677509626754601801e-01 2.153577828272353611e-01 5.222398547053609397e-01
7.920397416958327996e-01 5.117472043438643370e-01 -2.598863943838344293e-01
7.464718358712920665e-01 2.895318816343993018e-01 -5.904442123660096353e-01
1.234345360254823221e-01 5.355011600268930749e-01 4.651431807295095533e-01
5.065227035079292728e-01 -1.507811583667317476e-02 5.675456387653616819e-01
-3.234014973483740341e-01 -3.053919471715340062e-01 -5.840780383526225084e-01
-2.199918582028277669e-01 5.219901077211435148e-01 4.329428217501026799e-01
-6.224776761687773607e-01 3.063416363293816613e-01 1.617840454353750290e-01
-1.326068614423721592e-01 -4.693790822528468021e-01 -5.508236450864095746e-01
8.971289202465693169e-02 2.757420478219761995e-01 6.586182242845585177e-01
-6.182710004333359377e-01 5.418731787833312996e-01 -1.610696060014169539e-01
4.833703728514630038e-01 -4.383321237471838328e-01 -3.352551413560989069e-01
-6.803184305605529669e-01 2.503782048871686094e-01 -4.320491723666626538e-02
-6.018831008602916199e-01 6.881891146795503511e-01 -3.352184528978081612e-01
-2.870956839599169697e-01 8.795379577605934029e-01 8.422606825064621328e-02
7.675704546457191857e-02 -1.783987958540109997e-01 -7.828189853592683045e-01
5.043331587294216378e-01 1.135462385012139946e-01 5.014693920393259452e-01
4.748083837037718746e-01 1.611776554711054354e-01 5.087096254775891335e-01
3.552111074790220147e-01 -2.077631139658472070e-01 -6.674201992212402956e-01
3.527718303218338458e-01 4.297316867969264154e-01 4.471202801648155867e-01
-6.670950146452410134e-01 1.060397683829220339e-01 -3.077845604055280959e-01
-9.224213670954609090e-02 1.557376386159358972e-01 7.581757837400585620e-01
4.760027408685026384e-01 -6.951895419205812443e-01 -8.825590528576859883e-02
1.785311707009123450e-01 -1.722592460097135125e-01 9.397207491814566493e-01
-5.699825356687716615e-01 2.605845964861441127e-02 5.776204238382910416e-01
-6.568830422689302395e-01 2.532248858662473623e-01 -3.569916049926951107e-01
-4.156607410209170461e-02 -3.277642417945834108e-01 -6.680816597550315317e-01
-6.564962984876659968e-01 -1.505721994035019995e-01 6.139801202368687649e-01
-1.677297271994233341e-01 -6.610470602467810597e-01 -4.060981362975134012e-01
6.740302682640738619e-01 -1.706970250557192093e-01 -2.173178581731100567e-01
5.945875649217152725e-01 -3.734029236584363032e-02 4.392932156998091697e-01
7.059036913283648351e-01 3.424879395622712486e-02 1.179433339856007928e-01
6.028112233789761909e-01 -4.829287895502500927e-01 5.623106050977209058e-01
-9.745363648839479309e-02 1.867710830899553531e-01 7.338684665853928424e-01
-6.028365006991754926e-01 4.377876621952443426e-01 5.395808984761348709e-02
2.892351949969292346e-01 6.156065629852768284e-01 3.582347735416400170e-01
-6.625206547038614557e-01 2.927207427743887536e-01 1.753169339624303588e-02
6.740506096977819661e-01 3.210415760012012565e-01 1.338543785084463644e-01
-5.242195742718148282e-02 -4.287643100360066795e-01 -5.927102655813598631e-01
5.866387400773142025e-01 -2.260426935693145845e-01 5.316630514230673565e-01
-6.304390833336037669e-01 2.445683856336319240e-01 -4.555360153596272887e-01
-7.148976949638436995e-01 -6.148473769726053861e-02 3.301216784902949453e-01
5.451500736603797082e-01 6.923532112768784330e-01 1.306827479574392548e-01
4.639155922979810165e-01 -8.920986386936294865e-01 9.701756434148972597e-02
3.604105071991260956e-01 2.016545885367696245e-01 5.868220456067142488e-01
-7.384819442196457473e-01 -4.752931979851516830e-01 4.053672031940823428e-02
-5.979738593873303032e-02 2.416168651789251387e-01 6.947062222368934892e-01
-4.738911956416209104e-01 -1.589785716034681773e-01 -5.476414117271903859e-01
6.537549755565286169e-01 -2.777700325777441859e-01 -1.447453219888514553e-01
6.582740462154010874e-01 -1.610991092056469343e-01 -2.893785835036251641e-01
-3.982043748255962856e-01 -1.749447807719813619e-01 -6.111238321393647199e-01
-5.293568209965466842e-01 7.182395732298817448e-01 -8.849277424116705482e-02
2.621667328680098441e-01 -7.536204834947187736e-01 -2.561710293422570506e-01
7.055259701362536218e-01 2.140577973054445526e-01 9.206133386251147410e-02
-6.643318779861508983e-01 1.898791044960610186e-01 1.737028652723467681e-01
-6.955631346606436782e-01 -3.745927960422679170e-01 -9.926097450337041661e-02
7.504046326371388576e-01 5.324627084802631138e-01 -1.199514709794316375e-01
-6.195704011485164697e-01 3.784513836945138654e-01 -5.154885435851436215e-01
8.682183621407529861e-02 3.883263487602644504e-01 5.777841498062998848e-01
-3.047844859257418659e-01 5.968845044789564680e-01 3.202782353130980697e-01
-6.063308279699891612e-01 5.038068084899162136e-01 -4.640315153868832670e-02
-6.898417592348836669e-01 -4.904381596011468947e-01 -6.663574734973067015e-02
2.708817404075738455e-01 6.195684792766721349e-01 3.633303416727086121e-01
3.570523900820430363e-01 7.775021707414822014e-01 2.172039303725107062e-01
-4.675664168387715924e-01 4.375105071286947145e-01 3.111023278561849126e-01
2.576907023191201129e-01 -4.285992739281750952e-01 -5.353205065229977855e-01
-7.222732644450390316e-01 -6.147682028384011260e-02 -5.965566383452825666e-02
7.422426387020095717e-01 1.602869812812406924e-01 -4.097045709741559127e-01
5.589518611812875903e-01 -2.132669354045216570e-01 -4.506343708837965423e-01
4.342977370209384347e-01 -1.435106961257297531e-01 7.250677393715005969e-01
7.567497743914556319e-01 1.649513890633478586e-01 -1.864453426034764216e-01
-5.751533109068380778e-01 3.997206143368156050e-01 -6.520220819409600077e-01
-1.162223778319495943e-01 -6.616622133512233273e-01 -4.147501948465850963e-01
-6.589679138061670383e-01 3.619091280628192742e-01 -1.002300309387841731e-01
6.149363114016369591e-01 -5.239112092804695253e-01 5.159942203120838622e-01
-6.033089765767621904e-01 -2.633677331586055659e-01 -3.221716454954733355e-01
7.365229626497304949e-01 3.611629176465955826e-01 -3.593991746692861561e-02
6.424747108071563462e-01 3.828904823955716630e-01 1.668037620216001882e-01
2.669283727754443447e-01 6.102624906434629681e-02 7.382746522952030599e-01
1.194891299373754406e-01 -1.041026965069585392e-01 9.183124173706116444e-01
7.228073701577395482e-01 3.914080264069496468e-02 3.139469151321564594e-02
5.520693761913799680e-01 2.726031290243955407e-01 3.560982484763967060e-01
-7.704749410148934441e-01 -3.441373654742906907e-01 1.509498107269428013e-01
-6.612979768972642169e-01 3.643519644772925115e-01 -1.375019079082491769e-01
-2.956793818773046506e-02 5.137484746115477119e-01 4.888434777327000935e-01
-5.428931439070684428e-01 -1.324115127308433948e-01 -4.772983394822297720e-01
7.222468966593746931e-01 -1.965954913406012250e-02 -3.999419670155522806e-03
-1.381243322109119431e-01 -8.652715942907883775e-03 -8.730570284190426467e-01
6.005698982828208132e-01 -3.274308332626849616e-01 5.329813131882479293e-01
-6.561202955457827446e-02 8.343084350931839754e-02 8.144278817074399601e-01
-7.036188404078314029e-01 -1.899820592755968596e-01 5.472450870348750662e-01
5.781610587098694465e-01 3.424393201551345634e-01 2.847403506808835472e-01
4.110021811628086774e-01 -7.741930493597505292e-01 -1.014184111372640473e-01
2.320308373478769393e-01 6.416922185257589728e-01 3.624006386680189706e-01
4.725982908633981350e-02 -7.340589772748038477e-01 -3.572193535825249899e-01
-6.129498861201437832e-01 1.583099369794365996e-01 3.615733971306447359e-01
-6.356306785307547225e-01 5.547009413481757134e-02 -3.895569758098655910e-01
5.468212401607159823e-01 -4.613187657103816064e-01 -2.104895999115511396e-01
2.184986192595811394e-01 -1.903565558349538112e-01 -7.472567675366270645e-01
6.334162151586134604e-01 -4.521713523809195445e-01 3.106594091130289795e-02
5.916947044086674490e-01 -5.201398732835786909e-01 -3.472010580933918705e-02
-3.236319459960661504e-01 1.084834157328980753e-01 -8.455745273310872889e-01
-8.194603076819556575e-02 -6.181103271191930038e-01 -4.504847220199477142e-01
-4.031742927834880419e-01 -8.907120250319906507e-01 -1.560323721790989604e-01
-4.473657065595382232e-02 -6.232975669357010418e-02 -8.607733607102954210e-01
3.149304581822278126e-01 -4.724565773207852204e-01 -4.648144181897781446e-01
-4.825185599800319025e-01 9.531397300480344559e-02 -6.771327384424069562e-01
-4.358825154432500737e-01 2.762994272968081755e-01 -8.328702776192855595e-01
4.913863144316933385e-01 -6.344736913927954136e-01 -1.258867764583015969e-01
-3.486496954481961841e-01 8.082203132934209777e-02 7.375230029890778027e-01
6.462243110593842710e-01 5.678627756630783008e-01 7.275172081694272763e-02
-7.077719768587809046e-01 -1.341623299179497270e-03 2.687964756435258784e-01
-2.889278372285981611e-01 -5.574238998283947977e-01 -4.366147608736130614e-01
7.131151213669796318e-01 9.223527493165063762e-02 -4.399474052114795697e-01
-5.830755435046286461e-01 -1.269586336519847036e-01 7.114852391523954767e-01
-4.446148333402604735e-01 2.627820299426190664e-01 -8.147707728024219387e-01
5.613395194478368877e-01 -4.649624509203776346e-01 -1.771066411361368886e-01
-1.960283983204943459e-01 8.544929361088597908e-01 1.663277050969765303e-01
4.043533095839245417e-02 -6.152758663234983993e-01 -4.506197246021622083e-01
6.871998551970300850e-01 -2.201454265463310689e-01 -4.485297526840175547e-02
-6.721025824166335649e-01 1.174308473592478030e-01 -2.897147786765657540e-01
-9.617660047793321482e-03 -2.616506111622743935e-01 -7.196165700190052528e-01
-3.432619773232649107e-01 -4.158543805299572682e-01 -5.003929424303130702e-01
-1.782098708051555180e-01 8.867484210448428605e-01 1.484290705394122889e-01
4.990765360662419159e-01 -1.863050683543566732e-01 -5.594256470865507369e-01
6.603852735314744704e-01 5.037801264312602445e-01 8.066066435363514198e-02
4.257756796056349491e-01 -4.681713339191901357e-01 -3.750102844362392385e-01
1.064335895400210230e-01 1.203431418815489456e-01 7.655437556504791630e-01
5.741788964985900662e-02 3.797241815200982917e-01 5.879678174996900708e-01
7.183081251169611825e-01 1.561025738098345550e-01 -5.092743063089907318e-01
6.156146319615627416e-01 -3.542176458813097728e-01 -1.732413107969099364e-01
7.953261472267929566e-01 4.876051391872780472e-01 -2.793335951065205047e-01
-5.459702406580473344e-01 -2.591843054482390052e-02 -5.265772738831725475e-01
-5.549593125251818249e-01 4.126187196618720243e-01 1.997701816394052143e-01
