2.158414160225251566e-01 6.785592519027986436e-01 5.097068509199048636e-01
-3.326907736938861659e-01 6.451036391974743767e-01 3.709321890499734375e-01
-4.451105686316447207e-01 1.481836393028298227e-01 -3.789762832431270989e-01
-2.524958723598591526e-01 -1.016102293508692744e-01 -7.152855363810644018e-01
1.690340400932075493e-01 -2.826827061019498988e-01 -9.130643095539118237e-01
2.127135913570406545e-01 5.432867147428913634e-01 3.100493238563897247e-01
-1.173119324557136689e-01 2.208292377498354275e-01 -2.185306398261495087e-01
-5.137380859426029373e-02 -8.205557227319483504e-02 -6.536737987743054257e-01
3.462238604140563947e-01 5.687403928789790397e-01 3.693111632591573601e-01
5.036507185430340039e-01 -1.841411449917958743e-01 -7.133821350899082203e-01
-6.951203657318025253e-02 6.083480474869275290e-02 -4.462720179077913074e-01
-3.549640850855405594e-01 7.125064217492660390e-01 4.665269318108714591e-01
6.420130200085848449e-01 3.356737264014202082e-02 -3.702925215295291284e-01
-2.063467055027013927e-02 -4.833320958478184298e-02 -5.990113365303756376e-01
4.796564860954519727e-01 1.601811428598923781e-01 -2.103897489645721042e-01
1.514786812878836375e-01 1.893603271021685741e-01 -2.209917088631875581e-01
-8.097051960029764128e-01 3.398824420025282622e-01 -1.562615675441950125e-01
1.093935132766228613e-01 -1.262403801330625186e-01 -6.924847284105969392e-01
2.558795357530451731e-01 1.718328538365419822e-01 -2.297570661218746590e-01
2.195838826584206593e-01 7.175103113704733859e-01 5.676610422367883713e-01
1.676139552961375401e-01 2.851028972704242048e-02 -4.551604326786598542e-01
4.036849806533296947e-01 3.945111945130706788e-02 -4.005261537519921866e-01
3.221270188647093469e-01 5.602944794008698493e-01 3.529445076357534128e-01
-3.788723119198379452e-01 -1.693442678752388741e-01 -8.356279009014296877e-01
6.722662733538820046e-01 1.217631177449623459e-01 -2.355141141021127038e-01
4.541925672661733526e-01 4.638318744801523397e-01 2.324864678655211570e-01
-7.463978086071262341e-01 4.779754306697317490e-01 5.736963407059763459e-02
-3.495708353722694062e-01 2.570156023945506171e-02 -5.437010571234799361e-01
-2.995683026496139822e-01 -1.977354762712261738e-01 -8.644826125957956187e-01
2.203567214417053999e-01 8.449009724063392957e-02 -3.641397145889802012e-01
9.248830232519952288e-01 2.013255554561396363e-02 -3.439061682229603845e-01
-1.716007754240778116e-01 6.450496413571787935e-01 3.971429178018722195e-01
-7.218142301355050527e-01 4.726290597384121273e-01 5.351084432522029005e-02
2.298378935435055337e-02 4.601899292754216275e-02 -4.529882161373696703e-01
-5.909574365922145578e-01 -1.073194901785500810e-01 -7.789282944428518318e-01
-7.368798243306632356e-01 3.425373719452974863e-01 -1.404677499984232913e-01
3.498231027765223433e-01 5.336998352498412146e-01 3.183121611665287176e-01
1.887114475844043904e-01 6.333169033426299110e-01 4.386737890968959719e-01
4.712804592050139907e-01 1.140761607289071528e-01 -2.796320900723879288e-01
3.917292027604846183e-01 2.544351982479459706e-01 -8.597965974623997254e-02
3.219379176983114821e-01 3.185221197076815725e-01 -3.021531484907189098e-03
-6.745326164234197175e-02 -2.601989509378870302e-01 -9.185591407928778152e-01
-2.474686166561897334e-03 6.514856800848393137e-01 4.342197290921098740e-01
3.545688216802406756e-01 5.127263735390521354e-02 -3.911384769601991551e-01
-6.766710453467950082e-01 5.618858623376214723e-02 -5.522017579775790885e-01
-2.670720841430999637e-01 -2.354828316079771999e-01 -9.147504920553527485e-01
4.111016846231489996e-01 -2.034373423649440682e-01 -7.568940254964480197e-01
-3.236504946775898839e-01 3.947140888186160268e-01 3.786250418964619193e-03
8.276701924617874129e-01 2.456573143659450120e-01 -2.775590518868555068e-02
-8.090223451261820964e-01 2.655781927980603863e-01 -2.655401980508723669e-01
4.197059389623856163e-01 -1.943085173552186184e-01 -7.420504159861543991e-01
3.077686009725645877e-01 3.607573060946107635e-01 5.684428266002075625e-02
6.185049855026621135e-02 3.270430942838551958e-01 -3.292383598801657679e-02
-3.555238086243600604e-01 1.763277680573890616e-01 -3.229219940466480643e-01
2.691130907767620428e-01 5.813083320168760393e-01 3.752289360555648434e-01
-5.102254364627558658e-01 -7.223567001233716089e-02 -7.141025668468863330e-01
1.142431834765914173e-01 4.338766661786833678e-01 1.329062203226592520e-01
-4.748699575520565208e-01 2.199212157959554437e-01 -2.782216377991217904e-01
-2.199508275334868812e-01 1.118942115238032164e-01 -3.956547253910320250e-01
-5.449787256755019849e-01 2.512886333956531049e-01 -2.434846941041138302e-01
-3.687984223089761371e-01 2.360004964258940324e-02 -5.499328651683383917e-01
3.578521577560918598e-01 1.014587893189699830e-01 -3.167190106803263183e-01
-1.079216042687597132e-01 2.211975260184674552e-01 -2.164559278642157747e-01
-1.047882236532122618e-01 8.039284541254940186e-02 -4.232359869056269153e-01
5.531406647553496203e-01 6.075580240092152140e-01 4.602273984609359658e-01
9.759202006254104056e-01 7.792467496811937566e-02 -2.504957358585372940e-01
-5.922564730722335025e-01 -3.226824089600060369e-02 -6.686504996566814407e-01
-3.295746115253782027e-01 3.170544414654813403e-01 -1.115104391502829279e-01
-7.885019782600551919e-01 6.356623089583039732e-02 -5.595914949358622437e-01
3.519880378248816388e-01 -2.213687684063365135e-01 -7.929399863926455128e-01
3.474998656951840403e-01 3.633618613350626525e-01 6.716291168445655269e-02
-8.648258155480091913e-01 2.831791904969757079e-01 -2.487354042607314297e-01
8.598164354349087102e-01 4.585910017379966619e-01 2.909695621351702788e-01
4.009500317022983151e-01 2.252065409532130191e-01 -1.275049777583568134e-01
8.120454869072084580e-01 4.093984185009053034e-02 -3.316891826576682245e-01
5.536729322067670545e-01 -1.804656229126271327e-01 -6.998073336018508783e-01
3.751125735713757292e-01 2.846281212983998166e-01 -4.424176806130730721e-02
5.249367900815592458e-01 -2.199111647918120804e-01 -7.625685176499094053e-01
5.863598064800819021e-01 1.553630505041794230e-01 -2.000686982982422535e-01
3.708884047491910474e-01 3.844393884903954395e-02 -4.073613859584855890e-01
3.463575593528135932e-01 5.839133241341027958e-01 3.916704414035226400e-01
4.795124453467188019e-02 6.804731622742137276e-01 4.851244668534273052e-01
-1.176082916885342194e-01 5.356189536965978437e-01 2.448516916641010344e-01
9.712488730030246487e-01 2.065405249422409828e-01 -6.191096404166369915e-02
2.409714741615521030e-02 4.736457606038070312e-01 1.767419160493455266e-01
9.624397768887416049e-01 2.395383294515491812e-01 -1.476954443408174875e-02
2.091141016215692094e-01 7.115254794347695144e-01 5.571415342946895999e-01
-6.210330991329384709e-01 9.031547065740276603e-02 -4.928802248767549798e-01
7.385314526559542125e-01 4.053603958652824968e-01 1.928099621305586209e-01
1.940467627853951493e-01 6.259322768139100601e-01 4.286729403490812107e-01
-2.043191991472776692e-01 3.272154545026024763e-01 -7.610953891318567033e-02
6.738784291567039286e-01 3.417447391503779519e-01 8.860403401502554843e-02
-6.779357936078628244e-01 3.550985315937792985e-01 -1.123555305484708750e-01
7.750896976951547612e-02 -1.615670629411906645e-01 -7.496959894247444689e-01
-5.346145496226388794e-01 2.261347596962504647e-01 -2.788245543058359699e-01
-1.065435064166500440e-01 -1.443203964281564167e-01 -7.543433443335337829e-01
3.335609294221537624e-01 -2.480930595632670557e-02 -5.065741879055104535e-01
5.114326210448650878e-01 1.126473505576533890e-01 -2.751826554439784078e-01
7.008130218729592409e-01 -7.240845037384156802e-02 -5.167129288159304501e-01
8.451061062795765799e-02 6.579406010748102274e-01 4.579187899314160481e-01
3.047202108928157571e-01 -2.383717170448869660e-01 -8.256857883607350290e-01
5.118636050299667506e-01 2.200765745709979682e-01 -1.169559432702538260e-01
8.789150003492021135e-01 -5.056734776022325101e-02 -4.554920318224273124e-01
-1.450929775608439387e-01 5.156477535485878283e-01 2.109647053967725339e-01
6.723212620223593117e-01 -1.642021184180524063e-01 -6.565006878701873383e-01
-4.748917315775647574e-01 5.572560947052359603e-01 2.183963005429522819e-01
8.261052036251279596e-01 4.690331932696151229e-01 3.008407228326481220e-01
2.191459313191913560e-01 6.708167671820570721e-01 4.988477356534984919e-01
9.030071914264223287e-02 -6.350780439126131605e-02 -6.032463566795978060e-01
5.585829153245681633e-01 4.807191887292612820e-01 2.743845485453708655e-01
3.294743458623216603e-01 5.644590891446678027e-01 3.602747091901500331e-01
1.281068475819083785e-01 6.010138855800088026e-02 -4.150999325659627814e-01
-9.136872467132482745e-02 1.798707061993002898e-01 -2.745954501673741333e-01
5.807970684726800892e-01 6.408570516867271305e-01 5.137635218866094533e-01
-2.604263173691407918e-01 2.296719189742884304e-01 -2.288690872786068309e-01
-1.140625923878382103e-01 3.692565770848619811e-01 5.131048216732687168e-04
4.228106313781089809e-01 -2.151335812259856928e-01 -7.722022026677377582e-01
-3.174729014899849849e-02 1.580821665364056938e-01 -2.969420073194847798e-01
-1.800056855892150920e-01 -1.724072716337711822e-02 -5.792469350106300707e-01
2.470888682989083596e-01 5.223478235530839564e-01 2.848333862349638479e-01
1.765077202576265658e-01 2.468638781958847339e-01 -1.322506867625917459e-01
-2.866741755151132609e-01 4.220911584236339276e-02 -5.091339103488927709e-01
-2.985644130956583986e-01 -1.429967676954074784e-01 -7.837329222674834783e-01
-8.178987031589260992e-01 1.844593195983452172e-01 -3.864113419232722002e-01
-4.337210623033932455e-01 -1.057090429666462800e-01 -7.508961035530480332e-01
5.099618765892665051e-01 9.970157543939164868e-02 -2.944813421998335734e-01
1.238787045193722874e-01 -1.671668680055764800e-01 -7.503723365380894350e-01
7.598972629432093617e-01 -1.546950736480154076e-01 -6.282119126463694414e-01
4.548656340045982849e-01 -4.857644712480141402e-02 -5.217667866817076172e-01
1.636044426496158222e-01 5.029861296320042863e-01 2.427044353640915864e-01
-7.961773053955271129e-01 7.770471442114172678e-02 -5.400295711472167248e-01
6.748914276099682308e-01 -1.301737653975486124e-02 -4.335083617330848793e-01
8.744709513614480345e-01 1.528288037244320552e-01 -1.567792543744856437e-01
8.096494181729229078e-01 2.812567896529956646e-01 2.171230653964765708e-02
-5.526472745874473347e-01 -1.539561359077349506e-02 -6.373464597744870064e-01
-6.847976111617359862e-01 5.590090258646663868e-01 1.867198730262426831e-01
3.687425574668003192e-02 -1.884538145996987046e-01 -7.959101028670744205e-01
-4.646049901240449365e-01 -1.381309764668717244e-01 -8.036677151842247513e-01
-1.551253438947607366e-01 5.520529895244448149e-01 2.629228758937324217e-01
-1.400548581412312116e-02 1.186268334489900128e-01 -3.521323080398930938e-01
-5.234880552310042789e-01 2.467645469273413439e-01 -2.466376928178610484e-01
-3.362105451984350180e-01 5.678692699521191711e-01 2.566539844115427460e-01
5.067471660440180381e-01 5.752632095942848967e-01 4.051117361108128034e-01
3.601466192016087309e-01 7.097275444065740402e-01 5.791434519597062902e-01
-2.991583192813239145e-01 6.733625387935673334e-01 4.180072632310071201e-01
-1.254788967841137248e-01 5.449716937938132721e-01 2.573362155879986846e-01
2.614340621549169352e-01 1.451379442186271629e-01 -2.681505709385809122e-01
8.406243203328144231e-01 9.768192250749639649e-02 -2.434898568857643275e-01
2.039769513081387819e-01 2.648542112737216625e-01 -1.012824381272487279e-01
2.366887376842705948e-01 6.863629331052005789e-01 5.245976893129160601e-01
8.078077094377222878e-02 -2.776699085299664249e-01 -9.200876300183575829e-01
-5.647748715305277445e-01 -2.050830607370817196e-02 -6.468525705710034268e-01
-3.162043589189567072e-01 1.200588750503229774e-01 -3.993435555434606821e-01
-6.101432267171654766e-01 -4.322513029610981772e-02 -6.877002930147007032e-01
-8.232526363553627213e-01 2.185060651117468888e-01 -3.371617906403376330e-01
-2.512238065454057145e-01 5.682469440232760238e-01 2.710800060252948618e-01
1.180101009233244513e-01 4.871548448201772769e-02 -4.335099722226782304e-01
-2.880360474851451635e-01 6.365890830309689497e-02 -4.777779717050523733e-01
-9.002853740064948873e-01 3.295592385118688017e-01 -1.862421725489410707e-01
9.100770891569698318e-02 6.717113426080020266e-01 4.792522965453109296e-01
2.219889807695104855e-01 4.090054885244865379e-01 1.138754266119131331e-01
5.608835081028755720e-01 2.250180721547642981e-01 -1.016809627709954478e-01
8.453221930412417873e-01 4.431185904442203616e-01 2.658257214057310192e-01
-7.234037842026105891e-02 7.123111260813917989e-01 5.123641979684893100e-01
-3.985844034744770448e-01 6.642825703384153124e-01 3.884132677445265025e-01
-4.238449299579064578e-01 2.430061256890869437e-01 -2.359088420715535483e-01
5.768345316400816936e-01 3.863814425858480006e-01 1.384800362529705064e-01
6.044427320592237196e-01 4.939502050120590793e-02 -3.531227446057423336e-01
-4.629453642188335327e-01 3.372947739677523704e-01 -1.034791818303736760e-01
-2.519745509525145866e-01 5.149924057796422261e-01 1.925566122431694449e-01
-7.670491926769540392e-02 6.915938220023817307e-01 4.811520598640543489e-01
6.461970986943484929e-01 5.479789960362755341e-01 3.877026728626740693e-01
5.134186128295238349e-01 1.351496886862429414e-01 -2.417307898173181868e-01
2.121424657082061904e-01 4.064629585534050571e-02 -4.300267635642396336e-01
1.485526160435112278e-02 3.037077663921053383e-01 -7.494762468407965839e-02
6.581134079919684909e-01 8.341262689015313536e-02 -2.942831522981885772e-01
3.018374817978040081e-01 4.079133116154028960e-01 1.252989752182285532e-01
-4.851273674300284888e-01 4.289963093437720865e-02 -5.405053150848115884e-01
-8.127063089022712461e-01 1.250333252748608848e-01 -4.730503673506396001e-01
-2.284180099792064433e-02 4.294067007825718152e-01 1.039530203601337355e-01
5.335966216717866750e-01 3.226082382052138375e-01 3.753715904687825872e-02
-9.367838426834981802e-02 6.163567766104040002e-01 3.676186272765353813e-01
4.983425616952310566e-01 1.490493212212023466e-01 -2.237283139930023590e-01
1.672817238459537725e-01 -2.461852102152279620e-01 -8.596189933596677379e-01
5.660528132593261041e-01 -2.252502341593078938e-01 -7.637184286176206260e-01
6.212444868050397417e-01 4.747325052461680572e-01 2.757975041240068315e-01
-1.393561098714457824e-01 -1.059956616912539479e-01 -7.032770865973213548e-01
-4.568425513993274595e-02 1.163549608461831864e-01 -3.606469805078149071e-01
-8.634149609418638738e-01 3.191390091481274283e-01 -1.955654157589037101e-01
8.112323079016405813e-01 3.934907772697102679e-01 1.872005435664068629e-01
8.508737733685057814e-01 3.845509544331597307e-01 1.805089835803059262e-01
-4.703729603483188804e-01 2.081511719399757321e-01 -2.948154752635778197e-01
1.057129778631372974e-01 1.688507962660907302e-01 -2.586547211309734862e-01
5.992120373955264201e-01 3.365563168797319760e-01 6.877997264978162606e-02
-2.251440136719506102e-01 -9.522259194928564541e-02 -7.014178314102045286e-01
-4.121364825212536775e-01 -4.351447799647890913e-02 -6.558111543130209498e-01
5.449161458131346336e-01 4.424904042354053657e-01 2.158740172587955142e-01
-1.635760886711819795e-01 7.033264005999716462e-01 4.842471044847308503e-01
-3.741842692101562950e-01 2.902209573092168760e-01 -1.582948517375601383e-01
-4.635672662956680234e-01 4.373464961582915200e-01 4.371460274796970524e-02
-4.440830804619246841e-01 -1.249709046443983618e-01 -7.809443527527203388e-01
4.778075293227215803e-01 -1.875272003361566908e-01 -7.225847189041606500e-01
-7.193548077389847473e-01 2.564432808168679578e-01 -2.643546072492015675e-01
-2.942770937186737212e-01 5.119622678832475016e-01 1.811918061696737303e-01
2.259278324083790340e-02 4.713624641626779632e-01 1.731349513986604749e-01
6.993927715520058541e-01 -1.185997996805762539e-01 -5.849472216805523539e-01
-3.136791507722276884e-01 5.382160186039044447e-01 2.166758947708391225e-01
3.461968730286728302e-02 3.319149441875660078e-01 -3.019566591012759829e-02
-4.463310448462156632e-01 5.216371048441098557e-01 1.706194953343553589e-01
-8.620025073879350463e-03 5.221317857601932566e-01 2.427831122124546326e-01
4.848635813066749511e-01 6.615618978165441755e-01 5.285884720165293649e-01
7.006360749645316188e-01 2.997789384303777838e-01 3.118924869715578724e-02
-3.161945383643116059e-01 4.857292224287663163e-01 1.389947707730226356e-01
-6.964559749462099214e-01 -3.597067364307110493e-02 -6.911067652989013599e-01
-3.917067853502581021e-01 3.818070217013929679e-01 -2.632235085623273185e-02
7.940715148748594965e-01 -1.087273603796544419e-02 -4.109006015650293886e-01
6.318900220782085464e-01 1.152901129604749914e-01 -2.516331042476068758e-01
3.001289881613249111e-02 2.914581342537586051e-01 -9.050766917339057860e-02
-1.416821422375069417e-01 4.958870600826479902e-01 1.824298387833509227e-01
5.478084365362242414e-01 4.253421539073550250e-01 1.911005392831131300e-01
3.661834980323439015e-02 2.209351249696001052e-02 -4.859859128316583732e-01
7.348122441830166052e-01 3.514027042636613807e-01 1.127669325241367621e-01
-4.516337328687773933e-01 1.443831515402834997e-01 -3.856359224826636511e-01
2.896512683529264831e-01 -1.433929850739629752e-01 -6.883182032731792743e-01
6.182261364713409479e-01 -1.280301070402442287e-01 -6.120770028711606248e-01
-1.177647141185306778e-01 7.950321061863544481e-01 6.267319632338155255e-01
6.734491165153040360e-01 -1.649818284892022591e-01 -6.574645020880101054e-01
-1.153897077775310337e-01 -1.765943328770312737e-01 -8.033004730353784373e-01
4.255100182057938718e-01 2.173109615417255225e-01 -1.351205404445185443e-01
4.921362532551373792e-01 5.606296307377860444e-01 3.811837763904450949e-01
-5.573908255337727269e-01 5.067303974545267486e-01 1.305487816235587351e-01
-8.439411134107063783e-02 1.997203285558219188e-01 -2.442347363159287910e-01
6.547839557637750822e-03 3.658250689141795964e-01 1.514514236614532793e-02
3.900868589381321083e-01 6.484818949273563060e-01 4.938644459760130334e-01
-1.981536533989272653e-01 5.609546316228796181e-01 2.690054865122312733e-01
4.087895342387917186e-01 2.652970046114657143e-01 -6.720472063483705349e-02
-6.250052897742590652e-01 2.621155188051025719e-03 -6.226313076498004584e-01
-6.997196948239045033e-01 1.468393194725699236e-01 -4.225081200261454617e-01
2.919545851737042064e-01 6.319264960032769940e-01 4.534763389528166377e-01
-3.340268970275309668e-01 2.587137688821716797e-01 -1.981256951608452166e-01
5.641603438948207261e-01 3.918235304486223369e-01 1.444233770581276333e-01
-4.078710713613676875e-01 -1.365488298565636568e-02 -6.111559927209880838e-01
9.419092567879414624e-01 1.253725542061272236e-01 -1.861940353239106283e-01
6.379312799552314672e-01 5.822759359368613330e-01 4.368453323615297812e-01
5.275133310497038819e-01 4.810389058716689759e-01 2.697846123634021209e-01
5.387334897586929516e-01 -2.473039123662707228e-01 -8.006442335926871046e-01
1.949223175892871307e-01 1.089703174532780650e-01 -3.322510938534078972e-01
1.475533988981291011e-01 1.717822326691919033e-01 -2.475106417734203035e-01
-1.247996059015325648e-01 -3.038648829201125168e-02 -5.895902634594831770e-01
7.312634961113779752e-01 2.529834557892698399e-01 -3.270419717294473227e-02
-6.730903360380976475e-01 3.311783107776727353e-01 -1.467798840161559093e-01
4.046941554578551981e-01 5.639270046964666161e-01 3.717674089727394660e-01
1.575414002817793549e-02 3.346331987999233148e-01 -2.927277166046190343e-02
-6.992002824745463530e-01 6.207417918759362552e-01 2.752517713494717078e-01
1.355181875116539258e-01 4.467233469814153590e-01 1.552911177780271490e-01
-2.426587173457416258e-01 6.093455770744380523e-02 -4.743830621161524430e-01
-5.121511419842880164e-01 5.459221446316088189e-01 1.956297437082777091e-01
2.071766282785104663e-01 7.412669204230164510e-01 6.006104268602932006e-01
5.482276131173546840e-01 6.054872399403841143e-01 4.563769877795327279e-01
-5.037280489614700540e-01 -1.890133325452256902e-02 -6.345238302362099514e-01
-2.425073640017364265e-02 1.086733558302254293e-01 -3.684577780028872040e-01
-1.575107712056685871e-01 3.890131332227021455e-01 2.250770248193779619e-02
-8.430400666736269644e-01 3.169290134840693218e-01 -1.954937270003395400e-01
-4.882598179588083509e-01 4.313216268679426202e-01 3.081496631003566994e-02
-6.769769973612527192e-01 3.661317611082836043e-01 -9.595602790944646188e-02
-3.879753014695104807e-01 -3.631194339136367688e-02 -6.412644899742930837e-01
3.404378469460811463e-01 -3.044074947765707320e-02 -5.137424230726722607e-01
-9.709792562830076024e-02 3.893567989201816015e-01 3.287314662742302912e-02
-5.971967315237846075e-01 2.831946478910171150e-01 -2.050350229758205745e-01
-7.925743004277997494e-01 4.329157034856182529e-01 -1.650300650695049956e-02
-9.996601422758255584e-02 4.528751560430903655e-01 1.259162447168205579e-01
2.880930457742252870e-01 3.802514449455997592e-01 8.233229364675397066e-02
-1.611015298004878638e-01 6.203156264654022811e-01 3.624432137421857436e-01
-8.154354576141856770e-01 5.107961139355359226e-01 9.442087178851919782e-02
-6.266519903691628590e-01 4.845349177828163212e-01 8.656922172156256146e-02
-7.722245606064075396e-01 5.379810491678840290e-01 1.414944069494878387e-01
1.127112723515280301e-01 6.702126404602882781e-01 4.805879870493467432e-01
5.725736821349517447e-01 -1.857516897240284737e-01 -7.045047936214197115e-01
2.383063156988868558e-01 5.165654650644261325e-01 2.748873171529496728e-01
1.891899158027656250e-02 9.596500372743910212e-02 -3.801215143839815069e-01
1.008908991338072630e-01 5.784834110254379880e-01 3.436158990495589705e-01
3.274837497210089654e-01 4.189952360025793188e-01 1.457992129270565540e-01
7.699828898102903940e-01 4.090466555707359397e-01 2.033697819764479775e-01
7.564344484554322845e-01 5.508968136548418881e-01 4.099892242729176739e-01
1.127919969308708581e-01 -2.764617759977761602e-01 -9.130847288636481096e-01
2.640341295074070671e-01 2.717019473201603974e-01 -8.139980351091288813e-02
5.925565596263408091e-02 5.195573691356493162e-01 2.500705311166846467e-01
6.912827719897293166e-01 -5.269217461029507971e-02 -4.892421547870349219e-01
-2.688449717457878571e-02 2.925817118851479770e-01 -9.813932166774358423e-02
-2.808440250447325481e-01 3.042916977214600305e-01 -1.223467067227943517e-01
-5.254218975156709215e-01 6.731874394560877217e-01 3.808227953302635860e-01
-7.061461228996249728e-01 5.192940102720638995e-01 1.247676488042145510e-01
7.419824693065687482e-01 1.129529080227654608e-01 -2.371066000020377040e-01
-4.625063222391440770e-02 7.981633561373391306e-02 -4.145312625598770451e-01
7.948769763851951109e-02 -1.602122423859474454e-01 -7.473785018002545577e-01
-1.496524355120915084e-01 6.541144675814095644e-01 4.140700914675376487e-01
6.468325328170579924e-01 5.640074139595101510e-01 4.114032753118461172e-01
1.115642868103974422e-01 3.153365578745058184e-01 -4.204470367278358850e-02
-8.559280273258889071e-01 4.344942039018722668e-01 -2.451861228915757848e-02
3.402543876095537323e-01 8.940334238258174776e-03 -4.557958730877416653e-01
-5.497110886070364355e-01 1.060599967374243474e-01 -4.580613687556196467e-01
-5.610542362651712578e-01 3.407368326534422343e-01 -1.144233854625583691e-01
6.523261046734660784e-01 2.590313138968001749e-01 -3.668333978242643845e-02
-2.515324040386074378e-01 -1.241226149910337195e-01 -7.482708358227080359e-01
2.733678240925688230e-01 3.634854381043992055e-01 5.524633643584071080e-02
8.496165771546009271e-01 2.423887016251678461e-01 -2.898623282003628260e-02
-2.039821668821200362e-01 -4.592421180107946962e-03 -5.645392200926084847e-01
-4.130600439050619577e-01 1.680940358965012649e-01 -3.444336570130227537e-01
2.952071391294247560e-01 4.242314158868766838e-01 1.482402614687901299e-01
-2.326597611400247068e-01 2.149862894731437990e-01 -2.459575841242783445e-01
-4.444217229388427448e-01 6.375061389634810727e-01 3.415124908041017870e-01
3.041000637352214153e-01 -7.037584702722761432e-02 -5.784649304351228150e-01
4.872553701707244556e-01 3.921914124033560878e-01 1.324139174818133868e-01
6.904857670526600710e-01 -2.247750544855907362e-02 -4.448904529723005097e-01
7.391082944503030161e-01 5.033240008144602706e-01 3.371252760629240286e-01
5.138623977933502035e-02 -8.267375650161672140e-02 -6.378132298998160365e-01
3.318665928018968425e-01 4.698481205612275446e-01 2.213796790040348517e-01
7.965614498801684706e-02 2.798219867655284965e-01 -9.953642351313549130e-02
1.843695802232998282e-01 2.390400191865890700e-01 -1.424858323920281666e-01
7.319369296118455326e-01 2.286327580679176630e-01 -6.844317805328541116e-02
-5.360257588068860768e-01 5.572094547647524765e-01 2.083504367979606697e-01
-1.069692013761876642e-01 -5.342199285530623010e-02 -6.205929748674517965e-01
5.655873817042443852e-01 6.417987261662156939e-01 5.126675942904026506e-01
-3.990996127073008770e-01 4.003646953966011335e-01 -2.084289573186997398e-04
-5.585928400381502401e-01 2.672340434046718283e-01 -2.222318512395097256e-01
5.752147509043971374e-02 6.964340301823849222e-01 5.101838001789134047e-01
9.375861155153369930e-01 2.826567170124864026e-01 4.465280349821368344e-02
1.037921421990222609e-01 6.398527642821462136e-01 4.344368191968442927e-01
-2.932580930948924247e-01 7.753082139355931268e-01 5.690537339121161109e-01
4.295812726268632975e-01 6.958460181141589151e-01 5.700390693270386278e-01
-3.343130000500910692e-01 6.387110370421480443e-01 3.612563047047439024e-01
6.520674263935017922e-01 1.650963006674714406e-01 -1.750158708691731124e-01
-6.962429299569333763e-02 2.895940577337208222e-01 -1.095129441503375628e-01
2.679728484322296267e-01 7.046542343688875221e-01 5.566316170372083150e-01
-5.677372889831824310e-01 3.241932932272749701e-01 -1.398693293101357094e-01
-2.669270088711195865e-01 -3.605280121469085081e-02 -6.211276491279108525e-01
-3.683341329689976407e-01 6.226075328600737535e-01 3.319965451965073977e-01
5.722738123975319446e-01 1.400326735114505450e-01 -2.249368103814318454e-01
-2.701726936933681600e-01 -1.451695217312396480e-01 -7.822980441132165730e-01
3.383677764546572098e-01 5.907507171703845206e-01 4.004324430675781366e-01
-6.545254939010650697e-01 4.613319790865225145e-01 4.786104205372087445e-02
-1.922928849801490425e-01 1.023345648832617444e-01 -4.052145205705403597e-01
-5.907277361858727094e-01 2.402082533962859312e-01 -2.672634677223414412e-01
-3.146842539708373798e-01 -1.942318861968559129e-01 -8.617916123846374177e-01
4.872887581859900591e-02 6.436224147608776702e-01 4.310000260487905632e-01
-5.643548785637170218e-01 3.152580540382067253e-01 -1.524716947448593041e-01
-3.509450681766402291e-01 -4.769617516458452000e-02 -6.519808462012988137e-01
8.658237663973727960e-01 4.637330672471990933e-01 2.995200754662127873e-01
-4.394314832206544508e-01 7.063430128673481301e-01 4.436679588923939099e-01
1.427637679359700373e-01 1.139431201591286358e-01 -3.334425608640697591e-01
7.491388514555922251e-01 4.784721144764976786e-01 3.021755517187178497e-01
3.804342884582510576e-01 -2.168550616516529972e-01 -7.816524588674528262e-01
-3.567085244313278891e-01 -1.555575234619041569e-01 -8.117139986124924933e-01
-4.861293857217017789e-01 9.543266989438278780e-02 -4.633301608398620042e-01
8.270938999401619141e-01 -9.896457286186942370e-02 -5.351993198776148208e-01
-3.600840679424316959e-01 1.653657150869568548e-01 -3.398044774822892022e-01
3.590357784399695329e-01 8.603711108405211194e-02 -3.392295026659097323e-01
4.953400924770843261e-01 -2.094309747773563657e-01 -7.519699153453982543e-01
2.645905354964104839e-01 5.006866736281396779e-01 2.558003372240262863e-01
-1.030905632226703644e-02 1.825301514393665447e-01 -2.574511308376987162e-01
-5.302468712565471254e-01 -1.405523410377598204e-01 -8.179453191613440532e-01
-1.828336197963269238e-01 -1.846287316332095030e-01 -8.261356326074578149e-01
1.922756204622945997e-01 7.106994815919870367e-01 5.531774321462975541e-01
2.263744079429632905e-01 5.195447542728371948e-01 2.773260887175146294e-01
7.242743730923023593e-01 4.041973204523302554e-01 1.887709074256386232e-01
-6.136175201147154867e-01 3.523656566861745887e-01 -1.058819688936598891e-01
7.275620623617613525e-01 4.180203021687724507e-01 2.096575393359304540e-01
-4.308239909118546374e-01 3.875534800167392685e-02 -5.377440682075499412e-01
6.903568557441365217e-01 5.983431815734224779e-01 4.690553558382361543e-01
-2.199929762953296841e-01 -2.226249790656414096e-01 -8.881378640672574765e-01
2.218827988577450755e-02 5.974211835723231001e-01 3.586514923342682959e-01
5.786198172256590277e-01 3.674930778877092408e-01 1.109641113991165912e-01
-1.133096491871546235e-01 -2.166201163923263395e-02 -5.748709794540628470e-01
9.287869744637258229e-01 3.010241209297629950e-01 7.025709854538672583e-02
8.809251076765488575e-01 1.886305207182587262e-01 -1.030189444014659311e-01
-2.290715312192771747e-01 1.177549745632451988e-01 -3.885150785964558984e-01
-6.201713143347113988e-01 2.991005611702545197e-01 -1.853679748409367278e-01
-6.619570305510846797e-01 1.906538426137023012e-01 -3.518418122889150901e-01
-3.138010536292817898e-01 4.508503178192007632e-01 8.803697069688731780e-02
-6.021695528051371760e-01 2.457627029287080822e-01 -2.609535834990146519e-01
1.578165239066604275e-01 6.409875567881271330e-01 4.449243427532092454e-01
-2.351517777571997259e-01 -4.531993273802780581e-02 -6.295848559954612123e-01
-6.620032056367227691e-01 1.681708315825447553e-01 -3.849486425962574399e-01
-8.882325976096049347e-01 3.179923126439824221e-01 -2.013038625347131905e-01
-5.969268811566497135e-01 5.073287658479521678e-01 1.249773276107795372e-01
4.358914065086687967e-02 -1.877190460140281680e-01 -7.937324996785108944e-01
-6.016104932989277954e-01 1.063574371806499663e-01 -4.660935706644968035e-01
-7.351645209731901831e-01 3.983260448909263785e-01 -5.805620698614295805e-02
9.956560162751456611e-01 1.578222072686463473e-01 -1.296503533510859063e-01
6.155188555303465758e-01 3.812594700136529569e-01 1.372528749115664026e-01
5.962209252017460770e-01 5.676720564883059872e-01 4.085384103687508262e-01
4.799186272592384506e-01 -1.062312810797961804e-01 -6.025570339245345242e-01
6.108946528463516934e-01 1.675968322713162484e-01 -1.780540924319421181e-01
-4.586879139343501555e-01 6.649132447593636419e-02 -5.014588538539154206e-01
-4.678169093896646924e-01 1.449669656898315388e-02 -5.794947665885167298e-01
-6.110826996875545758e-01 3.623113431290933550e-01 -9.082632732564291378e-02
7.190413178100915070e-01 -1.539575878436893336e-02 -4.298044412889621690e-01
-4.147870978782761814e-02 6.149727580640149682e-01 3.741001829533669998e-01
1.937792655077139603e-01 -1.860649624537472069e-01 -7.667860303464503202e-01
-7.943455726088883839e-01 2.135164649959279959e-01 -3.397897436562299922e-01
-5.965493786597790837e-01 4.781503585439369486e-01 8.208273786904862757e-02
3.987104676851105367e-01 4.788159777554906738e-01 2.454911407045817784e-01
5.811228017548791813e-01 -5.456917812977204324e-02 -5.099838001800012233e-01
-7.757736228039843751e-02 3.631397737674451620e-01 -2.537534435648399010e-03
4.716549272951002236e-01 1.559492286117026838e-01 -2.179258076239351805e-01
1.992859474538937192e-01 7.682176428530833601e-01 6.389992718098769231e-01
8.604366650375900871e-01 -1.995224191668331162e-02 -4.134364406044791496e-01
-7.642501413695508283e-01 5.660253575015760097e-01 1.840824370503261476e-01
-1.647408450233486532e-01 6.992912553084521532e-01 4.781165078096366039e-01
-7.644092621381850527e-01 2.167081044962619607e-02 -6.173375891095450596e-01
-7.755933790749282020e-01 1.308162844146029957e-01 -4.584798373075238409e-01
1.091576342458917687e-01 4.764403835805957055e-01 1.947381847997686488e-01
8.684321227517857178e-01 2.448547794941612343e-01 -2.228495799596478394e-02
6.737231914669685739e-01 3.766933171531417490e-01 1.400296932471013500e-01
-2.845939782627386894e-01 4.332052391052583218e-01 6.682669403903047922e-02
4.033274059342430440e-01 4.562236474899609706e-01 2.129844013935938696e-01
-1.810695523960739739e-01 4.961486439206012067e-01 1.763868327100609479e-01
-3.466052537069533868e-01 1.520433427430254170e-01 -3.572177882399999449e-01
9.272974051570050946e-01 3.131347856445454436e-01 8.784321360210253782e-02
1.724990381027995401e-01 -1.866995058099480687e-01 -7.711931771121601775e-01
-1.608392381777058733e-01 1.429173333089289455e-01 -3.403356189993283487e-01
1.858482074129602368e-01 4.091607545439637089e-02 -4.339208741999655561e-01
6.822101725186391352e-01 5.788717161065422973e-02 -3.279288645909442246e-01
6.988164762877236980e-01 -5.579239438768472670e-02 -4.925767552727983167e-01
7.349704331453978112e-02 3.750862369247270345e-01 3.970560360626837482e-02
4.878757165847472654e-01 6.133885158576269925e-01 4.581596223992948080e-01
-1.951061475349168406e-01 -2.250023751894633384e-01 -8.875762636927668758e-01
1.816824083671101375e-01 -1.138512406875835242e-01 -6.624478459011439169e-01
4.890101641287750711e-01 -1.781867461713598499e-01 -7.070054896667652411e-01
-3.719858230377688368e-01 6.064539251241805040e-01 3.076193801224211821e-01
-6.808478907077716302e-01 2.738702835742080552e-02 -5.952848323255066632e-01
-6.614271878688234851e-01 -4.483405719397568628e-02 -6.984385907692421958e-01
-8.020992097598620418e-01 5.740806467630386045e-01 1.897643172989971483e-01
4.708901645357500831e-02 5.998726977133329585e-01 3.663244424298643387e-01
4.091341182500043416e-01 6.025689241409795116e-01 4.293803198488990724e-01
-1.639040919095512971e-01 -1.335225111922840047e-01 -7.478081583164797319e-01
-5.609063818314800054e-01 -4.056461973540192306e-02 -6.757479565312644043e-01
-4.333092652787916277e-02 6.716470402311951471e-01 4.572332854788727641e-01
5.623436727588508877e-01 -4.608343331703212975e-02 -5.005559530834604587e-01
3.305067612612541117e-01 1.721529339902465039e-01 -2.171065279404903181e-01
1.318615620535584509e-01 7.084734924088297303e-01 5.400406497044081267e-01
-6.071829419778395076e-01 6.079234950838626750e-01 2.713982076529679044e-01
-5.780244685592516030e-01 2.613399956198363128e-02 -5.803485334009628183e-01
4.867671565342700513e-01 1.708515480597856406e-01 -1.935203944374344898e-01
-7.155507183162822249e-02 -1.786800878446021257e-01 -7.992171993964535259e-01
5.131638596285010429e-02 4.418351270103991757e-01 1.343528128652217712e-01
-8.531520723855495758e-01 2.525960946521516592e-01 -2.918543942749805553e-01
2.484155607065984539e-01 -2.325767875876011137e-01 -8.263435797362901347e-01
3.121970456277131656e-01 4.916849734181854004e-01 2.503175938157725655e-01
-6.350677550146787143e-01 4.755549822276726735e-01 7.197556789029206648e-02
-4.481707947541176962e-01 -1.361148084420679694e-01 -7.980174350694125840e-01
9.723187940759691061e-01 9.257272572401667454e-02 -2.295187592573444957e-01
2.941115375059385473e-01 2.679464581257277600e-01 -8.201990647489097730e-02
8.255922614842722274e-01 4.300501934070699583e-01 2.433665742800824872e-01
5.318494144967523818e-01 3.929431232352110226e-01 1.407984207685248901e-01
-5.297821671046207825e-01 6.244492880500023269e-01 3.083593051560927778e-01
-7.474606251743934893e-01 1.272376991181276840e-01 -4.591568754897597526e-01
2.521841920736561660e-01 2.468473653115400568e-01 -1.199244387542481999e-01
-3.630310623225110334e-01 -2.507194879641887544e-02 -6.206461152337487963e-01
7.664257215698984105e-01 4.206975914857664645e-01 2.199416518083256722e-01
5.195052497416967341e-02 5.929651783784801733e-01 3.569486605284202252e-01
6.574057140072189220e-01 2.486164405695156510e-01 -5.118702339673867480e-02
2.804517955024398712e-01 4.835975596912582830e-01 2.332304821847430154e-01
7.064448110133441094e-01 -1.182453412675376764e-01 -5.832744835123688798e-01
-3.507373084898415816e-01 6.848598027451240355e-01 4.265156371255505174e-01
9.369444923704695061e-01 3.641557958150670737e-01 1.645303283798409122e-01
-4.896614632785555310e-01 2.660200994717556444e-01 -2.127692644570191860e-01
7.583907611386995207e-01 4.177063698641433204e-02 -3.392226564620886564e-01
7.098199383067993473e-01 2.604521378236246409e-01 -2.520850144664414649e-02
3.333705640254300828e-01 4.299336123386920255e-02 -4.067867555650977462e-01
2.439358543952599712e-01 -8.334254264559043390e-02 -6.073733121301807536e-01
5.250005251985403465e-01 3.304448524120516817e-01 4.767125383749064998e-02
5.279509955928497478e-01 3.775812038854979846e-01 1.175465058303027249e-01
-4.304840798839046356e-01 1.911442051916858731e-01 -3.133430361187044544e-01
-1.845348677469371423e-01 6.755140660223101223e-01 4.398815095182161405e-01
3.945969887007574894e-01 1.873700909916163060e-01 -1.842443021090807709e-01
6.402104424628993762e-01 1.481377189770350933e-01 -2.019172327211410656e-01
-2.898958864519912693e-01 5.372926989554672739e-01 2.191980699397507448e-01
-5.508035853219896971e-01 6.507730724133743705e-02 -5.185740276120367476e-01
-9.493290125616918318e-02 4.631032071316430465e-01 1.417953076316775529e-01
1.352630941105431583e-01 7.794392198148270001e-01 6.450709171051802748e-01
7.942071059660683607e-01 -5.873446987171697387e-02 -4.813401035216312573e-01
6.685467341375670447e-01 2.398555583436317307e-01 -6.226648072117012961e-02
5.085789970429919205e-01 2.521212288821258474e-01 -7.031613515111813373e-02
-6.434734226846030580e-01 -3.915725460662921459e-02 -6.871511591387673423e-01
3.962944720122757447e-01 1.612875997479429890e-01 -2.223656873724328131e-01
-2.833019199098426033e-01 6.009994702391163734e-01 3.140627768734168823e-01
-1.404565310797017963e-01 5.206914272456396597e-01 2.191466359443996759e-01
-8.204966353888391017e-01 1.423602734892568111e-01 -4.488131815504081690e-01
3.003799488874165924e-01 1.448135297252853837e-01 -2.622721211574527422e-01
3.575268163392731902e-01 1.981793877984476815e-01 -1.743808783076722657e-01
-2.951029479131269673e-01 2.457523738196265295e-01 -2.108548791710139481e-01
-6.518420343721368360e-01 -2.498579532430487624e-02 -6.676538342115291291e-01
7.168780948063183667e-01 -1.517485290184201752e-01 -6.308948531395451864e-01
-1.980524631957232828e-01 2.213329458110564057e-02 -5.242261124206121226e-01
-2.186120588864591818e-01 1.705364930056201267e-01 -3.091035758165296965e-01
6.756293299796420904e-01 4.804454069889618761e-01 2.930837085771060280e-01
3.545540357624348271e-01 7.321346828866257539e-01 6.112183261942607526e-01
-7.103104472187794782e-02 -2.886280504933714033e-02 -5.785719687672198353e-01
6.677897589793259092e-01 5.943388747797850868e-01 4.594772527119728167e-01
-1.210956743430280369e-01 5.742427230026218021e-01 3.011441227423969913e-01
1.497430494301269510e-01 3.093982355557243769e-01 -4.455619670684507483e-02
1.907369577512023906e-01 -2.289309840388945860e-01 -8.303895276509936085e-01
-6.936274615279610645e-01 3.506430327917222090e-01 -1.214757903120439742e-01
-4.817846220610395025e-01 4.091042411447521898e-01 -8.365113613796946838e-04
-8.555382650330147776e-01 2.933899138125931616e-01 -2.321875180574229647e-01
-8.495256605129369865e-02 3.426086263240237240e-01 -3.396696082303578973e-02
-3.961318859779772161e-01 1.799033544819124975e-01 -3.242853696007720887e-01
2.925756855636149623e-02 -1.944944426785822633e-01 -8.060461225386742479e-01
-3.665222156898546024e-01 7.226948784565213890e-02 -4.779106574035427157e-01
9.482063194611187185e-02 3.020871172742387511e-04 -5.085683269411127583e-01
3.929978575585782452e-01 1.854733844930792630e-01 -1.872975985557618905e-01
6.575107702088056616e-01 4.627143163225005407e-01 2.640231634454967558e-01
-5.947888608081646628e-02 6.691151774070924763e-01 4.508705182222678132e-01
-5.561660766420563062e-01 5.207421091585955342e-01 1.513765840148346697e-01
-6.618439424993181053e-01 1.141941725467688767e-01 -4.643866212342266375e-01
-1.029029040188201988e-01 4.786547037959430484e-01 1.633893654683595820e-01
3.223841759556759223e-01 1.451479155514601715e-01 -2.581887054560719763e-01
-1.604864571309320420e-01 4.532501493483012678e-02 -4.839526116584994542e-01
9.757572516422122755e-01 2.249362566284112130e-01 9.337650627099972067e-02
7.817583634519745805e-01 1.572558479240485363e-01 5.942089160711748752e-01
3.786055341720920286e-01 6.383195047033236591e-01 6.758322431694808730e-01
-4.754489803246023105e-01 -1.904525596758684103e-01 -8.415988841984898272e-01
-7.209670404238147645e-01 2.592047881364243911e-01 6.317820787879210309e-01
-7.250651852381947426e-01 4.631980509179421390e-01 4.534011343436056829e-01
-9.013336748263960363e-01 2.024852066775328641e-01 2.846332874535010271e-01
7.100340955583037683e-01 -5.781888831103575432e-01 -3.651150254651862048e-01
5.046585744669306317e-01 -6.400464853922875896e-01 -5.357825384343338770e-01
3.037358778509606783e-01 4.130983566952254882e-01 8.500667311322946951e-01
9.839332414958504858e-01 1.890837513223339317e-01 5.412398230132474397e-02
4.711847554838904384e-01 5.474408618896271506e-01 6.824093732342851881e-01
-6.722630717393146549e-01 5.994837651973010662e-01 4.159369476049061820e-01
8.283810472881386611e-01 -4.676967986367280283e-01 -2.471907020353653062e-01
-9.505673018455150780e-01 1.102324448910255578e-01 -3.972155826829732589e-02
6.256063689972923836e-01 3.350797065810449116e-01 6.880401522471615294e-01
3.474146379024677933e-01 3.321463747356518392e-01 8.825301157780885974e-01
-1.677328669429464791e-02 -6.602132609895130511e-01 -7.000528992691389396e-01
-4.357688613006574507e-01 -2.585549358712144197e-01 -8.275723275035226090e-01
-9.237049493029475533e-01 2.756117160475504702e-01 -2.593797457587090904e-01
-8.614923418196593907e-01 1.005658130987918952e-01 -4.756057509303200370e-01
8.869149410797324551e-01 -1.591367765261955669e-01 -3.954442116943248098e-01
-6.568790614164787822e-01 -4.309411777220892303e-01 -5.417906522126918478e-01
-9.671991497026157791e-01 -3.623344275357075206e-02 1.651476436663075753e-01
-6.691556590181602093e-01 2.913992765795500595e-01 6.730567704564891507e-01
7.074859734238645448e-01 4.341614678804594507e-01 5.460868574893005256e-01
-5.518988600209416839e-01 4.420693087597412640e-01 6.751564894165272834e-01
-3.106486617177257603e-01 -5.183197539069027693e-01 -7.315367518121009827e-01
9.565682952946523709e-01 6.485367907987676928e-02 2.087565999625634605e-01
-4.796510420180783441e-01 6.538391171553377124e-01 5.717976606642817261e-01
-3.813263764063653527e-01 3.144981426282064674e-01 8.885023724597113093e-01
9.826673608473394106e-01 8.568331745872348471e-02 5.225294435972360763e-02
9.080903345506429192e-01 -1.374252044145693463e-01 4.469472098244347547e-01
7.252553319308637780e-01 1.104115927592660834e-01 6.996255310404071448e-01
-7.817665735908299052e-01 -2.836534458325495334e-01 -4.597531038686137328e-01
5.329787436393824684e-01 -7.060903310069903682e-01 -4.614847822713234460e-01
-6.745473408733221321e-01 3.646327699618268081e-01 6.066384291527264772e-01
9.948491939297841036e-01 1.128077404270488304e-01 -1.061444711218228060e-01
-3.619820562389957086e-01 3.876591878292303672e-01 8.444132126534206195e-01
-8.333709969612137503e-01 4.784952504231018700e-01 2.189802387764721303e-01
-3.498018777847640148e-01 7.512991767391967723e-01 5.829645737276287765e-01
9.812235822366243143e-01 -7.496456206857973759e-03 -8.252072805910194708e-02
8.714910532195734305e-01 1.906948426130783691e-01 4.159139617360499974e-01
-5.582077214843297330e-01 6.578337789233346111e-01 5.004429063217508133e-01
-4.976922610814576431e-01 -3.602564733658271678e-01 -7.237714623246075396e-01
-7.890237162445719044e-01 3.096814628337379305e-01 4.766922232033952711e-01
9.879462401091658741e-01 2.265764619601786101e-01 2.951034407588536135e-02
-9.340053556075990082e-01 1.257890483014724170e-01 -2.044730439403973365e-01
-8.080202944060838055e-01 -3.577155223521470973e-01 -3.802391760250480868e-01
1.969822081945691028e-01 -7.374475609060802128e-01 -6.198710120208886787e-01
8.198349558892772393e-01 3.084252545859453298e-01 4.573402621418941050e-01
9.463623597952277589e-01 -6.881738103557154262e-02 2.777468046131249535e-01
7.245304770205518441e-01 -5.199020975554672352e-01 -3.928876407078918942e-01
-8.373263301977758033e-01 5.366373710599627866e-01 1.497285686977591346e-01
9.792091688415164308e-01 2.210108857686006109e-03 4.678628469842240067e-02
1.888368175847134067e-01 -5.838487191438361812e-01 -7.305934579263089201e-01
7.652205979844177719e-01 4.177911438306451397e-01 4.829371023729391310e-01
5.403581892820532584e-01 -4.183822064986568168e-01 -6.774869353855329512e-01
-8.354852290349669142e-01 4.943919076918363853e-01 1.973766279251906175e-01
9.399185935747355058e-01 -3.437481240594080223e-01 7.018246331694261153e-02
7.324724796902760682e-01 -5.795456495707155264e-01 -3.300492667709145067e-01
-2.372318725644585735e-01 7.473164357348365261e-01 6.359280069058121931e-01
-7.620823868910312493e-01 5.342248681287499190e-01 3.280582159979392176e-01
-9.527655261847883805e-01 9.732298174223237563e-02 6.179661336619449857e-02
-9.294988455647814618e-01 -1.367596235918918379e-01 -1.856498889729381319e-01
7.800396982082415942e-01 4.599150812402142408e-01 4.404000178004786603e-01
9.202050478007364198e-01 -3.779928585293174659e-01 -3.112665375463612508e-02
9.473391142378138063e-01 -3.073268798653648326e-01 2.129309379967673777e-01
9.709767188494976553e-01 7.223845285413757304e-03 1.296675281642904742e-01
-9.314658987245258981e-01 2.931770652091567064e-01 -9.850913240528086368e-02
-8.719221880800394064e-01 1.499003517483546155e-01 4.362997954652891863e-01
9.347734859311488398e-01 -1.882904331468164549e-02 3.178429759307566660e-01
9.260202723465212893e-01 -9.982951545286491979e-02 -3.328700888828248772e-01
8.933747061728281036e-01 1.491287802818439534e-01 3.838558366409418054e-01
8.661422262400639838e-01 -3.440621094564312310e-01 -2.705775029595689496e-01
-8.757341439642621905e-01 -2.032003628720636113e-01 -3.178408177818439206e-01
-1.022735383784441898e-01 4.363073778168888306e-01 8.875748662437379366e-01
9.206634097113182147e-01 1.868704437025530130e-01 2.980423369189273419e-01
9.312857882027421041e-01 -3.179281820077096143e-01 -4.516754062806222630e-02
-2.111749819740465495e-01 -3.632898659987657264e-01 -8.660292988784974444e-01
2.560522497492747629e-01 7.524800017483950221e-01 6.480650716839098102e-01
7.929434836691449107e-01 1.630171899398032420e-01 5.736814048555857193e-01
4.240635448545051478e-01 -2.990999695197590347e-01 -8.455522126032977148e-01
-6.424630472996377684e-01 -2.607515877840370644e-01 -6.526444165026731303e-01
3.443782008922534055e-01 -7.103144602397756247e-01 -5.838911755321201102e-01
3.017014858497286123e-01 3.833894165532535925e-01 8.697530464980199882e-01
-8.415141255371969553e-01 -1.762223943026908907e-02 -4.751216593400082733e-01
2.701699534116702162e-01 2.879808331466653382e-01 9.424982797616375807e-01
-9.258197788545230456e-01 3.442533580855238751e-01 -1.373611540352641658e-01
-8.818698139378401413e-01 7.626354537690342716e-02 -4.095391160759702665e-01
-7.052821537920573869e-01 -4.678756784999016372e-01 -4.669220330834600308e-01
-7.922907059317483291e-01 1.749349488966787380e-01 5.898927842796817256e-01
-9.526531559348158096e-01 -2.665642811500413822e-01 -6.353774372221772382e-02
9.806924372259566702e-01 4.403098772412132773e-03 2.598504169810567782e-02
-3.830511557937136269e-01 3.281663749257761054e-01 8.775616722918908597e-01
9.324472367274512230e-01 -3.620433478571084551e-01 2.868228903189460124e-02
-5.471103291736506558e-01 3.720400487318905047e-01 7.337012767915562783e-01
-8.738904116681606160e-02 3.353353481602187602e-01 9.589955971784372979e-01
9.050517575963699934e-02 -7.191640002693234779e-01 -6.537736450249423958e-01
-9.150058718693812043e-01 4.719773363820594508e-02 -2.881448718377735974e-01
-1.853580660273433101e-01 -4.430249237482432045e-01 -8.215006745918320696e-01
9.645514403303921958e-01 3.213781103484206203e-01 1.160193559280075365e-01
2.405170262696245953e-01 6.411822791839474345e-01 7.245492077570009348e-01
7.750482158326076343e-01 -3.610742374085265105e-01 -4.484348680894141848e-01
-8.972947279259888553e-01 -1.020972080109596725e-01 -3.011328767482965296e-01
4.176933261391982399e-02 -3.450217219538233571e-01 -9.141877490232431791e-01
-9.242784234730516690e-01 2.592633279853276962e-01 9.096083476011662672e-02
3.455963651530711278e-01 -5.976384978043834950e-01 -6.658351442980567914e-01
-7.771918094044600878e-01 -2.209266949187417006e-01 -4.986082615956289876e-01
-7.739641506654691971e-01 -2.246783250126129228e-01 -5.017957719109829018e-01
