4.158460361754411916e-01 6.164159244978016927e-01 -3.139074701401355361e-01
5.991804265056022150e-02 7.514268313208761763e-01 -2.854304505815716819e-01
3.065199924792165742e-01 4.137048854854095681e-01 -7.601530169626280475e-01
2.609400643042664170e-02 -8.940537818798682812e-01 1.031294127153517398e-01
3.020469567014735790e-01 -7.063268695994190383e-01 3.888331061717933412e-01
-7.400927835313442227e-01 2.683863297923796964e-02 -3.876529098826125841e-01
-9.188874614906654414e-02 -9.265874472861825861e-01 -1.242806932415344012e-01
-3.643440221460680362e-01 -6.314759430950489527e-01 4.014349245951194245e-01
-3.609596018956497399e-01 -4.556034597756070670e-01 7.314419223874246700e-01
-2.893494705413298673e-01 -3.674454750714661322e-01 8.517615632184226682e-01
2.475902823190553187e-02 1.311265849873562983e-01 -9.584614368073988144e-01
6.884049477924190086e-01 -6.827802342763375498e-02 4.459120857460782128e-01
4.761592072400083753e-01 5.150139685582038052e-01 -5.218124532708593444e-01
8.404501825338759335e-01 -1.743721400141223232e-01 2.912455920557641131e-01
2.390384865905783862e-01 6.011877504424043561e-01 -4.842917315288655655e-01
1.516368738349924972e-01 1.654659733866868376e-01 9.756383911084038907e-01
-2.767266225267816515e-01 -5.465985937813151452e-01 6.076070374611853842e-01
1.866216809673846289e-01 2.071332672151867393e-01 9.502873348024563072e-01
4.879980084547537733e-01 6.254046422520136428e-01 2.960018314933747854e-02
1.624261410608009437e-01 3.286786439984860642e-01 -8.462320788644718261e-01
-5.486837832713511443e-01 4.351525073729137771e-01 -4.626407066726631601e-01
1.009559213074926881e-01 -2.785435193798123654e-01 8.163677124456659717e-01
-6.537568284653900719e-01 -5.154632047923488614e-01 2.720272880460699039e-01
-2.693763877944064800e-01 -6.971586080338412206e-01 -6.602369800923828524e-01
6.007039950584753818e-01 5.353789074814399029e-01 -4.410680393626728590e-02
1.953044697385692419e-01 -4.903072854208073705e-01 6.172149776223109230e-01
-6.984142632420038410e-01 -4.322723366716244020e-01 5.615138517318287725e-01
4.875462690545429023e-01 -7.067237584406939055e-01 3.318382176798775895e-01
-1.322267787240747339e-01 5.832756457268202244e-01 -5.237156999415849556e-01
5.228432449137553339e-01 3.771827078968629787e-01 5.026431289963776416e-01
-6.654586741954178208e-01 -3.899826091386796034e-01 -2.548939205475412306e-01
5.886800157587473992e-01 -3.472855393365451016e-01 4.861812526355987485e-01
-3.012356323302375349e-01 3.435374611704790637e-01 -6.558006891524247317e-01
-8.813850996469970722e-01 -3.372292872444839773e-01 2.864070466513906066e-01
-7.893265806043315846e-01 -3.969905078461408721e-01 1.145640281571539965e-01
2.610887536416115484e-01 -7.111906219560287790e-01 3.925464868163522358e-01
-4.598821417707266157e-01 -6.361850623813728456e-01 2.563266923610081349e-01
3.764121430290983117e-01 5.335008150931651594e-01 -5.490852264832971619e-01
1.480934698119438786e-01 6.818405928290338647e-01 -3.755216307222153382e-01
-8.124292110776474285e-01 4.994383049087734727e-02 -3.089203861744842516e-01
-2.936896057903631285e-01 8.974474425707190672e-01 -1.344503164242190074e-01
6.324081313999064813e-01 -1.173911333047244002e-02 5.018299153285179504e-01
7.387217221337534223e-01 3.865522052606195080e-01 2.693972561725845039e-02
2.616009959337758928e-01 3.066032352693005558e-01 8.746273304263750825e-01
-2.555233640758548530e-01 3.218266896479927142e-01 -6.933416990467807794e-01
-1.438384389919871997e-01 -9.063705678953140055e-01 -1.758690774459215900e-01
4.185481416549994421e-02 2.433758539453508007e-01 -8.852451383824156972e-01
-6.326939156793878194e-01 -3.441780742430865514e-01 -3.676645351286561558e-01
2.076793652952478031e-01 8.358826270695520755e-01 1.475706178841517668e-01
5.216569634183398918e-01 -7.824652055756565749e-01 2.560254036069603556e-01
6.972556755416269292e-01 3.616886141993652104e-01 1.904568053881919298e-01
-5.130801046948005872e-01 -4.959723839528061839e-01 -4.268372313097055226e-01
-3.542555553731326912e-01 -7.175724587611282956e-01 1.551793735386846340e-01
1.367218871801522961e-01 5.680666082754165513e-01 -5.588738032114856091e-01
6.218063356473995107e-01 4.907540908140192726e-01 -3.891969068350470407e-01
3.122921786155012924e-01 -7.717598805232272346e-03 8.030455147954425055e-01
-2.289845713210412470e-01 -4.996596690844291588e-01 6.828418311580549682e-01
-3.142584358464327321e-02 4.184146613962304584e-01 -7.103333578262289727e-01
-7.052320554937948627e-01 4.530385203567018904e-01 -3.521313604326155033e-01
5.769791517017275329e-01 3.729901899463530235e-01 4.148885464613941698e-01
-1.122785125876055584e-01 4.902795917477238419e-01 -6.205782461745882328e-01
-2.650179385371949636e-01 -7.676904832490671904e-01 1.374895214107669794e-01
-4.815937150427979097e-02 9.472300083048059705e-01 6.171423215491454034e-02
6.889014040214763712e-02 7.692994306274910654e-01 -2.480386131291583696e-01
6.686670889082350078e-01 -2.901495136025714072e-01 4.416284279596990325e-01
-1.955357679426827366e-01 2.406482567416745599e-01 -7.748114208280414417e-01
-1.516497912167887319e-01 -4.681709116402046345e-01 7.209223548424233963e-01
3.354198635341197332e-01 1.543457962253212690e-01 8.038432109843965945e-01
4.732954690787349178e-02 6.017156955483264902e-01 -5.181707636831764940e-01
-1.403417541151923409e-01 -5.535082013521802624e-01 6.140918452513948189e-01
-2.701921912496628719e-01 -4.580283447598567093e-01 -8.352500493464711795e-01
6.566521182463482820e-01 1.578745796591124184e-01 4.338974412528088798e-01
-7.442509755143935646e-01 -4.221239637260142397e-01 2.618952975337059813e-02
6.078433633704496408e-01 1.302033726070308400e-02 5.262890901625923989e-01
4.540767508448561446e-02 -9.645201614031417847e-02 9.568434386576770700e-01
-3.394871097607961574e-01 5.978324397235649373e-02 -7.597634917205107197e-01
2.095544262137912228e-01 -9.806907155416789701e-01 2.679849772764237789e-02
-2.600626128674789483e-01 7.808295464953360909e-01 -2.851438965542253956e-01
-5.530345022466968130e-01 6.109324870732429913e-01 -3.557085992475522152e-01
2.084698173449995307e-01 6.201330698020434129e-01 -4.621599261167008699e-01
-3.927262056838053961e-01 -6.851388280813073273e-01 -3.709242234982199626e-01
-1.930430137323094764e-01 9.619531378461618765e-01 -6.935277034407896779e-03
-5.917473576959185744e-01 -5.480529525104408384e-01 3.192589625988733748e-01
-6.436806933493592897e-01 -5.228850639231322761e-01 3.994773107042606797e-02
-9.429596918402364247e-01 1.005877705227813390e-01 -1.644138558538714712e-01
-3.016609902356266470e-01 -3.615485401783581632e-02 -8.154198859125364462e-01
3.363680221761788935e-02 -2.852967080588557636e-01 8.422548359806014684e-01
-1.607960359296065345e-01 -2.244551699510190235e-01 9.665138469188732095e-01
-6.620922314935423492e-01 -5.108801210261224579e-01 2.591721362751652213e-01
2.871975589223100811e-01 -2.765445792953209470e-01 7.171724106805175136e-01
6.178164612860803651e-01 4.849014704714957880e-01 1.387010461654998028e-01
-2.973593651826870743e-01 4.882715171500382478e-01 -5.582397506914350549e-01
5.394940469866247312e-01 4.497624766836132992e-01 4.008117137251602791e-01
-4.532493771915419023e-01 6.413132367383491683e-01 -3.763390102540561388e-01
-4.390897206601033220e-01 8.712195413547888512e-01 -1.618836798760852624e-01
4.757741355227048663e-01 4.987156281095985744e-01 4.665496023590322561e-01
-4.046622941137951179e-01 -7.164175734691575759e-01 -8.223244864737544457e-02
6.863932886269178413e-01 3.360118481376923039e-01 2.503718249726433198e-01
-5.509175818978117450e-02 2.726017022290285197e-01 -8.227876530328953608e-01
-3.324313095794369510e-01 -4.064880700668818125e-01 -7.732284556010236010e-01
1.776956563658962651e-01 8.688560058064507263e-01 3.209274476529044851e-01
8.326565674415681295e-02 -9.567196223575159530e-01 7.251009553904091964e-03
5.571232332227586959e-01 -4.674718913566289769e-01 4.547123928673081350e-01
-2.749579758535335983e-01 1.703059037056897096e-01 -7.640207377780539044e-01
-3.338706999928753305e-01 2.711437991331767106e-01 -6.778139162647854876e-01
5.244755113478389852e-01 -2.305848437775519233e-01 5.731671381939141829e-01
4.151395998930975662e-01 -2.401352535244086761e-01 6.508477076927485783e-01
4.370887996004785836e-01 -3.147994349774311251e-01 6.043331912624264612e-01
6.181237785435383936e-01 1.549304459512202033e-02 5.149886128609035829e-01
2.505008694336906538e-01 3.714348920666892817e-01 8.770694375623431238e-01
4.209001527355757388e-02 5.529321976956590445e-01 -5.801112316608237895e-01
8.221729678065537849e-04 -6.668473588658870854e-01 4.676552002474122505e-01
4.372795471938176193e-01 4.632479289067046313e-01 -6.534572401234409744e-01
-4.034183523966203833e-01 -4.783340971877454995e-01 6.850742660799602479e-01
3.300920225300800204e-01 2.318279840145016368e-01 8.073085677752785960e-01
-8.876620277900327816e-01 -3.048949185833357278e-01 1.543198784982523775e-01
-1.802787393678216554e-01 4.177954892405761900e-01 -6.601906426306365372e-01
-9.710148203791596488e-01 -2.130600998445745381e-02 -6.996930411967430818e-02
3.256561915960068387e-02 -5.315566861311439295e-01 6.243616542059496899e-01
2.004880966664847053e-01 -8.568664474090601502e-01 2.197512154353681302e-01
5.275021085435327439e-01 3.858525572653993541e-01 4.880364344135884602e-01
1.098331676493949187e-02 5.635309273876668579e-01 -5.652691805189001828e-01
4.888788926980577876e-01 -6.804859097884257135e-01 3.522799348898155714e-01
5.997355341997092637e-01 3.709851834557899020e-01 3.760515943238918468e-01
7.588065701810750019e-01 2.489656482733590415e-01 2.122554964671929945e-01
7.504670515108808893e-01 -4.620085225484026337e-01 3.267845593919719294e-01
2.060616346149252986e-01 5.005535248805250692e-01 -6.473900546376311071e-01
6.637511666874001959e-01 -1.857923648982933718e-01 4.651977572907124991e-01
1.679168797282152570e-01 -3.352980216102908195e-01 7.456929321109961872e-01
5.614997287450673724e-01 1.707515583705505879e-01 5.518100991759908869e-01
-6.295907039197395916e-01 -3.144837880692857301e-01 -3.973763535949376702e-01
2.281971696132872526e-02 3.479279313738115054e-01 -7.906997856495699972e-01
-1.655184486158294277e-01 5.198464836236386111e-01 -5.780242624804068363e-01
-5.578528417765397096e-01 -1.319729925172195284e-01 -5.697044462694920153e-01
-2.264438198107443789e-01 4.942967593755154786e-03 -8.635498317003440505e-01
-4.866078207116798504e-01 -6.448892135213615262e-01 -1.281704178286667273e-01
-2.517189515328711602e-01 4.970872534762393324e-01 -5.692115722141459777e-01
-3.857787485094510416e-01 -7.220060919263986410e-01 -2.443341626139659273e-01
-6.403401083090435320e-01 5.280957689024028401e-01 -3.589191827335662111e-01
5.510790924857706941e-01 -7.537253727557960969e-01 2.698116276664315749e-01
-6.847094391205760244e-01 6.594817041780499656e-01 -2.581962055751389484e-01
2.396807584101315058e-01 1.919400928856255240e-01 8.989263617186891153e-01
-3.430179810043899602e-01 5.355789774791712698e-01 -5.031443507678314830e-01
6.398418956320264250e-01 3.431969290688968721e-01 3.316124829206784641e-01
7.071284528242577361e-01 -2.438528595162763601e-01 4.178901446909130679e-01
2.945479673302118240e-01 7.707860001039551490e-01 3.162596632115629025e-01
3.994825359193530101e-01 -2.613893124174275773e-01 6.529131369661029805e-01
-1.345884011313181194e-01 -8.580458381911093557e-01 4.346388179543227842e-02
-1.738884664273186165e-01 -7.176368078552255447e-01 3.450614274968524242e-01
5.629276160741558677e-01 5.637931026539266810e-01 -1.492814778099679496e-01
-6.256479512546068156e-01 5.778550742763505221e-01 -3.394654917564695062e-01
-8.082994920529682492e-01 -3.683973242924631353e-01 7.841738192260022666e-02
1.937341283164570049e-01 8.560543570267105107e-01 3.276715349037249703e-01
6.351265283465876710e-01 1.704995089690923560e-02 4.962250707047447529e-01
3.953143010280331382e-02 9.482041906289536692e-01 2.048847629722957420e-01
-3.604015577273743665e-01 -6.789984004864534350e-01 -4.804186870149381727e-01
-4.477506118766987897e-01 -4.378790646218342908e-01 -5.952215006281285081e-01
-8.133042390118923048e-01 -3.960630997177511659e-01 3.082878464383063677e-01
5.418171159321372166e-01 2.233362365868091920e-02 5.950765893509072368e-01
1.949273313215068304e-01 6.086130826206214151e-01 -4.861465126955586413e-01
-6.312773268939859683e-01 -3.264164162517028261e-02 -5.007797950859206315e-01
-7.096716879506561604e-01 1.476510820119439522e-02 -4.199382477935093561e-01
-3.690053930680439187e-01 -7.207976299998112291e-01 1.034141514081904772e-01
1.148195889998816915e-01 6.610077771686748704e-01 -4.221605762034873477e-01
4.787913458395785526e-01 1.850059898539778425e-01 6.475020226588620309e-01
7.126706258970058050e-01 2.887961571504469860e-01 2.550198842772027352e-01
-4.428716261753247174e-01 -6.433523083519866459e-01 2.636431181581771477e-01
-5.235957731876456772e-02 8.875736403861756996e-01 -7.905274807694506745e-02
4.379864830678649179e-01 5.812595538953662100e-01 4.247192447884111655e-01
6.397782611637821137e-01 1.909867359136595555e-01 4.421333736654290414e-01
-4.999337484974022972e-01 4.830038005660030054e-01 -4.645123700933078137e-01
2.775288041288206387e-01 5.091748467092589436e-01 -6.253770300768636270e-01
-4.130728388992690459e-01 3.776110709616160854e-02 -7.056032237033664778e-01
3.707447380108759849e-01 7.131377082565224512e-01 2.936475962430967757e-02
-2.770810532400664883e-01 -3.774749545568636955e-01 -8.491757305313332171e-01
8.685662038864728762e-01 1.867258736403034636e-01 7.409465586196668785e-02
-4.780191984494099738e-02 5.717915517165420569e-01 -5.497145245214016818e-01
-4.219262892830371592e-01 6.146759219872708346e-01 -4.097046068519978324e-01
-1.791454113403468940e-01 1.284584554614923990e-01 -8.451685362406496926e-01
4.008692678166485002e-01 -2.510462687229024770e-01 6.563334288871390809e-01
-5.297488154952727513e-01 -2.881659688667553842e-01 -5.593563486153890763e-01
2.801803043415334038e-01 6.762883785998795583e-01 -3.049527579153152868e-01
-5.485813229748455200e-01 7.373854039741393196e-01 -2.625329584599220278e-01
9.112996859749495915e-01 -4.943661014995142516e-02 1.793413695823938558e-01
6.645243324655548435e-03 7.087043231178284663e-02 -9.860435631428910996e-01
-5.218674362148726376e-01 -3.012341841366890094e-01 -5.642906539824734669e-01
4.492748870263975070e-01 -3.678705391690741400e-01 5.714218506596935310e-01
7.182405020045256050e-01 -2.569138403876446985e-01 4.059560134785366037e-01
-8.181746783473284879e-01 4.944870292492294372e-01 -2.557990406102171876e-01
-4.103428019879752919e-01 -6.275840748703442884e-01 3.645086764175374250e-01
2.820272804050938387e-01 -2.623828702151416170e-01 7.277077567310533679e-01
4.466592011887954294e-01 5.130729262907918198e-01 5.063511786633990708e-01
-7.627012696002313241e-01 3.481147055538595936e-01 -3.433436245783659246e-01
-4.911617225603544523e-01 -5.452925770852175003e-01 -4.038174585144822526e-01
-2.567892008321426833e-01 -4.774263275269013951e-02 -8.551890358920453128e-01
4.061042399874602027e-01 -8.403420157400317558e-01 2.293849635927055486e-01
-2.430425215574190112e-01 -1.701965224983639224e-01 -8.903643423359938192e-01
-4.252303164111002065e-01 6.214554698178882397e-01 -4.030115011611634102e-01
-1.192746236777148250e-01 7.605185842316002365e-01 -3.112711123204305874e-01
-3.663201777797479852e-02 8.438098295744577149e-01 -1.568774801016542264e-01
-7.121739809463237258e-02 -8.125441948245217816e-01 2.123615337717264795e-01
-2.800768814133379192e-01 -7.228385836508256501e-01 -5.975514900212143266e-01
-1.715046512902551265e-02 7.994059044413932558e-01 -2.295739181372510318e-01
5.964106075367092696e-01 1.455835336876983022e-01 5.158470392095338974e-01
7.833382630827144810e-01 3.919889271445370360e-01 -3.583468165690396057e-01
-6.996882205032943780e-01 -4.380902295373198529e-01 5.384587234775951581e-01
-6.816318905732390299e-01 5.687949045435330975e-01 -3.126797880602938395e-01
7.307303112048844085e-01 -1.156324123006558652e-01 4.036478249401112550e-01
2.739470025193143643e-01 7.738358345489709800e-01 4.153359673522006856e-01
2.682474743217418967e-01 5.599953478656107819e-01 7.727669385902949939e-01
-4.220219814872653852e-01 -6.193890154077551502e-01 -4.399684730244545761e-01
7.706374392706558663e-01 -5.017147526285490322e-01 2.976441468226745934e-01
1.938648038600215284e-01 -4.632820689080536236e-01 6.397475961920336962e-01
-3.225514797801907751e-01 -4.785629373066087044e-01 -7.559369545652916411e-01
-4.972910205492400149e-01 -3.231809757340200484e-01 -5.879469427365238143e-01
5.622492607484208538e-01 2.863077951922532449e-01 5.027319108966322725e-01
-3.998712839621769710e-01 -5.437047783631221431e-01 5.674867421892505481e-01
-8.659279233063061909e-01 3.371006775614049933e-01 -2.573316147800600584e-01
-5.144314024091413140e-01 -4.652427603121370159e-01 6.607101055376555232e-01
-7.766039692507520353e-01 -4.149786449343496053e-01 4.325632320377941209e-01
-4.026208933691045044e-01 -7.145378878341204221e-01 -6.818470697848585428e-03
5.783862553007433904e-01 2.367965971129115943e-01 5.053458687198695287e-01
3.249325627302955266e-01 -6.249688149418999306e-01 4.579914852319464935e-01
4.357499901346805204e-01 -3.912415176334071987e-01 5.677483899832698189e-01
-7.798953164583426467e-01 -8.171420903890345977e-02 -3.105511533928879686e-01
-1.857858418047022842e-01 9.725410033303808488e-01 1.671753353055199440e-02
-6.997447691843304840e-01 -1.980155883988393706e-01 -3.662253057667740341e-01
2.433216892411707299e-01 8.171337876848787651e-01 2.797935522491408755e-01
-5.172291636993667785e-01 3.350534060371732070e-01 -5.300669411925034158e-01
-2.540903874174962329e-01 -5.459048328021863794e-01 6.133655946917485613e-01
3.666730886174442428e-01 3.131317653980291160e-01 7.518282386686222507e-01
-4.626129661938937349e-02 6.778469514925258288e-01 -4.197681289400120863e-01
8.116258733925275637e-01 -3.115786035456069025e-01 3.142211951506186374e-01
2.440409417349009014e-01 -1.991059575585735764e-01 7.830053657457175520e-01
-4.345542541289343919e-01 -1.268600756401205287e-01 -7.029864855634819776e-01
4.066880035951813688e-01 5.670879235434519439e-01 -4.571406902525413929e-01
7.826614514399101719e-01 3.919139208503605309e-01 -2.161298303976204871e-01
2.240500411858753482e-02 9.489435618408451623e-01 1.685118005276032283e-01
7.960762530844746054e-01 1.337609928301483619e-01 2.471731825192671761e-01
2.215034265242225020e-01 -3.904392104323833323e-01 6.823968699487716894e-01
8.418253190556683752e-01 -2.463271763907414758e-01 2.912242810588380193e-01
1.716370857760349256e-01 -8.193780934646202052e-01 2.696086931958407984e-01
7.887024790206581537e-01 1.867286000931948353e-01 2.189549378019005621e-01
-7.999497739186571810e-01 -4.063788315577573362e-01 3.307515492214312403e-01
4.432626873520920802e-02 -8.964904106290737529e-01 1.087812453859068329e-01
5.894762510525575205e-01 -3.488895952340397844e-01 4.850169078370594744e-01
-4.691461051229351420e-01 3.354095683264917138e-01 -5.614837951430543539e-01
5.269326636801049402e-01 5.547279622677803168e-01 -3.371819957958698266e-01
-3.669671735736447227e-01 1.192815010062667352e-01 -7.199296950073112988e-01
1.538492605896385201e-01 5.940560258998506260e-01 -5.186694251991448290e-01
-7.062897396135088268e-01 6.357349835264517468e-01 -2.609839911674294299e-01
-9.009816992924312151e-01 -1.758997051828485036e-01 -5.348894104437158792e-02
-2.027078669261251839e-02 9.264686539465524229e-01 3.636510181849057083e-02
2.709990430968265418e-01 7.239328438132390797e-01 -1.859283936603287612e-01
-3.425317295129430839e-01 -2.879411211828206141e-01 -7.895749402119636162e-01
-2.864543912403251236e-01 -3.938802056321926148e-01 8.195775401759356482e-01
-4.362215514821590756e-01 3.559171656404818695e-01 -5.718832686769232954e-01
1.016243156422821647e-01 -2.817337629873148952e-01 8.138784188851637680e-01
-7.624331019717657254e-01 1.186623949797798866e-01 -3.709522591501213662e-01
5.795530883627487695e-01 -4.343627755145522129e-01 4.565545983329028501e-01
-6.103915752088675539e-01 -3.899678716217614416e-01 -3.626389989382229340e-01
5.100832564985255946e-01 5.063119953813526308e-01 3.832315882693501097e-01
-9.675695557886163645e-01 2.497645889434631575e-02 -1.020881531627198524e-01
-3.769782171346936495e-01 -3.311798273250148861e-01 -7.405230482494942201e-01
-3.422753645205267037e-01 -3.543520556886821660e-01 8.708447006299228077e-01
-5.351899385445669788e-01 3.842481392261907214e-01 -4.960211289488655750e-01
1.994191036644487047e-01 -7.041118448234388039e-01 4.104584110248521989e-01
-2.566740266488027888e-01 -4.236654208729556670e-01 -8.627588204611047473e-01
9.538326106893896261e-01 -3.405136319303146697e-02 1.137596513696327027e-01
-3.384798488115283166e-01 8.140324079317577954e-01 -2.390868615738626635e-01
-8.108368807372073883e-01 -3.879741211420142943e-01 1.800708620614827615e-01
1.874177517195288745e-01 -8.863596514322604758e-01 1.750583789840355342e-01
-3.228315058097300239e-01 -7.785241268953674298e-01 -2.390773863423161505e-01
6.649027453437360291e-02 -1.935109291919893948e-01 8.888864192702946587e-01
-3.013615834647320191e-01 -4.729272936274654393e-01 -7.879738775239366610e-01
-9.542280140909210895e-02 -8.749397292496755574e-01 4.435295455803405645e-02
9.439806775425743646e-02 -2.855322067308224687e-01 8.146986090947414549e-01
1.368668213069030581e-01 -5.564068628849450082e-01 5.760629395796597052e-01
-8.074816163741781461e-01 -3.865174586195875284e-01 1.521797300196545966e-01
6.147755773694288939e-01 4.570092899759177207e-01 2.176657207192242705e-01
-5.354984005764300559e-01 -5.797649993155654657e-01 3.208721212638477316e-01
-4.704594145777828418e-01 8.224764535360807871e-01 -2.080092649065215793e-01
-3.244342319076720105e-01 7.557987053005573719e-01 -3.059764401262475286e-01
-6.053138056393120303e-01 -1.952969380508094432e-01 -4.961000655566930040e-01
9.436709760063741181e-02 7.686122987944672413e-01 -2.356422599862865452e-01
-8.133375846703899681e-01 -2.396630357153954893e-01 -1.477508148407858657e-01
2.875207590657560264e-01 -4.854649792278536991e-01 5.844414183618849012e-01
9.206161966686926545e-01 2.416939153599956258e-01 -1.506760512449181466e-01
2.596223907539791376e-01 6.726880876944126841e-01 6.795311893864343089e-01
3.170840065680000652e-01 7.238320411900641682e-01 -1.059936342280742155e-01
4.219636426651134364e-01 6.773824027542300064e-01 7.091123359176391971e-02
-6.583612105198918263e-01 3.366279915888719110e-01 -4.286730254867021084e-01
-2.800161741575046825e-01 -8.092898140551691988e-01 -1.152566908937426582e-01
-4.559723717388238784e-01 7.264047895690599610e-01 -3.032788794354994155e-01
9.758630157168006747e-01 2.080227104941470909e-02 4.514959022993295101e-02
-2.595385324967307561e-01 -4.745104065244999947e-01 -8.430743841555727869e-01
-1.618901285861652495e-01 -6.144897828282582797e-01 5.256607406263659188e-01
2.077272468865687116e-01 8.571223598263634502e-02 9.115246295635953677e-01
1.075726446924843011e-01 9.200550008009252823e-01 3.031316747206957984e-01
-2.632378808678808024e-01 5.104561839780287491e-03 -8.354082037728474130e-01
6.421176231560128400e-01 3.086507993293041360e-02 4.866133855881814574e-01
-2.369276590307967945e-01 2.688313981621581750e-01 -7.354272968575505942e-01
6.026708120021680992e-01 -4.589831618560313853e-01 4.301523247090883739e-01
-5.760708585464072717e-01 -5.572722201420452492e-01 3.191125378125124201e-01
-3.083086553181442202e-01 -7.527052619376188858e-01 1.122363179080181489e-01
3.287269735388096414e-01 5.354758916523488788e-01 -5.669142046148450964e-01
1.484933808676875966e-01 1.022123932488503972e-01 9.642550064510025942e-01
4.921509843065374756e-01 7.780600371097884382e-02 6.448837646249834243e-01
-5.195993676884090862e-01 -6.213839486845897930e-01 -7.437169592055892231e-02
-1.074473007395894270e-01 -4.922742886529133388e-01 6.884899734942209193e-01
3.756686874066546000e-01 -8.581885585729817079e-01 2.141893797977966751e-01
-5.875216223544085237e-01 1.204119236223159806e-01 -5.388691085038859185e-01
-1.945571198783533837e-02 9.505472234336524995e-01 1.048466946730025329e-01
-1.708768043097156908e-01 5.269939030767343269e-01 -5.698737558904928280e-01
-4.500791254971989730e-01 -5.161535362330925691e-01 5.946243219456662787e-01
3.129573093452824306e-01 4.152259536553286057e-01 -7.576936170604572363e-01
-8.151273630754940491e-01 7.498110121741000111e-02 -3.101619885979104430e-01
-7.687870930293987382e-01 2.155285451712323219e-01 -3.611943447329849510e-01
7.192521618413009188e-01 2.720292766120271377e-01 2.605149350401624875e-01
8.212756429035153460e-02 7.476144314102373123e-01 -2.829066500186045996e-01
-2.486214818284220307e-01 2.220696787975940389e-01 -7.548277373457342732e-01
1.577335801375296942e-01 8.506642496120435659e-01 6.346422519877394086e-02
7.140653188397741991e-01 3.276657031127208630e-01 2.046253323272177460e-01
-5.283462981560185234e-01 -1.763103325900250706e-01 -5.957316200236526527e-01
4.785159018262712949e-01 -4.968686265294826043e-01 4.838308729786068851e-01
-4.152698601385066968e-01 -1.966095762276763026e-01 -7.198869797457221331e-01
-4.179412825537163201e-01 -1.915601366383722637e-01 -7.174364494891232180e-01
8.196266654082851044e-01 2.245723615602080725e-01 1.242522979850774617e-01
-3.256867385883349120e-01 -4.870238465325796295e-01 -7.470746484253083519e-01
6.578170386787851598e-01 -1.634666675930502300e-01 4.732698624530687348e-01
-8.824851067081143086e-01 -2.795156878810644008e-01 6.885416059253993137e-02
-2.603805059710979641e-01 9.110586031726997103e-01 -1.109854862053684527e-01
-1.591389893822988538e-02 -4.027155219224982097e-01 7.627535651343100298e-01
-3.267014899012919971e-01 5.400678006060444236e-01 -5.060531173063043120e-01
-2.559052003582096835e-01 -8.327319283835137309e-01 -2.682900856781763044e-01
3.665391114487014795e-02 9.538115198400721750e-01 2.237471021405312288e-01
-1.603003854071726464e-01 -6.265439855119194767e-01 5.074893362920405160e-01
-2.247086884424189801e-01 8.110395045649484436e-01 -2.480144826339036046e-01
6.679721196644906600e-01 -3.169141694500370310e-01 4.353565765920753283e-01
3.961837391886050552e-01 -3.031673158390328360e-01 6.363040115953930709e-01
-7.171468514159773378e-01 5.629928040701352998e-01 -2.942763056245983333e-01
4.681326278198738589e-01 6.109188945404214754e-01 2.616853024798092009e-01
-6.227546911263270868e-01 -3.004766510048385020e-01 -4.182604660430412347e-01
-5.287392236237570264e-01 5.620988086396830896e-01 -4.001611049273350873e-01
5.884019276921142148e-03 5.123409556828556477e-01 -6.234328265699112803e-01
-3.793573729458287747e-01 4.211564995247411014e-01 -5.665950964239317988e-01
3.175880381319636236e-01 -1.844468517473778491e-01 7.411691025392647125e-01
-1.453518440990474170e-02 -2.840874175813110081e-01 8.631833387792557932e-01
1.589590473212691146e-01 5.325553873448264364e-01 -6.064677994478266942e-01
-3.024892782693817603e-02 -5.465144923094600315e-01 6.175867857615335854e-01
-4.529020782019598235e-01 -4.369990874043051532e-01 -5.878235662165686159e-01
9.579414106992301114e-01 1.804956839085772313e-01 -1.143997854207620957e-01
4.339384829242516339e-01 4.719470331711122513e-01 -6.387871290099023103e-01
-7.196226729875515593e-02 5.021601608630068547e-01 -6.192985959346393177e-01
8.303033839649637260e-01 3.116581385809762961e-01 -5.697977073991424002e-02
7.823406029238085813e-01 2.926543799248905731e-01 1.080866540259905612e-01
-1.223207708236027924e-01 -5.153728681475902018e-01 6.622435360732111809e-01
-9.926763585611292351e-01 -1.297233543828162639e-01 7.114317028121973363e-02
-6.639112171976491172e-01 4.671072480664545390e-01 -3.740485079866754381e-01
6.089691312715036497e-01 4.041438667053579570e-01 3.190262156360532120e-01
7.028722509330616319e-02 -9.439236779688527923e-01 2.611164309581770829e-02
5.355227547814028766e-01 5.329937493802305859e-01 2.665534710137981711e-01
2.537978865192903541e-02 -8.738741920981810685e-01 1.433023399554035071e-01
-7.944501238179825231e-01 -3.170857813670091008e-01 -8.135263106866331972e-02
2.642048128972420695e-01 9.065080786110647770e-02 8.640968112642403165e-01
-2.110528322894930364e-01 -1.027514353453836682e-01 -9.061087645572968308e-01
5.597465097068078377e-01 4.304189807075397556e-01 3.846431179934594047e-01
2.792025322860301473e-01 7.889729186152674156e-01 2.449587438333101219e-01
5.024966312600464002e-01 5.086507398679733782e-01 -5.134539519510048500e-01
-3.221207685411121152e-02 -3.910824014029127271e-01 7.781936525825856599e-01
-8.220843824931690635e-01 -3.813787441683266777e-01 2.071108952173017215e-01
-7.068484026896391104e-01 -3.904268518339329419e-01 -1.619587665626143758e-01
-6.878312676779627655e-01 -3.494848445444214691e-01 -2.616237777742472792e-01
-4.018274930540439160e-01 -2.230546254499582715e-01 -7.318998794556537124e-01
-6.320786776422575581e-01 1.693286559530086666e-01 -4.915517457208872232e-01
2.984728604433329879e-01 6.166199299319145011e-01 6.707657252207970267e-01
-7.923691512558882211e-02 6.999330882590012459e-01 -3.913876173585111862e-01
8.049567047122122010e-02 9.348685510713224955e-01 2.708629976728051947e-01
-6.395736882067485363e-01 1.764433152299809959e-01 -4.837584749491830038e-01
-1.282288214369776413e-01 -7.324369439539829552e-01 3.387406145596249529e-01
-5.320001856072474888e-01 -5.928938179938203490e-01 2.691002249480623498e-01
2.335406382662470193e-01 -2.934434479267432616e-01 7.385354468491879265e-01
3.947612737962180041e-01 6.204555225578786692e-02 7.413276977620827379e-01
8.231365174294460463e-01 -8.330969910002464229e-02 2.986922347092247354e-01
-4.601238020269216022e-01 -4.043560594155122812e-01 7.908224029445692915e-01
4.563644737541659030e-02 7.000256518805043626e-01 -3.764911836313398763e-01
-2.911513170680779528e-01 -7.965780692181552158e-01 -3.373031193595901756e-01
4.458928625963822223e-01 6.318872983298569057e-01 2.711873581074679684e-01
-5.173605630047376502e-01 -4.669848973402438985e-01 -4.524216248028515297e-01
-4.187112666189032884e-01 -1.281576655548658794e-01 -7.190385120246264306e-01
-5.217716723856572480e-01 5.913872151565648799e-02 -6.068255788289871333e-01
-8.493013154815248766e-01 -2.438785048047025505e-01 -7.156896003029651621e-02
-2.286200513873048734e-01 -7.112670631489020900e-01 3.250580202214645165e-01
-3.852862977935694877e-01 1.154141801362500719e-01 -7.073472810935086397e-01
-8.655584411079705331e-01 1.459534569517679237e-01 -2.631661562595015713e-01
-4.634173667420406206e-02 8.320961803907076515e-01 -1.826116136077086949e-01
4.348419204666568172e-01 4.372514608449991069e-01 -7.007066332997921032e-01
6.279718850244581096e-01 5.113612415291504121e-01 -3.887975574383601557e-02
4.810830994132145322e-01 6.185076148367464333e-01 1.694856826785334503e-01
4.658054914622105636e-01 -7.220603227374793320e-01 3.268765645528603492e-01
-5.698620681309082836e-02 -2.198361430574322095e-01 9.298233165971514502e-01
-8.850356066122650953e-03 6.222270887555789859e-02 -9.821910961942366125e-01
6.551312247290336233e-01 2.936314675101407423e-01 3.522433815702146198e-01
-6.210657757785291722e-01 -5.332345506593225704e-01 -3.317530883450141299e-02
4.847720317935284573e-01 6.097353878997262555e-01 1.966061234765380528e-01
7.093267401850009701e-01 4.162889728429458036e-01 -5.033428026743177464e-01
2.889039749881822661e-01 6.573347262824489334e-01 6.398449337106432155e-01
4.349124474744094360e-01 -1.402234591243482209e-01 6.695941774780111988e-01
-2.893341141559429008e-01 -5.917624592365289260e-01 5.279373304562012814e-01
4.444513446431292980e-01 5.977221665849385968e-01 -3.309274930464063957e-01
-7.126860895002578022e-01 -4.465755716550728338e-01 4.747598948420001519e-01
2.874457175891171890e-01 4.289754756385411039e-01 8.148490120108025092e-01
-2.750955112310103368e-01 -7.842047385168838813e-01 -4.684626240336636216e-01
-6.762604464024949413e-01 -4.797497022880400364e-01 4.154444751572230476e-01
4.958054727326915434e-01 6.024114714174650942e-01 1.790380064218916323e-01
-2.825557161654385085e-01 -6.334703647829263984e-01 4.530618459528368280e-01
1.552615666069668277e-01 -6.081077560836372839e-03 9.253704949153790382e-01
-7.867286906420485615e-02 4.801662058683900947e-01 -6.391783115684580574e-01
-6.866333762147881770e-03 -7.747730283180225275e-01 3.076789057195389865e-01
-2.246287904634517718e-01 -8.539438432739713258e-01 -3.587763245232213349e-01
6.796188194867083254e-01 4.289450241643579242e-01 -5.150928854461134243e-01
6.849490430103664096e-01 -5.929724023299303148e-01 3.121426609585334910e-01
-6.892175802013362773e-01 -9.728888550200977259e-02 -4.215124820749115986e-01
1.068125157459467872e-01 8.608533844129836465e-01 5.875445342770695481e-03
-9.008426011182575632e-02 -8.137467066450285724e-01 1.980657111794049963e-01
1.274687358201797294e-01 9.055839431610306356e-01 2.978465789521189122e-01
-6.835303357581106187e-01 -4.770466830855170093e-01 -5.717815844994598821e-03
7.878708173387917180e-01 3.514861089942096783e-01 -3.304043360990435718e-02
-3.494140051682025350e-01 8.123724020303992877e-01 -2.397388823357443355e-01
4.253730807062535563e-02 6.931273133394273422e-01 -3.879240088541529574e-01
8.627855664168974092e-01 -1.925340571318702454e-01 2.686857927318871964e-01
-7.409062890877278207e-01 -3.197178356374440478e-01 -1.933066547746737918e-01
2.883507183479690483e-01 -5.452585825913556228e-01 5.377605576859386671e-01
-7.087389906397109640e-02 8.063869477389706830e-01 -2.345084888410012558e-01
1.808937971115286703e-01 -7.807283428823791338e-01 3.208778800491927097e-01
-2.760983348385941394e-01 -1.546807452718599318e-01 -8.581611612603945449e-01
-2.377515404606463933e-01 1.511832900275374980e-01 -7.970139330532036714e-01
4.778877903500281521e-01 5.098414424917198096e-01 4.477104963711552310e-01
1.893400942913930074e-01 -3.152454291543000386e-01 7.484730656723469489e-01
3.882010820742392010e-01 4.879032412351483883e-01 6.348288951061948904e-01
-4.059646276731440628e-01 -5.989782338951170348e-02 -7.274980089775293646e-01
6.098115472555615257e-01 -5.236026305658043611e-01 3.937277915395627215e-01
-1.956846671152338013e-01 -1.174976883513795256e-01 -9.222832481753230338e-01
5.699829176647134288e-01 7.248922734357728104e-02 5.616320218567881772e-01
-5.035363118722321341e-01 -5.568268323542481246e-01 -3.550029687776304899e-01
3.183408303005469953e-01 -5.625666439140900588e-01 5.123960430748715211e-01
-3.879235237427679506e-01 5.219588222078195283e-01 -4.943639076121291720e-01
-1.310918918385880483e-01 -1.004435238624601934e-01 -9.697425201554432661e-01
4.901629469385449522e-01 -2.722027431782775841e-01 5.851041950164063143e-01
8.336944923255664719e-01 2.239343547650230193e-01 9.693996370344615254e-02
6.025007682740024517e-01 5.104027529857595447e-01 -3.483268854494058764e-01
3.051121182230666640e-01 4.382756530146574847e-01 -7.261915277575179406e-01
-4.016521615032969117e-01 -2.070879902797533312e-01 -7.336862649776062506e-01
7.564455382610945078e-01 2.775298003482452591e-01 1.839693474456349787e-01
5.077216604975971492e-01 4.222140611741712068e-01 -6.981424785306737935e-01
4.406059838366138681e-01 1.939854752304759899e-01 6.897763492820645492e-01
3.048885570470292183e-01 -4.958818121555571001e-01 5.692324610853746192e-01
7.943091617023402273e-01 1.670439510116872861e-01 2.258291750823206157e-01
-9.258043472635207535e-03 -5.685937571207663188e-01 5.898615960962007021e-01
2.768887085779482837e-01 5.831352019751500082e-01 7.409754907812974301e-01
6.383232575862169966e-01 -2.495303432841200209e-01 4.762385709830471159e-01
-4.011009194894463725e-01 4.844832853904044168e-01 -5.144680517795345853e-01
-3.890830576954203979e-01 -6.567985918814323032e-01 3.064079853495070282e-01
-4.541734462608459366e-01 -6.507373718300607512e-01 2.058984304525793008e-01
-4.128571124289974748e-01 -5.820887970997828953e-01 -5.185022001642883849e-01
-2.055197719369852294e-01 3.454809630947417443e-01 -7.026572731158591267e-01
-3.234153399734977508e-01 -7.773034715572444409e-01 -2.491829839789067580e-01
3.961958330644382853e-02 -7.575865662324311745e-02 9.712784265336553702e-01
-5.827508871437729887e-01 -4.445758787090883790e-01 6.592127629889296125e-01
-3.541633533814377288e-01 -2.333242837105508338e-01 -7.826201132200814037e-01
3.269643567054381084e-01 7.391238097789601946e-01 3.265632864972836669e-01
2.584973379839261912e-02 -8.227295778872230070e-01 2.371255934311038427e-01
3.875390103533969954e-01 -3.601890691789476073e-01 6.129631108397775030e-01
-9.133134426459643684e-02 3.072847353553284089e-01 -7.814625222291980977e-01
1.892649075892030297e-01 -6.504798025358285996e-01 4.698451535179831162e-01
-9.904200850717061189e-02 -8.440501156347557377e-01 1.216779462709421528e-01
2.033816091816317007e-01 -6.605565848314512989e-01 4.565862149623184374e-01
8.423991562925176035e-01 -5.165546641392658456e-02 2.681488769118043902e-01
3.919962631451772150e-01 1.267360933555348457e-01 7.468002738807598684e-01
-4.583791921645979234e-02 -8.947182067545994544e-01 4.535231728421153241e-02
-3.623000224047308593e-01 3.211170339053033285e-01 -6.344507629564265505e-01
-6.750104386432543846e-01 -1.714434459937684285e-01 -4.135693969479117271e-01
7.481346793212360902e-02 4.712573876907512060e-01 -6.787932096444483365e-01
-5.492608995509833392e-01 -4.404870368832308203e-01 6.907539763857624138e-01
-2.043350938796660299e-01 -8.666948268716423431e-01 -4.094443416712560402e-01
1.828653528814430385e-01 -1.902428092641966217e-01 8.251489190342812252e-01
6.582789076621520241e-02 8.295413423702444611e-01 -1.232055620529655948e-01
-2.341692142944995503e-01 8.627301786605838796e-01 -1.779259895522991297e-01
-9.041857969050874910e-01 -4.592332678894690823e-02 -1.547415627122666337e-01
-7.928652439212454661e-01 4.640300809903685764e-01 -2.851593341720673469e-01
-6.197983949038227136e-01 -5.471711953975904041e-01 8.942042207307537849e-02
-6.192192187249002666e-01 6.187906631106329103e-01 -3.177556573417784636e-01
9.366310652363646350e-01 2.333787348686052476e-01 -1.790804540961331570e-01
6.340378125582075697e-01 -5.467304208676674326e-01 3.670329519816211694e-01
-3.044911865966021258e-01 -4.663668424600698748e-01 7.233062991873748793e-01
7.115726271734464925e-01 5.681245356175657069e-02 3.988591202629621635e-01
4.462821207980944838e-01 -3.479687898293337689e-02 6.825886771469603653e-01
-6.407015590981892661e-01 -3.813037419694307317e-01 -3.153200353486022567e-01
-4.742131262536276176e-02 1.170481336601320033e-02 -9.850391679964001224e-01
1.681545297974667008e-01 -1.885121757826613842e-01 8.348441183824848455e-01
-5.239498301306396710e-01 -4.597123100083492786e-01 6.663980157014083305e-01
4.612314238874754557e-01 -4.307357833998373131e-01 5.314675847089496141e-01
-9.374675981270148561e-01 7.182550657544228834e-02 -1.622860221216635979e-01
-8.565193065605767320e-01 3.896745277607095437e-01 -2.558763446551486909e-01
4.873333968501047386e-01 6.260628252995356080e-01 -4.748560042410766499e-03
2.203878665469040099e-01 5.680630734137324112e-01 -5.454085798110476224e-01
2.908391072085462215e-01 6.240888629520896513e-01 -4.149123736201689727e-01
7.303791899307231494e-01 -4.510938978219758977e-01 3.453972496186453744e-01
7.413908524936296818e-01 2.975220971548440674e-01 1.887432055357342597e-01
-3.003678934032562031e-01 -5.655433581073765481e-01 5.698305113129450428e-01
-2.767137001412872110e-01 -3.967933661477638929e-01 -8.452882602473772433e-01
7.172189343738719636e-01 1.312851893469828279e-01 3.632867679861058741e-01
-4.650151593996382782e-01 -5.603766746715406200e-01 -4.386130929257628375e-01
-1.678533135240227736e-01 5.729577399476124544e-01 -5.265897448184585494e-01
-5.804923887745518929e-01 6.156798094465598670e-01 -3.392172994321033253e-01
3.001803862131117162e-01 7.710096246141369125e-01 1.356778064611784962e-01
-6.683831939116600118e-01 -1.204680484471676999e-01 -4.405844696675608185e-01
9.592940692368397138e-02 -4.656910556039547400e-01 6.719667326388140127e-01
2.852947941983551838e-01 4.171489591120015883e-02 8.366462761063608866e-01
4.109902800731118910e-01 6.844570035011786624e-01 1.416106902395184719e-01
3.670544202629142938e-01 5.874876579189642900e-01 -4.416732267733970430e-01
4.922126862736451725e-01 6.221884107110093876e-01 -1.310080152895883206e-02
-4.727141047344955993e-01 -4.373253489597557775e-01 -5.562412790130204510e-01
6.564387027652464068e-01 3.147779020167591479e-01 3.305385436447474401e-01
2.347618672171210563e-01 8.195414509124325786e-01 3.594076555279834273e-01
-3.649295281774733724e-01 8.528148965772838208e-01 -1.912084377291639603e-01
-5.194967993256769390e-01 -6.211302587847806755e-01 1.318059149818644471e-01
2.597067048198733463e-01 7.324784088511584468e-01 -1.754256001257245290e-01
-1.284844138070600217e-01 2.594017341021758183e-01 -7.979953262870368436e-01
-1.664974132962540321e-01 8.436021250389109660e-01 -1.968024309454307064e-01
-1.860907326147749619e-02 -4.179721328652640788e-01 7.492568035356699241e-01
8.319290239210598292e-01 3.485449063712549034e-01 -2.193660238137749852e-01
6.977779375414510099e-01 2.312176006195254818e-01 3.323094575537220985e-01
-2.343868857324470090e-01 -3.520461441765179167e-01 8.627504245237794800e-01
-4.236784147547342227e-01 -5.322626249572470075e-02 -7.103016027487563111e-01
4.200439907536320239e-01 5.906345402638237818e-01 4.513364994200926850e-01
-4.427669342072675374e-01 -1.111503428455166281e-01 -6.947010857038932174e-01
6.963960316868045286e-01 4.524688030732534338e-01 -3.496800054072567998e-01
9.975308325695722567e-02 -4.164768212501280265e-01 7.130357712010251259e-01
3.384837534893547772e-01 7.315004166195904212e-01 1.301412897337157109e-03
-4.118287444880580628e-01 7.591875458773594820e-01 -2.846145024477323426e-01
-2.039748533221336368e-01 -2.936308798888176419e-01 9.167627630615405865e-01
7.393545891129785774e-01 -5.726704607943337022e-01 2.887477236858504992e-01
-3.173397882628780087e-01 -6.359677963100102138e-01 -6.411968547090590720e-01
-8.921000549026413262e-01 -3.082271628068977698e-01 1.833648715235116355e-01
4.477303009162958425e-01 5.480917895348484947e-01 4.573073936087015401e-01
5.990031541525557834e-01 5.098726602599354951e-01 1.237053153478048784e-01
3.522148867984942200e-01 7.151197315603132765e-01 3.235874390104410137e-01
2.050058673125091380e-01 8.457181731958258730e-01 3.534901014799349817e-01
-4.852682244550977075e-01 -6.489635867836487382e-01 8.629807542242641516e-02
8.507177130656868869e-01 3.322439984548725689e-01 -2.267888275997137493e-01
3.453932453597806651e-01 5.492435331805598508e-01 -5.342546938031673687e-01
-4.251976617826446758e-01 -1.278344719017460718e-01 -7.124867968340879987e-01
-1.642121207876230116e-01 -6.354980883310173967e-01 4.926148052069495575e-01
-6.776731900842581924e-01 5.043270737940492854e-01 -3.478436712189028057e-01
3.513171142787218093e-01 -8.533890841366630342e-01 2.224269156881018283e-01
7.575713490620512580e-01 -2.602292509597454173e-01 3.701299710186777836e-01
-2.933409960235951464e-01 -2.585026708387068162e-01 -8.454072334240498865e-01
-3.032102317283335013e-01 -7.122555798428593654e-01 2.541207724226697273e-01
1.254368334193519674e-01 -3.618691089135196992e-01 7.459125491331467517e-01
6.899785372332443156e-01 -5.137028255466206117e-01 3.480833942715453322e-01
1.625339288459967946e-01 -8.544403089424519315e-01 2.187873478923243187e-01
-7.114075488013337223e-01 1.049394772464071375e-02 -4.174928220973516124e-01
2.318778711494924039e-01 5.421535048966178438e-01 -5.835055091980655417e-01
7.953392605614054700e-01 3.215929219758859037e-01 2.167498020920221105e-02
-4.269723674179228268e-01 -6.987465348604577908e-01 -9.073514095271904834e-02
-4.157446963666372453e-01 -3.817109272727247649e-01 -6.729037319530065675e-01
6.379451981940964522e-01 -6.695493044782114822e-01 2.927254900413997496e-01
-9.142737276039925032e-02 -9.486556393403725584e-01 -2.367592826557023411e-01
-1.414856990164702066e-01 7.537498517639003026e-01 -3.217112223626961143e-01
2.263535310236986786e-01 6.316312707649311964e-01 -4.343406870575003409e-01
-3.542525176897114436e-01 -4.013771491408686942e-01 -7.468026165414080042e-01
-4.115219149336549753e-01 -7.013125427252068222e-01 -2.217970259478140860e-01
-3.323677347385599057e-01 2.780015070870772709e-01 -6.751786139977641321e-01
4.128240682417023688e-01 1.131154441073813077e-02 7.192077022406923037e-01
-8.152637575271700632e-01 -3.395113960938146991e-01 1.796021462546697894e-02
4.310201321267197461e-01 -4.889022222631367876e-01 5.139272231484716125e-01
2.881588530327509612e-01 4.555991145938051989e-01 8.030117138670186394e-01
1.121244967818181282e-01 7.614795801513133400e-01 -2.396581200333103567e-01
-5.873187816971715547e-01 -4.956242092769940211e-01 -2.617158936439007433e-01
-4.033486868410066650e-01 -5.030797317953966674e-01 -6.175513457263327455e-01
-7.658402289441587074e-01 -3.032553367903144670e-01 -1.640871124148887417e-01
7.477927829493533629e-01 -9.530162581121943977e-02 3.845423576979561386e-01
2.936450869816921161e-01 4.122204980332324631e-01 -7.627059457028972922e-01
-3.258203576586552463e-01 -6.073585300059165526e-01 -6.565274356390664590e-01
-7.223336197064321729e-01 -4.659400142238491194e-01 1.744931899485469007e-01
-5.597410922937275934e-01 -2.416786419851997825e-01 -5.383161265983356092e-01
4.119428980971196474e-01 6.474662792040354331e-01 3.433917783594784834e-01
1.446646035799854790e-01 7.909374593400482212e-01 -1.467211274760209239e-01
-6.439255148479355872e-01 6.033527676318944932e-01 -3.143068151083440176e-01
3.968827798801789070e-02 -6.671008653373812214e-01 4.675284415991514675e-01
1.139298741895564265e-01 6.508441769927296727e-01 -4.387228702369858624e-01
-3.039465855948413411e-02 -4.858117528306125643e-01 6.842985044198600653e-01
7.226279350260123024e-01 -4.938070741696903299e-01 3.345782261436361371e-01
5.284392590568261217e-02 9.449331726225267403e-01 2.267412211875111938e-01
2.495305754003147025e-01 -5.772426093081968190e-01 5.243556418753905213e-01
-7.092684531501650680e-01 -4.513519977833621577e-01 -2.389994335336501075e-03
-2.745611488300794267e-01 -3.209747339444639636e-01 -8.609065073257216039e-01
-3.796606874224450756e-01 7.214078776660606263e-01 -3.294324201451049872e-01
-1.456802831778545859e-01 9.747705690353442032e-01 4.497738092010215849e-02
-5.720789252538794889e-01 5.635371494562679828e-01 -3.769537166232021508e-01
-2.724012603998792192e-01 -8.095770126811138168e-01 -7.309231260135053143e-02
-8.906353585934551065e-02 -6.873698496297756533e-01 4.276316444290396146e-01
5.079436164843957879e-01 6.069491814146413811e-01 -9.286102320525863041e-02
-7.707539488274057771e-01 -2.706014507839921146e-01 -1.935380840005492264e-01
6.006060703588489424e-01 2.247755966765721258e-01 4.803167931192132700e-01
-4.938741976801767630e-01 -6.025783409408386193e-01 -2.780392969331421105e-01
-6.341220505120400697e-01 -8.050924381218221848e-02 -4.911016451374867198e-01
-1.524321383673690466e-01 -4.751959808943516106e-01 7.126803376743056084e-01
2.879511524586774729e-01 6.156233672053960104e-01 -4.341043209615359499e-01
-2.878570806265203230e-01 -5.348632630070230265e-01 -7.751137879138508824e-01
9.949833013390481373e-02 6.529236592985739884e-01 -4.386638168875688359e-01
-5.749550439317619999e-01 1.974118933363215936e-02 -5.603264379531168737e-01
5.950878247297159973e-01 4.123466052638736223e-01 3.366202994310401597e-01
8.282428050687222765e-01 -5.423061937151728296e-02 2.861294062060044663e-01
-2.929522630677524053e-01 -3.060321046550567581e-01 -8.423508240843697870e-01
-1.011499656240075068e-01 7.644193607726501583e-01 -3.040579371212210336e-01
8.345583036590343839e-01 1.889412431719645069e-01 1.362739644627524727e-01
2.996722641498801298e-01 6.040700773660359069e-01 -4.507482909434796792e-01
-4.609676083211008968e-01 2.922010115193544588e-01 -5.864649588290798965e-01
4.859009960741057510e-01 4.282138444972101166e-01 -6.969742947485454421e-01
-6.922466863469836085e-01 1.630534208627998083e-01 -4.379111800970021395e-01
5.374832222618635136e-01 5.123773947282855845e-01 -4.636685463468077084e-01
-2.291949797965278368e-01 -8.053251982124293162e-01 6.797669212404837402e-02
8.779994520059789531e-01 -3.725822782201567707e-01 2.457503729086441824e-01
1.611138216303814319e-01 5.961446512458014046e-01 -5.141576152313104275e-01
-8.497507471106427457e-02 7.568618451762978427e-01 -3.130520712208774703e-01
