6.499714618498627638e-01 6.006842048198373085e-01 2.720014829987929539e-01
5.162964586664604560e-01 4.939634122929525417e-01 1.771432684290640269e-01
3.295705346883579523e-01 4.152369875706817814e-01 -5.336024923212117493e-02
-3.709178743441050030e-01 -5.421117068426514196e-01 4.148445588080522384e-03
-5.797312087900741151e-01 -6.593082581288619570e-01 -2.130022391218745204e-01
-2.165073172177109373e-01 -3.340114613622984230e-01 -4.445671724200865073e-03
7.047727668896747177e-01 4.103606899327699176e-01 6.369704730903886780e-01
6.254212587234297960e-01 8.732379716038924933e-01 -1.524084988044091815e-01
4.513554799117113214e-01 8.763317109515809111e-01 -4.738286675066749054e-01
-6.668605177696010355e-02 -7.028133330914515531e-01 7.822609827493689494e-01
-1.882035908152318859e-01 -2.956003883346055173e-03 -4.140637567774227423e-01
4.099814088978969151e-01 -7.780788699768036165e-02 7.799740421741723218e-01
-4.740223945408340855e-02 5.513951774062171296e-01 -9.298005736982107861e-01
1.348009303044230695e-02 1.285550689004937297e-01 -2.298428034141733189e-01
-4.764561949673173230e-02 2.790046761838042566e-01 -5.507866045227295393e-01
-7.007592307190159131e-01 -6.429427821878591631e-01 -4.562874040426620481e-01
6.533166159115416649e-01 2.936952085742330909e-01 7.057509011407169242e-01
2.127737574844938417e-01 4.158779790129783493e-01 -2.670317861515094093e-01
-3.618285237829531598e-01 -7.562919207984079017e-01 3.190739958415823585e-01
-2.289885022389278602e-01 -5.215555916165801609e-01 2.340772395838161823e-01
6.397910598562515094e-01 5.622063987771259708e-01 3.070570211615794576e-01
9.114390630339379643e-03 -1.140950836554815127e-02 -4.281658349336867758e-02
-6.077721194838612284e-01 -7.349215085509459566e-01 -1.587526600387533793e-01
-1.710772236008382685e-01 -5.630465476881769682e-01 3.973786777410222015e-01
-1.870381968620025426e-01 -5.644404844219913508e-01 3.702430618990826816e-01
2.376141625254740430e-01 -4.122087970186377182e-01 9.317998233650172102e-01
2.728639270531901251e-01 -2.465400485150102683e-01 7.652301675295919425e-01
-2.450230516834798755e-01 -4.599803623026797739e-02 -4.576162891858653881e-01
-2.926735473447727442e-01 -5.890544305553823135e-01 2.120869827706004240e-01
3.715166512699953905e-01 1.016124204164975953e-01 4.599555900310903778e-01
1.751064370557055550e-01 -3.925320976459282796e-01 7.905133001895796596e-01
-3.683476798336643987e-01 1.180091603464146904e-01 -9.107597174496789849e-01
-1.383570112295970655e-01 -4.802354462795840884e-01 3.416267135172878500e-01
-6.779218154886500480e-01 -5.661776195782223242e-01 -5.216213193412042592e-01
-5.055768090216411492e-01 -5.885749612039347101e-01 -1.764448774160737310e-01
-4.563640446601363587e-01 -8.709817277781124467e-01 3.066208415338388393e-01
-1.100155686030856589e-01 -5.992464549758239611e-01 5.590486550151693157e-01
3.238620572609126613e-01 7.792646935386327023e-02 4.061352161277120287e-01
2.601090749869649499e-01 3.008646381790400226e-01 -2.057609837184341470e-02
-5.242789403041262508e-01 -6.364737775724337299e-01 -1.437900275137082573e-01
4.352009528748344014e-01 1.155610806692762976e-01 5.565433094322940200e-01
1.864324492437033701e-02 3.542595764051030272e-01 -5.348574376709580580e-01
5.333848716331494044e-01 5.571279101419454038e-01 1.202825022758858553e-01
4.329242806152208134e-01 7.825495848618707617e-01 -3.767618585941720499e-01
-1.752586687062441251e-01 3.641744543996162237e-02 -4.453306224385435996e-01
2.475387424143900839e-01 6.806365984618910625e-01 -5.725231213573915845e-01
-5.281262870158791589e-01 -8.546933690617484203e-01 1.531947548597355213e-01
3.830096245145502287e-01 -1.477245201306422173e-01 8.282355878267020355e-01
6.037717255339172251e-01 4.433224090548981700e-01 4.070505311183946762e-01
6.441068352451445600e-01 3.204409114268977343e-01 6.517141913044299795e-01
-3.094296914572706725e-01 1.100535859515203579e-01 -7.923411980625190143e-01
1.033528758675204828e-01 3.315149382610232953e-01 -3.488499857439847363e-01
-3.327710834008393292e-01 -4.582735020639575607e-01 -4.314828076212243180e-02
3.479376647411378531e-01 1.617661407651612426e-01 3.332017783298536484e-01
4.422276911980377312e-01 6.784543785252002968e-01 -2.148017795259869467e-01
5.788635157579604673e-01 8.071270438062416730e-01 -1.451299455012978745e-01
1.590174623919890506e-01 -4.063476968803797496e-01 7.804486620905977112e-01
2.960826031370733524e-01 -2.448891794387287602e-01 8.052298329983202940e-01
7.841689520370255517e-02 -2.252328547360703814e-01 3.813072369607828915e-01
3.267887084866304831e-02 -1.461472337291553070e-01 1.878110806110103725e-01
-4.959834505611041000e-01 -2.407154842622568069e-01 -6.435582983666703338e-01
-3.373089542756928516e-01 -5.598517017056062750e-01 9.008961096315835915e-02
-1.852882509810666600e-01 -4.660418734121978823e-01 2.363555406813489523e-01
-1.519420811575616370e-01 1.060538864695682315e-01 -4.998608246882302875e-01
-3.027559743174841889e-01 -1.648340946717928301e-01 -3.972470359859351374e-01
2.451690077632246167e-01 5.622720023504738096e-01 -4.119508302073438544e-01
3.519856191326312111e-01 -2.053565706600256890e-01 8.520016510972610035e-01
-9.259447708014889589e-02 -1.336337943221045099e-01 -5.784202197057956157e-02
-1.700070341942258589e-01 2.024137364358596092e-01 -6.670067035561155766e-01
6.386846045889926771e-01 2.844991571639078343e-01 6.919052117391434331e-01
6.820064615867577063e-01 8.203094012528120427e-01 2.441044141440254847e-02
-4.495493279248737872e-01 -5.914587222733306282e-01 -7.035759999581804591e-02
-5.606883446365394930e-01 -3.687592838092990655e-01 -5.830635057538481325e-01
6.641446583028285389e-01 8.617910352043023359e-01 -6.591648446301479058e-02
4.815340750504575884e-01 -8.020654113416141040e-02 9.136690810265448714e-01
-2.977456898024691268e-01 -4.206658591705716987e-01 -3.172939772797741392e-02
-1.964606271304670526e-01 2.996424446889855292e-02 -4.749663074341729518e-01
3.661549824866562886e-01 4.388391902123521537e-02 5.306072705974617110e-01
-6.526780365987068233e-01 -4.892185344911093026e-01 -5.828415042594632389e-01
9.620726761905350199e-02 5.752993805147341710e-01 -7.014750354669752053e-01
-1.467856840778818950e-01 2.613255097091843893e-01 -7.067702611597509454e-01
2.090744040579367025e-01 6.978053393130035920e-01 -6.665140207283226648e-01
-7.063349867963022999e-02 7.257679540177212896e-02 -3.050983592145966039e-01
2.039796983388390550e-01 -3.080145319461293774e-01 7.253758052134524625e-01
1.822321791970367144e-01 3.007244600442526283e-01 -1.622557673210829055e-01
-7.378048444448434551e-03 3.773810958320689829e-02 -1.413280274888851218e-01
-4.244026201250680058e-02 3.122249929711146677e-01 -5.875815850919235972e-01
6.149914079630356412e-01 5.057403719990811730e-01 3.405381715745876003e-01
3.861948937692937650e-02 2.332097235408035207e-01 -3.298348470964951873e-01
-3.362033719623754857e-01 1.615866235953863569e-02 -7.103154605984766112e-01
-1.975070760069752851e-01 6.182600752996945948e-02 -5.212581818266810441e-01
-6.648546602348497370e-01 -7.434487734697567962e-01 -2.508657415318207295e-01
-3.235515543632697111e-01 -5.621032452415362091e-01 1.182891770553625294e-01
-6.117230134055506689e-03 -1.536627011914491192e-01 1.276024589315392366e-01
4.473119292847760331e-01 8.211141220794623830e-02 6.252044256295700153e-01
4.670599632457414496e-01 3.904521475360259730e-01 2.316427678874149187e-01
7.017125195712721475e-02 5.488423970709919164e-01 -7.120507866719784085e-01
-2.261943724838309244e-01 -7.756242221650282431e-01 5.931013626208205824e-01
-3.378163000994677811e-01 -8.469164208659824000e-01 4.890648135493161353e-01
4.355843101110775106e-01 6.358676376927008267e-01 -1.675785419511698904e-01
-1.135600372968667005e-01 -1.152249831302509520e-01 -1.216814102192902980e-01
-3.388641209650568586e-01 -1.021586953419664594e-02 -6.784213662744678075e-01
-4.651813541721229184e-01 -7.088472683726366741e-01 6.469394976863661328e-02
-1.924033993305279966e-01 -5.090354579009136460e-01 2.832860790045061417e-01
3.739915505998749334e-01 4.700872022411415330e-01 -4.884456725972115276e-02
1.081861341327919057e-01 5.059269197151438080e-01 -5.830118523467430203e-01
3.518085189251847766e-01 -1.348264842625245541e-01 7.534261002505461269e-01
2.087936395392475109e-01 2.320856828508295333e-01 -1.824830432440679301e-02
-1.557385120103885745e-01 -2.088201174522768822e-01 -6.813751848152184432e-02
3.431897931809813063e-02 -5.220542410635011787e-01 7.144614611598442133e-01
3.669998613024567924e-02 3.255500016571083455e-01 -4.619676705753839596e-01
6.459312233535494108e-02 -1.499912222327959288e-01 2.513069006421398965e-01
-1.626885478207860947e-01 2.073817780093170637e-01 -6.605947952547071012e-01
3.523883930373704620e-01 6.217977242614523004e-01 -2.995433126745694064e-01
5.554455141589440537e-01 8.523143060149515060e-01 -2.507412457848727794e-01
6.468793723041208477e-01 8.350810837987363566e-01 -6.016145304997334159e-02
-6.186516640051812344e-01 -4.559808116773343967e-01 -5.671550449113260672e-01
-3.745129246930209987e-01 -4.847492909545221829e-01 -8.231046938917518929e-02
4.979420383178906895e-01 7.464323722341528189e-01 -2.079999124330686733e-01
-2.737488902169135652e-01 -5.443485948127133600e-01 1.842855528977182800e-01
7.700271172521377938e-01 6.845411382826893654e-01 3.738989917229182391e-01
7.267748732278712931e-02 6.597318041149506929e-01 -8.619609873714271231e-01
7.867959399266592768e-02 6.156635725148563304e-02 -1.774379143855160657e-02
-3.832005936299373028e-01 -1.549450812311447268e-01 -5.575758486935181724e-01
-5.415210641982152184e-01 -6.652698525027970211e-01 -1.350866965002273101e-01
1.523803266472127937e-01 -1.013589849383276925e-01 3.434884854291019307e-01
5.752920771975185144e-01 7.151558233903480000e-01 -2.351455735015859846e-02
7.082860136273259888e-02 6.596541697631049805e-01 -8.652211101269215998e-01
-3.858321669994146941e-01 -1.657147378093344614e-01 -5.473671900379654121e-01
-6.377546329398341429e-01 -4.929296889062004250e-01 -5.504843991264775083e-01
7.017359120007539142e-01 5.947712620176153209e-01 3.745422788946408676e-01
-5.116920882881120791e-01 -3.742612980519022803e-01 -4.861382130006001723e-01
-6.244999207459432933e-01 -5.727564852831441566e-01 -4.151333429493080374e-01
3.731030341315447751e-01 1.362716145563045989e-01 4.145631684580066700e-01
-5.951512051907940082e-01 -7.416403680068174298e-01 -1.264002699571242783e-01
3.221426509255566617e-01 -3.350769098499432608e-01 9.783428975494868896e-01
2.295661090894463296e-01 1.013051286493713149e-01 2.017803251266372944e-01
2.225009232541989013e-01 -1.564623340874871371e-01 5.479956060936360673e-01
4.597020403091336971e-01 2.085711452454225290e-01 4.716100615163358878e-01
4.711739797055225151e-03 -2.890058306202644700e-01 3.358721303145984494e-01
-2.143763076302860615e-01 -9.043683819785851286e-02 -3.398784285727753929e-01
-3.219867777880450754e-01 1.884568292939712841e-01 -9.244382297927808967e-01
-1.756961785086045558e-01 -1.561488692506647624e-01 -1.778705030309651325e-01
-2.588114610454863573e-01 -3.548604281100458113e-01 -5.247077698322904354e-02
1.262502050930603137e-01 -1.150362247379319580e-01 3.149382948949632777e-01
-3.961988812891582834e-02 2.125367991714093019e-01 -4.435714535942377745e-01
-3.302275017305195820e-02 -2.883507630177251091e-01 2.662154585741470791e-01
-6.690660582307741411e-01 -7.916316046004213680e-01 -1.914162431050945024e-01
5.281408881221144602e-01 3.116372410466167892e-02 8.434307768800350935e-01
-5.166597463811116731e-01 -8.724473956212184245e-01 1.988168167063797953e-01
3.657656841890158383e-01 -4.070893037194565911e-03 5.967021670861668570e-01
-5.789946273753364681e-01 -5.458412103359095990e-01 -3.697271866109866911e-01
1.466512365620455949e-01 2.712952563553643892e-01 -1.860798290052792237e-01
4.340877502263153498e-01 2.775655589927329414e-01 3.288327144933012036e-01
-6.951895901162027935e-02 5.244160574588474510e-01 -9.325088413041304758e-01
7.217481413221062958e-01 6.490215647785638753e-01 3.354261197348331058e-01
2.321514986217756704e-01 5.724026702168958369e-01 -4.497785976567373889e-01
5.343088536854618820e-01 3.856363789178268164e-01 3.608644482678750598e-01
-5.409111992497659394e-01 -4.716501567856838384e-01 -4.037002489287774276e-01
4.356908743840021137e-01 3.038157506549169495e-01 2.951850691681096595e-01
1.782223357065237379e-01 -4.827811087234891718e-01 9.219124301728900406e-01
-1.957242768658530585e-01 -5.371014633072433986e-01 3.163338917650611593e-01
3.960285087543142790e-01 4.633626347314690475e-01 6.697802110087504313e-04
-1.191694999355570744e-01 -7.452341013659904423e-01 7.457422719357073015e-01
6.676443264690661294e-01 7.518457920537324757e-01 9.361989950888570389e-02
4.993993831404030526e-01 6.070580063334684029e-01 -1.118755562224054215e-02
6.686581943905268721e-01 7.354938745817979351e-01 1.182462134931129283e-01
4.129143271993562236e-01 5.510094527153159838e-01 -9.066550425094206667e-02
1.605038107256559141e-02 2.065261832735481029e-01 -3.337790310126181881e-01
1.790719149242780417e-01 2.672869434458627347e-01 -1.214324937969580714e-01
-5.095887107200517407e-01 -2.357390259897070850e-01 -6.752766787294744999e-01
7.063564073706158908e-01 5.936573709980972335e-01 3.845115484795871286e-01
7.157342308761630544e-03 -5.730136580188143203e-01 7.359685239825218828e-01
-2.593379544758213084e-01 -1.685021105984301770e-01 -3.130389665050227199e-01
-3.254816016242335075e-01 -3.097124502986187480e-02 -6.251277328708683134e-01
-2.500329224613144774e-01 -7.276869758390519527e-01 4.828930102777982958e-01
4.474376961640046391e-01 6.169246564209053263e-01 -1.195954411899312619e-01
-7.855665607387378457e-02 5.278769836337792176e-01 -9.537948716343038758e-01
3.785737416673267686e-01 3.657345966777855034e-02 5.634155139853658234e-01
2.709352195963923848e-02 3.290538757541499049e-01 -4.843497013826458253e-01
4.529007337554771806e-01 1.045095560231032172e-01 6.041839807004679708e-01
-2.105057740234658747e-01 -2.943177128246938778e-01 -4.880807689418573125e-02
-3.628043825297013192e-01 -5.435768902368581790e-01 2.097057574917170555e-02
8.366439484543321259e-02 1.372529428839760202e-01 -1.140988019075826754e-01
4.864730846730432323e-01 2.295465179056258576e-01 4.911611105675582345e-01
-1.668282700884913261e-01 -1.337160062909305558e-01 -1.929654921691301428e-01
-6.113110491188123996e-01 -4.991872760266678477e-01 -4.935926614296300419e-01
-5.418371252447359288e-01 -5.012766426342862847e-01 -3.641155009604050696e-01
-5.999784990932427453e-01 -3.608135466755959531e-01 -6.657106314599863239e-01
3.226782035412103372e-02 5.860157450801859597e-02 -9.816592419310266049e-02
-4.749568227663372166e-01 -8.571038055919394383e-01 2.534159692962013599e-01
-9.782544649718163954e-02 -3.689631505923144372e-01 2.604570920495860586e-01
4.817798751302623805e-02 1.031346101890038003e-01 -1.312183845945856242e-01
-4.950628564291298384e-01 -4.954829790505150267e-01 -2.869737915791429894e-01
-1.780730557918381030e-01 2.407418850948659650e-01 -7.350948168218216505e-01
5.816303220145044861e-01 8.158332341085436368e-02 8.706392950228528660e-01
1.812375549562932342e-01 5.584797091687316861e-01 -5.231372735390563689e-01
-3.172783793185482426e-02 -7.214949056828050267e-02 -3.260766289964425052e-02
4.297188299534905331e-01 5.486201760524199722e-01 -5.672290144031303522e-02
-3.410472640148371481e-01 -4.933227491074002047e-01 -9.399862544580847579e-03
6.902233842577172318e-01 4.196448559121799815e-01 5.975311929423680057e-01
-4.710936216730288728e-01 -5.201934093130774484e-01 -2.088837970651963305e-01
-1.467449837885666936e-02 4.963890442705206074e-01 -7.935506174707536164e-01
-9.144368120430602931e-02 1.705275827686508483e-01 -4.794617328227311348e-01
5.845157658237063458e-01 3.274498681314623738e-01 5.333881619579070588e-01
-5.391737362427544422e-01 -1.803539001666543407e-01 -8.063292444966403405e-01
-4.281288244419775291e-01 -2.980180646704321257e-01 -4.401156188001861813e-01
8.559722703406823230e-02 4.740118388439981678e-01 -5.797042354085224503e-01
4.511934181986259618e-01 1.801360478715189617e-01 4.957210886662097860e-01
2.588531731005647152e-01 6.743701820968565075e-01 -5.431811453748817131e-01
-1.600115702029148712e-01 1.100200223961985968e-01 -5.200867777896349686e-01
-7.567505483100511743e-02 -3.747130116621056883e-01 3.088202626817632135e-01
3.995126760470467109e-01 -7.728391394338804399e-02 7.601723357439494899e-01
-3.205938300908153793e-01 -5.484318784564276017e-01 1.046324276234655848e-01
3.279918157185376382e-01 5.963654981950111678e-01 -3.085599124423380468e-01
3.135240841051263883e-01 4.292127201413862281e-01 -1.020625167683386209e-01
6.007503425979597855e-01 5.611491567681705650e-01 2.374060409728529775e-01
-6.731428933449022933e-01 -4.454872153235314158e-01 -6.810445885083623585e-01
4.199806608120174034e-01 6.958318390480842108e-01 -2.795389933532067550e-01
3.648617242348325407e-01 1.644171917706395147e-01 3.603406896202306919e-01
-9.720757121322483318e-02 -3.756870980098342971e-01 2.709496158091361240e-01
3.904127406472518991e-01 5.839102015194703732e-01 -1.774913960829932746e-01
1.484121537769438059e-02 -9.873531818565246462e-03 -3.452325451486925462e-02
-2.593112612143786966e-01 -3.268374314960427740e-01 -9.241912836792572083e-02
4.784319773661007691e-01 7.199234839506669648e-01 -2.066144717014787302e-01
-4.824950532771216105e-01 -1.609017153268489653e-01 -7.301710157852927541e-01
2.129779099414813581e-01 5.718058185637654445e-01 -4.838772978758318355e-01
2.806959612659530867e-01 4.632730059460890559e-02 3.715155371022533237e-01
-1.744792174006788710e-02 -2.219378355461578411e-01 2.020719972884625348e-01
-8.891416816459103700e-02 1.185521009071143772e-01 -4.024483404871452841e-01
3.787351167540710661e-01 9.892970420299625894e-03 6.008771292394943231e-01
-7.327350778304714263e-02 -6.910351241815441137e-01 7.538522586109281942e-01
4.611530066108401882e-01 7.649099898665746577e-01 -3.007621124965532133e-01
2.595906271598348858e-01 4.596851851355553964e-01 -2.427677583811239104e-01
1.615411963098430659e-01 -1.386462592208466960e-01 4.121211718254664813e-01
1.629108767327367702e-01 3.653591589385554988e-03 2.163836594563833815e-01
5.728210700912095277e-01 7.776291408000822747e-01 -1.150455194738574938e-01
-5.018739032172525594e-01 -4.242842176493569761e-01 -3.985664725197041736e-01
-5.266755994991327849e-01 -4.843856648410310162e-01 -3.600246738531424628e-01
-3.959345539974220007e-01 -6.408797773705361411e-01 9.616366526143993454e-02
-5.339578856305831067e-01 -3.548962035732133313e-01 -5.536785171577530695e-01
-3.593710978114488808e-01 -8.286989389442979137e-01 4.244184952665866484e-01
3.614813256740422032e-02 -2.958629555271075073e-01 4.026948859355600208e-01
-4.297978168086062367e-01 -6.779266757988197112e-01 8.608078161325363742e-02
5.643456772649927400e-01 2.902963606039122846e-01 5.483998084858018318e-01
4.937201022316080323e-02 3.532328666430735731e-01 -4.774459674906578188e-01
-3.041728186976055404e-01 -3.740447578259151751e-01 -1.083844135990813945e-01
-1.215194026485783702e-01 3.375964278740606894e-01 -7.669907908442873401e-01
-2.911764233605073082e-01 1.295578316151555498e-01 -7.862583306457112675e-01
1.853669142814617365e-01 1.633562059695298774e-01 3.481779176820315458e-02
4.138330762048244571e-01 -7.329603231236611616e-02 7.807056496047468652e-01
-4.775901303752599913e-02 -3.084495412484976606e-01 2.673680396928000413e-01
-3.530189565310878352e-01 -6.634684874762876161e-01 2.058141640131327388e-01
1.833559738716429299e-01 -3.019624629094671414e-02 3.007852117719404528e-01
5.178097891632131577e-02 -1.921944135858810743e-01 2.867576717776931794e-01
5.538428497863376876e-01 8.587296757211527742e-01 -2.625979749014155096e-01
8.499829959135047838e-03 -4.077635917793269449e-02 -3.026283085136787215e-03
-5.314547776200304607e-01 -6.859636346062647494e-01 -8.792032910710888272e-02
-3.028516848231427305e-01 -4.528169031019378954e-01 3.757034526902920842e-03
1.745147843032367474e-01 -2.661348414038097188e-01 6.133559901448314422e-01
-1.643934074370170719e-03 5.045303627716871686e-01 -7.811531096581907363e-01
3.120130823593528779e-01 -1.592491491497770029e-01 7.149497094038600453e-01
5.931777197242535937e-01 5.183094710339970490e-01 2.832887683667426604e-01
-5.629651631878390683e-02 -1.752834345023019103e-01 6.630565901115202665e-02
4.054376139856542549e-01 3.595598999083539637e-01 1.624149806974772292e-01
-8.529364597768084033e-02 -7.254875684133536007e-01 7.799486073560066846e-01
4.722574647802098291e-02 6.162686417052530563e-02 -7.513022315365661119e-02
8.155077089438171611e-02 3.495927402252596572e-01 -4.137522615425746064e-01
-8.564723704114815539e-02 -4.826825883092360908e-02 -1.641052855066162386e-01
-2.549160160237433012e-02 3.643242191543889785e-02 -1.725081172777089555e-01
6.641822165094525277e-01 6.197684702511753185e-01 2.713048201006178495e-01
-2.387276227350417224e-01 -7.194646491844323977e-02 -4.099995548514621113e-01
-1.466141209401360113e-01 3.927792178211735874e-01 -8.895811163012116163e-01
1.058356401699149657e-01 8.436250101867862061e-02 -2.780230499702850350e-05
5.100073358469889850e-01 2.131437607879615725e-01 5.568855396172319727e-01
-8.130288782405793724e-02 3.475136735792881959e-01 -7.075403112005737016e-01
-1.715804751122525784e-01 1.787386417113448756e-01 -6.368922561616514599e-01
2.592441074961119862e-01 2.226490766875667549e-01 8.680738674764698626e-02
-3.935795087567670603e-01 -4.082024883992252384e-02 -7.354671749043681928e-01
1.443212010559236265e-02 3.122720177056977353e-01 -4.840378515232551804e-01
-2.541914138042618565e-01 -1.073317661737978462e-01 -3.888772712355039740e-01
1.186113700231940654e-01 -3.860023789263956062e-01 6.784951300799472174e-01
1.154702215025839307e-01 4.944761690654451702e-01 -5.537901860281548849e-01
-1.964186331287904597e-01 -4.358303803726652492e-01 1.739918412782513746e-01
-2.308195129680460159e-02 1.324441628135999971e-01 -3.018687365710212012e-01
-3.034431745498356592e-01 -2.920924496169869933e-01 -2.212199554286467806e-01
-5.934535370304871993e-02 9.351729076479131653e-02 -3.137052348281837988e-01
-2.863389860957277766e-01 -3.637106256827278838e-01 -9.029111392272082259e-02
-3.190651158930617459e-01 1.176518033375567179e-01 -8.204796697898764091e-01
-2.567191050170363007e-03 -4.826997671987962035e-02 -1.274892632252620610e-02
-9.952722464124565127e-02 -5.596574810411288903e-01 5.230061930525892189e-01
-5.467164698470040607e-01 -8.871580651552462005e-01 1.645528360276899693e-01
-3.572579482413568153e-01 -4.324478763098986711e-01 -1.237348244066705794e-01
-3.018195641169496568e-01 -2.924234115982446980e-01 -2.178010354340572663e-01
8.201558176347352371e-04 -6.398767648484027237e-01 8.175681096476701271e-01
3.692502291236764989e-01 -2.584396158692096601e-01 9.574021257182977473e-01
6.807631765199793072e-01 7.905436543640058655e-01 6.361102896368216186e-02
-6.288470493576080456e-01 -6.902548114948809932e-01 -2.593702073513281525e-01
1.973937454907717937e-01 -4.007602832007816085e-01 8.425783679143241667e-01
5.705319800424744070e-01 8.348531764302628000e-01 -1.989324832774643226e-01
6.316170674125116680e-01 7.689150558913173672e-01 4.207412024336359101e-03
-1.124050592071089705e-01 -4.983741876379276792e-01 4.141740101127573404e-01
2.631024881908667901e-01 -1.237886359408848225e-01 5.764463733592881667e-01
-4.295786937395525973e-01 -4.324357274683213737e-01 -2.555045843366282043e-01
-2.429156984182972712e-01 -5.353231271742552311e-01 2.278839409271126992e-01
6.108406858838602016e-01 6.730555289337840641e-01 9.989575557448086840e-02
2.096898159287855778e-01 -3.543284222788957161e-01 8.002966162287258323e-01
5.979801622177447484e-01 8.116521350688826741e-01 -1.166072702754162721e-01
-3.399787750569107092e-01 -7.921673249215741563e-01 4.088562641570140377e-01
-3.712420338260273844e-01 -2.379573971810857239e-02 -7.184893302164561124e-01
5.954721267654383698e-01 8.712843859483601072e-01 -2.042479030519055161e-01
-3.268141513737861104e-01 -8.226230420063928017e-01 4.752661335796312114e-01
5.103330677691338968e-01 -8.158859784859213288e-03 8.657676295766970620e-01
4.833132347608921908e-02 1.855949799457223548e-01 -2.458115980889931662e-01
3.520589893452834573e-01 5.652147062380433740e-01 -2.213196594443145593e-01
-5.699583333429067977e-01 -8.345607350441366368e-01 4.893972388310408039e-02
-2.574378749935033461e-01 -6.336649731119949891e-01 3.384241288683014770e-01
-4.020460944447572516e-01 -5.973671667004095687e-01 2.441390956032138057e-02
1.143681332996051708e-01 6.153609796701871026e-01 -7.241982109852884708e-01
-4.230259295341309289e-01 -5.806815197680835761e-01 -3.705100662927603844e-02
1.990808941171792051e-02 5.057200920022221213e-01 -7.435473293405030493e-01
-1.060471734767239743e-01 1.660342753925094506e-01 -4.998066892737475508e-01
-4.998302794224629420e-02 2.715759682202248948e-01 -5.446961953533900891e-01
-6.257774267279941904e-01 -6.190346999837411657e-01 -3.529921768697492634e-01
-3.383641690068258656e-01 8.264587324991815032e-02 -8.068728965731751801e-01
7.647512595457904572e-02 4.054336747248473150e-01 -5.007889805674496930e-01
-5.957224632920987695e-01 -2.078414649397588576e-01 -8.710569243375412274e-01
-9.459496343093370951e-02 1.386753941097455117e-02 -2.669652507143582820e-01
-4.166034440838937702e-01 -2.531180725798910514e-01 -4.816674109057482167e-01
-6.230492767103091856e-01 -2.803514494659056222e-01 -8.198294611612413352e-01
-1.206190855295972558e-01 -2.664522114391250640e-01 7.612770497955587135e-02
-5.572846122038118688e-01 -1.746647933926561147e-01 -8.472486521530285808e-01
-2.875227362441668544e-01 -5.701249206244148882e-01 1.951006365797008923e-01
4.484606273846922231e-01 -8.859748072959934551e-02 8.651054908143248623e-01
6.647589049632662839e-01 4.849442124450977221e-01 4.601742194983469703e-01
7.239055119941224525e-01 7.008131400196319083e-01 2.672074146271918305e-01
-8.095336971923600133e-02 -6.349856595757850941e-02 -1.343372793073719929e-01
-1.930654321610232871e-01 -2.650944201328394034e-01 -5.774543903486312191e-02
6.041112189306520053e-01 5.194527507045759718e-01 3.016145896164822426e-01
9.974987807467217138e-02 -4.877947237103646971e-01 7.859367843175325552e-01
2.371563280412059271e-01 3.093083917314294329e-01 -7.415375184994880964e-02
-6.175489668677147659e-03 2.878224181818432315e-01 -4.875206292572885070e-01
6.173127835900864557e-01 2.294214183179848210e-01 7.296971587114995383e-01
-6.228365269622869738e-01 -5.584796692293571008e-01 -4.319915134866638695e-01
2.856942197466083577e-01 6.686196970739750611e-01 -4.862717415305718438e-01
5.425218290123087206e-01 6.376646512554686730e-01 2.473525133132623011e-02
5.910376256759364288e-01 4.661948421298833800e-01 3.519889821386159023e-01
-2.850346973106817616e-01 2.208152500745893809e-01 -9.021968363952288517e-01
-3.226370315497732039e-02 -3.321141024317179058e-01 3.285634041783534465e-01
5.020600715200818076e-01 7.880673734142518150e-02 7.295473827281185875e-01
2.157259280084518616e-01 2.907792083393540006e-01 -8.738299396061818824e-02
-3.775656928799834278e-01 -7.575696385299360847e-01 2.921842025383689090e-01
-3.499566300503083038e-01 -3.233505594700955554e-01 -2.624129199916109823e-01
6.895019634613634985e-01 4.872394071236176294e-01 5.020533950065391160e-01
5.922609681438870677e-01 5.566096459927032392e-01 2.282640557930724901e-01
6.854609829160802914e-02 -3.370823582072285385e-01 5.191382668873392170e-01
1.759708218469673013e-01 -7.989671405648662850e-02 3.565669780137747935e-01
-1.103553931480818866e-02 4.468988064226218915e-02 -1.576754496362371694e-01
1.385067562223194215e-01 6.781487288799855628e-01 -7.676901768089081646e-01
-3.512938198524259009e-02 -5.293805351531897241e-01 5.981474865589230250e-01
5.711689577971833520e-01 3.660730522910755624e-01 4.552685888901276123e-01
5.636334291876751168e-01 3.816335821575106979e-01 4.198636659582068997e-01
8.714774064732980219e-02 9.591465646961883779e-04 8.211306265510390223e-02
-4.690811130578850796e-01 -1.881487235862781132e-02 -9.036697450522996888e-01
7.110869559675691010e-01 4.365740036659277457e-01 6.119567475992949701e-01
-1.607963916664775506e-01 4.175631769957305894e-01 -9.499437988475813999e-01
2.908577048021839251e-01 4.699066856543498982e-01 -2.000450738576481646e-01
2.979804582712055061e-01 3.081786146288216233e-01 3.822857649002962127e-02
5.940300222649939066e-01 6.414040469397068733e-01 1.133628786688846146e-01
-4.978690398618222379e-01 -5.757999659881254395e-01 -1.801993643982009452e-01
6.672950724734304506e-01 6.404878142515709749e-01 2.481124050859632446e-01
-6.285438610897109424e-01 -8.279238017692447382e-01 -6.703617252739524357e-02
1.159554259200413773e-01 3.745376206388955492e-02 8.375513729558410614e-02
4.021176533108843376e-01 7.141362485124072013e-01 -3.375807599123832881e-01
-5.566006384546863250e-01 -4.264714064477904687e-01 -4.952199140365905472e-01
-3.257756559463679258e-01 1.259354480917375674e-01 -8.442444756447927690e-01
3.824583285845022385e-01 6.798624142980679297e-01 -3.256501803302609965e-01
-2.396480619540634072e-01 -7.141901140086022171e-01 4.830100013837367867e-01
-6.811235236085255718e-01 -7.316700910361371157e-01 -2.969125662303885860e-01
-2.886224337309914456e-01 -6.617160607930908656e-01 3.206895290351975958e-01
-1.207953484823261897e-01 2.848221137383613599e-01 -6.921537317165833425e-01
1.414176849697613425e-01 -4.115540756752616991e-01 7.556384728606220236e-01
2.589334661696291451e-01 6.587529852526935459e-01 -5.212791166112640262e-01
5.086304037552729085e-01 5.828629985264932589e-01 3.933456781679343234e-02
-4.561727442288210921e-01 -6.506521840778228816e-01 3.623145996225080192e-05
6.801249173195400566e-01 7.830144414752343573e-01 7.293693219898290947e-02
-4.299351951703218599e-01 -4.265127418047919283e-01 -2.644051503301752537e-01
8.212152307021256198e-04 -1.462167014361884926e-02 -5.345021809521825068e-02
2.936126498847369329e-02 -9.451868917977969409e-02 1.098452585650963875e-01
-2.704386477049696147e-01 2.814268573144149688e-01 -9.600418126951937303e-01
3.998987107806469821e-01 6.891234592535320225e-01 -3.067787836787171374e-01
1.346188900119613119e-01 5.101737664410290751e-01 -5.407731876894931178e-01
-2.284899890307043047e-01 1.479556832678474987e-01 -6.976865183093462486e-01
-4.589819376769538883e-01 -1.451775382214838817e-01 -7.092399612794064723e-01
-3.074281085354049065e-02 1.084020343106427975e-01 -2.823329545217161396e-01
3.257524964395620559e-01 -2.999813035857013532e-01 9.360288395603634237e-01
3.533082930243243158e-01 7.620996673417836931e-01 -4.933170152142739018e-01
-3.822706128181158070e-01 -6.832728366083632432e-01 1.801126633106358288e-01
-4.841082298455651189e-01 -7.296711682418365319e-01 5.922227684225654654e-02
-6.192655877969633904e-01 -8.347030556098685716e-01 -4.068922182266567628e-02
5.340454402779083454e-01 1.913176833286658329e-01 6.310829122919210388e-01
-2.984151239196021765e-01 -3.153736119082086731e-01 -1.796277840127785408e-01
-1.888743639837985391e-02 1.693835501252556053e-01 -3.456861574449224817e-01
-1.342318042141099343e-01 -6.489467891008107170e-01 5.841676226221422796e-01
4.877762453370355078e-01 8.157310744518698753e-01 -3.230573153134689290e-01
-2.620370743406874592e-01 -7.101331909188292046e-01 4.365704858155529111e-01
-3.354336912045361441e-01 6.512851991181388411e-02 -7.771314052626291380e-01
-7.878443273501753094e-03 2.487866428587911516e-01 -4.362437175428507397e-01
5.393729309461549049e-01 -7.731264281318967965e-03 9.180763434556786784e-01
-3.612456828932172348e-01 -2.824090789450921513e-01 -3.400132407337216889e-01
5.965503103175155974e-01 8.195152776968204211e-01 -1.301660123474721875e-01
2.762080965667447485e-02 5.358278140533478950e-01 -7.714383913628964917e-01
-1.442402133257102322e-02 3.698723445439948687e-01 -6.168484637481053134e-01
-5.673051054319899755e-01 -4.088971775213837145e-01 -5.392031720880577916e-01
-1.239865792812193945e-01 2.865697820247234406e-01 -7.004020809998232622e-01
-1.257394167070549074e-01 -4.356765129171741302e-01 3.025398171676576542e-01
6.626816677288764890e-01 2.286502886037269922e-01 8.134237357354292541e-01
-1.931955070071198211e-01 -3.245787058096635813e-01 2.488299949269860353e-02
-6.437376368989307096e-01 -5.159783971141967962e-01 -5.292758231130603175e-01
4.975859814530658731e-01 5.863052014545635515e-01 1.441879859848534985e-02
2.735550225989081818e-01 -1.990212231361793704e-01 7.002924379583345127e-01
-3.071274753471630037e-01 1.925539346584898004e-01 -9.030753075695509002e-01
1.023022938723563979e-01 -3.918458101365399626e-01 6.569237755027342862e-01
1.975742770967369721e-01 2.506655632731835670e-01 -6.457052784059458261e-02
-3.370684169099469885e-01 -6.169076807745131896e-01 1.700104390830092516e-01
-5.692565738219700355e-01 -4.058870508462896765e-01 -5.469516261627866971e-01
2.129833310092317245e-01 -1.644076444249805147e-01 5.417249255443762346e-01
-3.886292711048358051e-01 -7.963075053617971744e-01 3.259930649351228671e-01
-3.047522457376376503e-01 -5.954885010310532190e-01 1.990452643445382586e-01
-6.474983901168475109e-01 -7.131761373007567961e-01 -2.614180667443429806e-01
-1.453246080109638939e-02 3.012157296009529417e-01 -5.214029700687723423e-01
-2.835731153461920617e-01 -7.846406269597717698e-01 5.011300676892622707e-01
3.294222676729469113e-01 6.955553027246728082e-01 -4.441316659193669802e-01
-1.433105301809540211e-01 3.101144049420578308e-01 -7.684053238849707368e-01
4.404585867362719731e-01 3.661466484237074770e-01 2.170398958707536741e-01
6.329772353018238151e-01 4.140500743703198205e-01 5.010349159780114192e-01
-4.059037491393230890e-01 -3.245707044450139578e-01 -3.626367920492327146e-01
-3.130287990970569839e-02 -3.445151345827043160e-02 -8.434916925360606832e-02
-1.046583442233721406e-01 5.733916481851453195e-02 -3.458573140529185852e-01
-5.009708547799717193e-01 -1.579279812021294194e-01 -7.679725518254235661e-01
5.913636267670330932e-02 1.750093200851261521e-01 -2.113806418865635806e-01
-4.778343970315128142e-01 -3.685071579501493777e-01 -4.324726697198284509e-01
7.605625646146231267e-01 6.697359001495469810e-01 3.772812552224131255e-01
1.078455337821564719e-01 3.320694256316567006e-01 -3.414377660857425556e-01
7.324098849476891326e-02 2.540315166704634753e-01 -2.957680127096806166e-01
-2.320819537331207105e-01 -3.080959513595731836e-01 -6.892126765131857680e-02
-4.911535364190736108e-01 -4.928496527091857926e-01 -2.835202434375102554e-01
-2.242047432868470302e-01 9.767832811625230816e-02 -6.198401576981256156e-01
-4.674853706347213977e-01 -5.141381750452238553e-01 -2.107456679704399760e-01
-4.385347352136498844e-01 -3.274641915812825932e-01 -4.180526146389319520e-01
1.739214500794369900e-01 3.930957227152409583e-01 -3.060751924909338451e-01
7.210466838740560436e-02 -6.307091306592102486e-02 1.439057822571415401e-01
2.545254980268757492e-03 2.377768765329514034e-01 -4.019166751086319378e-01
-5.928151230514212139e-02 -4.815011402155714992e-01 4.874484489871232507e-01
-1.403382822531331654e-02 -5.828634519445707873e-01 7.110841629961403010e-01
2.502816191397527756e-01 -3.993646500963866641e-01 9.369844869238580509e-01
-7.195262277258238082e-02 -2.552962828812131435e-01 1.492466071573606279e-01
2.910300939064037196e-01 1.929864935525041694e-02 4.279947394530366767e-01
-5.191858750499778186e-01 -3.443084913356748156e-01 -5.415164515978321269e-01
7.888525286310553442e-02 3.523500527366245083e-01 -4.224493741420615733e-01
-4.215000457142684814e-02 -5.120707006060681854e-01 5.612437185198723144e-01
1.686331225661843458e-01 -2.473163126456150718e-01 5.764254563454762614e-01
-5.107242982041205748e-01 -9.101822610553646220e-02 -8.789507867164296773e-01
8.050906564566978618e-02 -4.666375260555260529e-01 7.214108376188470562e-01
-3.810430825854562720e-01 -8.620802034185135465e-01 4.314390347182088803e-01
-1.563507727288886151e-01 -2.433004554606736647e-01 -2.121961398983308877e-02
1.841996509046216479e-01 -4.165339555119000337e-01 8.405152991584329270e-01
2.907477747717946981e-01 1.381861171809228850e-01 2.618625833190975638e-01
2.914694226867469914e-02 -1.997530298450091515e-02 5.611113518250079174e-03
-4.719121795874126057e-01 -3.056597063536808587e-02 -8.924573090732622616e-01
7.104363412466678795e-01 7.397443647261723321e-01 1.884358028682372455e-01
1.897407963098893813e-01 7.719906980927554452e-02 1.628084538144521365e-01
-1.773952802695749065e-01 -1.954601125825757013e-01 -1.262028295660714283e-01
4.650611268314302493e-01 6.460082353823479728e-01 -1.280046247816765959e-01
-4.035814933780018654e-01 -4.041699205514969195e-01 -2.475193528139099375e-01
5.449649902183677508e-01 6.369570889284188464e-01 3.017184479859390950e-02
1.017383952824840870e-01 2.446738701998627669e-02 7.594561616648042024e-02
-5.347680731104060420e-02 -6.885529910019154709e-01 7.864598169226343360e-01
2.473461114728753296e-01 4.854042072064987945e-01 -3.009028705262479231e-01
2.679987232513134643e-01 -8.806069911451684662e-02 5.355949634740377885e-01
-2.747726278679457623e-01 1.543441201853431866e-01 -7.909030272598791544e-01
9.063463252346019849e-02 -2.843118673102135729e-01 4.858661608655377995e-01
-6.307660551608593735e-01 -4.949841962421940855e-01 -5.348906544029157217e-01
-2.191675277316561254e-01 -2.519366194890784727e-02 -4.394949096606555750e-01
-4.176211905631689869e-01 -1.527691745540719903e-01 -6.233139463352184162e-01
-5.431091684669081543e-01 -3.884552591023989199e-01 -5.236002787789395541e-01
1.372933546732610921e-01 -1.899628559398297833e-01 4.394341170166466970e-01
-6.864812907175037171e-02 -1.223893870506628373e-01 -2.988110591469015503e-02
-1.933474061711210057e-02 3.288316068329614761e-01 -5.686223702470452057e-01
1.321749274349313663e-01 5.132366675971767878e-01 -5.494923784154839286e-01
2.581103304141429966e-01 1.362835970134556041e-01 2.050545148846742161e-01
-3.011923839044256673e-02 8.019656453845309951e-02 -2.419049198943056256e-01
1.077337976401614439e-01 5.596790509338369635e-01 -6.587160619551415408e-01
-3.654456169383517583e-01 -5.551460498712551539e-01 3.227539286089170512e-02
3.902726944444419588e-01 -9.446530663335017675e-02 7.672738543149676405e-01
-1.268893567659288568e-01 -2.467785033950434248e-02 -2.721024977146836998e-01
-2.499485361272684447e-01 -6.335640833711030373e-01 3.519275468257216377e-01
-2.371120692173120936e-01 -1.524553964343342283e-01 -2.949022833972563817e-01
-3.778988530467837226e-01 -6.835758147810493401e-01 1.884991368024582503e-01
3.578621187227879613e-02 -1.324484543716845097e-01 1.743887132410788243e-01
4.738970072781729659e-01 2.772462692886575319e-01 4.018014053482351633e-01
4.152942650197395391e-01 1.630707397827534377e-01 4.540936200713621695e-01
1.107812097740614177e-01 1.285471814041056482e-01 -5.257011885042912891e-02
-1.065639187370128055e-01 4.992723496828674334e-01 -9.649699964451184941e-01
-1.744849701094962624e-01 3.316846559024086982e-01 -8.552471815474004257e-01
-5.555290756549371434e-01 -6.403783104207616539e-01 -1.952817860129416050e-01
1.361503692003362131e-01 6.052673806927287847e-01 -6.704546367636506909e-01
-4.960942870090460644e-01 -2.066525915853866802e-01 -6.912120023016613546e-01
5.786214774342648415e-01 6.469746072713432605e-01 7.753167958678500171e-02
-4.460323305248299341e-01 -7.068368469210737359e-01 9.677870482447062384e-02
4.600082751278275484e-01 6.914108992124009534e-01 -2.004586421040165933e-01
-4.430549784575690264e-01 -2.216134967993986515e-01 -5.737442995500451337e-01
-9.327239052216565462e-02 -2.321157957510999181e-01 7.811467984035692924e-02
-2.980397566596579284e-01 -2.458266923473394292e-03 -6.148549949944024373e-01
5.156029077628153656e-01 7.007736100083360453e-01 -1.122200384543414753e-01
-6.123080482863707541e-02 2.813689980267236046e-01 -5.788295400879794883e-01
1.245363950609736092e-01 -2.599424202586002597e-01 5.136796817162854190e-01
-2.363095343109216373e-01 -8.203014353511983714e-01 6.369119241951940458e-01
3.896411860691195717e-01 8.419779260814688193e-01 -5.384018156075424111e-01
-6.973234250399075462e-02 -7.874478072078890112e-02 -9.265603198887853442e-02
3.613086784932051931e-01 -1.933415822925831917e-01 8.522486133235578354e-01
-5.202492427987872592e-01 -2.430718029949645309e-01 -6.844828477407405298e-01
3.370341264003047788e-01 6.444290018952301136e-01 -3.590422967773166940e-01
3.544089703921540768e-01 -2.181189068723301261e-01 8.741952245987568704e-01
3.450364516695940686e-01 4.454454988041765540e-01 -6.726706095219776860e-02
-3.449823113710971390e-01 3.975452609144692478e-02 -7.591793434211677738e-01
1.396076480998092173e-01 9.647573358975607138e-02 4.462302267358066871e-02
3.158955364652313857e-01 2.378428566311403258e-01 1.688481943819969133e-01
-5.230307541474549238e-01 -5.217324553618986060e-01 -3.013580868559511128e-01
-9.174844687184743885e-02 -3.307911694701515248e-01 2.183520714059009049e-01
-1.522651976544014962e-01 -1.662962977210072635e-01 -1.210482823728802615e-01
-2.566951778344280788e-01 2.407781005925234072e-02 -5.765005182570906994e-01
6.181594295475354439e-01 2.951283883613814440e-01 6.397055620274504362e-01
3.475053104868472409e-01 4.274377411597944376e-01 -3.768337559622755850e-02
-5.294164968868252386e-01 -7.440669599464073691e-01 -3.265379213332676289e-03
-4.422986944539743503e-01 -8.096913578877149575e-01 2.468634854289253888e-01
1.411682286665912750e-02 4.454411055375910866e-01 -6.701252949497666922e-01
-6.718470819205445421e-01 -6.851679184002608114e-01 -3.447933804195680296e-01
3.090272248968529700e-01 -2.843554131452036282e-01 8.837911310650452545e-01
1.855317565324640372e-01 -1.644364142015817057e-02 2.855907631483819431e-01
2.518537760715867102e-01 7.211579105646273025e-01 -6.211108328597424455e-01
5.056834330530204369e-01 -3.874597360347187269e-02 8.999067976289626403e-01
4.441163784021578964e-01 4.300463628311042563e-01 1.346872242060617175e-01
6.009597027139460534e-01 3.652192678120859681e-01 5.107302918267850877e-01
-4.850995385679734984e-02 1.299470329831856896e-01 -3.447144242126027880e-01
-5.814242343189405249e-01 -4.970204186843736327e-01 -4.421638867074558221e-01
2.839753852832270775e-01 2.998149585761286651e-01 2.436545395905069522e-02
-2.767282424742096084e-02 -6.096880665707461455e-01 7.236052476017327262e-01
-4.678769471437644878e-01 -4.267616709749496584e-01 -3.331800836329777415e-01
-1.402291579001492261e-01 -5.912840087165812664e-01 4.929138009932172992e-01
-2.474534365392417334e-01 -2.852726143632414724e-01 -1.287191668608255180e-01
1.392809822247510487e-01 4.529325106308296767e-01 -4.525391357720882635e-01
7.384798866574486809e-01 5.712422974549833388e-01 4.742592434158594550e-01
-1.052492693532284390e-01 4.352916251973241724e-01 -8.734457549824392597e-01
-4.326480337406809346e-02 -3.321954302191525432e-01 3.086350616713603445e-01
-5.475366561323803394e-01 -7.692475073284881226e-01 -1.198300327046530282e-03
-5.372577388548424593e-02 4.572423298461133351e-03 -1.795616918141562657e-01
8.455717235314404168e-02 -5.820760769447472782e-01 8.895988869209542349e-01
4.658969746976331372e-01 -6.119731790586371151e-02 8.587005877430583523e-01
-5.441207985225882116e-01 -1.466539501265309575e-01 -8.622879089446391365e-01
-3.002441439148098579e-01 -4.885529432909206937e-01 5.828999801408987769e-02
-8.390463299592784696e-02 -5.142093606599674738e-01 4.881550605494573980e-01
6.983630670881187941e-01 2.997022553963405445e-01 7.794476421159196589e-01
-2.667523356970873394e-01 -3.892538688422096937e-01 -1.902508350823947647e-02
1.736978103320221400e-01 -3.401606835175537968e-01 7.149903626011384628e-01
-2.452681692603249017e-02 4.285259482683527188e-01 -7.169617972532278394e-01
6.333090714834681556e-01 3.816931958084583409e-01 5.467146473122572736e-01
-4.082991251402180027e-02 2.398412834656979964e-01 -4.838127471449704120e-01
7.574120524974445878e-01 6.272207821250979087e-01 4.307679732970141062e-01
3.216511822798439058e-01 -2.965455199929789010e-01 9.237708618554050233e-01
-1.820333012796095107e-02 5.283125885282766721e-01 -8.444509244313266327e-01
-5.519445074203790380e-01 -5.911020755760093559e-01 -2.573964145464003317e-01
7.048627827550510982e-01 4.981133323717508721e-01 5.148894303446488463e-01
7.260926134146131194e-02 5.175531899374530287e-02 -1.513522872847026558e-02
8.348996614778429748e-02 -1.122565607393330722e-01 2.331660916018234997e-01
1.606800856063480276e-01 2.661656942702559925e-01 -1.533764774604437497e-01
-1.415724065454026237e-01 2.653820506759466125e-01 -7.029238118257451484e-01
5.569076911158192811e-01 4.980480200899485288e-01 2.454380755581492823e-01
1.330799005168387394e-01 -5.304460914420808804e-01 9.060729907640658887e-01
-9.903602329827364270e-02 -6.893156073125460415e-01 7.045231023414315619e-01
-4.488062582233871001e-01 -3.311316065402264974e-01 -4.316561761314696710e-01
3.240916480387706633e-01 -2.855376139762629828e-01 9.128821495816529241e-01
5.803543781580804417e-01 7.999723961884437351e-01 -1.324470342003814527e-01
3.064309606160501853e-01 7.708412620426029482e-01 -5.908950268782179327e-01
1.880909578754569600e-01 1.249128322667525381e-01 9.333448647612828386e-02
1.489093390075093004e-01 7.164335810370089375e-01 -8.020721523005827081e-01
1.679581306725972112e-01 4.882140180173099031e-01 -4.494449341014236099e-01
6.737788006499350058e-01 3.030318483407594687e-01 7.300220633746868915e-01
-8.326637043829598905e-02 5.080063186169510026e-01 -9.346938529985809874e-01
7.358053504301356185e-01 6.592836985702617003e-01 3.467395223848083186e-01
4.140504589792078360e-01 8.163906272625424121e-01 -4.582886323968228814e-01
-1.477675581443746167e-01 -2.857811609308341314e-02 -3.047047687563069762e-01
5.933397820155867919e-01 2.335594686988585467e-01 6.802589402018212050e-01
-7.724038289419483949e-02 1.508200809212429383e-01 -4.261325716371530681e-01
-3.397249100834058844e-01 -4.381302186673421417e-01 -8.387753614843913852e-02
-4.253005640097423101e-01 -6.440641090544838576e-01 4.710109149642600912e-02
3.166838411502246875e-01 7.761898440125820642e-01 -5.796674009219763279e-01
6.685710396049731052e-01 5.572013213338513626e-01 3.664603435471751047e-01
-8.833668523993741528e-02 1.928927116917105444e-01 -5.049575069455307652e-01
3.622949513914973663e-01 5.607217597170416346e-01 -1.964129779470649984e-01
-2.904311620265088989e-02 2.389443020530860606e-01 -4.610901882669696250e-01
-4.974360798438284825e-01 -2.367436174269844096e-01 -6.517377403638853206e-01
-2.619283859678150361e-01 -4.609747347434851872e-02 -4.882756480166449142e-01
-2.254429010571320224e-01 -7.763528637789938180e-01 5.954854261318242026e-01
1.964470000607395905e-01 9.065664265423770130e-02 1.562784559737509238e-01
7.395324734227834429e-02 -8.736355011472408949e-02 1.811146893623201970e-01
3.888676155809877577e-01 -1.736725291105014057e-01 8.750548197905426706e-01
6.077555974109309922e-01 5.814571883685194509e-01 2.218777234955541522e-01
-6.618158150359608749e-01 -5.640358825200998405e-01 -4.952632287490867369e-01
-5.058537533280081933e-01 -1.963587163007540770e-01 -7.233316751680400891e-01
1.872660218665380405e-01 6.884892055110395370e-01 -6.932662311551222034e-01
5.249466282377188708e-01 3.207538886010693480e-01 4.341939386752409202e-01
7.116397835194848698e-02 9.389842123480388048e-02 -7.647625479988906516e-02
2.637229533913164614e-01 9.516596394995760488e-02 2.725589936351258125e-01
-2.466456360565083272e-01 -4.225533964717805013e-02 -4.657861039959755867e-01
2.239918071903442345e-02 -4.786022925032275555e-01 6.322148151587109188e-01
-2.957025929775534134e-01 -3.518514179961887423e-01 -1.238702240314645403e-01
-5.763987648423712917e-01 -5.786733367331378108e-01 -3.192608358831747206e-01
-4.854521132724695098e-01 -1.386169873485092741e-01 -7.666021913129902332e-01
2.819108076221281123e-01 3.365818552750479142e-01 -3.061439624951922678e-02
-4.142954528307586926e-01 -2.030172664319818132e-01 -5.472563684554225816e-01
-4.368206836025372852e-01 -8.743524390993189233e-01 3.469202559321275525e-01
-5.475654557014891788e-01 -9.016065981918843786e-01 1.831338952800784237e-01
3.068674688124923278e-01 6.540285912912343624e-01 -4.273722962145774518e-01
-5.071589532946637613e-01 -1.361780694460138497e-01 -8.095449511225207839e-01
6.155713066158143842e-01 4.314867089288907942e-01 4.450347144975081437e-01
