2.910602298099263519e-01 1.375427300785983520e-01 -7.770403181971123896e-01
1.838255631399636769e-01 3.376078051364361232e-01 -5.762691169463296514e-01
6.020629500610527041e-01 -7.476455742188261588e-01 2.333369660886683850e-01
1.807431930800598718e-02 4.759236949681413531e-01 6.267073685561982410e-01
6.786772937848956078e-02 3.562631293223071927e-01 6.732478585802802451e-01
4.916569386937797437e-01 -5.115292580342198914e-01 2.826670057948694748e-01
2.614828082452759772e-01 1.397132406626657442e-01 -4.448099444674056269e-01
-5.053515024988435300e-01 5.097056461171828312e-01 -1.848427304249174730e-01
-1.597039967633070434e-01 -2.071298180414472556e-01 -4.561218274013814078e-01
6.228310359424284182e-02 -6.614692693009350810e-01 -6.618791867989306521e-01
-4.276923666252655520e-01 1.623991818726102654e-01 7.269035858571479825e-01
-1.945762807754775892e-01 -1.157625021433636853e-01 -5.282208707041574636e-01
-2.032956396611738381e-01 -2.716469350195740984e-01 3.871737621226700177e-01
-1.505828283453859717e-01 -3.298579954554079485e-01 7.888073217962987549e-02
9.535505618167983491e-03 -7.256731276955684651e-01 2.861343057488606179e-01
-3.836604696389113167e-01 2.395723809926824932e-01 -1.876027665011372469e-01
-6.265504099901502144e-01 7.620381727646293735e-01 -9.483412584132665246e-02
-4.279592888714360277e-01 1.350637445147419291e-01 8.727644266183800514e-01
-1.247315086309594978e-01 -4.937093884401315136e-01 6.343163959986282130e-01
-4.269688670693089771e-01 1.912271486492537198e-01 5.679444367493422519e-01
-1.627928956800930305e-01 -1.808236675709039842e-01 -5.576265720497430856e-01
-3.573001272665360384e-01 2.844240425328981581e-01 -7.280391462609006048e-01
-1.724467629983345296e-01 -3.328494036648133592e-01 3.484709556533200359e-01
-5.662268524327581654e-01 5.032897409211155582e-01 5.557815519084643441e-01
-3.552511080620967543e-01 2.334442412695369451e-01 -4.855963052422432313e-01
-4.249232914975378805e-01 1.468914121592197197e-01 7.757284073004899749e-01
-3.252812772429573007e-01 2.407778771504207882e-01 -8.720205856675795619e-01
-5.775440680371274338e-01 6.643302554546527405e-01 -1.537997040099247648e-01
9.143602103829441595e-04 -5.652584231191282171e-01 -4.514956954057205429e-01
-5.155795320096618894e-01 4.794588078424452116e-01 9.192941666831319636e-02
1.452637532157178557e-01 -9.953908634994730331e-01 1.181504215758147208e-01
-1.514325650167440696e-01 -3.393580072342905485e-01 1.383652773479005504e-01
-4.093294440725183669e-01 2.510472021985847291e-01 5.063569461750141304e-02
-3.376306406598241217e-01 4.096042582657929976e-02 3.149813133011606370e-01
7.426172789958815357e-02 -8.303430854258019300e-01 8.092896987170719592e-02
9.017644578084661744e-02 -8.714760717003334767e-01 1.108850280758816309e-01
-4.215307754892768655e-01 2.220034953517710796e-01 3.440459595778201374e-01
8.970777108570439362e-02 -7.413964675168900342e-01 -5.630164184273293015e-01
-3.699402416203679822e-01 1.076184302496190071e-01 3.421598923347845544e-01
-6.456448857540746378e-01 7.649403361670262802e-01 1.118071742184042344e-01
-6.216182657151687607e-01 7.446882714048000951e-01 -6.151452200198484488e-02
-3.754681602065194634e-01 1.401867422840472888e-01 2.362819885524939656e-01
-2.933816758005568515e-01 7.150639011943583923e-02 -3.585340221346668965e-01
-3.742848629140226868e-01 1.492325895274527470e-01 1.752947548143902190e-01
-7.979132417396229970e-02 -3.856724006044152664e-01 -4.519277227183540746e-01
-4.502478605928380007e-01 3.257130993894817861e-01 1.359911954123349531e-01
-1.302933853678553133e-01 -2.750332243406685695e-01 -4.431221145736142231e-01
-4.025932866531894416e-01 2.637820013910512906e-01 -9.411823786437954753e-02
-4.580756569980336534e-01 4.419870777841059528e-01 -3.803276477818959833e-01
-2.574928252343502422e-01 4.440978142445167753e-02 -6.338993479265712105e-01
1.403140284028917273e-01 -9.644478135243129691e-01 1.404431467558952748e-02
-7.610816989961152745e-02 -4.468744200927241006e-01 -1.750807889533059769e-01
-5.508632039032395067e-01 5.258427179738920376e-01 2.595364605845399963e-01
-3.254920776535968896e-02 -4.374888567532728700e-01 -7.300702110851415849e-01
-7.654339212552162264e-02 -4.156985647504709558e-01 -3.328423706130582138e-01
-3.516881523829615275e-02 -5.361562221739551992e-01 -1.843474059726889769e-01
-5.036162320291330818e-01 5.097053396329972452e-01 -2.049977156847870574e-01
-3.111957054676504630e-01 2.111947403533714351e-01 -8.811370102482549704e-01
7.248812677319931008e-02 -7.065857970482648520e-01 -5.447961634196182290e-01
-1.061458513935870929e-01 -5.630134237737050018e-01 7.803716420507098572e-01
-6.199110352660094359e-01 7.318076782404208114e-01 -1.407603160638322241e-02
-4.459488642668743008e-01 4.817338377326331744e-01 -7.287691708927616085e-01
-3.411741654076610453e-01 -5.083962010753101390e-02 8.355713463112869333e-01
-6.009210017755889366e-01 7.215694047980381054e-01 -1.811910464571834800e-01
-3.132570934794987050e-01 -6.336424220648052830e-02 5.767020174707709890e-01
-2.932442310523450946e-01 9.709942468631604928e-02 -4.937911136000475154e-01
-3.553402348664708166e-02 -5.888331173279627295e-01 9.500179650979319324e-02
-1.878879110400912822e-01 -7.634486273742108198e-02 -8.117718182544482186e-01
-4.540448799734526086e-01 3.175946671433787505e-01 2.224954904052157956e-01
-4.420702564766917364e-01 3.587752005802994915e-01 -1.316663970185942001e-01
-2.934962402452770958e-01 -7.102331830447575212e-02 3.871633484126534852e-01
-3.981207668437141689e-01 2.765373606901113668e-01 -2.126855438544602850e-01
-3.175460083997795335e-01 1.461282257039092369e-01 -4.675607968771841594e-01
-1.448437888080894576e-01 -3.567651464778124892e-01 1.527406731609088075e-01
1.552078157915113416e-02 -5.595941312485133157e-01 -6.507431983376034124e-01
-3.652699802958767616e-01 2.317074427037099371e-01 -3.601484152471203237e-01
-2.592235001783962378e-01 -3.086072862540538073e-02 -2.206931534298126052e-01
-4.744344597969814559e-01 2.651855055805149020e-01 7.330458993724172645e-01
-4.337600508820805278e-01 2.170770264502086544e-01 5.118276601736874154e-01
-9.837667575162319100e-02 -4.789888039374823325e-01 2.513046644380831918e-01
-5.293812782361404512e-01 6.005123837271018061e-01 -3.799587354654086480e-01
-3.233256827740711992e-01 1.278529266705079603e-01 -3.049817344368584426e-01
-3.414818792810308395e-02 -5.790776690369922042e-01 2.795599774128928669e-02
1.403459231422304609e-01 -9.073788691123985117e-01 -2.843708165144729905e-01
-2.826626137524507199e-01 -1.125326844149257127e-01 4.781060966622167618e-01
-3.712257008969897520e-01 1.149890100280091948e-01 3.185984310437308675e-01
-2.674879784872976618e-01 -2.363891902503462705e-01 9.486854237430428771e-01
-6.247340024879980552e-02 -4.015648892124118463e-01 -5.700904719240282859e-01
-5.570027452134910240e-01 6.374599837742485064e-01 -2.520729947626183520e-01
-1.762463104607076281e-01 -1.828610833373388866e-01 -3.907136767443865066e-01
4.948874715992175599e-02 -6.981382497342888405e-01 -3.217571812280868304e-01
-8.659190882981654402e-02 -5.430012994469530785e-01 4.487225542467141448e-01
-2.885833358845898977e-02 -4.604717110463181773e-01 -6.529139372063930136e-01
-4.591372468231570414e-01 2.203585139461711750e-01 7.894668601541614539e-01
-4.063844355549927623e-01 2.199868296539839729e-01 1.786409424684679004e-01
5.617919097047416321e-02 -8.045017587212464072e-01 1.560151540128376646e-01
-3.758339143364743395e-01 2.562767102242575201e-01 -3.657535779861483816e-01
3.461332572400832586e-02 -8.103708429045756167e-01 4.371718254567271700e-01
-3.343168514149812975e-01 -4.674439017863973173e-02 7.345305473301229071e-01
-4.697150256943145030e-01 4.836667860557118392e-01 -4.628006594363168191e-01
-3.363431917437875729e-01 2.598130999836850141e-01 -8.429395474196634819e-01
1.099219971428748444e-01 -8.393076607216578555e-01 -2.864764039237905346e-01
-1.495188575445402235e-01 -2.874894962038713198e-01 -1.547491946007455987e-01
-4.560336192137006694e-01 3.464879225903327864e-01 9.470024094722155616e-02
-7.282781695222563870e-03 -4.879332394758609248e-01 -7.601127845797244209e-01
-4.146203203301684348e-01 2.805819968452727964e-01 -4.215299428754128164e-02
-7.433334807002855982e-02 -4.830313639137892023e-01 -6.865835818737129129e-03
-5.235937768741867337e-01 4.562020229653455661e-01 3.064808349992344527e-01
-9.910078426431261078e-03 -6.909140395560606773e-01 3.304800620697547209e-01
-2.028481410907600480e-01 -3.434794898010063435e-01 7.571238425685703488e-01
-3.089538913774192430e-01 -1.028521456482033580e-01 7.329438239750507567e-01
-6.423292416795920445e-01 7.816565506551336195e-01 -1.400778480279358737e-02
-3.542237625069449836e-01 6.767880897602400470e-02 3.681862636510158659e-01
-8.250010999968131198e-02 -4.857078322183842611e-01 1.019757375945486572e-01
-2.989215740315029901e-01 1.614441706926904030e-01 -7.638869184829637504e-01
-4.086684653112953591e-01 3.797391140852388602e-01 -6.291403270594631003e-01
-3.245037440342274371e-01 -6.247619054309062891e-02 7.027031806913568435e-01
-4.516217584031027160e-02 -6.561304250614359290e-01 5.583033104592001195e-01
-3.787926874932445731e-01 2.182020147701113633e-01 -1.325385192157576553e-01
-4.660364460566284069e-03 -5.252149327559175740e-01 -5.958693002207171574e-01
-5.584077100055605536e-01 6.734732648340500116e-01 -4.238338558948971935e-01
-4.641748479921236070e-01 2.826268899480952612e-01 5.227838490902645407e-01
-4.427681516461440259e-01 2.503204715609323450e-01 4.428490118692198774e-01
-2.395529613808535241e-01 -4.978855325920212432e-02 -3.503312954019778824e-01
-2.050764244477037146e-01 -3.458884797154050950e-01 7.955882142639976173e-01
-2.560371867556388015e-01 -1.932986665452867125e-01 5.906332767699321584e-01
4.716178971340343612e-02 -8.332294102794319812e-01 4.107908555512873039e-01
-4.648828932101712330e-01 3.892741663886497561e-01 -2.596092505206667317e-02
-1.843621006578654575e-01 -1.774266401265422455e-01 -3.248237134889861988e-01
5.746624358328191601e-02 -7.054500397023067970e-01 -3.762362371374080583e-01
-4.820218233975988031e-01 2.982075294087505601e-01 6.487206075499928337e-01
-8.010882755972034697e-02 -5.880109233681927172e-01 6.084806681526330197e-01
-5.461760033967091310e-01 6.638333538693427238e-01 -5.155703458921531146e-01
-3.437642681880042073e-01 9.059099304160432575e-02 1.270309631259060601e-01
-2.084704714264623004e-01 -2.284004109520248182e-01 2.214271135409154045e-01
-3.105529070351837340e-01 1.798379542562970612e-01 -7.248416785374179883e-01
-1.383300983048794119e-01 -4.830289754250500778e-01 7.364962908682112230e-01
3.866694740204323216e-02 -7.092647043578421684e-01 -1.379448093845977996e-01
-2.559221831046825102e-01 -1.931740953777040526e-01 5.886468378208771224e-01
-3.432903770531556820e-01 4.667136303402406872e-02 3.508982026736790494e-01
-1.877452647018214571e-01 -6.066923184210249592e-02 -8.952953273492531006e-01
-3.802118500742389107e-01 4.742793681302319431e-02 7.758200778333826930e-01
-2.511926854457409153e-01 -1.031925722754541558e-01 6.377806131679641943e-02
-5.470402710824843195e-01 6.585251297993565123e-01 -4.778087755989899876e-01
-5.133711411062086283e-01 5.629266191840266442e-01 -3.696365450048423318e-01
-2.572917601931490883e-01 6.606172297011286831e-02 -7.493129388081677389e-01
-1.967907505070214114e-01 -1.404260378529229025e-01 -3.736917768870878231e-01
7.824857479104635472e-02 -7.920917686339505881e-01 -1.651504176391930534e-01
-5.598087464923993117e-01 5.790292958838790804e-01 8.567740806770496320e-02
-6.063588536401821605e-01 6.960086876726632177e-01 1.546583015818340200e-02
6.096169603960672340e-02 -6.881660206336825958e-01 -5.071051977609341010e-01
-4.523999884362768509e-02 -6.698499382446647665e-01 6.308579472604902705e-01
-1.074812432005366608e-01 -5.027539290774698522e-01 4.811758970247739797e-01
-4.460507031497828456e-01 2.044047104705782325e-01 7.207752728026893818e-01
-3.234104964085006695e-01 8.937281893395257470e-02 -1.030327858375993666e-01
-1.106720069766910647e-01 -4.442105059161339797e-01 2.124940613409127543e-01
-2.911980731184968807e-01 1.155086863114513224e-01 -6.137019532543452893e-01
-3.825457656638376336e-01 1.757261851356831106e-01 1.328881260890773242e-01
-2.726750043648825533e-02 -6.773059391623028613e-01 4.610319147682274132e-01
-3.184343874999117641e-01 1.481949118035814084e-01 -4.680348906519924967e-01
-5.185033659984746857e-01 5.745120411062126786e-01 -3.705268442980541033e-01
1.423624722135313249e-02 -7.062641073645641310e-01 1.301670290598990198e-01
-4.742022512932863587e-01 3.203203476113062331e-01 4.424048803257867313e-01
1.374379221770773152e-01 -8.752398052613590274e-01 -4.184394421241784401e-01
-4.672979594256485569e-01 4.764567736221528294e-01 -4.532223077914032672e-01
-2.535148601742607810e-01 -1.655414750228587084e-01 4.163714432914739638e-01
-3.396090502284351276e-01 1.395931482467506202e-01 -1.771508385509415751e-01
-7.797530984923314867e-02 -3.838072183098150125e-01 -4.827631972185320031e-01
-4.628355657702852843e-01 5.068303345781608460e-01 -6.636836922071492895e-01
-3.588183942954828454e-01 2.419532225090646749e-01 -4.885978232232142116e-01
-5.619209021476369303e-02 -5.021640329007137638e-01 -1.176703216381764366e-01
5.186010752447498678e-02 -7.209462322095202547e-01 -2.301869495705302637e-01
-1.517259372691628916e-01 -3.484690281154679825e-01 1.893556755287981452e-01
1.518338367775864950e-02 -6.147364844396190353e-01 -3.588410910869396231e-01
-5.797406727174880814e-02 -4.957457727155185623e-01 -1.304907989026412030e-01
7.138067724956841109e-02 -8.388431565235167087e-01 1.587866616834733291e-01
-4.644351440131966879e-01 2.681691616594404914e-01 6.013134146133518598e-01
-1.915156888060842444e-01 -2.107174554501046737e-01 -6.786643621165852625e-02
-1.821145876816560594e-01 -2.621376589221970366e-01 9.147597623826933533e-02
-7.590824188421786689e-02 -3.698316427728952083e-01 -5.797618363691794396e-01
-3.531732071388273830e-01 2.322489856861937596e-01 -5.034905581393915863e-01
-5.719511621438965188e-01 5.036594093274122663e-01 6.203434846895471422e-01
-5.354147774816190308e-01 6.429644773698747207e-01 -5.315823169856294106e-01
-3.570352069333044831e-01 3.084499920803014938e-01 -8.565928121346402246e-01
-1.297683575794459920e-01 -4.163371539198046367e-01 2.887441942146843910e-01
8.992562264337814176e-04 -6.760564000428643805e-01 1.273262331793115210e-01
-3.088199290630653238e-01 -1.273527097847514944e-01 8.593428336636781406e-01
-5.724805906490717383e-02 -4.124595110459984282e-01 -5.738895232304419558e-01
-4.413215242311070985e-01 2.383602541092110227e-01 4.885079238752617625e-01
-3.106758960575288220e-01 -9.959068741879228970e-02 7.359132320737102884e-01
-4.061144225487650639e-01 1.612722937915549992e-01 4.821433297321863765e-01
-1.771551156196242982e-01 -1.434841200497593283e-01 -5.858047912097834597e-01
-5.069611925091159765e-01 4.610988591749191623e-01 8.770585678376202621e-02
-6.683459255706715452e-02 -5.606256916256822098e-01 3.112691972907681293e-01
-6.344153509444192540e-01 7.467793939426238259e-01 7.621312654777820383e-02
-7.978885428457246909e-02 -4.859009018371537314e-01 7.149059790870634923e-02
-4.791138554136270544e-01 2.719035029015103300e-01 7.523159205009989359e-01
-1.759218812430637102e-01 -2.904883233234584194e-01 1.676050064528096795e-01
-5.079714254159064524e-01 5.215053353969851813e-01 -2.160344912238788551e-01
-3.446515743478859584e-01 1.352120219767170449e-03 6.033910243869503587e-01
2.812585057998814777e-03 -7.247705102536926569e-01 3.595125745492961378e-01
-5.472180668279512661e-01 4.615383422178868655e-01 5.530271641929426218e-01
-3.635327962198280360e-01 2.431581158842543722e-01 -4.401287883705726767e-01
-3.590360097989205301e-01 3.034618609558574209e-01 -8.073011531946241437e-01
-2.551087854120782095e-01 -1.504369556179357414e-01 3.560022841253573378e-01
-1.803858093111638528e-01 -4.023972668111023832e-01 8.039057292071317695e-01
-3.603444750710063094e-01 1.301682819897450050e-01 1.129297901573770024e-01
6.934536232230303909e-02 -8.519611116938463624e-01 2.509375096228158020e-01
-1.898162357987028259e-01 -5.063225153802954764e-02 -9.236578005176410144e-01
-2.308972054153608233e-01 -2.458274421421830225e-01 5.729452801967845899e-01
-3.303354204093653657e-01 -1.806599146021189289e-02 5.385089842319641384e-01
-1.635274801073412568e-02 -6.714439097379377719e-01 3.036334746405103813e-01
-6.052941777871770901e-01 6.951581202171086549e-01 7.540868884534633956e-03
-5.535299362846456406e-01 4.821928587518515830e-01 5.184757233870559423e-01
-3.966898859347511852e-01 5.759001452592171777e-02 9.141541204849671365e-01
-3.549582572362129929e-01 3.958343785235854395e-02 5.234471231209621989e-01
-2.237569820531752907e-01 -2.948035899063332077e-01 7.457854669094258204e-01
-5.772090734267780465e-02 -6.333443454526228589e-01 5.851821159333480127e-01
-2.612254576590316776e-02 -4.635057682594105333e-01 -6.688468758548025139e-01
-3.275849609852168887e-01 -4.144391870348437812e-02 6.286522276040744650e-01
-1.561948647785343092e-01 -2.235505370680501425e-01 -4.111254605374971560e-01
-1.169943134736272927e-01 -4.060230529535385213e-01 8.649745407684894527e-02
-4.018313188378829781e-01 1.528115021503760607e-01 4.765783702647238274e-01
-4.367591799859422141e-01 4.414854526370181054e-01 -6.253162086066594849e-01
-5.135094941917320854e-01 5.479474309087293271e-01 -2.898001025860693636e-01
-5.868467055149571843e-02 -6.419829864885965298e-01 6.414926324206248198e-01
-3.196631390341984624e-01 -9.098821366921089338e-02 7.953806769147560018e-01
-2.304284572424936950e-01 2.572854816533324054e-02 -8.507106963009547496e-01
-2.505844043760613316e-01 4.818415667456632870e-03 -5.073789525137982759e-01
-4.278599372140454715e-01 2.712930723485079687e-01 1.601477329108463854e-01
-3.423970279312069653e-01 2.280326605246058291e-01 -6.066447818654165935e-01
-3.716721869694202818e-01 1.928301796307348159e-01 -8.274362087590854398e-02
-1.440082288742604855e-01 -1.676407001361004956e-01 -8.446743712585709218e-01
1.155612768884620341e-02 -7.517334571720893921e-01 3.987641506462736851e-01
7.767367520707749162e-02 -7.199568745321457408e-01 -5.351996092531793314e-01
-4.378868220452004079e-01 3.952165687702237640e-01 -3.705767868915455510e-01
-9.746271961864977351e-02 -4.982339648479473526e-01 3.411968725206308006e-01
-1.029003363299833967e-01 -4.362329223624158425e-01 8.055652823612424740e-02
-4.012815975877959684e-01 2.555168273206700480e-01 -6.618940564303769925e-02
-2.113056856381098636e-02 -5.636873757066982460e-01 -2.036306683823463359e-01
-4.606469631033504042e-01 2.928035449447741745e-01 4.286566278308925337e-01
-8.265799608603420501e-02 -6.117698396290641716e-01 7.621731541116926190e-01
-5.228354430455510737e-01 4.834071464646040872e-01 1.555924156421874538e-01
-2.207000180641401910e-01 -4.991979251639343251e-02 -5.686382511321373956e-01
-2.560861392808167492e-01 -1.979517280317618644e-01 6.155026840444042247e-01
-3.268199598538200079e-01 2.214595556710788060e-01 -7.532568886744127612e-01
-5.346561814524154466e-01 4.232366188505125026e-01 6.071427404309949205e-01
-2.926897243007917093e-01 -1.719902775806335382e-01 9.050986405513391508e-01
-1.552928726777031421e-01 -4.294922661999349134e-01 6.539353696922789450e-01
-2.216422672970234098e-01 -1.805114259381065400e-01 1.243263222804852491e-01
-2.789877647104896941e-01 -1.983936927164050013e-01 8.838319727033451256e-01
-2.454663405781227214e-01 -1.562519967130044651e-01 2.743666648826639798e-01
-3.483780226301391170e-01 -5.799798805311152244e-02 9.566348785951902522e-01
-4.948063791868823752e-02 -6.545486539478344579e-01 6.002049223772344400e-01
-4.751820563609580050e-01 2.554752298361240848e-01 7.924421148907924151e-01
3.097892746281327367e-02 -6.059196266757305160e-01 -5.883656141208299939e-01
-3.430514606786062570e-01 9.143482185368460857e-02 1.143441940496118803e-01
-8.846194728840275912e-02 -5.252241713276659674e-01 3.776028793110604576e-01
-4.494636977744032591e-01 2.657386658060196249e-01 4.401011739435911618e-01
-5.250098358471598781e-01 5.273977582547334508e-01 -4.889281105985966713e-02
1.060263366552265246e-01 -8.651477030887165798e-01 -1.062745553177311952e-01
-4.868824196423648942e-01 3.927374411845257485e-01 2.114944899726284022e-01
1.072194357368821127e-01 -9.384408794949853361e-01 2.626429151321903466e-01
1.542540754862809504e-01 -9.639639366547616550e-01 -1.504077992103683148e-01
-5.517495486309654806e-01 5.120407932749997393e-01 3.419131357041424457e-01
-4.508125596530393464e-01 3.682738463574945498e-01 -7.972441947254642336e-02
-2.161199784991257311e-01 -2.208569645381087965e-01 2.708864706059560534e-01
-5.553971223275888658e-01 5.086412412695251462e-01 4.020369723348843904e-01
-5.978825902339079956e-01 6.718019937980054257e-01 4.342744082713388687e-02
-1.553872768653141445e-01 -4.339599154661973879e-01 6.783644131077614103e-01
-1.453453337557543690e-01 -2.770910051103767646e-01 -2.575345869118620401e-01
-7.429187437995064813e-02 -5.678422956075532824e-01 4.355806034268486227e-01
-1.548866437274697971e-01 -1.869319049171836167e-01 -6.175636627057893291e-01
-2.934153511664980285e-01 6.076478927529303103e-03 -1.643275296060591958e-02
-6.319798177012632134e-01 7.755417919632677792e-01 -1.022902589848334737e-01
-5.006795919675209872e-01 3.604681433498322929e-01 5.402875192248187686e-01
-4.323372421942016097e-01 2.831100458627574534e-01 1.504407164899254357e-01
-4.911732457323487178e-01 3.882960837831750389e-01 2.845310960573756986e-01
-3.248548898975121557e-01 -6.641253219208204106e-02 7.273397152266304344e-01
-2.566727656258249723e-01 -2.408269335842373460e-01 8.462341566959219463e-01
4.141346051760115554e-02 -7.641137419494614669e-01 1.166032974561255764e-01
-3.040226072577197763e-02 -5.724717374575171158e-01 -5.005572980565080321e-02
-2.294998838916203487e-01 -2.870499427295832851e-01 7.720002634898475158e-01
-6.780497643367340566e-02 -3.501503535050670690e-01 -7.766741451404406416e-01
-5.258289523613539629e-01 5.562429647445452652e-01 -1.900232477491305971e-01
1.313865229443018368e-01 -9.498251239969320858e-01 4.137706248055834229e-02
-3.922559162944413980e-01 3.665850175583850734e-01 -7.510877588609956579e-01
-2.057096454707481592e-01 -2.797185113311605464e-01 4.573685164100576017e-01
1.248080749923809740e-01 -9.241407424936429749e-01 -1.634650466554779177e-02
-1.024820713622282137e-01 -5.675257443436313443e-01 7.613795992403804558e-01
-3.395855334731180397e-01 -1.386248095377041328e-02 6.240036264431554347e-01
-4.199557032908884380e-01 4.189318859597528366e-01 -7.027155088007100980e-01
-9.800148140997264057e-02 -2.860165174148258105e-01 -7.608583430278109683e-01
-3.917458674710949107e-01 9.010707566212756980e-02 6.869037619492422975e-01
-3.797155585605652695e-01 3.439524442689585459e-01 -7.785548303478303511e-01
-1.277801909742297959e-01 -4.578914878797370469e-01 4.826690405141975115e-01
-3.904653006580360939e-03 -7.241952884352550468e-01 4.345346721230757825e-01
-3.073418967095646326e-01 1.807275918598190700e-01 -7.667863548374052041e-01
-4.019894498006258976e-01 1.965344085093959636e-01 2.500707144828862027e-01
-1.748713336802664164e-01 -1.399318582233922692e-01 -6.308846036751730724e-01
-3.535207724931265227e-01 1.981221511169661276e-01 -3.212246615951377948e-01
-6.085704763124863970e-01 6.380906988198484786e-01 3.436344498362587929e-01
-3.529685432421234004e-02 -4.275157156637136024e-01 -7.502391426396389784e-01
-5.133811204048976951e-01 4.952649174466588478e-01 -1.615491735265918091e-02
-2.217789053568307578e-01 -2.258001543289664959e-01 3.624355241503226521e-01
-4.088842954958481490e-01 3.649869237413887468e-01 -5.495894297547601060e-01
-3.689700059926071668e-02 -4.603268215925000462e-01 -5.602949350481616353e-01
-1.768944313088889053e-01 -1.397316878582975930e-01 -6.084300669557217711e-01
-5.472307915594187833e-01 4.545753677570170126e-01 5.895393609322813200e-01
2.665401659810883589e-02 -6.965457347953269984e-01 -6.483007535833572310e-02
-5.289953742320319119e-01 4.452894476630516185e-01 4.262161298950729593e-01
3.482242795271948965e-02 -7.733819706512158332e-01 2.415671949783028960e-01
-4.449605345663019684e-01 3.969095291098588274e-01 -2.972513771972876140e-01
-8.421032334539656217e-02 -5.194814700061815005e-01 2.982253220503067181e-01
-3.247672330912277361e-01 -9.938344689072983740e-02 8.985133166163459251e-01
-1.110929014754046956e-01 -5.468507001606081053e-01 7.534252605163286320e-01
-3.492113743037884577e-01 1.303595041725726794e-02 5.953376004241126562e-01
-4.599277002736403830e-01 4.294511509588239129e-01 -2.933453142866589980e-01
-3.880517278608240916e-01 5.121407609717607695e-02 8.471134202472022645e-01
-4.878906076974762751e-01 4.517186954113127650e-01 -8.482633670657928338e-02
-2.853564596782964258e-01 1.480016284791984549e-01 -8.512526494438011904e-01
1.372142524570519988e-02 -7.677335498583458540e-01 4.571735171573029777e-01
-1.385381220846483297e-01 -3.850113857292064012e-01 2.270122131088487816e-01
-2.110404013855132765e-01 -3.296144673291151461e-01 7.798730602809087475e-01
-2.412119695886097426e-01 -1.212583201032965546e-01 4.219291104688693839e-02
-4.142476112334785299e-01 4.069716222840735753e-01 -7.065567529102834143e-01
-4.593971224901203798e-01 2.323038631124464681e-01 7.301005060447774975e-01
-5.143008981963551607e-01 3.706070545434527741e-01 6.455592985120084393e-01
-2.630909981441335033e-01 -4.209686839635830985e-02 -1.170878505409509857e-01
-2.947336748874141432e-01 1.582131633683259986e-01 -7.956587387442082271e-01
-3.750397042508549772e-01 1.422846170555210343e-01 2.203488945100887386e-01
-1.079448881771664752e-02 -7.230519014424928725e-01 5.085943703151010187e-01
-2.965989274278930665e-01 4.121738756407769544e-02 -1.629775901863005638e-01
-3.536432253977870865e-01 -1.872689522076498650e-02 8.126997980285449730e-01
-1.418646682696587669e-01 -3.708677648601105825e-01 1.917871911744095381e-01
5.946574201995932091e-02 -7.591069061370288029e-01 -1.192371012078564108e-01
-8.097098269080854616e-02 -5.339008595925009981e-01 3.359035197544196216e-01
9.522568042767221019e-02 -7.961643674761749168e-01 -3.410840898930961873e-01
-2.786128927373596187e-01 1.155005932342398761e-01 -7.598468511436663464e-01
-2.413165713036496962e-01 3.612441733866088994e-02 -7.785291521180425223e-01
-4.498237418316359815e-01 2.074195056625247890e-01 7.488573252192225471e-01
-4.416845921558983368e-01 3.195499721353439182e-01 6.870898542847980739e-02
-2.617581391147778547e-01 -7.440790747418013495e-02 3.617548396009549749e-02
-1.792127623712907736e-01 -1.049900439949533193e-01 -7.629402600336057105e-01
-9.082990581349470460e-02 -5.451563436501749571e-01 5.092051528220402634e-01
-1.337193974146156095e-01 -1.650475527502179018e-01 -9.777303714844605143e-01
1.230951633539600076e-01 -8.617967670783251988e-01 -3.220433247835653434e-01
-5.424381826276228891e-01 6.023050002893759469e-01 -2.376541164592240463e-01
1.265501314195478233e-01 -8.265761525811393673e-01 -5.461165511901340253e-01
1.198356945674981244e-01 -9.651128647465208044e-01 2.553901669101312222e-01
-3.800086891624767510e-02 -4.403224905470330963e-01 -6.519459515460934718e-01
-4.257060432262059213e-01 1.503404159349387148e-01 7.668081606291130559e-01
-2.992811803379785696e-01 1.227721295328899481e-01 -5.577436489120543017e-01
-2.668860542414455139e-01 1.032836364167563220e-01 -8.322601689070211473e-01
-6.979527738901300515e-02 -5.724313017046112062e-01 4.073152033892112889e-01
-5.344245597232690770e-01 4.194170414223942767e-01 6.244001472900264638e-01
1.035999043543652937e-01 -8.254398940406647567e-01 -2.854650432479954869e-01
-1.689419957714112519e-01 -1.639634865346694947e-01 -5.742526563769240200e-01
2.870317698834913209e-02 -6.273410887872933328e-01 -4.500565421926835952e-01
-4.700330391425336929e-01 4.116694401783309032e-01 -8.309790321633923893e-02
-2.148451824295715129e-01 -3.037898988227591968e-01 6.891989515093839280e-01
1.417742654637214605e-01 -8.811700762240349816e-01 -4.378385595300555710e-01
-3.188124051432236761e-01 2.263736135440483910e-01 -8.719350333042122925e-01
9.304722842877557326e-03 -5.544122017499417687e-01 -6.056014078117719635e-01
-1.415691677859795550e-01 -3.686662643116633831e-01 1.768572942840389295e-01
-1.311121933654774974e-01 -3.753987782711031840e-01 9.055178320436667316e-02
-5.105043065452483653e-01 4.316280336824292463e-01 2.827744875421069892e-01
-4.295608452163524604e-01 3.571182778602933761e-01 -2.683201015299561121e-01
-3.321161926100905104e-01 1.827295875685190363e-01 -4.894681393586761131e-01
1.634335260129226308e-01 -9.920424550034889766e-01 -1.103935373155055383e-01
-1.053664911016105321e-01 -4.156883558857463745e-01 1.908183920795285433e-03
-5.685400706423193729e-01 6.487152550770165504e-01 -1.768385885430782956e-01
-7.610359180921019706e-02 -6.293573303548782860e-01 7.778897002347120448e-01
-1.320737230066330870e-01 -5.036827734778874799e-01 7.716885894224396747e-01
-1.991113393789741837e-01 -1.893386589075495841e-01 -9.128828808616261392e-02
-2.068075509029328740e-01 -1.496344313429108785e-01 -2.092472754520070810e-01
-1.493032904657466409e-01 -2.145244348544528279e-01 -5.383158818596388562e-01
-4.470840834948075493e-02 -5.779792864813096953e-01 1.448852527204382012e-01
-2.233981459804107728e-01 -2.375035810682090964e-01 4.423659022973761012e-01
-5.117726636648683991e-01 5.617184702080112446e-01 -3.818945657965180374e-01
-6.202829511480641989e-01 6.637441929139132890e-01 3.457081149876167769e-01
-1.899087657264287021e-01 -2.595030722115009847e-01 1.682525041673695321e-01
-3.759637816284005368e-02 -5.422640312028286225e-01 -1.242510211031510325e-01
-2.692700857357576694e-01 -1.159370793330810057e-01 3.403205060870531096e-01
-5.665422872156734846e-02 -5.016903206307198326e-01 -1.147761845128451447e-01
-5.604257555911266175e-01 5.780770305906909323e-01 9.781771373020577143e-02
5.014468787292646751e-02 -6.516998196236083452e-01 -5.719028674289421410e-01
-5.845979681171711295e-01 7.200113081700599826e-01 -3.626592173837627775e-01
-5.513481031726332748e-01 5.540550676937003871e-01 1.178289348294107169e-01
-3.725928910311774866e-01 1.138708677326875224e-01 3.403190017553860969e-01
-8.594325244792298812e-02 -5.422698659945648370e-01 4.373679418626759130e-01
1.316393983200364604e-01 -9.651767371213114677e-01 1.186140686973432973e-01
-3.441663337176620319e-01 2.448459696759979973e-02 4.769443523974077892e-01
-1.313037171240920564e-01 -4.157224354920725506e-01 3.033682617330284992e-01
-6.350832032765529878e-01 6.921275605936522135e-01 3.693919745085003092e-01
-1.260920339277842028e-01 -4.026608464370254326e-01 1.746156723085691420e-01
-6.333035848626461517e-01 7.789543939237574266e-01 -1.047360590668199032e-01
-4.142475659904290008e-01 1.089742908046459208e-01 8.497446751439661217e-01
-3.749222820642463816e-01 4.577453237692565707e-02 7.230123838398849756e-01
8.402876163931222858e-03 -5.311679908673648809e-01 -7.165194617274833755e-01
-2.600265995842159783e-01 -2.313972139403184525e-01 8.359446259816432079e-01
-6.272906907392695741e-01 7.774377272928681970e-01 -1.666598957025482164e-01
-4.636921469175767641e-01 4.604723523204550251e-01 -4.116275450985522055e-01
1.447025032774227893e-01 -9.390573199898624157e-01 -1.695341909292814864e-01
6.511773405875544152e-02 -7.259754566616472005e-01 -3.579198174651531117e-01
-3.816323045443695272e-01 2.006243954066640883e-02 9.352371279191924458e-01
1.379020466304844705e-01 -9.413997890924709067e-01 -7.830769399355189120e-02
1.522893958584303764e-02 -5.470266228000545405e-01 -7.129874870066004178e-01
-1.313004280658153777e-01 -4.371376021227898478e-01 4.151715469501038869e-01
-3.281833512570994094e-01 1.317115306401817065e-01 -2.687076418752410434e-01
-1.490055715545707087e-02 -5.045964048144532255e-01 -5.846021016705050810e-01
-1.286629699095300783e-01 -2.653373691529598011e-01 -5.126976817747194159e-01
-2.050832256408487708e-01 -2.020673054512152692e-02 -9.052176209865513412e-01
-1.321753110044997792e-01 -2.657238639983626749e-01 -4.698804835536884994e-01
-3.036691311908765734e-01 6.856965033486907279e-02 -2.236995822212761165e-01
-2.303265311837521812e-01 -2.985517043984376451e-01 8.416708185840652279e-01
-3.564779161654220152e-01 1.978371744013320555e-01 -2.853867177094299157e-01
-5.004683132967894243e-01 3.904942675934343077e-01 3.810208135179239952e-01
-4.757768088770295556e-01 5.255572544214194286e-01 -6.111625913570873925e-01
-4.629945905062338163e-02 -4.467636460481016480e-01 -5.219118692456187203e-01
-2.148293251195503573e-01 -1.081396916909097144e-01 -3.327756006541481848e-01
-4.717371458631164916e-01 4.809303534970314487e-01 -4.250209606283245067e-01
-3.495248232094401719e-01 8.723238722127914235e-02 2.114849632268796520e-01
-4.768993256403211145e-01 4.240506516789169789e-01 -6.800169872550440586e-02
-5.691369788856067702e-01 4.926107189917051099e-01 6.453566332984363996e-01
1.218757761658426225e-01 -9.231787231098477209e-01 1.269036331546735327e-02
-3.730954621751406131e-01 2.676304939497444746e-01 -4.568584901960771050e-01
-4.375172272867615675e-01 2.156385221426400378e-01 5.629829786426349125e-01
-1.119130233083543736e-02 -4.880617879717728536e-01 -7.140407711722851491e-01
-1.427501167838684248e-01 -2.029710911889464897e-01 -6.747741138935894334e-01
-4.017713308672252737e-01 1.563305978946168684e-01 4.575029547926415252e-01
2.544716241579917521e-02 -6.676818780779747442e-01 -2.015540233740439890e-01
-3.516129626091947791e-01 1.217269762006351341e-01 5.559115886008608731e-02
2.823948355991152525e-03 -6.136494795786124890e-01 -2.209530629306089566e-01
-1.218904646951526061e-01 -4.186738561807498704e-01 2.094395375246586866e-01
-3.147034304667257198e-01 1.278600963556379422e-01 -4.051736915729028943e-01
-2.218572017456776346e-01 2.953759846198194400e-02 -9.701657441980355845e-01
-1.962748182758092541e-01 -3.672311266201907509e-01 8.048131126302685567e-01
-4.611036365860727848e-01 2.635304953185151899e-01 5.868408352925669202e-01
-1.596545409198988352e-01 -1.884852865321479110e-01 -5.540680446236778689e-01
-2.136896289092084789e-01 -1.895606944891077214e-02 -8.117788306235785845e-01
-1.075521124021408675e-01 -5.139479982154717685e-01 5.404605359158678457e-01
-3.908253432123864335e-01 1.184997339021207075e-01 5.279294245014244380e-01
-3.286388925678200290e-01 -4.075623174324509435e-02 6.373030347276872343e-01
-2.660669471828261412e-01 2.112961904718639247e-02 -4.127224094604817761e-01
-4.317698517636890387e-01 2.697027842010444876e-01 2.138699265175819098e-01
-4.418897729704031607e-01 3.887596098641764586e-01 -2.903575337997358896e-01
2.884667411833842163e-02 -7.335627831303866975e-01 1.030233017129381784e-01
7.376063483580639485e-03 -6.429624945418531690e-01 -1.207413117255112106e-01
-1.141274048123364915e-01 -2.306076010655992992e-01 -8.629176428580355163e-01
-3.522916118807148944e-01 1.935632937883699223e-01 -3.116935685142308565e-01
-1.606726170555362321e-01 -2.208419491044435190e-01 -3.732584048469485549e-01
-1.014218829490083768e-01 -4.921762674144146144e-01 3.555492468160509345e-01
4.141816648399417912e-04 -5.843807618027730966e-01 -3.458185998968287822e-01
-1.973562138867037546e-02 -6.025574400243285389e-01 -1.683378947387875399e-02
-6.898879425607744309e-02 -5.291495540316026869e-01 1.719067332311585983e-01
-4.341511768787914560e-01 4.356497097006428176e-01 -6.251329171891303327e-01
-2.797583052618643484e-01 -1.462869649050537735e-01 6.206531413080081938e-01
-2.397414066917926898e-02 -5.872965964486044355e-01 -4.730023436092320455e-02
-4.200029818641740631e-01 1.916413454008751294e-01 4.848668246158000517e-01
-2.726607634187351858e-01 4.155361624634659745e-02 -4.427949121550012745e-01
-4.258501255851167011e-01 1.766789871030280124e-01 6.309276446459092247e-01
-2.089369400975274460e-01 -2.327740330495402937e-02 -8.444168746920487356e-01
-5.220803034951942978e-01 3.799414084758153121e-01 6.871744497638733185e-01
-3.542109449433555324e-01 1.250333755083380197e-02 6.561932930020073496e-01
-2.085666121546704277e-01 -7.746157180704793532e-02 -5.657397365666552158e-01
-1.386342993173017846e-01 -3.001444197625110499e-01 -2.150914407825858521e-01
5.018286350269588608e-02 -6.189352710488773557e-01 -7.434603608655727669e-01
1.133807913550355650e-01 -8.875022381337643873e-01 -7.495518610279847116e-02
4.402526791486437163e-02 -8.060535701317554924e-01 3.052973035074780239e-01
-2.396467860825776119e-01 6.069065076697313654e-03 -6.409598977524471053e-01
-3.236252145756376430e-01 -6.277858899228343226e-02 6.940776293809748365e-01
-4.711961886329163463e-01 2.693051377437308269e-01 6.739158015115533917e-01
-3.795607082444816260e-01 2.305647767042922069e-01 -1.881823059639779749e-01
-2.828462283022330492e-01 6.936540606334704040e-02 -4.697304949128915941e-01
-5.523061805017989156e-01 4.562815664926222481e-01 6.395834697074157527e-01
-3.952970556873351970e-01 2.328279634262475362e-01 -1.721133409851854576e-02
-1.680077391559310351e-01 -1.939101000711928036e-01 -4.287075275929165818e-01
-3.945903287532853132e-01 1.735315321726516036e-01 2.842572336247286002e-01
-2.923652409703018651e-01 5.460735379020056901e-02 -2.820849093060021628e-01
-3.198345332944381170e-01 -2.443799042052404932e-02 4.498105885302760565e-01
-2.277423714711466485e-01 -2.017624958120309009e-01 3.061685109045346742e-01
-4.453724255127267662e-01 1.818535560232693582e-01 8.306707514500661915e-01
-1.610051968903025666e-03 -6.901635310100665555e-01 2.301489073814282638e-01
-5.687353197020087459e-01 6.164869919352843342e-01 -6.257329010109394067e-03
-3.206440853631331023e-01 1.712950809980522404e-01 -5.630089203145421939e-01
-5.320907846164697474e-01 6.030892496547690662e-01 -3.619433790699741471e-01
6.639089470959243233e-02 -8.817068518813396816e-01 4.406042827259019634e-01
-4.112685650312772334e-01 1.600432618299253984e-01 5.484315748736987572e-01
8.203969633085821112e-02 -7.047902346796290907e-01 -6.651228467050677162e-01
-4.879659609175779900e-01 4.630798992791110291e-01 -1.432853497997909620e-01
1.228060201607470564e-01 -9.105718127545657792e-01 -6.395523162038449505e-02
-4.971428864740551345e-01 5.705156966140375596e-01 -5.977752308058886799e-01
-2.567520457957729318e-01 -2.020203803879417059e-01 6.444864185133776235e-01
-3.996272107710025501e-01 2.811719736578469631e-01 -2.193914010206599596e-01
-6.106279696578283955e-01 7.337095875416845825e-01 -1.318392226355537544e-01
-3.063637144560628633e-01 1.445499231110257687e-01 -5.892095447162015720e-01
-1.410886192824455931e-01 -5.008577779073180025e-01 8.616503408728477531e-01
-3.490919953510366464e-02 -4.721350742814069967e-01 -5.217158391613361257e-01
-2.120637727024824448e-01 2.855441109798756687e-04 -9.311545103245434385e-01
-6.099050923009597946e-01 6.461587979423254469e-01 3.170011636970456737e-01
-9.808370518155837964e-03 -5.470896521680744806e-01 -4.218294774929422508e-01
-2.221072974940289657e-01 -1.475998988465129433e-02 -7.359149035730330191e-01
-1.959108249381554534e-01 -1.116432678976256032e-01 -5.342319000336636092e-01
-3.955351823490850793e-01 2.862748204681791475e-01 -2.935734621942999722e-01
-3.333632480524809094e-01 2.203911002225381055e-01 -6.716711964841112215e-01
3.412038742252190143e-02 -7.069339699690040391e-01 -9.730514184503527564e-02
-2.471136979868915617e-01 -2.475218014527332255e-01 7.701619592488724297e-01
-5.309461948768445100e-02 -3.754367834736951348e-01 -8.154876689560431879e-01
3.124518158929279546e-02 -7.523694814467301040e-01 1.733813447827478316e-01
-1.375163858448673164e-02 -5.565625703624974552e-01 -3.265525320270399878e-01
-2.749147918137073709e-01 1.031003006605306499e-01 -7.380423371452663472e-01
1.108587917270520834e-01 -8.733263466774605632e-01 -1.196942087036952512e-01
-3.261736223845953520e-01 2.007819376577905102e-01 -6.527750113446526559e-01
-1.564036917602851517e-01 -1.546831155906178146e-01 -7.683623896719367075e-01
-6.800549055565494050e-02 -5.471477900582109033e-01 2.544813018211153910e-01
-3.024365690573229681e-01 -5.161071838340385021e-02 3.896295678846745658e-01
-6.349945784169789276e-01 7.409094648155731822e-01 1.135972468007368091e-01
-3.266472248071915496e-01 1.618865168545162436e-01 -4.441409752897513830e-01
-4.893131206548079204e-01 3.693219136625077170e-01 3.620175186192088890e-01
-4.911105393021657911e-02 -6.455202861810012127e-01 5.487609214541719904e-01
-5.798191216734573938e-01 5.580046878868603066e-01 4.279160670322967874e-01
-7.840875808568034677e-02 -4.836426265112988010e-01 4.366572628219618502e-02
-1.890206125378235125e-01 -1.398699786685798363e-01 -4.668523244595914612e-01
1.615348707186220201e-01 -9.561711112308438620e-01 -2.756785067769887410e-01
9.178096366795805705e-02 -8.001725099259847651e-01 -2.801382166773772608e-01
-1.508878388461133147e-01 -1.642207389765085179e-01 -7.826229463349452242e-01
-1.830847295318074192e-02 -6.995716138402144901e-01 4.732487821143928075e-01
-5.777107302639551412e-01 5.426606797610413757e-01 4.835600193990652329e-01
-3.519528724245189477e-01 -2.948756918297684021e-02 8.492629786085942323e-01
-5.837139113987868111e-01 7.100186516899269495e-01 -3.207412456528409006e-01
-6.180430454054883782e-01 7.588304365901876736e-01 -1.769016047687157478e-01
-1.809707233959499950e-01 -9.593346298255280014e-02 -7.898184300918499323e-01
-3.547438382421047587e-02 -5.705275803308530458e-01 -1.292302872419993833e-03
-4.049190947513562899e-01 2.183669912805154545e-01 1.700794755468209851e-01
-5.665059962872961430e-01 6.755517556045044225e-01 -3.406206306758478020e-01
-3.703195587141388384e-02 -4.768737449329831790e-01 -4.723104073421142135e-01
-2.171794023803178819e-01 -2.677541681296027321e-01 5.281149051065994193e-01
-7.967948311185557575e-02 -3.130891175338204602e-01 -8.322956964370998856e-01
2.934930797364590028e-04 -5.479327566805055616e-01 -5.347677419601936100e-01
-3.528549958028302791e-02 -4.295065758221595642e-01 -7.399736973471192636e-01
1.362360735017760158e-02 -6.860391897214779267e-01 3.165797079231108535e-02
-2.597038615256683572e-02 -4.992667672683487323e-01 -4.838512100589916765e-01
-5.103683752894903058e-01 5.258455363154930229e-01 -2.108588157410351271e-01
6.986635903992087504e-02 -7.028682437431528207e-01 -5.337572446899324641e-01
-6.817092805974782344e-02 -3.437333708390560849e-01 -8.059362441441919600e-01
-2.297400445199897778e-01 -7.197028392275335584e-02 -3.484714523047352519e-01
4.209757133158458821e-03 -7.719163254375596139e-01 5.895040207500026330e-01
-4.230749552703725880e-01 2.827235378403283317e-01 4.487022997592398504e-02
1.431980870755375501e-01 -9.463707959997494923e-01 -1.138642704711040066e-01
-2.854178020640681379e-01 3.004273985388484364e-02 -2.344955009525059308e-01
-5.296523889576399968e-01 4.467344445268570663e-01 4.263013444168998189e-01
-3.968727357713942583e-01 2.992061327039791663e-01 -3.455709358411535592e-01
-5.496850131287860375e-01 5.183129568408044729e-01 2.851752637114404743e-01
-5.214291318086049509e-01 3.799487428312293691e-01 6.795722540536172085e-01
-1.396960806697946922e-01 -1.785498518966563419e-01 -8.377900560805062735e-01
-3.635568865343277167e-01 2.306600765927862284e-01 -3.745774927379528774e-01
-2.881390082026188959e-01 -1.252293192179249059e-01 6.080275369049411571e-01
-2.717236918106553101e-01 -2.060503488167037267e-01 8.394409905490690660e-01
1.088994725879612324e-01 -9.218421434126464753e-01 1.564404071367019866e-01
-3.500689908196974454e-02 -5.152178519808842116e-01 -2.955795980688365465e-01
-4.828682018218512506e-01 5.521880184944477632e-01 -6.678704003978122028e-01
-2.522325834861050553e-01 -1.715025005595694207e-01 4.326084244132255008e-01
-2.933493748794879230e-01 -2.330273404699539572e-02 1.362348918857844704e-01
7.694220967135331768e-02 -8.528258672933354267e-01 1.672101314782981074e-01
1.137386930891838982e-01 -9.135847951879081386e-01 5.710459987587544750e-02
-5.888173585402733251e-02 -5.469725346210458916e-01 1.475861501849073942e-01
-1.612678234854661094e-02 -5.173331635963558384e-01 -5.038403048642542403e-01
4.943879195842219160e-02 -7.261153745955450933e-01 -1.750653537246149305e-01
-7.374295619832707538e-02 -3.194261485446721616e-01 -8.681579363367309954e-01
-4.183777110039201830e-01 3.067115098935261908e-01 -1.349701649874018028e-01
-4.955905044852590424e-01 3.276907240073020366e-01 6.523548757824952915e-01
-1.747724843361121022e-02 -6.932220857439718165e-01 4.304327868943703672e-01
-2.698835484342494428e-01 1.079101523772140608e-01 -8.216039707057778418e-01
-2.668910541720560525e-01 -4.782655528281341654e-03 -2.678219317934612542e-01
-2.589707286990380330e-01 -2.877103639979882582e-02 -2.345427949325169792e-01
-2.410351173746872744e-01 -1.155105146288150780e-01 1.012050378761797896e-02
-4.124986724022229323e-01 3.497453557043722072e-01 -4.280058395200277421e-01
-2.935877959397396042e-01 6.599268528654092525e-02 -3.273442431391542784e-01
-3.552084249139975114e-01 1.388116590756017510e-01 8.130013816155500991e-03
-4.390843247690057738e-01 3.542677378363158214e-01 -1.428100472712467151e-01
2.300827692780860103e-03 -7.067745997110126410e-01 2.714727544954529947e-01
-4.321030400945213845e-01 3.403369994395382681e-01 -1.511495888072676708e-01
-2.349733135432785780e-01 -1.204836180145825858e-01 -3.432009184952080488e-02
-1.825379383312016046e-01 -1.704479570382240461e-01 -3.824592784580141402e-01
1.209889951767071925e-01 -9.352566508685741242e-01 8.606846894686587257e-02
7.211488020184189662e-02 -7.048644142855140515e-01 -5.494505835773719760e-01
-3.421658302847256361e-01 8.473662886402835714e-02 1.390384302814011708e-01
-3.828604478326369520e-01 7.563847898749802290e-02 6.592551198149332325e-01
-1.443992772933794244e-01 -3.308035525201243887e-01 1.199193514777840107e-02
-2.681707099186876608e-02 -5.050856246997047494e-01 -4.436270775194418592e-01
-4.161466920893241994e-01 1.539766002602534212e-01 6.367783725040103704e-01
-1.437744569205511302e-01 -3.641273680456206807e-01 1.787689797991730556e-01
-4.085989684552621126e-01 2.391314491923098584e-01 1.043810783458974101e-01
1.620053138936297099e-01 -9.836955037330782359e-01 -1.373959433703940136e-01
-5.760649772578466665e-01 6.492271528184679896e-01 -9.210404780460683394e-02
-4.070164042319966979e-01 2.762270052914173601e-01 -1.077345969170828560e-01
-3.302204596060485109e-01 1.477741776768422000e-01 -3.289327232705372417e-01
-2.893045226499733613e-01 1.608243502973530914e-01 -8.723598019621024990e-01
-3.298255721712445854e-01 8.328065443424130521e-02 3.300118141961409096e-03
-9.001915652312446336e-02 -6.037862524315585899e-01 8.059844778223119732e-01
6.230878154892965926e-02 -8.086341799410763365e-01 1.063966665287288810e-01
-5.638348966982415639e-03 -7.567843945243893922e-01 6.248707662727335244e-01
-4.941183990035289408e-01 4.572017754829794667e-01 -4.112103265916747241e-02
-5.748129148563283497e-01 5.643976467506124362e-01 3.363774186938738309e-01
-6.189368744046733761e-01 7.483886250004891938e-01 -1.119863072181709607e-01
-2.773108899746962175e-01 2.797457830976876267e-02 -3.178628667448220591e-01
-4.193884240380271744e-01 2.867890384773958967e-01 -1.918407136262111762e-02
-6.033077924455659824e-01 7.109022391119830253e-01 -9.775685791635697897e-02
-1.837403355787833592e-01 -4.078255810554500815e-01 8.712208651804695947e-01
-5.899156783056523912e-01 5.618529852214659837e-01 5.250979574172943698e-01
-5.465971138431366949e-01 4.878434849691216102e-01 4.084347180539101840e-01
5.395687581439769648e-02 -7.731478643226425973e-01 1.808230302662135885e-02
-4.338330840317987658e-01 4.037876196268764817e-01 -4.624268960233800518e-01
-2.823137268906171782e-01 -1.784515916382620193e-01 8.183173922845777826e-01
-4.160074352193210978e-01 3.036107021386147409e-01 -1.463087751973407291e-01
-1.674482838383637706e-01 -3.632519928448380564e-01 4.491881646793778882e-01
-1.467818853615079633e-01 -1.462541009706216644e-01 -9.241483781116939245e-01
-2.750942093178420089e-01 2.630884190387474883e-02 -3.349120564747034012e-01
-2.245619019335516886e-01 -1.320487034384332514e-01 -9.485807254041916936e-02
-2.154425307554770352e-01 5.591363059703181870e-03 -9.196173052097019740e-01
-2.002466181940756318e-01 -1.951840409191387890e-02 -9.649935826803709427e-01
-1.840982567648355439e-01 -1.264673941107014310e-01 -5.940250006791852888e-01
-4.365126566162720878e-01 1.693124917227736281e-01 7.932534554022033779e-01
