-3.647568206857365603e-01 -2.308257268725249778e-01 6.725966397615141873e-04
-5.036637291429928442e-01 2.223493101577812270e-01 5.507231710931319996e-02
-6.219006261857770029e-02 -5.475707665979142602e-01 -8.185431969980628830e-01
-5.091564839786244523e-01 -1.627484726232598933e-01 4.784947742106848700e-01
-2.404192933288370193e-01 -4.115332071348153375e-01 -2.831452037695099677e-01
-5.221895640525576754e-01 6.807808058388641337e-01 -3.536907691289983280e-01
-3.047704886613710196e-01 2.853744439774291153e-01 -7.669655109813335869e-01
-6.461968951271505057e-01 4.907966801800937029e-01 3.163529503503021423e-01
-4.083516235158538010e-01 2.931339343916634088e-01 -3.812786779671432091e-01
-5.839534609678865840e-01 2.034241867010239679e-01 3.801024512554821988e-01
-2.771721580539350804e-01 1.152039680996575083e-01 -6.940116731243101134e-01
-6.160127254877166836e-01 -3.832370249419306263e-02 7.546836254114641651e-01
-1.971286693720298855e-01 -3.853123957193024807e-01 -4.751371831504569987e-01
-4.544402753150016405e-01 8.804307533090495463e-02 8.322499090407938643e-03
-1.337757795133300009e-01 -3.258487854901873093e-01 -7.781509272648688968e-01
-5.232071497484044320e-01 -3.773789157757805879e-01 7.562646623547317759e-01
-1.164370094515638360e-01 -9.734619087121612058e-01 -1.671246290557043823e-01
-2.049677460633409776e-01 -9.577617463553919075e-01 1.530428347225952779e-01
-5.080765504611730599e-01 6.788758466898607846e-01 -4.053547947709599253e-01
-1.659871414242247156e-01 -8.976394584218658768e-01 -5.800015731839992111e-02
-2.628216035436393150e-01 -8.724831712759935076e-01 2.838522325044895434e-01
-1.631954982227657169e-01 -6.770771943353653954e-01 -2.991656555926738847e-01
-5.217484587966505494e-01 3.181977040154495562e-01 2.363773197745599672e-02
-3.333808191327864989e-01 2.528190966295752462e-01 -6.241640537051185156e-01
-6.037169009490082061e-01 5.439436711888405718e-01 9.929710502864021182e-02
-4.212211660326108387e-01 5.057174527041662371e-01 -5.545628991061449797e-01
-3.505554647697601278e-01 -5.396744880781328274e-03 -2.889578246505888903e-01
-3.574418600801682055e-01 2.186238653464643855e-01 -4.969440588377009305e-01
-4.489259708164679979e-02 -6.944609608863001604e-01 -7.307619414450139406e-01
-1.288050373980526297e-01 -1.833106255902502979e-01 -9.460429523989359879e-01
-3.064082469090299021e-01 -6.010045868986223505e-01 1.657865903215264558e-01
-1.650881332882259689e-01 -7.717660865263424874e-01 -1.929925627155110457e-01
-1.445020962067228021e-01 -7.846163343590342176e-01 -2.578248858956604939e-01
-1.961109484466554975e-01 -5.177811069001432287e-01 -3.405377933644850863e-01
-2.968073690805173026e-01 -3.579982481533639516e-01 -1.247270840724112317e-01
-3.903230208778609156e-01 -3.132536427849942351e-01 1.840322279772635128e-01
-2.279917329567436868e-01 -5.583527743053581238e-01 -1.769232270731259382e-01
-4.916631482670451025e-01 2.416756825789281860e-01 -1.075355851847826366e-02
-5.167418894222146619e-01 2.792351409162319165e-01 4.533089775710983510e-02
-1.324299278875186725e-01 -1.356546049832081935e-01 -9.820762337599113767e-01
-1.682282720566722622e-01 -5.852636398852629762e-01 -3.760039575434833137e-01
-2.147245250756727730e-01 -3.484177042746101072e-01 -4.468065024730517032e-01
-1.909124223036491874e-01 7.357348091087707875e-02 -9.784403977417119869e-01
-2.490612250253017856e-01 -1.182451347039173012e-01 -5.568619685705851197e-01
-2.330774935072903731e-01 -3.381374516683745557e-01 -3.877775271428824944e-01
-3.785664540189899174e-01 2.128555612491112581e-01 -4.106023961361918162e-01
-3.591667806455786649e-01 2.082095215735684235e-01 -4.795001670151603501e-01
-4.333273284484158716e-01 3.757382589453197030e-01 -3.726710224028562113e-01
-3.253342668851350039e-01 -5.722188499011647833e-01 2.076505599831309501e-01
-6.567940648461829678e-01 6.657940080088461388e-01 1.737181307034145195e-01
-1.262013177589573487e-01 -5.300192830382348674e-01 -5.935297840873082764e-01
-6.769290116450416006e-01 3.607375078293146298e-01 5.691411223888322990e-01
-5.442533932453630374e-01 7.469210116072545480e-01 -3.389437425597413012e-01
-1.671370356044056538e-01 -6.606467281601516861e-01 -3.013552521749635615e-01
-6.333163713548464191e-01 2.183215745023693033e-01 5.521996680436610516e-01
-4.028800392481875492e-01 -9.120430510682570047e-02 -3.347094411309083691e-04
-4.033810192568983433e-01 4.381301898612906531e-01 -5.517396086104281450e-01
-3.863072319293570089e-01 -1.346084630487459632e-01 -1.797163649993115814e-02
-9.076218103009876803e-02 -7.978749997759497781e-01 -4.482756715759103616e-01
-4.445600473236028249e-01 -3.676936147350454709e-01 4.471378443594619112e-01
-4.523321154104291697e-01 6.388121830875532758e-01 -5.754073506693737627e-01
-6.507305639115733564e-01 6.993332124182375376e-01 1.156074473255633978e-01
-3.443851031382874073e-01 7.277608251287916163e-02 -3.941299791452503309e-01
-3.792115780807656655e-01 -5.717899016727306938e-01 4.120345129262288353e-01
-2.725939839227153882e-01 -4.252335547426058238e-01 -1.465016540479121276e-01
-6.410851572309219648e-01 6.298689563495293298e-01 1.515477466833161924e-01
-5.729745817586129331e-01 -1.994769194993602501e-01 7.595122566414493903e-01
-3.546584331402053980e-01 4.240056898842711752e-01 -7.222103160381663223e-01
-1.808555780322742279e-01 -6.340694746773780643e-01 -2.769807102548516586e-01
-5.395601854185069213e-01 -1.943237140005567021e-01 6.270898236987054730e-01
-5.050194161973041718e-01 4.884855103008279853e-01 -2.179638478182413797e-01
-3.845432679664126940e-01 -2.280748339441924025e-02 -1.415426857560794782e-01
-4.011135017817673565e-01 -6.692930747264033142e-01 5.972212491135604484e-01
-5.343209578786416447e-01 5.596187118655518988e-01 -1.809194178912943429e-01
-1.797513674113164206e-01 -6.613126643127871240e-01 -2.527016201865548983e-01
-5.282252772949658226e-01 -5.622209906222041392e-02 4.396398155799038920e-01
-4.821163594791505469e-01 2.153836350710789105e-01 -1.956592981310772625e-02
-9.867622117137936355e-02 -7.777390484596330422e-01 -4.392358085342553675e-01
-3.269974525647019736e-01 -5.111065539192560792e-01 1.500934643491000642e-01
-4.446630123558098502e-01 6.032787645241924901e-01 -5.674211430241571374e-01
-3.359634234684123477e-01 4.180386816366644109e-01 -7.870482770065276856e-01
-6.293943975515920997e-01 4.621491953494236138e-02 7.171908422134787298e-01
-3.406882753405534592e-01 -1.179496859996573971e-01 -2.088204128979675445e-01
-3.379771361413236863e-01 1.968215660116510168e-01 -5.481558260499348467e-01
-6.002886684240106296e-01 -1.465088810682615116e-02 6.701584251474422826e-01
-1.005541975411925887e-01 -7.622646813016017431e-01 -4.482713079929159239e-01
-6.128668072326411975e-01 4.318020179851843054e-01 2.513043483280698598e-01
-5.132610540101743002e-01 -3.788376530759003935e-01 7.199761137685114498e-01
-3.975116422533356286e-01 -4.558342031325665622e-01 3.604005719020947907e-01
-5.952756526780396129e-01 1.883994496947086553e-02 6.160920691335641797e-01
-1.939234121850510750e-01 -7.090774180896629586e-01 -1.488937744816122288e-01
-2.733383132207128363e-01 -6.674362642393650846e-01 1.095009085602941801e-01
-5.054067840485241270e-01 1.957813054290122590e-01 8.947045818112084326e-02
-1.317650343821461789e-01 -6.130578454255974918e-01 -4.855778724527718415e-01
-2.860593547979399243e-01 -4.874037711408861218e-01 -3.032253528843523518e-02
-3.848143602489576542e-01 2.060868027600546992e-01 -3.797735898738147098e-01
-4.980244158099003116e-01 5.426271734404846114e-01 -3.011515348168768980e-01
-2.335165448495787055e-01 -8.747886117557418517e-02 -6.481199503718483301e-01
-4.234494604235356507e-01 3.443280085383865763e-01 -3.773920797045653419e-01
-3.482506263973674243e-01 -3.006581008579517489e-01 1.091414504349886953e-02
-4.603793401059910750e-01 3.065852756825905301e-01 -1.975387814000146292e-01
-1.880008674461201013e-01 -6.303513035126578901e-01 -2.537021186155514751e-01
-5.049232040397365617e-01 5.297511641140643102e-01 -2.614643210632803805e-01
-6.784703087317319747e-01 3.274395281970711169e-01 6.098070090651530606e-01
-4.522806049959116614e-01 6.196160859279525868e-01 -5.555376421984414836e-01
-3.830027855305727646e-01 3.946807672366726971e-02 -2.124955316854776899e-01
-1.831587660002107210e-01 -4.131277734995505990e-01 -4.991731540003984113e-01
-3.099617445575440500e-01 3.787289333905560773e-01 -8.448120194475866596e-01
-4.283057205375411791e-01 6.045548647323594205e-01 -6.309426693951403209e-01
-4.849042609784444680e-01 1.505090286982231351e-01 5.884615456197795497e-02
-7.109374807588195178e-02 -4.555472497968704459e-01 -8.808844266371487208e-01
-6.362299143794164502e-01 2.386099647658623812e-01 5.420691523063272399e-01
-7.259322620456717945e-02 -8.385336953133586402e-01 -4.748506907713351266e-01
-4.058988594665948746e-01 -1.296360733403458532e-01 5.131477996303319272e-02
-5.259273153237770115e-01 1.413190280652534547e-01 2.244150378207570851e-01
-4.718342786783601417e-01 -2.379163234518282544e-01 4.151745417999442300e-01
-5.642473726877331730e-01 7.203026082762503668e-01 -2.351060242169945025e-01
-2.255544503284388491e-01 4.613850608478536897e-02 -8.180597457559847241e-01
-2.353596040940067746e-01 -4.937890382199139339e-01 -2.163998490480524284e-01
-4.190880575760267401e-01 1.401410843557129582e-01 -1.805382650374146025e-01
-5.697320371943528361e-01 1.254435369203534822e-01 4.075476407552640068e-01
-3.786533672146049079e-01 2.217696718859740179e-01 -4.195898227404478709e-01
-4.589751902448597765e-01 1.475774612607968529e-02 1.021680980301906683e-01
-3.307425439797254674e-01 3.693243114188775600e-01 -7.559763878290015615e-01
-3.198004997137224303e-01 2.669545880314908026e-01 -6.905698347077279253e-01
3.634139423620126319e-01 -8.246710010892625009e-01 -2.437537800179004899e-01
4.203748561057270988e-02 1.986981797299270658e-01 9.498949516802089876e-01
2.481950392827880492e-01 5.411403283694375954e-01 -7.205682726067033084e-01
4.303838093725916303e-01 -8.234550679931201822e-01 2.603700969283291866e-01
3.511249661669478273e-01 -3.688556314088823340e-01 -7.747136427871142983e-01
1.235049495225826362e-02 7.567053225136627370e-01 -5.125262560489801666e-01
3.473237502545790112e-01 -3.788669908456270830e-01 -7.714382896154414748e-01
-2.579987770510246969e-01 7.170193558195528949e-01 4.994417391609073387e-01
-8.695150902962209272e-02 -1.680559788096221696e-01 -9.731370239080422424e-01
7.629678118467332626e-02 9.300815392611044841e-01 3.236400248100944621e-01
1.167224572692929750e-02 -5.393228774110543355e-01 -8.229450456826750138e-01
3.190325413058065114e-03 2.502086216761337245e-01 9.284290070181242527e-01
2.926853974351473209e-01 -8.788614184244729621e-01 -9.935311607674829348e-02
-1.489760882681230580e-01 -1.999372481657833156e-01 8.860971501451593291e-01
7.832470959152883216e-02 -7.672105248011666934e-01 5.169369751771629717e-01
-1.593623025023557793e-02 3.951852541641064365e-01 8.768385756236763973e-01
-1.706039736545880980e-01 -4.880459947673485566e-01 7.714038041194987150e-01
-1.974452358158055032e-01 -9.227224503597564187e-01 3.060887640251770403e-01
-7.847655067858376465e-02 5.406077524180671889e-02 9.276458961438284190e-01
2.516488543597932837e-01 2.294627708645484779e-02 -8.859955495697068306e-01
5.505012594054129460e-01 -5.450252032699039184e-02 -7.989837145463951629e-01
3.064854463435973727e-03 9.198104738911820899e-01 -1.418083085023832679e-01
3.299357207870789455e-01 -4.413152859875506956e-02 -8.641021811098882344e-01
3.134218181373372158e-01 -6.430482465529788749e-01 6.575683172234466634e-01
1.577707374899957604e-01 -2.607746639579182069e-01 -8.831247768095135120e-01
1.701761297917522495e-02 -2.338313247610716017e-01 9.086274670318669200e-01
3.817454681391880267e-01 -4.811447053051217670e-01 -6.977454545718468903e-01
2.673133986352148050e-01 -5.940896178693068075e-01 -6.648243679294494335e-01
-1.981467736345424446e-01 3.604485453125697014e-01 8.224549285865746517e-01
-6.706599235322521224e-01 5.728766638205380346e-01 4.331612085076192442e-01
1.926571974131529308e-01 -4.323405629373811010e-01 -8.067297649028911666e-01
1.122054509779369103e-01 -5.554724563309729191e-02 -9.231090416722628200e-01
1.293138264631065182e-01 -8.077712548288521477e-01 4.412113895454182755e-01
5.271880633320573661e-01 -9.973082012234714411e-02 -7.988782346898511966e-01
-3.266085360266530735e-01 6.010786455450588539e-01 5.998079225148479354e-01
5.262708264389599488e-01 -7.685266147161478045e-01 3.865373180527166275e-01
1.761099961546527537e-01 4.622759103419429305e-01 -7.754866635437686062e-01
4.138914622970591567e-02 1.900106118416318712e-01 9.509232305995057866e-01
-2.465388457678401035e-01 8.062842118532433933e-01 -3.566433965715784526e-01
-2.298687091982009323e-01 4.057284687571622861e-01 -8.489035071417809775e-01
2.342883953445748235e-01 -2.909055074744540392e-01 -8.484635419762084352e-01
-2.453433272961770828e-01 -7.699510456313818363e-01 5.414669874613482481e-01
1.422311253420207623e-02 6.172781712467723114e-01 7.594091969027777500e-01
2.912012002975941649e-01 -8.105457749737261519e-01 3.847677453738937992e-01
8.062486153184651727e-02 -9.434547640400090529e-01 -6.526352736129913124e-02
4.460895918681157535e-01 -4.716541562800337373e-02 -8.307381800260145166e-01
-1.073708067128610888e-01 6.109256558015377370e-02 9.195531194887858195e-01
-1.625338908959481354e-01 7.160515307334398560e-01 -5.479288343209883783e-01
-2.571832163885768852e-01 8.566254227935308219e-01 -1.671075867749106381e-01
3.014822114181779922e-01 -8.724674913608898574e-01 -1.264051933586394227e-01
3.842595357771903530e-01 3.216133452704111884e-01 -8.064861766970478074e-01
1.936486159991984979e-01 -7.957947649080316932e-01 -4.622306659556346120e-01
4.596189692394120341e-02 -7.616358694377238781e-01 5.290526805809928623e-01
-3.252321858064267102e-01 4.832586964732837331e-01 7.006711792521682636e-01
-4.177194478702007663e-01 7.930246076647005093e-01 -2.982599680730815273e-01
5.918409989697779316e-01 -7.955100771188952091e-01 -2.954270219652508842e-02
5.127995682751433915e-01 -7.132849635600169158e-01 -3.689680407139076523e-01
4.315640637176340610e-01 4.481703787113213711e-01 -7.509379046136298586e-01
2.140835201503744345e-01 -4.855852690286449058e-01 8.055384214904197648e-01
2.554312021645586961e-02 8.331413901589608262e-01 5.125938000531723437e-01
-2.726693031743524509e-01 7.836689653287274293e-01 3.706500840268646679e-01
1.859877146834453543e-01 -2.749411295301786295e-01 -8.698735303318249068e-01
4.637476711253524231e-01 4.095874372375832850e-01 -7.623700344045033495e-01
-6.575076510993133061e-01 5.503981428946127519e-01 4.687361502379862599e-01
-2.374365726517377595e-01 6.438176521873169023e-01 6.041096327228646645e-01
-2.208084318748789465e-01 -7.932609781429391660e-01 5.130289984522602431e-01
-4.349211582789982294e-02 -8.908320861698352244e-01 -4.674968835652600907e-01
1.388428626228552058e-02 5.263364040793430676e-02 9.522302962991490149e-01
4.393637371649249390e-01 5.306364859057967065e-01 -7.084994099266026524e-01
1.927644495795933222e-01 -5.610516204066499091e-01 -7.275647444084618609e-01
5.045367844931252232e-01 1.040168861943975009e-01 -8.190407087324113045e-01
1.552778044331584381e-02 -7.662082870255831901e-01 5.262862833298886933e-01
-4.309757539716693175e-01 8.077335936570450015e-01 -2.191861000369035861e-01
5.385166459400423378e-01 -3.185957203395175380e-03 -8.080840758730732931e-01
4.661550665689030010e-02 -8.084498361989422843e-01 -5.462902194876071427e-01
2.569774711658743827e-01 -8.362982860117715855e-01 -3.227594116442267791e-01
1.695908384107476241e-01 -2.401168273549520171e-01 -8.842294715428620222e-01
1.630250195743604066e-02 3.693201802305639547e-01 8.986910733657366146e-01
-6.360503543736252263e-01 5.833298165567231131e-01 4.410502227552464127e-01
-5.435058680339258652e-01 7.500029375487841099e-01 1.936237695725395169e-01
-6.294552200419948340e-01 7.631399934058040735e-01 -7.808611956502920295e-03
-4.729889147782743164e-01 -3.690853621813195429e-01 7.795761152082359979e-01
-3.263899930903264579e-01 -3.968855656942937848e-01 7.942827689082238019e-01
-2.188231503892008323e-01 7.486666826730524749e-01 -4.863438578854765715e-01
2.380041928814243812e-01 -6.622579997633618598e-01 6.395603063894740314e-01
1.037758260704536341e-02 -9.607120637456213474e-01 2.224221812024451770e-03
4.068948653659912318e-01 -6.206565436887698795e-01 -5.650386530027824428e-01
-7.113914916599527877e-03 -2.377352371695276578e-01 -9.409967096552525057e-01
2.140044832537181529e-01 -3.187101294117076766e-01 9.058333594011398482e-01
2.396391664201884542e-01 -7.901463480148410712e-01 -4.376317216072386218e-01
-7.763767267682335216e-02 3.586745324038686511e-01 -8.605062265004705946e-01
2.919065022917762264e-01 7.682650274694634573e-01 -5.217556847191406888e-01
2.051845273408926806e-01 -6.857444704262066759e-01 -6.075286525706000695e-01
-4.540211995774276130e-03 5.394183175440966371e-01 -7.386740941616036782e-01
-3.271404593281465600e-01 1.196413613765274914e-01 8.492383139207262399e-01
1.671607536678486883e-01 -8.672669399581482974e-01 -3.293585323540688115e-01
1.484898775225696188e-01 -8.300802423297982680e-01 -4.332888762472736355e-01
-5.196625522946112241e-01 1.505950603254174180e-01 7.801771005635880218e-01
3.998876512781501247e-01 -4.171935423031092327e-01 -7.298275395638093022e-01
-4.828762774065331609e-01 7.954568216228228295e-01 8.957583964040932711e-02
1.467688812264019427e-01 3.343569315250538576e-01 -8.410069676155541574e-01
-1.851777047939625886e-01 8.487754518764838441e-01 -2.659279338453066632e-01
4.227431565959741122e-01 -8.473158399565254850e-01 1.109556948171242924e-01
3.447660160369796500e-01 -5.561131165634762841e-01 7.500702285726347229e-01
-1.953481231224806214e-01 7.769592219485801365e-01 -4.398233520239523409e-01
-3.358850790862176194e-01 1.255577079088539272e-01 8.454771261581919273e-01
-1.183416990617833092e-01 -6.074552922680918066e-01 6.947965537488519638e-01
2.481665023616317078e-01 3.357484590173590577e-01 -8.246306348149781140e-01
4.752026811964666503e-02 -7.134536466465986049e-01 -6.659862168161838625e-01
-4.830328662364690578e-02 -3.020152400448403163e-01 8.744159904305570663e-01
3.026326694397053485e-01 5.551932329962514512e-01 -7.068480939927742623e-01
2.300302395879647577e-01 -5.476321599998724698e-01 -7.201060030734366402e-01
-9.656772475304335746e-02 -9.278437609416022580e-01 2.558284519526121126e-01
2.164651989806393173e-01 -8.996855082926964453e-01 1.029691472983335215e-01
2.502924259005864793e-01 -1.940841828757520759e-01 -8.681911086278378820e-01
-3.660613303031116095e-01 -3.148084252319287013e-01 8.150808721069053853e-01
1.737808125205035983e-02 1.990518153664567469e-01 9.423415209953283078e-01
8.234325131030464928e-02 -9.361927285540924126e-01 -1.588114563240813071e-01
-3.231161661961078901e-01 7.860435980053380733e-01 -3.746803819053600160e-01
1.054596692548088605e-01 1.152306101437186731e-01 -9.110539101145511687e-01
6.337536124180366270e-01 -5.353694364206487144e-01 -5.291614447235146734e-01
-6.045466073387416317e-02 9.087324178856797108e-01 -1.265790112660351852e-01
-1.089946235387697221e-01 3.017377640412639561e-01 -8.921341362338446324e-01
2.326417665888703967e-01 1.883599870409867760e-01 -8.703127460573717444e-01
-3.282535039162635115e-01 8.486819502427110917e-01 -8.838998061153589825e-02
3.405285841900343446e-01 -8.722145026136437496e-01 2.406543104720682003e-02
-4.338920781419764450e-01 7.441480673042181193e-01 3.176462729865477397e-01
-1.906403289435687765e-01 7.702117896666939023e-01 -4.539463327092668754e-01
4.679859724144251332e-01 -8.030869379698805099e-01 3.105621257545299052e-01
-6.562763588574375972e-02 -6.734596575061002621e-01 6.377479452525985915e-01
8.290989918347889398e-02 8.088159847163117755e-01 -4.450524066911047405e-01
-1.701860914208195782e-02 9.258980819384449168e-02 9.430232624908104766e-01
4.467439065388072450e-01 -8.331311880265330760e-01 -8.416780070562794591e-02
1.781943503019951247e-01 8.579035325381138000e-01 -3.817773226996629132e-01
4.609311762201235285e-01 -5.975042610589113012e-01 -5.596519546024182334e-01
5.018538851236180598e-01 -2.338712836968545247e-02 -8.168705074690311152e-01
-1.753464764469204185e-01 -7.225365173603354174e-01 5.899592301672748063e-01
-1.555406168306671111e-01 -1.000000000000000000e+00 2.066173808327015707e-02
-5.003796435099324702e-01 6.879519757741645591e-01 3.753019489684156218e-01
-6.634965617863776421e-02 7.591336994838624452e-01 5.650378181406853217e-01
-3.820147509657302876e-01 -6.624393151406493541e-01 6.390497947290135761e-01
-1.305805251554664759e-01 4.199787790096786710e-01 8.213024705762190791e-01
2.317789608201423768e-01 -2.848229424742650950e-01 -8.512358888048251471e-01
-6.610574563447064733e-01 7.229794848777049143e-01 1.452024657013212261e-01
-3.412651745451817514e-02 7.295305482591006863e-01 -5.445226634906649155e-01
-3.127012928721281115e-01 7.167193662131344789e-01 4.626626494959401037e-01
-1.239035813999103397e-01 7.092977883276379014e-01 5.944825744484816266e-01
-1.989053802229067136e-01 -9.026595092782110363e-01 3.462562320733139631e-01
-4.275124950972353233e-01 6.200114332270003636e-01 5.216704085842808203e-01
3.552392591948922984e-01 -8.621300149534137924e-01 -7.889683497834883152e-02
-1.554607300789583868e-01 -6.869346063572421279e-01 6.249114434288483011e-01
2.158657219623096868e-01 8.211260973689875620e-01 -4.468983108376100577e-01
-9.675887153665561902e-02 -1.631078531983240765e-01 -9.762325316242616013e-01
-1.344797514384507842e-01 1.104041535318486533e-01 -9.617331515071597670e-01
-4.932212723266407028e-01 -3.635822371352117610e-01 7.776230413517198903e-01
-4.987629970477131663e-02 -2.277618605561720355e-01 8.982794051844348315e-01
9.693467871065312644e-03 6.714793914747070325e-01 -6.173482603118038980e-01
-1.889532634573528325e-01 1.609513130742625253e-01 8.850130102007475186e-01
-5.412104860488546609e-02 -4.639859292219141729e-01 -8.887596457155171326e-01
-3.677430184749738706e-01 6.439550265702139731e-01 -6.239457890381279181e-01
-3.085599902990963095e-01 6.790878215068242296e-01 -5.817076673135841425e-01
-2.236481934920086789e-01 3.930017960404681432e-01 7.975065713643364473e-01
-2.471172941552871385e-02 -9.373305572691099652e-01 1.854280245179684705e-01
3.452095639531749804e-01 6.569870117562667255e-01 -6.296261511884230222e-01
4.031396912520803788e-01 -8.505582589427078677e-01 1.316291394614805543e-01
1.118029238076252291e-01 3.713926954979022144e-01 -8.299601236004662264e-01
5.157248125728079724e-02 7.909542605133790261e-01 -4.677384056638748677e-01
4.654110086282319814e-01 -8.274271424035807287e-01 -8.308243553894482936e-02
-3.983426544111612899e-01 7.607292371056710856e-01 -4.062655931351908944e-01
8.440973605704736593e-02 9.215462772175944117e-01 -1.994800991286801439e-01
1.924993541560256205e-01 2.526089920422800450e-01 -8.618639310989393287e-01
3.253987770158875414e-01 -8.637907527520198858e-01 1.738691873123552056e-01
-2.055172417154866593e-01 -2.416565106678804364e-01 8.650415856982759388e-01
-4.685197990976734672e-02 -4.358342006172172822e-01 -8.979945307081332873e-01
-1.151597932745135194e-01 4.476014280887330443e-01 -8.119380993180749240e-01
2.330008245375976561e-01 2.039363213337478387e-01 -8.668169076861664823e-01
1.468105743839634263e-02 2.713284066060068778e-01 -8.861282380141890513e-01
-1.650700763795703296e-01 4.479785210931504502e-01 7.925920159753304661e-01
-1.916514567430502580e-01 6.229926429745562544e-01 -6.627939872624495354e-01
6.468929489391795906e-01 -6.829540426590813285e-01 -3.216820181991668082e-01
2.559148231877601473e-02 -2.142087019746494181e-01 9.160677233591840718e-01
-3.623407532212128968e-01 1.028333429557156259e-01 8.411690285256189226e-01
3.119272747254538403e-01 6.903113860808758329e-01 -6.016957212882303452e-01
4.309731615770407420e-01 4.636241935891216026e-01 -7.439190842449134866e-01
-1.524158827268032868e-01 -2.462228480301119904e-01 8.740048783460584447e-01
1.421980791885700812e-01 -2.510617023078791088e-01 -8.906369523709467551e-01
3.883344132840505503e-01 -3.797976637001581057e-01 -7.546292449841274230e-01
2.253432199047291640e-01 -6.258346403699444060e-01 -6.576384678810558437e-01
2.453084100450561578e-01 -5.677166867100720271e-01 7.387797712387875748e-01
-8.695418418765973878e-02 -9.751493600128601225e-01 7.729882108793334483e-02
-3.819977216640386281e-02 -8.342842294816686932e-01 4.314397128132028691e-01
6.699647678359993419e-01 -4.319292619810523037e-01 -6.004970139803665896e-01
-2.834178355390041260e-01 6.238995970505287758e-01 -6.569499486602222715e-01
2.807243971901433044e-01 -6.403357507232655399e-01 -6.140183276472040985e-01
-2.735315288684523338e-01 7.547854677667360512e-01 4.269978529197640538e-01
-1.216319750874166189e-01 -5.921820556181729422e-01 7.065230416980744499e-01
-6.555953375322550736e-01 7.142009538986283657e-01 1.795294185108698148e-01
-4.437416201618559763e-01 7.472368244277785010e-01 3.017517994623409305e-01
-9.080358065400633005e-03 -9.129141070443559380e-01 -3.834724144701565640e-01
2.736050878383027296e-01 7.464227825973112074e-01 -5.453428123822908757e-01
2.946038834370307558e-01 -6.758606350356988202e-01 6.179454541543308865e-01
-1.464701347488570893e-01 7.338663310697617348e-01 -5.238552768577551255e-01
1.619453294076620906e-02 8.753397317365086971e-01 4.188394497043321785e-01
-1.277488885375967220e-01 -4.284074804955443905e-01 8.082292281006329127e-01
9.497373217719177682e-03 -9.155741382790957283e-01 -3.565541155491120384e-01
-3.422134996196912193e-01 1.462209438227296369e-02 8.568688119570638806e-01
1.260634241416933032e-01 -4.329719576769713307e-01 -8.328569290448325502e-01
-2.874027878730031627e-01 6.815046436074840841e-01 -5.810836645542145629e-01
-7.167456658974064032e-02 1.394243714802007594e-01 9.236288759992410391e-01
-5.403215363874283028e-01 6.498399636248162192e-01 4.094753542151387538e-01
2.861986900539721310e-02 7.701785346540543920e-01 6.105133255345769339e-01
3.381182926063261984e-01 -7.740116635977125625e-01 4.500062512765778955e-01
-6.307580037830652353e-01 7.449607230125070423e-01 1.004451954774920330e-01
1.083845108413692276e-01 -7.873643556138126831e-01 -5.362483991866082711e-01
-7.447907780786881815e-02 -4.474701346365372312e-01 8.045786674324760801e-01
-4.837696183252703230e-01 8.080944543042530848e-01 -6.551027525930430695e-02
-3.684055291199131443e-01 8.273317181306423240e-01 1.172863303115110611e-01
-5.015809298536023225e-02 7.981261314458957257e-01 5.168996500411495720e-01
4.680834795577985541e-01 -7.629883994922335155e-01 4.286796828583091523e-01
-5.731180172223776514e-01 5.880245616610314530e-01 4.735726158309543909e-01
1.261700003260994851e-01 -5.403686156370685056e-01 7.589991674386625808e-01
-5.205703336760858675e-03 8.202512737298147671e-01 -4.069354207703863580e-01
-3.495590057014181240e-01 -1.844034072520387146e-01 8.463574678868690526e-01
2.787461350486540868e-01 -3.910249356482228822e-01 -7.926813180690559513e-01
-1.781002253405238045e-01 8.920570734145700786e-01 2.746932844770872545e-02
-7.797797105434402069e-03 -5.159414629613831016e-01 7.689040444577032174e-01
2.652807377363621821e-01 -8.903566451034087281e-01 7.307660422163818337e-02
4.090437844302931281e-02 4.525016476109942065e-01 -7.950308064666781194e-01
-4.974270258854337490e-01 7.903838697294257587e-01 9.196811423626830018e-02
-3.674163278485037543e-01 8.207564041908682606e-01 1.541300723896764369e-01
1.192348384957747781e-01 -9.275847315352805378e-01 -1.359045798272725258e-01
-2.518208851879925603e-01 7.130352963294532831e-01 -5.390158172583717766e-01
5.627466086295342951e-01 -7.575066630536958501e-01 -2.280831041886094146e-01
4.525471118292410666e-01 -3.747907909411202776e-01 -7.312481618023279895e-01
-5.742512096776266617e-01 3.969738984013397864e-01 6.474164669863974320e-01
-5.996765507123115180e-01 6.324198600119129710e-01 3.955540893700840721e-01
3.376806889747862028e-01 -7.188931620190475158e-01 5.500305920163646167e-01
-4.774643451843273850e-02 9.078560398269720499e-01 2.419726293394777739e-01
4.629052568396679335e-01 -8.227760137775294025e-01 -1.152389072995537306e-01
-3.639323708314159966e-01 7.764519064247744629e-01 -3.811563007726733177e-01
-4.130306525499972126e-01 -3.707502567235072544e-01 7.895193512173850348e-01
4.882528282755295712e-01 2.811301118360012286e-01 -7.980509027640377839e-01
6.297355611663915664e-02 -8.832784075681882063e-01 -3.900330756829390455e-01
6.646094306918207684e-01 -5.273755198768987906e-01 -5.205556476532021692e-01
1.341124921633153055e-01 3.193730193027697652e-03 -9.164283995619280088e-01
4.505089265092003803e-01 5.134676513368463535e-01 -7.165753103702987570e-01
-4.338886294586227210e-01 -3.225649849980423145e-01 8.002526625660936199e-01
-7.555321252046390268e-02 8.678088313761914696e-01 -2.717895489550763988e-01
2.951141945505663874e-02 -3.073608569631207654e-01 8.846005237133617305e-01
3.677852424290847799e-01 -6.490289774347216545e-01 6.458938148107067345e-01
-3.986191493499824379e-01 -2.274879861082831078e-01 8.286488342244484606e-01
2.484477937183376672e-01 1.659226101568545830e-01 -8.714330108754331228e-01
-2.488840767780879648e-01 7.540789610128224574e-01 4.467395522914982542e-01
3.300001440508296691e-01 -6.841347323940124570e-01 6.029379497014318856e-01
-2.533620945295481652e-01 -2.289542410426893479e-02 8.819272192436408142e-01
-2.502108267792048091e-01 5.570794556596315728e-01 6.796824798210857610e-01
7.946608280955426429e-02 -9.439581368295338892e-01 -5.329812037425606108e-02
4.157131196501724912e-01 -8.488110197001963453e-01 1.151263843629793948e-01
1.751172904582981305e-01 7.154251969444940240e-01 -5.754970055387211847e-01
4.707251805133455536e-02 -6.940999334719009095e-01 6.132979648166486664e-01
-4.021551748712785535e-01 7.686912620667951668e-01 -3.838953314847669551e-01
5.530443684938022436e-02 7.568077126666267196e-01 -5.173801189081096430e-01
2.760658115484458386e-01 2.086743221936359638e-01 -8.570824618635567438e-01
-3.682510538159359387e-02 8.988267154925095870e-01 -1.940142167851157395e-01
-5.403986632103756627e-01 4.821303045350968652e-01 5.993143486064390624e-01
4.956165120669475121e-01 -6.131995163312219388e-01 -5.228754886100952515e-01
-6.559553428923571294e-01 3.550280364938637745e-01 6.385847717356540887e-01
-2.191189647929696616e-01 -6.564578795381645904e-01 6.509195072780845637e-01
2.852155039568123884e-01 -8.419177080415577441e-01 -2.775844949472433543e-01
-6.542387751883391167e-02 9.058135452993183456e-01 2.235629670293281523e-01
3.011524833167959492e-01 -2.323561873715601633e-01 -8.425587887822508781e-01
1.644150165835401856e-01 7.127736004413933735e-01 -5.779982133060787008e-01
4.165049651046641710e-01 -6.713253495328264098e-01 6.101143671016617809e-01
1.035802270484258159e-01 3.291709123782098900e-01 -8.496320920994732129e-01
3.991255038995698556e-01 -6.581790515673553443e-01 6.306814203543930075e-01
-7.109862454297351253e-02 6.064460538865231731e-01 7.266945522669587820e-01
3.864076427624393295e-01 -6.820369137923151248e-01 5.986560860855107968e-01
-6.303383335907000173e-01 7.461072660223022623e-01 9.595514503097155035e-02
4.829501374020868099e-01 -6.141497285866821809e-02 -8.182962872690641154e-01
4.557133503200526126e-01 -8.265317911358055492e-01 2.166707888413060556e-01
2.083044733238516022e-01 -1.773874319421826773e-01 9.601275223814206283e-01
-4.529437926600335396e-01 7.562025674198352698e-01 2.709880391274139821e-01
9.024716208289380870e-02 -9.238239088471771332e-01 -2.206209760196706227e-01
-2.066257595641612099e-01 -2.222090308134425374e-01 8.694854262025827341e-01
5.333610753693790452e-01 -2.170446773850007172e-01 -7.671068763363785292e-01
-1.437693900473500930e-01 -8.583342179467556843e-01 4.119393216464376506e-01
3.558067706161429089e-01 -8.551569354285002422e-01 -1.269329392831871073e-01
-1.610065566391901681e-01 5.931064195868464006e-01 6.934404343068136800e-01
4.403093820559565025e-02 3.412245959445617816e-01 -8.530488937527667126e-01
3.058871485534530033e-01 5.437565131007593422e-01 -7.139324695096989082e-01
3.352034760354719589e-01 -7.131789521349763961e-01 -4.938484406335060806e-01
-1.088097745121225229e-01 6.759757708630249606e-01 6.414001001880293984e-01
-2.321115478299696361e-02 6.844854694471669276e-01 -6.013552711823350050e-01
-6.940647039504267424e-01 4.289917246607352075e-01 5.679066123549982859e-01
4.816723975683313841e-02 4.799153111229910729e-01 -7.772322662644411961e-01
-1.804798200433515298e-01 -6.340923193351828691e-02 8.988509952242537127e-01
3.795494182726010801e-01 -7.746063802513070140e-01 4.350850183777807967e-01
-6.050220042993824376e-02 -9.423200731150001286e-02 9.238974690665474609e-01
-4.875768858649162651e-01 7.860026031718760908e-01 1.305749737064077765e-01
-5.765923969330848109e-02 8.126848219093069092e-01 4.863973288009237339e-01
2.656571151710493406e-01 -8.922104878900593006e-01 -2.959081632983558488e-02
9.729496029083523068e-02 5.232392775595687828e-01 -7.443373995315454295e-01
-5.243162167042704214e-01 7.863707623099669419e-01 -2.174321569914311192e-01
3.332071824252283432e-02 7.933596742122590584e-01 -4.609840596604160567e-01
-2.671292537915978191e-02 -3.224802246797806721e-02 -9.582954057009734905e-01
4.607419907034198542e-02 9.071300374711245285e-01 -2.219713028927221277e-01
-3.824064308347422947e-01 1.871901197356157787e-01 8.165871011685104097e-01
2.045753857762618588e-01 -3.832569313528889632e-01 8.710148178088352733e-01
-2.785717308984337337e-01 7.997959643938291618e-01 3.279118119649542251e-01
5.766169941774019342e-02 9.479124171650387121e-01 2.069604385340903796e-01
-3.380937945292442071e-01 8.479455938015650895e-01 -4.638789867351100077e-02
-6.162468537322803724e-02 2.071036004264849018e-01 -9.212034380629768870e-01
5.770350870420869471e-01 -3.186538004843932764e-02 -7.940054400950506963e-01
-2.244784716553819282e-01 -6.182686138468396209e-01 6.811375646672674922e-01
-3.166140985852751166e-01 7.300232690985235529e-01 -4.973342543551020900e-01
6.499089797102721722e-01 -5.368767653496935299e-01 -5.189086596936391960e-01
1.631768817594040355e-01 -7.970998554269743686e-01 -4.824134348970617880e-01
3.251718453877635029e-01 -6.565387841932461832e-01 -5.717173856384502040e-01
-3.815112768033591117e-01 6.877789355863468401e-01 4.599494342580406903e-01
1.950298933878734653e-01 -9.091862436163459238e-01 -9.023574593641120467e-02
1.142272045370794006e-02 2.216998417244764041e-01 9.367121774673722312e-01
2.328352707642327435e-01 -5.132861264390872202e-01 -7.428386553150836402e-01
-4.077104409729920831e-01 2.792104883149465477e-01 7.771216286691516872e-01
-5.173579583895514533e-01 7.079896448434653822e-01 3.239730682044040244e-01
-1.184186766726640638e-01 2.073570789369117429e-01 8.984305382640789261e-01
-3.062554948322559478e-01 3.336473323011772685e-01 7.927517427510232251e-01
-4.965772276847630340e-01 -2.280887940962328386e-01 8.072027061164070982e-01
-6.759400201681958764e-02 -9.693990303042723244e-01 8.480339293984021087e-02
3.398330183811952843e-01 -3.720452978855059989e-02 -8.617485459562631567e-01
-2.703144569418029497e-01 1.477003181193625447e-01 8.619726164213655784e-01
1.841170482647140269e-02 6.370528812670124275e-01 7.452192133344320846e-01
2.008852691883251940e-01 9.180767323025282867e-01 -2.666745802850324365e-01
4.167961365384792449e-01 -1.951732302233019356e-01 -8.135556792405762572e-01
-4.145764420896982244e-02 5.012632411066801907e-01 -7.693648047361484332e-01
-4.600716455041485298e-01 7.992513556035271138e-01 1.095700949791799383e-01
-6.940871815480272045e-02 7.891052480168565531e-01 -4.481673997043659763e-01
3.858186225677938119e-01 6.390624963822214566e-01 -6.418992559900779105e-01
3.435956483138995904e-02 -4.318230871321157016e-01 -8.689305833457522388e-01
-5.170441141435971888e-02 -3.329745209312323651e-01 -9.344054076913617113e-01
-3.877010083531344797e-01 7.957565330843215934e-01 -3.101698242680835382e-01
7.647143050513853513e-02 9.591237675996813206e-01 1.572312198643051051e-01
-7.304682560372051381e-02 -3.474561257658000946e-01 8.527694011291441223e-01
4.674626194593885231e-02 -9.135668297915378044e-01 2.187005004583964518e-01
5.299749028100111392e-01 -5.529533934948103191e-01 -5.672060427331562238e-01
8.173222832829663692e-03 -1.715083086565685477e-01 -9.455241373641205538e-01
-4.329609832863216545e-01 7.375587860204583235e-01 3.328735835871209914e-01
-1.031732998104583354e-01 -9.939583925814883258e-01 -7.156320313434845481e-02
3.784620430877899677e-01 -4.085057070300701643e-01 -7.436008494503869581e-01
1.511958637883544787e-01 -6.057640579587726393e-01 7.025816853797409722e-01
-2.276376859034467404e-01 -5.324289734042289002e-01 7.394839195697507916e-01
-5.035243476790896705e-02 1.321316828143507816e-01 -9.399354364427714437e-01
3.024583967044123245e-01 5.005166590084542122e-01 -7.402678354381706516e-01
3.482414940200717068e-01 3.391453042512939109e-01 -8.069518762836257464e-01
4.224710839454121070e-01 -7.701391207479738599e-01 -3.289420523900824511e-01
3.468464885078484383e-01 3.733635681875426271e-01 -7.947016912937699962e-01
-3.461946921236797037e-01 5.768257511908080337e-01 -7.074815046044560241e-01
1.912009882403164218e-01 8.448621071409103678e-01 -4.064621650044925039e-01
4.033376065767477758e-01 1.376996006108725246e-01 -8.409832125741931730e-01
5.162561715843783094e-01 -7.845954127923898680e-01 -1.972298039172643846e-01
5.576390388647932683e-01 -8.061085850594083002e-01 1.907730142780365845e-01
2.436228310355468551e-01 7.182424266848671524e-01 -5.743701621025717463e-01
8.157077623858366433e-02 9.631936688746881581e-01 1.087560693592180688e-01
4.343033805735402320e-01 -5.752027446111910303e-01 -5.962549712993114870e-01
-7.103819596048371876e-02 8.656539370484763740e-01 -2.804169153225939959e-01
-5.156294856725149867e-01 7.877809560474253736e-01 7.286597931800760375e-02
-1.216772981603762155e-01 8.449350263047945564e-01 3.641444509940346408e-01
-3.303517706589620406e-01 -3.415944646855081368e-01 8.133722325571079992e-01
-3.760182352022700680e-01 -1.132316221751427515e-01 8.476809110546000836e-01
5.593281948688740846e-01 -4.230276199273696469e-01 -6.572867871287035868e-01
-3.521386858591288305e-01 5.215581301566483141e-01 6.590167197075337269e-01
-5.393673333995200325e-01 9.967766133563397968e-02 7.860124739918865622e-01
-2.093008969839819586e-02 -8.827740080760139163e-01 3.340602468136805725e-01
8.490100504484492105e-02 -8.611157470794372770e-01 3.450722182423219819e-01
5.299162807578552403e-01 -7.834191812104369657e-01 3.363983972882446105e-01
-1.795378175871563120e-01 8.641282040284572474e-01 -2.136238596243684174e-01
2.723946589199319201e-01 -8.824931230440046237e-01 1.320916383733702071e-01
-3.579593766495491880e-01 8.365823784865665802e-01 7.464001569003805847e-02
4.603532843445157924e-02 9.430106064437593361e-01 -6.857979999000410332e-02
-9.171205043368614584e-02 -9.468880390185023810e-01 1.980267236163516520e-01
3.968236734824663881e-01 -8.398089230499330426e-01 2.172910546926975772e-01
-3.255524884215062476e-01 8.507369553842318854e-01 1.661542100740464808e-02
1.636739591445524888e-01 2.481415770264452925e-01 -8.684220151128974052e-01
-7.668636118214072761e-02 8.912057499680129391e-01 2.713632698821185629e-01
-6.431630135186293395e-02 -9.804299490371706227e-01 -1.592172059768693082e-01
5.222399203095857700e-01 -5.585964876779059285e-01 -5.658307296316725798e-01
-3.042817640592556661e-01 8.420686762843007100e-01 -1.886473832454003685e-01
2.610134659285982123e-02 -5.366863692369314848e-02 9.487987119143385106e-01
1.179959288536838458e-01 2.651609488499585138e-02 -9.190168114176042735e-01
1.291290630353792990e-01 6.795094163586858915e-01 -6.118940968843183947e-01
4.839009861502110432e-01 -7.052175226366387273e-01 -4.042437560067145275e-01
-1.616190288914515216e-01 7.593198978593065362e-01 -4.800941772724252044e-01
8.777791346550685436e-02 -8.564482563583822317e-02 9.579953360867137224e-01
1.247877886244666140e-01 -4.284587527044864674e-01 -8.354766075170217965e-01
9.245843421727904798e-02 -7.226377753285917471e-01 5.761465316750684629e-01
-3.971457147001004606e-01 -5.299231354400988359e-01 7.231086987130842525e-01
-5.338729130004234331e-03 -7.961276926645158847e-01 -5.982803429825246377e-01
8.576977951156648794e-02 -2.397956205658053480e-02 9.659668587795002814e-01
5.698433394060079538e-01 -1.041494970053939290e-01 -7.845594871771935930e-01
4.476047780474165516e-01 -8.200861901809256560e-01 -1.525698104466998439e-01
1.842494474207038435e-01 -7.342300629378880616e-01 -5.614454212332413707e-01
-2.259192074494023039e-01 8.731949175259646756e-01 -1.021539303683614147e-01
-1.217563496323533917e-01 1.886751948333209861e-01 -9.376279345076559135e-01
-1.116776917462387747e-01 -2.099934174306874457e-01 -9.764587796556726262e-01
8.018883803983006819e-02 8.894602631211180332e-01 -2.874214731592303895e-01
2.168734305538676799e-01 1.316552313289918452e-01 -8.840665263191748169e-01
-3.898423966889393716e-02 -6.198653545232464257e-01 -7.921339692071918126e-01
9.150389838912658183e-03 8.623934003290434358e-01 -3.240619218355853537e-01
4.037644368388115801e-02 -4.157346601751579773e-01 8.348749765707165205e-01
4.635648720079992846e-01 -8.076484853422492005e-01 2.967324947026381277e-01
-5.043926182504462202e-02 -9.459255961510900645e-01 1.730900145392526013e-01
-9.710732477868758150e-03 3.282150999213730436e-01 9.033506201315736339e-01
-2.343669158304417799e-01 8.759083930882421987e-01 3.818058026844831088e-02
2.581244576905430410e-01 -4.495694191136813123e-01 8.342112530886820476e-01
7.061498988123948717e-02 -9.037048188192258191e-01 2.360203173795600851e-01
-1.148880682773232610e-02 5.507618205047180027e-01 7.960689783696609512e-01
-6.781484498369633185e-01 6.503366915854049690e-01 3.080337027628224922e-01
4.649509121026488834e-01 -8.348504746033802437e-01 -2.073781734305086069e-02
-2.068437401048763280e-01 7.782442267157439753e-02 8.905510738886809330e-01
-1.289770408200701102e-01 -7.362248500870209877e-01 5.739938442334017177e-01
-1.040506077686545600e-01 -1.819815459162187621e-01 8.991411910322048007e-01
3.828414792430090419e-01 -4.861164018632620487e-01 -6.938313011954363452e-01
1.696207698870404457e-01 -6.188829488166207593e-01 -6.923205354097409225e-01
3.684029459037330145e-01 -1.650071181578630433e-02 -8.548796158441668291e-01
-1.305307407060375957e-01 8.128710507535537033e-01 4.287219449876845112e-01
-4.487264735287715411e-01 6.350271778930524080e-01 4.900708438047237103e-01
-7.697403014799289456e-02 8.338403537554573974e-01 4.298967690188273405e-01
3.215817589089797202e-01 -5.856752723075272365e-02 -8.654726973662806300e-01
-1.345558425879129494e-01 8.528384345842831005e-01 -2.836057843193339756e-01
-4.229353579592594614e-01 7.866284128687957011e-01 2.140018054157001859e-01
-1.211105646234773292e-01 6.654072408950628681e-01 6.457763117384542895e-01
1.038971453082069979e-01 4.103815851118463587e-01 -8.118277023609293819e-01
-4.359937937706530597e-01 7.870710063960754121e-01 1.966867284857923837e-01
2.555046784754864686e-01 -5.999218793098662905e-01 7.075282285448095676e-01
2.804708366651549878e-01 3.318268594753969736e-01 -8.208078921050915300e-01
4.790113101041482691e-01 -8.121053272595964989e-01 2.640490716088708112e-01
-1.455281096751718239e-01 4.786444199089869289e-01 7.831318511783170733e-01
2.258710521961380113e-01 2.285878997263912638e-01 -8.622353483272581220e-01
-3.480158128018773778e-01 8.453951001826288669e-01 -2.271934577113207329e-02
4.059889879158423143e-01 -7.966999356567895374e-01 3.689381719376375601e-01
3.648550621011281136e-01 6.335942428642101776e-01 -6.471883629019203887e-01
4.584998496796504064e-01 -7.789900104353741916e-01 -2.747074216337516139e-01
-3.283670000279841350e-01 8.277693375326760084e-01 -2.331564271267227706e-01
2.907211595903468754e-02 -9.154224326275327561e-01 2.241225805210908806e-01
-5.781013212317223093e-01 7.573514000938432744e-01 1.232813641082134426e-01
-5.957647983309041217e-01 7.578409087330701954e-01 9.470082568900245468e-02
-9.337729805980972408e-02 8.431371024059017838e-01 3.949176156113978209e-01
6.091118417717085176e-01 -4.398852150132617767e-02 -7.827717993827317811e-01
-3.963238319775215235e-01 2.567552503960836979e-02 8.407164893602747657e-01
-2.204778923910381133e-02 -2.162406655353965867e-01 -9.489716825049434590e-01
1.341375692150580667e-01 8.696081061071577745e-01 -3.491223342449715217e-01
1.477155745354347960e-01 8.302698548130025280e-01 -4.221794229972211654e-01
-9.841543552785800286e-02 -1.653305911096963898e-01 -9.765545690069052931e-01
5.933893584403288762e-02 -3.191948167752527987e-01 -9.004959100581634290e-01
2.130557551481482847e-01 -2.404693813619709630e-01 -8.698564618630916234e-01
-2.545778817782253789e-01 -7.700409902723610589e-01 5.417486956643087215e-01
-1.174656849396795745e-02 -3.285254727471745295e-01 8.697532362428425090e-01
-4.195404962383660896e-01 8.247430616518904856e-01 -9.202052896762567824e-02
1.766404867513843013e-01 -9.172011315991334124e-01 -7.888295727678044586e-03
-1.256905341010246535e-01 3.205415149251472640e-01 -8.855925994975316629e-01
1.154278517936561388e-01 -9.816565511755745432e-02 9.616442555146680338e-01
2.769082947040213405e-01 2.721426860025737970e-01 -8.407348799134984896e-01
9.555260442628216513e-03 9.248249228043943226e-01 -1.246369234534982773e-01
-2.700367641092631943e-01 -3.329132911464635081e-01 8.266398252634659105e-01
-1.133829122653901011e-01 1.404897482818300569e-01 9.111350477378704626e-01
-2.879008148186202320e-01 8.552502441888576445e-01 9.810610679280881707e-02
5.756802542871474193e-01 -8.064581382508840823e-01 1.309493363676743627e-01
2.309410171491585173e-01 -8.279275318092673697e-01 -3.677507071968491581e-01
-3.693394722684230636e-01 -3.457890986835058245e-01 8.052076040051339145e-01
-2.389775433438856289e-01 6.592009387865721548e-02 8.823640428376700040e-01
-1.809212782453503143e-01 -3.630302533464907500e-01 8.301240718646858419e-01
4.132251493425836628e-03 -1.849008195829165424e-01 9.199634765976235640e-01
6.610515017746945166e-01 -6.886452662626622034e-01 -2.994810965739877484e-01
2.079995924704345356e-01 -8.671438315883198689e-01 2.681538523062286794e-01
-3.042246565791493218e-01 4.828434370300461187e-01 -7.968156490079372212e-01
-3.339992071420869180e-01 6.035651901338938696e-01 5.932234839854226838e-01
-3.013823729781409666e-01 -6.469023256187392823e-01 6.551744554368289508e-01
-6.512709110403368251e-02 7.953727939092156696e-01 5.107153949531448855e-01
-2.197986715974233757e-02 8.941261228704513453e-01 -2.213969472539233374e-01
4.305924176143921533e-01 -8.084451478553605908e-01 -2.187833578898460696e-01
3.898748196710195568e-01 -2.280248396626318452e-01 -8.136392543917323472e-01
-2.818000387921996697e-01 7.557430864004912596e-01 -4.575501866327555955e-01
-1.909441407805411717e-01 6.836149004651873584e-01 5.856178949909580655e-01
2.870305712080986060e-01 2.635105000031816025e-01 -8.413100841338948532e-01
4.757760576503710648e-01 -8.267501112926627371e-01 -6.516916341384158817e-02
2.164134693715838997e-01 4.253514690844785728e-01 -7.903421963009079620e-01
2.463248638063136320e-01 7.933097505800122962e-01 -4.882328675482906499e-01
-3.339220194384578955e-01 7.769910306969078917e-01 3.316692233611769902e-01
8.684994897449040130e-02 8.460286360472293321e-01 -3.818506291133657582e-01
-4.293909931612195918e-01 6.418318800342285302e-01 4.932176921942942327e-01
-2.711461956660194891e-02 9.269370111417224445e-01 -5.786482062802801585e-02
3.797625502651076901e-01 -8.585370681855172270e-01 1.077280751666243597e-01
-3.413970085141325161e-01 -5.305070647067631207e-01 7.290200358207920006e-01
-1.050866452556931119e-01 -9.842116973473635788e-01 4.743487759776920942e-02
4.605351335839450999e-01 -4.996022155671304699e-01 -6.479332202492840143e-01
2.318652572939616241e-01 4.424514258618656992e-01 -7.797773751878070980e-01
-3.177416316646819450e-01 -4.503524787494644910e-01 7.728114857872117049e-01
-1.627111414040764148e-01 5.587776146361501661e-01 -7.274819739599042157e-01
5.049918324209119735e-02 -1.975398470729990419e-01 9.254188654367386802e-01
4.595949969969527760e-01 -7.285302195165213046e-01 5.062377609979218374e-01
4.688588561608411642e-01 4.991356801065817694e-01 -7.217531007971174084e-01
-3.197070974678791200e-01 7.799397925213471527e-01 3.376444501252100494e-01
