4.453359824035098558e-01 -5.209097040172713453e-03 -5.237656128361036778e-01
-3.050247814991297393e-03 -8.388563113881772892e-01 4.659151100861889661e-01
2.392740977091538934e-01 3.412384087245082936e-02 1.212885056237120035e-01
-5.880582012631682121e-01 -4.910853864693692783e-01 -2.060538370544648112e-01
-8.094347425350977288e-01 -3.291545732297223581e-01 -1.488393791076645933e-01
-4.538116674669341877e-01 8.875927667328002979e-01 -1.294881651522350186e-01
7.037391610877068437e-01 3.006378837768820533e-01 -5.328829933735679258e-01
2.351932423726054988e-01 -3.603036738504688391e-02 -3.519781508016105454e-01
-3.001896583236805527e-01 3.780272838579455952e-01 3.754178752684550480e-01
4.250705614544335598e-01 -4.226214718046520380e-01 4.551227068756977245e-01
3.344026603757478400e-01 -1.128981136933490531e-01 3.021816470619465012e-01
2.680884345477987062e-03 1.772085239806898693e-01 -3.120422619616586846e-01
9.965048443211119711e-01 -7.085307511027057192e-02 -3.377538701109182584e-02
9.474331453142001425e-02 -4.360676643034294142e-01 -2.979552755540095244e-01
2.234328717462142899e-01 1.825134626102740687e-01 -4.935017216123992467e-01
1.897249208170227186e-01 1.384617696046852309e-01 -4.348256793057911351e-01
-4.740886598536033780e-01 -8.129138131769426678e-01 -2.336135468264839699e-02
-1.719616524533293667e-01 -9.057691386349606688e-01 3.848156845572153761e-01
-5.139375669647305855e-01 -8.375655843160657588e-01 2.241819270351064763e-01
-2.625659433864375725e-01 5.682122216729725839e-01 -5.200662399370878930e-01
1.165655251570107548e-01 -2.859140283759918355e-01 4.196502573326838514e-01
5.524460875529083048e-02 -3.067993674166859530e-01 -2.147785876560037999e-01
3.131489395918961027e-01 2.143513316903491658e-02 2.095544899604520339e-01
5.685275895442010174e-01 -4.611489294485429102e-01 -4.112931712673375539e-01
3.220898948547089580e-01 -4.428851308504517248e-01 -3.897449093510884643e-01
6.456844609029617210e-01 -6.704683848440132765e-01 -2.367583151050027535e-01
-4.394734089114878950e-01 1.512911028207232778e-01 -3.750121950986585184e-01
-2.084572198074102489e-01 9.090198881973288181e-02 2.804871206909610448e-01
-4.632015340816267313e-01 1.360927930214440307e-01 4.813122693181795531e-01
-1.788660412316675496e-01 -6.281414160068973622e-03 -2.499011309743577255e-02
6.796144125939651559e-01 -5.329563557626775250e-01 -3.354311681460563910e-01
6.675393301145086111e-01 6.326256587934443905e-03 -5.349399475949716543e-01
6.400915780859123272e-01 1.496664278146447036e-01 2.751316178144845859e-01
6.589307179174466733e-02 -2.857026489292627813e-01 4.279845342637954020e-01
5.073134750560422956e-01 -8.540188089959410700e-01 1.842431782997267509e-01
2.422677529040732081e-01 9.252150067608656547e-01 -3.158592879709284373e-01
6.750437580955463979e-01 6.070486477627375921e-01 -4.174617282218454628e-01
-7.048488559284625810e-01 -2.215254249083909166e-01 -2.537598762112515671e-01
3.921202140969162198e-01 2.645093979611071733e-01 2.377503237610726072e-01
-7.580576702514464360e-01 4.623221281025373663e-01 -2.893033639682356384e-01
5.918123084442646897e-01 2.099191065464643957e-01 2.665323383741667329e-01
-6.728159094126984208e-01 5.521890551524619717e-01 -3.314837052495049341e-01
-2.794742203543129633e-01 -1.022156958025446788e-01 -1.824832617680164082e-01
-7.886990361332979482e-01 -1.922483658686996444e-01 -2.209488790750600840e-01
-7.195767385706023367e-01 -5.190792955469027969e-01 -1.116781863495546756e-01
2.378782512487066514e-01 2.226492361675466436e-01 1.662896235416875812e-01
-2.200399070825700687e-01 4.473207925469836477e-01 3.408436032361644163e-01
7.404271361355220515e-02 1.994386019838323698e-01 5.676109969850989118e-02
-7.267985510383190816e-03 1.518745785025552297e-01 -1.101041194711831206e-01
-5.756105245720611885e-01 -6.276027878098916490e-01 -1.401649448097310180e-01
-6.186389181646395619e-01 -7.436129599198433304e-01 2.906985253653593948e-01
-7.913891217344118933e-01 2.702534714598420762e-01 3.918921420448537862e-01
9.072960866341898134e-01 -3.839837718701595848e-01 1.022339078918697020e-01
6.390454873527954271e-01 5.483583199863728552e-01 -4.912178555662788937e-01
-8.595807206779703113e-01 -4.429512008853703775e-01 2.838100645815119782e-01
-3.809597249731849211e-01 4.289103826178561341e-01 3.952195264020660903e-01
8.346249569875338059e-01 -5.747084708257930163e-01 -4.510961099708123145e-02
1.467431194433248542e-01 -1.917265493209715788e-01 -2.054804693197386789e-01
-1.723039889721404150e-01 8.970243100339425277e-03 2.138767506720492817e-01
-4.573677827229895021e-01 -1.123897440663146619e-01 5.438874492476414302e-01
-1.218946550815757229e-01 -7.918589282655580375e-01 5.027963875518564052e-01
4.010654549545244474e-01 5.772412492886935809e-01 -5.753684708581566776e-01
9.204735412915072967e-02 -4.661641399555330190e-01 5.290233877217581648e-01
-1.995375476739543463e-01 -1.544315645938034998e-01 -1.154222273686488776e-01
-2.167353026417997985e-01 4.265882492452358760e-02 -1.565514226281266574e-01
1.803106540425338800e-01 -1.059593612272289806e-02 2.995624535079879393e-03
3.386830777585842500e-01 -3.201639333789169789e-02 -4.619586588905304492e-01
-3.655693280214454832e-01 7.217849628272214879e-01 2.757931211335346022e-01
1.919223066831987623e-01 -2.531193702019671199e-02 -2.711983090395324592e-01
9.680221783330749119e-01 -2.575434999806421321e-01 9.038205603241864991e-03
-1.054286701946586108e-01 1.715736363698446010e-01 1.148737009283674060e-01
3.892670146874164794e-01 -2.004420456847488541e-01 3.741900219772641423e-01
5.073049995879332086e-02 -6.221159510766337553e-01 -2.985551176146887253e-01
-5.710933907841555524e-01 -7.396609754560867778e-01 -3.299515477062191920e-02
3.845409156321464850e-01 5.965930645874970017e-02 2.490251062557674311e-01
-4.736257576383863244e-01 -4.048321766334440630e-01 -2.522469789911721549e-01
-2.363380178443773849e-01 -9.192764502174645136e-01 3.388276527099938207e-01
2.490103001263808125e-01 4.506839932034693574e-01 2.374026209833366985e-01
-2.036634909670957394e-01 -5.477742490067980530e-01 5.813881546244801246e-01
2.296533550902889881e-02 -3.293310318905584011e-01 4.761926517852054785e-01
1.341585097125280179e-01 7.248513674873056922e-02 -1.140048998279827447e-01
-2.724974815110982052e-01 -3.831206943855389874e-02 -1.842974054962029096e-01
6.534313268230844685e-01 -7.615823880968085602e-01 -6.345283661085221460e-02
-5.408838092169426098e-02 4.668930600291111843e-01 2.820156933409725397e-01
-9.746003650823297226e-01 6.557410919778686176e-02 2.264469523571204235e-01
9.134434559236020990e-01 -1.187218876593392793e-02 -3.740143692949788878e-01
-9.991696824376757047e-02 9.124740225996414988e-01 1.048791002426162217e-01
1.478970063186839101e-01 -7.119503692118714921e-01 -2.917486256426743974e-01
-5.220312219381947338e-01 -8.257803096940815601e-01 2.561585486561671621e-01
-6.256724298718414623e-01 -3.746222775941138172e-01 5.438325758876869642e-01
-1.125112832505593963e-01 -2.008550981890499798e-01 -8.094673850289010875e-02
6.485304976983952141e-01 -7.441117894915596498e-01 1.810026672366026601e-01
9.008331189393902205e-01 2.441697909684149292e-01 7.423357334338544222e-02
1.621379630559207086e-01 2.893512029663216495e-02 -6.594990525155820793e-02
1.575376691944334606e-01 -9.159131777168910693e-02 -1.228966633904445271e-01
2.111448490994010108e-01 9.654592755976568186e-02 -4.181731966785198207e-01
9.094337625945849712e-01 -7.244244072869351903e-02 -3.690136315139889711e-01
-9.653701280531331586e-01 -2.283044081872183106e-01 1.571286634041283437e-01
-9.998699501067831452e-02 -5.239925331400427932e-01 5.719417076442697701e-01
-8.651730847929270940e-01 -3.270775553652022216e-01 3.675412235898288249e-01
4.952868479719360062e-01 -3.051544816994203879e-01 -4.620197887190653496e-01
7.672460714971470752e-01 1.965053745156733825e-02 2.670275837894830473e-01
2.541601920407821624e-01 4.884569068659238567e-01 2.406823533162447681e-01
-4.878545132289394681e-01 7.576521839269729774e-01 -3.463863129449371026e-01
3.757225080298265962e-01 6.122995826254915563e-01 2.085354895116575957e-01
5.205125748030640098e-01 -8.653989721874650876e-01 2.329952435590231311e-02
4.405762157834711701e-01 4.127826601809658214e-01 2.386526173055156241e-01
-6.061290362587311298e-02 5.400164053515007501e-01 -5.614955554077992739e-01
-1.926277320371309609e-01 -2.364543215625255768e-01 4.947689154611661366e-01
-6.315553202630763696e-02 8.936682741218857640e-01 -4.059481183119555414e-01
2.780673601745299872e-01 -1.477334422957026494e-01 3.019905027009235354e-01
3.261944371311014668e-01 -4.279202364521008106e-01 4.762965322531713119e-01
-8.234431299947296834e-01 -2.200401364251151626e-01 4.469197731467537404e-01
9.960238764239635056e-01 -1.056415126751952399e-01 -3.942135393863428761e-02
-1.574268808381526497e-01 6.119943943756325777e-02 1.085713212815458545e-01
-7.338283623445837067e-01 5.266260762694339181e-01 2.787971855690349332e-01
7.235877859923883770e-01 4.924691559269559482e-01 -4.559157647319347917e-01
-1.278839226437398224e-01 -2.535977276003514858e-01 -1.419841889195307960e-01
8.181187415203602376e-01 7.148701832353865360e-02 -4.734142832322311700e-01
2.524719834467216151e-01 5.811999348503378293e-01 2.375279672002096332e-01
1.034285338123537290e-01 1.182609853517899018e-01 -7.546810211652250910e-02
4.438496653480922816e-01 -4.428554784820478152e-01 -4.177927495534676794e-01
8.025332212980720858e-02 -1.792637194006785895e-01 2.532199563593566238e-01
-8.897225831898118997e-01 -4.258216203870931471e-01 1.007184729192564659e-01
-1.309080925277967405e-02 2.282253556428933405e-01 1.066492487579652065e-01
-3.765540460074124907e-01 6.058550091397116866e-01 -4.811028070128607337e-01
4.560608909193133997e-01 -8.930826067316084416e-01 -8.467050857583348356e-03
-2.042363160663190902e-01 -2.161510899769242544e-01 -1.542742382047693206e-01
1.875666646978464136e-01 -9.521756955590255922e-01 2.750318449353446604e-01
-8.302500976293700763e-01 -5.300567716945294716e-01 1.127975490506002709e-01
3.036891848026714302e-01 -7.516321597548116795e-01 4.483350909583629362e-01
4.259470105042570398e-01 7.210802169048841082e-01 -4.955265196001895078e-01
2.991094201130804486e-01 3.678379265068494886e-01 2.285257557377307069e-01
2.239310577826194304e-01 9.548246558434663189e-01 -1.174276725585488568e-01
2.716352760493025986e-01 -5.965745502408965617e-01 5.047999721167566456e-01
-2.627328103446057717e-01 -1.678783621668353820e-01 4.915109193187569558e-01
-1.471653372795219128e-01 8.714637437640579409e-02 -5.098452800922186057e-02
-1.937546819161665712e-01 1.526290608104880764e-01 -2.871044516132387758e-01
-1.601190351190562300e-01 1.133833729881902376e-02 9.973632902312425108e-02
6.644238861635929361e-01 6.033619497887295902e-01 7.545285969056637898e-02
3.284800655171775663e-01 9.252120600131134021e-01 -1.884433787254862769e-01
5.690762592953091392e-01 7.988110137283469525e-01 -1.696573888187183354e-01
1.595393623478937040e-01 6.517384616507632122e-01 -5.744554620395705413e-01
-1.531259220062997639e-01 1.194465552003652342e-01 1.582918033552175308e-01
-4.021035913464614531e-01 8.511004724824022816e-02 4.704964609226709449e-01
-4.925134349708089054e-01 -6.558427474091366172e-02 -3.056699788844843835e-01
9.477084597543979916e-01 2.962582809979939502e-01 -1.466315579647056999e-01
8.498370317087003967e-01 7.567608048112106633e-02 1.986549387414004997e-01
-1.222044321950983142e-01 1.204018648193392049e-01 -1.171963084439639757e-01
4.261635604211880257e-02 -1.703465367024699639e-01 2.212206951888920636e-01
-4.938838950103910386e-02 -1.429064476553649488e-01 1.527993737262806073e-01
-8.751701994183657893e-03 1.564441297554332311e-01 -7.528688472383385233e-02
5.459860403798085793e-01 5.301547330302199823e-01 1.904865925157595563e-01
-7.255008642789742002e-01 -2.520701621541565629e-01 -2.358518791304653472e-01
6.094888162600085035e-01 -7.154991233830952646e-02 3.345608557902265967e-01
-3.727848690189931591e-01 -1.727176562991287467e-01 5.401809999383436756e-01
-4.781564047802201456e-01 -8.578950766543304018e-01 2.299326103307744451e-01
1.555886754391234417e-01 3.102865787739077577e-02 -1.047221616074980460e-01
-3.570516067389088027e-02 -1.490196720812294595e-01 1.390305332385099180e-01
-1.052526876773094006e-01 -4.000967180288351743e-01 5.473427130042735067e-01
1.557637942131783471e-01 -2.683857859747907360e-01 -2.674006236951498305e-01
-5.570316493563481908e-01 -2.803258864234783529e-02 -3.242967201079138273e-01
3.703077668792317811e-01 -3.912327100751240017e-01 -4.127145215488314811e-01
7.327023969566953676e-01 -5.117828113813379654e-01 2.899691702455580167e-01
9.697148860169908513e-01 -1.193063400638668357e-02 5.479463018114197337e-02
-1.316928273077597189e-01 -1.070598049539875779e-01 3.095633351778962275e-02
3.912840867282505464e-01 -8.722810060691985057e-02 3.118020604594358702e-01
1.203464068312918092e-02 -1.739851715222239803e-01 2.500476208444945767e-02
1.259215563036510943e-01 1.089308412781065244e-01 -4.618151359526768279e-02
-1.095682917538935569e-01 -1.003988260660709508e-01 1.449554108022855226e-01
-4.271198432180707549e-02 -1.471556472533596116e-01 1.959874543146634673e-01
3.927062146351014138e-01 1.423092592981341914e-02 2.669747324661168597e-01
6.167291987805303410e-01 6.872865916737591618e-01 -3.934958569090971636e-01
-2.532833219788810930e-01 3.917192654553789954e-01 3.540682362488033474e-01
4.984867924878170764e-01 -2.492204038976399694e-01 3.974161801553067197e-01
7.837007748265836793e-02 2.062102118395374994e-01 -4.181692458213875363e-01
5.860138540690712494e-02 -2.067113855868162042e-01 -9.853278021340033943e-02
-1.566284149952709426e-01 -1.720288601646878524e-02 9.692894549786355840e-02
1.642688758929020942e-01 1.979694724429854058e-01 -4.679485913376335016e-01
-3.266951351416315097e-01 2.378285242042829095e-01 3.980515149910558437e-01
1.994630602976275868e-01 -1.116015691262466913e-01 -2.666549930699920190e-01
4.426717943682915712e-01 1.007877827665369097e-01 2.665755080328154336e-01
2.710166782183630052e-01 -8.103318711168942812e-02 2.335708395402583959e-01
-7.274089695948042500e-02 2.801572324772613753e-01 2.021070466399370325e-01
-4.089116418912815409e-01 -8.989721206712034673e-01 1.829589360932203923e-01
1.134612325945589806e-01 -9.328907321850642420e-01 3.408783533933827381e-01
1.997841785775951451e-01 1.286635110592632691e-01 8.838897861361089126e-02
5.581627724445460681e-02 -1.664214749589105480e-01 1.918564227766228480e-02
4.021161149383509215e-01 -2.921815905194550256e-01 -4.401347553851918670e-01
2.507483346941709046e-01 -8.585365825748578761e-01 3.881528972913660391e-01
-9.670868707555839716e-01 -5.697371117648922408e-03 -6.109153346104694710e-02
2.687985289578497805e-01 -2.328280831471661941e-02 1.857436945770007397e-01
9.645989722165232427e-01 -3.005411685773319297e-01 -5.985800946005282591e-02
3.710502029362364729e-01 -2.682886633708354562e-01 -4.305139892347680797e-01
6.031582256220414662e-01 -1.714514850506663746e-01 -5.040367503403018201e-01
-4.089300820960864447e-01 -3.261908885862495056e-01 5.801155746500483712e-01
-9.834171412021691649e-01 3.793763072821152577e-02 2.041278396534040862e-01
-1.241130114423774078e-01 1.182861134594503233e-01 3.992501608017871156e-02
4.809633487467288027e-01 -6.079239695793283715e-01 4.282930208394881699e-01
2.683976797041858209e-01 2.242650629725992384e-01 -5.381308785002917316e-01
-8.304931948092264538e-02 -4.591013988208150209e-01 -2.579370125018045634e-01
-2.931962380267998276e-03 3.265223190304444856e-01 -4.981176591897365502e-01
3.502875544590346446e-01 -7.247541729359396889e-01 -2.950565526075605849e-01
5.122260836499208381e-01 6.877216952073886280e-02 2.924220275917872591e-01
-6.564999634870956335e-02 2.951051741020503383e-01 2.091580161347825484e-01
-3.118604483855568765e-01 5.607166997607142545e-01 -5.072211877519476886e-01
-1.645652629163652236e-01 -2.776602690493814446e-02 2.863946621584846294e-02
1.849043140061281676e-01 3.527063143769360587e-01 2.074424179021921721e-01
-5.057644252100914617e-01 7.667662617170322159e-01 -3.223405691424949815e-01
-2.513904149701370189e-02 -1.550586673463612841e-01 1.066669054108806136e-01
8.954541583658397474e-01 -4.729945870564511989e-01 -9.138969528256815286e-03
-4.343726358574437896e-01 8.582672453230945353e-02 -3.440734058574111409e-01
5.356410514233198583e-01 -1.252412321474529744e-01 3.544202319916759381e-01
1.753722704554831202e-01 3.128037692495811428e-01 1.872456683398067978e-01
8.100592668586223954e-01 1.384578149714966733e-01 2.109030072549242518e-01
1.775272638779906431e-01 -1.799828707531078709e-01 2.902223837485448654e-01
-9.674505284744860933e-01 -2.157481897212837063e-01 1.681577872320262346e-01
-8.954261853784094560e-01 3.084087842563389414e-01 -1.685329037551751286e-01
3.661688627097214876e-01 7.799596770755823361e-01 1.161785373004678573e-01
-9.743348882643290687e-03 4.075419419543636623e-01 2.499974037368238033e-01
4.056219229130025861e-01 8.857496295959460531e-01 -2.537180833219548903e-01
-6.021971907120793333e-01 -6.917513361320667409e-01 -6.215794868251936500e-02
-6.371657373106804911e-01 -4.064919105296814772e-01 -2.194409599331909877e-01
7.326969729586483293e-01 2.759992633164441433e-01 2.103934217576672316e-01
-4.900887694336243938e-01 -8.249461344469816160e-01 3.154656060978650589e-01
1.922680293233163806e-01 -3.938190801795864449e-01 4.844210085774759977e-01
-1.908679246651464323e-01 -1.955710856392808006e-01 -1.327643574053313513e-01
-3.263269104295619671e-01 2.736123104907615677e-01 3.948109049759608302e-01
7.654075771058669320e-01 -2.066495161153389937e-01 3.046229583326858226e-01
-1.601582903922881274e-01 5.271604042084322705e-02 -6.549850236663642966e-04
1.334117031112746765e-01 5.901124926035071772e-01 2.539515767795389456e-01
-2.796711691442875791e-01 -9.497025862762090709e-01 1.776006289831004448e-01
1.453066015585399717e-01 2.536347261609265269e-01 1.413165515511102810e-01
-4.833033292678844961e-01 -8.161847793448241406e-01 -7.618107399920148910e-03
-8.615629622664920939e-01 -9.125479256637782088e-02 4.198709668595408395e-01
-2.982693516071396322e-01 8.838167175819044985e-01 -3.309984207282150037e-01
3.115962326037001739e-01 -3.232341521116993688e-01 4.377283247441146607e-01
-1.369557929344137337e-01 1.013810875614260809e-01 5.201889752422737129e-02
1.714415581500695063e-01 -1.740397455441093366e-01 2.776886407888301544e-01
5.751351037928355801e-03 -1.607836497293368139e-01 1.856484151463435317e-01
-8.724111950790736092e-01 4.955557852774490346e-01 -2.304482655129928836e-02
-1.064054502711786893e-01 1.709464685588048816e-01 1.156852248066270183e-01
-8.882477372138436467e-01 2.807602461566317542e-01 -1.891225988720939277e-01
-3.720735220065246596e-01 7.194974623545584702e-01 -4.425758198242183972e-01
1.683740535278956951e-01 -5.656140192336376465e-03 -1.994158486371591377e-01
-4.445588600125986029e-02 2.323853998615104388e-01 1.318541321083983309e-01
9.529854958148639144e-01 -8.420677707291558678e-02 9.913774060945876321e-02
-4.034619959563428560e-01 -7.893199495203589988e-01 4.385621709491173692e-01
-2.306943742555816468e-01 -1.977740561200976022e-01 4.908459591938815758e-01
-1.701839800359334631e-01 3.914126090894353219e-03 6.129819278114084606e-03
-3.942278570081089728e-02 -1.580451740639725877e-01 6.684409015760603423e-02
4.401965931300869106e-01 1.142887657184919609e-01 2.632095680296764328e-01
-7.253659293543773812e-01 4.914931735040826144e-01 3.131171347801052773e-01
-3.652148445677471655e-01 6.555468302574056494e-02 4.558601393017260306e-01
1.161267354067850310e-01 -3.774883734726272588e-01 -2.888515384621401227e-01
-2.430756044723047238e-01 -8.866635363322199481e-01 3.911536667711998372e-01
-4.313691913406692002e-01 6.558641853573502489e-01 -4.438249496772875280e-01
9.445498928257622939e-01 -1.505463023879664575e-01 1.142447054291631792e-01
2.747063128405592414e-01 -6.902426123577968253e-01 4.849512681446404572e-01
-2.922426043952818242e-01 -8.592930023788861726e-01 -8.994489816548756345e-02
3.031420170884100984e-01 2.207574516337743042e-01 -5.494606118651916837e-01
3.957543629630809467e-02 9.268652062228562860e-01 6.643351229065178054e-02
9.041841224521474096e-01 -3.360213049684577791e-01 -2.545434199884137882e-01
-4.645091145797644594e-02 9.877712707646233437e-01 -1.569137294325593235e-01
1.744101459039981983e-01 -4.952463447005885783e-02 1.698825475453094591e-02
6.053282265116901595e-01 7.494806347475581054e-01 -3.018467766269897212e-01
1.397556499906998373e-01 -1.191625348992476768e-01 9.368020530352232089e-02
3.500338055080419175e-01 -5.234574450697803555e-02 2.723452264082313334e-01
-5.502610374741158106e-01 -6.791879058093533983e-01 -1.168652484293310340e-01
4.891108831780457411e-01 8.344286831331313437e-01 -7.367924664150656000e-02
4.196520817527228386e-01 -1.837290180115846716e-01 3.696604332602478338e-01
-1.634120349543839446e-01 1.299562013820680928e-01 1.936827957169658665e-01
-2.410601308014490574e-01 1.540580571476148353e-01 -3.149214922827484608e-01
2.954374034519965386e-01 -1.135007207203482943e-01 -4.005955207163011678e-01
-3.817495085406960587e-01 1.203809550163248560e-01 -3.467002194658144187e-01
-1.427047333913977478e-01 1.063782085986118009e-01 -1.193257198715253070e-01
-6.202683864870348757e-02 -7.644039480356491501e-01 -2.346128719900088533e-01
6.964812800751807309e-02 1.461688980251564240e-01 -5.443291497305799420e-02
-7.448257815089686096e-01 6.692748498293454862e-01 3.186579005201311404e-02
8.324908431609833181e-01 -5.629477915395296739e-01 -1.064596638617592989e-01
-4.823423006048605521e-01 -5.201067488177922582e-02 -3.069390072536203884e-01
2.817407171592968829e-01 -3.994331964927695378e-01 -3.778299196638902346e-01
1.630985328440691939e-01 -1.927013239380050702e-01 -2.322465144637677892e-01
4.296496356799534705e-03 -7.912435794099660358e-01 -2.318400962275944110e-01
-5.012680342899612784e-02 -4.475281139651812734e-01 -2.593540380782864974e-01
9.536454768412919725e-01 -1.267016019777011393e-01 -2.843601048240137485e-01
-3.853784130338728797e-01 5.121401473826349138e-01 3.748755527615936223e-01
-3.220833133045620245e-01 -5.657110411254174798e-01 5.776039241928159207e-01
9.156784875409863522e-01 -4.280075672675445198e-01 -8.548692163142052047e-02
-2.508479578585764425e-01 -8.387029882569413397e-01 -1.316049917337643593e-01
2.046089624351727365e-01 3.025329269040095692e-01 -5.505806340962755563e-01
2.078856380892540046e-01 -1.319957999702184651e-02 8.278210954440651248e-02
-9.398618916834293457e-02 -5.569027285195893295e-01 -2.727933513398463350e-01
-1.640455881913414071e-01 9.151410533883941323e-01 9.787736013893283404e-02
8.582273001285158909e-01 -2.502785208260627919e-03 -4.347034878404443248e-01
3.342523889731027764e-02 1.416728674310898106e-01 -1.883857971392027542e-01
-6.321349013590739085e-01 1.763375244222104565e-01 -3.702115844989342652e-01
-3.724286931469474871e-01 8.182541289424407616e-01 -3.674407911624376077e-01
-2.476287499103247969e-01 -1.082535130851417920e-01 4.452165644839754521e-01
2.670680021178257202e-01 -9.180701635355931201e-02 2.401468336870995757e-01
-9.503237130651461806e-01 -1.552049737653413142e-01 -4.233322899296038805e-02
1.824679791449935473e-01 -4.489063761246733092e-02 -2.292517355643540200e-01
2.944496337664596203e-02 1.467569763064051347e-01 -2.280320864012331805e-01
-8.528620219218884246e-01 4.630623216160923740e-03 -2.258750757860611968e-01
1.820476605947110582e-01 -2.527049599541284983e-02 -2.404252918448923915e-01
2.541930093299522575e-01 -4.631987482464700046e-02 -3.743203994905059950e-01
9.589969530259913055e-01 2.417873785012914500e-01 -2.124219992416458702e-01
-2.344492105937598381e-01 3.811848529853164025e-01 3.445424359743084475e-01
-3.250003201148121690e-01 -5.345163773606084190e-01 -2.476508281104272402e-01
-7.172167782042675188e-02 -9.912140491925970354e-01 1.017694298398276603e-01
-6.123849342479663338e-02 -1.376009488927322499e-01 1.412151267135598742e-01
-7.765935426929956309e-01 -6.077111877396869088e-01 1.769656253653796307e-01
6.346933113795170944e-02 1.750404633852194469e-01 -3.593738046523962670e-01
-8.936787075967851379e-01 -4.205605084475910749e-01 1.125896342206515327e-01
7.732874874429705725e-02 3.330355856646098345e-01 -5.256061298483263311e-01
-5.339322501707532975e-01 -1.227429074129446351e-01 -2.988936339288696953e-01
-7.611511648315757439e-01 6.558352316650765124e-01 -2.699888524069592177e-02
-4.717998823211954629e-01 -3.336453913264738613e-01 -2.609429167395828641e-01
4.308581287599445031e-01 3.818567786604826209e-01 -5.972869846088940671e-01
-8.869401788912760765e-01 4.668696518145216690e-01 6.833912857547007336e-02
-6.571374411077397504e-01 -4.131969988088368129e-01 5.216392209199717245e-01
-8.159725441017273706e-01 -3.864908912883802672e-01 4.039329873369866264e-01
-3.819805801278040591e-01 4.182695736152646226e-01 3.976803911569792849e-01
-2.949821700872295449e-01 -2.805302268964073725e-02 -2.111750424527685521e-01
4.425574441664248404e-01 -4.499524942786781723e-01 4.544613972767608256e-01
-2.535552914127442437e-01 -3.418923770262377593e-02 4.034206963738399820e-01
5.142210838341005480e-02 9.805044584232500693e-01 -8.599018683304660016e-02
-4.136702017390528341e-01 -4.910199848924430288e-01 -2.444382534277723118e-01
-3.477374405937314061e-01 2.353262564648261612e-01 4.108472312209183741e-01
3.878107374602707824e-01 -6.695769559976809393e-02 2.998062484102959058e-01
-4.460388149800024182e-01 -7.967979836884880873e-02 5.330523218992375689e-01
-6.475069509364842490e-01 2.673103066231888869e-01 4.540521516035211369e-01
-3.190509319885090345e-01 -3.074313596768254997e-01 -2.350669286631850707e-01
-3.301333641146743103e-01 2.770053557831445579e-01 3.966565032458979068e-01
-2.762712867561160079e-01 9.557271020591152633e-01 -1.061867359840314440e-01
-8.925664499385231876e-01 3.894972195940578363e-02 -1.913572909701285463e-01
8.135167631118143949e-02 -3.054808739333523260e-01 4.433637303407040875e-01
2.550710944092998006e-02 5.692483148057434494e-01 2.735233580555889166e-01
-1.606895354572196177e-01 2.384965807112318995e-02 7.269871936195225481e-02
6.538994845591274974e-01 -4.727970774162437717e-01 -3.841455577146832834e-01
7.981415402414950844e-01 3.167555653016773665e-01 -4.639995537795575942e-01
-1.713515757255220651e-01 6.081538418789294020e-01 3.124563308227384928e-01
3.784583583922703776e-01 -8.488100577772589306e-01 -1.719953423395709502e-01
-8.264882197213505588e-01 3.562460728905074703e-01 3.185986809821388932e-01
-3.414094541535847016e-01 4.131093587416288515e-01 3.871739158840027395e-01
-2.036984945594726149e-01 1.321551298833260023e-02 -1.036230341602542987e-01
4.105255333259526518e-01 1.932370684536831307e-01 -5.696656153980017567e-01
-1.531675294986203917e-01 -4.342020067088344509e-02 2.135304967892727446e-01
5.910045640370332753e-01 -2.605508831852257345e-01 -4.798283860632051590e-01
-9.874247002236058446e-01 1.151421360330546761e-01 8.690583772700984783e-03
-9.004063772584571801e-01 -1.460158139707611602e-01 3.720068990308257884e-01
-9.887509237516347582e-01 9.718929973739620642e-02 1.580537319251225370e-01
-1.592434366478890917e-01 -1.652901710405492164e-01 4.153412642838137936e-01
4.268241724143865407e-02 2.590751424665621028e-01 -4.576963984741590497e-01
2.434525412672461642e-01 -5.105045588104306642e-02 -3.575239238126760033e-01
5.284834126315257619e-01 -6.677341567191306115e-01 -3.024489769718141097e-01
-2.165387843552278591e-01 -1.039234067605293438e-01 -1.127825673449713850e-01
-4.497873086719835212e-01 -1.571841827873735400e-02 -3.085942885702228078e-01
-2.208669517364197574e-02 -1.860394482181922937e-01 -1.178426127688766284e-02
6.489539770375111205e-01 -7.232781264382913688e-01 -1.608769317236312946e-01
-1.925092129122219775e-01 2.329547203199515693e-01 2.853627129032744181e-01
2.179685721997653980e-01 -7.278994595251457866e-01 -2.918281460469575039e-01
3.186668060873862340e-02 -2.208547324819776503e-01 -1.011033593103648348e-01
-5.305431470823863682e-01 6.583567434753911929e-01 -3.869205578037819837e-01
-1.366415052286157894e-01 1.034189998419860201e-01 5.864790095008717841e-02
6.164803444847192365e-02 2.314348043063949867e-01 -4.379215911162854802e-01
-8.882786098519205309e-01 -4.251702575708155574e-01 2.079435829799820279e-01
6.566832272159033312e-01 2.149545354023688626e-01 2.557356653396422597e-01
2.097816974906470955e-01 3.005864175994575338e-01 1.896647726869813144e-01
5.537086595081900375e-01 7.280257106465635175e-01 4.528333334182510495e-02
-1.320253934406322160e-01 -8.347088851886649841e-02 8.284905480429917424e-02
3.868655277359911437e-02 9.434229020209593530e-01 -3.366513465393304316e-01
2.282358003647784808e-02 6.459299602900132609e-01 -5.668262239947612358e-01
2.911628013445595187e-01 -1.807145278172317057e-02 -4.281165871948151569e-01
2.871598045800419219e-01 -6.961534630571508675e-01 -3.121193485802014611e-01
3.876798816317041374e-01 -9.235031248390109804e-01 1.583351079734697520e-01
-2.732487972110648200e-01 8.305866179635889024e-01 1.940128338608117786e-01
2.397157810922221355e-01 -7.721203166287348152e-01 -2.665371906464515384e-01
2.415836406832474748e-01 -3.982800371989311111e-02 -3.597402673923943972e-01
9.720779471667666261e-02 1.126424763458239720e-01 -2.468680234405407903e-01
1.955277930844120382e-01 -6.237437474212043781e-02 1.055079361563947410e-01
1.579200754539679674e-01 5.959348540322383786e-02 -2.856710850046928485e-01
7.415282235948867928e-01 4.033508874815511791e-01 1.510966446345034520e-01
5.877892515691399838e-02 5.808053643507742336e-01 -5.795622690488168027e-01
7.554831145684645088e-01 4.057702531503077359e-01 -4.705471766832331482e-01
3.318963097204765123e-01 1.043770569123410735e-01 -5.132261678883203171e-01
-8.630103357828466937e-02 -1.518426783110735367e-01 2.272774796433656500e-02
6.634362754390875638e-01 -3.899255591511844865e-01 3.669220600868557391e-01
1.307606650151026950e-01 -1.576148349255104553e-01 -1.341796649210859615e-01
2.006936021821189020e-01 4.103101111917258903e-01 -5.839695585464971250e-01
-2.175278307448377801e-01 -7.309236451789475897e-01 5.318553288642479115e-01
1.441145566387849741e-01 1.079166739008751569e-01 -3.434303961700397312e-01
4.206962954492953766e-01 2.519614633574854823e-01 2.448809309178253124e-01
-1.385391355916766876e-01 -1.604041897746299739e-01 -5.516536051078512609e-02
-1.716206687275101672e-01 1.071007417771755454e-01 -1.835217936978618958e-01
8.014892899716926644e-01 5.103442803357581825e-01 -3.402692081745246067e-01
6.648167556844822822e-03 -2.945110053100206127e-01 -1.811158300421879808e-01
3.779320495630205529e-02 -1.741842997180021724e-01 8.179407893823395156e-03
-3.222065144815761673e-01 -7.419718393133263312e-01 5.077261651617084315e-01
-8.331626484041785297e-01 -3.358800076544277702e-01 -1.209201447969708021e-01
5.896458161222470906e-01 -3.368640599060417351e-01 3.970592875861095883e-01
1.898582402740135386e-02 4.640457858270222724e-01 2.614950977511815711e-01
-2.788532207958129283e-01 8.519162296148701241e-01 1.691564154975144785e-01
-7.985690452684752749e-01 5.981338796341004738e-01 7.357881202808325138e-02
-1.946711757784675909e-02 8.019013810858347524e-01 2.089996781423485717e-01
-9.551483145257240182e-01 -2.657457170266689928e-01 1.055329836004688659e-01
5.604937507264355911e-01 -5.551331938783988784e-01 -3.670510269808794357e-01
1.620934285516801021e-01 2.877198462471242807e-02 -2.355439820813113039e-01
4.903728276809377062e-02 2.082959402164289708e-01 -4.016343372647526722e-01
4.152456149015235076e-01 -4.303272215664365463e-01 -4.164299138640786824e-01
-1.535128212299713135e-01 6.510312249556980679e-02 2.143214231021908778e-02
-2.074484902737102066e-01 9.165375740968824125e-01 8.871100787120159148e-02
4.500815829145857205e-01 2.417439530280445503e-01 -5.845122588470783587e-01
-7.905619549842128890e-01 1.356191975163213159e-01 4.389643417624206068e-01
-5.869300041514094457e-02 -7.048511088244444611e-01 -2.596169340681988014e-01
-9.520878172511745841e-02 1.332322007050927848e-01 -5.993797051427192379e-02
1.392458064210946589e-01 1.016140839320426037e-01 -3.236358364129788834e-01
-8.077508576840215504e-01 4.707746476514933498e-01 -2.251037124437275105e-01
3.119430146973214413e-01 3.155727126828259954e-01 2.220070858729128460e-01
8.613678116253510597e-02 1.311917632930138800e-01 -7.372886184493468442e-02
-1.520259455867124798e-01 -2.392003608836365258e-01 -1.401962075247272232e-01
-9.604142943437641300e-01 2.498237889278851487e-01 1.533582821272143903e-01
-3.189163350907043282e-01 -3.723916609912903408e-01 -2.443401536857982004e-01
5.156388541723575525e-01 -1.995639015797230284e-02 -5.361630365488491146e-01
-8.339349336832346804e-02 9.351721193664443987e-01 -3.396493835741096756e-01
-2.443203898262796825e-01 1.441018585168859778e-01 3.311882755732983297e-01
-4.599570324993681320e-02 4.572831737716070433e-01 -5.499773765944790949e-01
-1.183349254127317139e-02 -4.403232798098839496e-01 -2.648338970617149513e-01
-4.356221345220322866e-02 9.549641648002773486e-01 2.383251598135540175e-02
-6.241104831367954020e-01 7.497318350412125465e-01 -2.007897529717768970e-01
-1.745864264629103380e-01 -5.024204707894450728e-01 -2.582691244768380856e-01
1.793137852138327604e-01 -1.996052098033741437e-02 4.227168865706874140e-03
1.651371816520708635e-01 -3.055134910947512536e-02 -9.851696714757374185e-02
-9.728950366933706295e-01 -1.438523067995229610e-01 2.155573097324144094e-01
-2.311234914650864281e-01 2.035317800212477213e-02 -1.592883927802205557e-01
3.464750698707667192e-02 -4.187331324394366061e-01 5.236564744403581217e-01
1.513054574816344588e-01 5.139539971126257101e-02 -8.284140513561036312e-02
6.972496307459939355e-03 6.303423425501950561e-01 -5.677701937037762381e-01
-9.843397337389833135e-01 1.283377171574334452e-01 -2.789477857876727397e-03
-3.566388115317399854e-01 2.271575509448322538e-01 4.169071194751138854e-01
-2.174205495843050673e-01 -3.065342261780691913e-01 5.406392286407281089e-01
1.361953264689227672e-01 8.822114237434650064e-02 -2.882097023380671419e-01
-1.325767076353977503e-01 -3.720110771173532616e-01 -2.209106848155205360e-01
-1.629983819386909005e-01 -7.623743381862057023e-01 -2.140267053391745611e-01
1.903498460419205396e-01 -1.063269536098392955e-02 3.672478107841779110e-02
8.672031325122092627e-01 4.683884006967099500e-01 -2.068906511930584946e-01
-3.709489840455350573e-01 -8.488331400665220794e-02 -2.534494585326990124e-01
9.145704138494121782e-01 -2.408357702455616034e-01 1.537755242864181082e-01
-6.925553980539723986e-02 6.114827717941254681e-01 -5.587808109699052839e-01
7.056570655000891090e-01 -4.416350949775729728e-02 3.066961060149935858e-01
-9.711881264493044119e-01 2.024669392158869319e-01 1.590244871022461204e-01
-2.260695015019927590e-01 -1.854038415545570528e-01 4.805475304701326000e-01
-5.589527445171407066e-02 3.065174570065041237e-01 2.118784085836797892e-01
-5.084857510632904143e-01 -6.580204970061361847e-01 4.927055677405013934e-01
-3.905525822205415665e-01 -8.300678768129858831e-01 -6.817997964501305852e-02
5.400162241067437696e-01 -8.430096027494982103e-02 3.410752504364514270e-01
-5.670288665413334428e-01 4.632302982710200245e-01 3.927218634315279289e-01
-1.531603876298714140e-01 -5.092750045818408150e-02 5.657450237939579823e-02
6.532881405473428549e-01 -7.343208883646692997e-02 -5.222703454084366426e-01
-4.350387788896996344e-02 1.955211065900274159e-01 7.222157747971368058e-02
2.936641479990730139e-03 -3.197342591586054272e-01 -2.018094502483157582e-01
-1.931607095425764975e-01 -6.976446226101203074e-02 3.537053359627986837e-01
1.639882007430524570e-03 6.480317099842977102e-01 -5.638399962522127051e-01
1.142550208974618398e-01 8.830206492507380878e-01 1.090452745851014649e-01
6.165023814219914092e-03 -6.443590792754902985e-01 5.529390464383093784e-01
9.017742573050162580e-01 -1.391340757325948418e-01 -3.608543719772521752e-01
-1.508279664859812352e-01 6.767725649574173330e-01 2.896178569681471249e-01
-9.811177989896840979e-01 1.881555578699761755e-01 1.167232285241910500e-01
-1.908532220367800403e-01 -8.502208357021362461e-01 4.485582457805201151e-01
-6.777330898168038020e-01 -1.807851480051093640e-01 5.351839569907107519e-01
8.872312342488426484e-01 1.445121773245694186e-01 1.396887531789305636e-01
-1.077386737229224650e-01 2.771220921744821375e-01 2.266200527784543728e-01
-4.637737212705508316e-01 2.809550807351264279e-01 -4.268209290005364753e-01
1.556796271296993495e-01 2.914390922469714193e-02 -1.957122540343113892e-01
-4.857711519174278125e-01 8.037982074329336202e-01 -2.960608834934719269e-01
-5.217123786168677002e-01 5.346838818719045205e-01 -4.337108125238695600e-01
3.001152471325593818e-01 -1.553152453473733430e-01 3.191080568729310341e-01
9.855177350769364075e-01 1.078573015914334049e-01 -2.073228778501642333e-01
1.476985961398651348e-01 -7.708493775412026405e-01 -2.623691442546876029e-01
8.678282765937123111e-01 5.191741994906177993e-02 -4.304498416427264829e-01
-1.078553160312631654e-01 2.190933769627280980e-01 -3.651631551151195976e-01
-1.046315683802436503e-01 -1.056991731171350313e-01 1.915631707445008269e-01
-5.133619430807270234e-01 8.568319294904019889e-01 -1.126261353444799190e-01
3.534058623107561026e-02 1.455984931938867077e-01 -2.344768394004436152e-01
-1.399960079963281090e-01 -6.375443974751713316e-01 -2.607426533783619438e-01
-7.468003346480516225e-01 5.894683522876129622e-01 -2.218564369557300964e-01
-6.523080632215753072e-01 6.995010206000770170e-01 1.613002710443813270e-01
-6.512292303361967571e-02 1.612502405950370643e-01 -2.367112630352977143e-01
6.434944196137456496e-01 4.138621541217726296e-01 1.996002006628785630e-01
-7.437658470639914032e-01 -3.822911874697674239e-01 -1.746406507439788036e-01
2.848682758317157004e-01 -9.228531001594841854e-02 2.552271471884154375e-01
-6.863501637912248210e-01 -2.636456004551329113e-01 5.306362575224859990e-01
4.176007039537772414e-01 5.769271801783006914e-01 2.100841664748162863e-01
-2.535020108116390336e-01 -8.833068477690102505e-01 -7.817487210581734736e-02
1.932287485634696100e-01 -6.026064321849307071e-01 -3.320971083009723324e-01
-9.260924681055147101e-01 -3.092707255426748181e-01 2.543320207280591952e-02
-4.671569193635655148e-01 -3.535037066161856867e-01 -2.587015916725597386e-01
-2.206307425340756079e-01 3.422244437783710791e-01 3.329520561716271532e-01
-5.092128710143303816e-02 9.574844645762011774e-01 -2.989836346343066609e-01
3.744341684859991276e-02 3.973845618526921641e-01 2.335918363258859820e-01
-7.312043290613769175e-02 2.222141842617691432e-01 1.437796551624692110e-01
-9.486988521826430487e-01 -1.551719482395895189e-01 -4.619429913313145147e-02
9.018995526887995107e-01 -3.515131846989008602e-01 1.366789192547173681e-01
4.213559188414008339e-01 8.463215988695376168e-01 -3.473775746069950876e-01
-9.034151339368502731e-02 3.151427524369027622e-01 2.383322764964301010e-01
-2.812504076821850663e-01 8.854075958654198386e-01 -3.388616487666491484e-01
2.233679695632699233e-02 1.479345232003262123e-01 -2.197219365099156441e-01
1.696138193683997819e-01 -8.661471468222270431e-01 -1.875160142895176685e-01
-1.859480663702479664e-01 1.340173875711212492e-01 2.426065247090849752e-01
1.087316367772574732e-01 -1.549709238767948416e-01 1.868213796038932506e-01
-6.906704036704108818e-02 -3.795819479842739153e-01 5.303467018939195254e-01
-7.476604200786763910e-01 6.706613715021325639e-01 -3.825519178412077614e-02
-8.185825352375576403e-01 -3.089506948197121017e-01 -1.506224226017381929e-01
-4.900683625509779096e-01 -3.743042322510415354e-01 -2.558950170714950345e-01
8.252502103005622258e-01 4.384924576555789821e-01 4.018216559187374332e-02
-8.966607478400933084e-01 2.485366879997959744e-01 2.980665539748617032e-01
-1.446439544291289181e-01 -7.194246662445062668e-02 5.657877618016101534e-02
-2.887659212097271610e-01 -6.418144182858279700e-01 -2.331881756482067913e-01
6.933999755942967802e-01 -1.073018044700674994e-01 3.241735398014540803e-01
2.705009314800886910e-01 -6.219682045870095211e-01 -3.407928847243988923e-01
-5.427278752295942865e-02 -1.839104158634393138e-01 -1.874422771188153161e-02
1.658578710577722493e-01 -7.353906097748423853e-01 4.984931417509815832e-01
3.123235919235878982e-02 3.726671065023101082e-01 2.225393025789373647e-01
-6.439047309376808026e-02 1.707698629074646812e-01 -2.685558326214844138e-01
5.282921548143412194e-01 2.440397930553888928e-01 -5.841674709932167531e-01
-1.176656616705242936e-01 1.196188020569822485e-01 -8.762247080928972642e-02
-2.171017392809930502e-01 -1.175603285388057001e-01 -1.179190948888238777e-01
-1.669112468589869502e-01 1.411086171732547356e-01 2.082691549721673030e-01
-1.212588449292200873e-02 -1.572346662190110267e-01 1.137825481479745743e-01
-6.459381198379030575e-01 5.827864941824726364e-01 2.944230183863238981e-01
8.995433358947312052e-02 3.970477157160862691e-01 2.255516869049201123e-01
-5.823874091190712754e-01 -3.130750688041336605e-01 -2.596613240835526915e-01
5.914930109663773389e-02 3.140767796983349180e-01 1.796403824454740339e-01
1.961377945774046561e-01 1.247535120027075395e-02 -3.147557213903827145e-01
-4.616266891710712472e-01 -7.009521163191784199e-01 -1.509009578119994421e-01
5.632949987342817516e-02 -1.608304993300959107e-01 5.436873353300320649e-02
1.285171914044692665e-01 -1.333018008346364691e-01 -7.261827567780709813e-02
5.653495518853134394e-01 -5.893182771700643530e-01 3.886691432832879434e-01
1.349284722455130203e-01 -6.595673818098172214e-01 5.285794207092886499e-01
-9.581976137353741541e-01 5.247900429298010122e-02 -9.031198281932846517e-02
-2.298170928115229536e-02 -2.564514870415042780e-01 -1.316339141461836948e-01
-9.599860332494949411e-01 2.245056349846810406e-01 1.817769533375217239e-01
2.669021972825646460e-01 -7.456940858666420528e-03 1.742494423745420962e-01
-1.631993444084428313e-01 -1.276420401309919517e-01 3.778117143480760332e-01
-1.459373007548145917e-01 8.473092979595563123e-02 -2.465353459986910703e-02
6.126725498030630157e-02 -1.905732172569386540e-01 2.838754211681474571e-01
7.185153590949050484e-01 -6.586911351704177742e-01 1.933844333614104516e-01
8.798033797412463386e-01 -3.086379536268819557e-01 1.904797899065981126e-01
-1.691930379845877630e-01 -1.257883610212285064e-01 3.828178410135138487e-01
-8.001053843157467371e-01 5.678862096486280153e-01 -1.456662696661731038e-01
6.489941648262064211e-01 -1.031729746182865337e-01 -5.162619341971015352e-01
2.559218377461931326e-03 -4.012858772591962886e-01 -2.525503853631532181e-01
-4.542569489101336289e-01 1.600223678633307389e-01 -3.804882174569617637e-01
-9.806953466367988037e-01 -1.095531958443016068e-01 1.995212863733937803e-01
5.022886127909551579e-01 -5.681957674681065856e-02 -5.249067582637555462e-01
2.634965489228338620e-01 -9.504917935753111058e-01 -2.536297940902305578e-02
5.159128007862517906e-01 -2.113810358916596577e-01 3.836925623255226236e-01
-8.322363046124102437e-02 -3.698845986587498413e-01 5.295949788458161889e-01
1.932141634693314014e-01 -1.629886179050383799e-01 -2.662749367507613596e-01
-2.627371057147395161e-01 3.472545772037326922e-02 -2.118851880816512157e-01
-8.686211213070528236e-01 -3.073577276612203257e-01 -9.432356026108006108e-02
-9.826796321814077473e-01 -1.090875378646245231e-01 3.629558476929936606e-02
7.843943119191467694e-01 -1.624234190350907214e-01 2.887117304413363561e-01
7.384166724243966806e-01 -3.094535490660745292e-01 3.249529224234593561e-01
-6.421249927485330744e-01 -6.016875358964235421e-01 4.439099713322954277e-01
2.168431205239996010e-02 3.195983894196593456e-01 1.904616208321119331e-01
-3.512298649345906298e-01 -1.223697279736104399e-01 -2.361021141220325248e-01
-2.693442911117989724e-01 -2.846558447490774718e-02 4.164710372279202266e-01
9.683033131770226731e-01 -1.522137345133733333e-01 -2.396712383955159897e-01
1.386978376162212312e-02 1.483785426660556850e-01 -1.243036355669688009e-01
-3.575197828324457872e-01 9.225464896812708426e-01 -1.811589898525191311e-02
3.555614420142667598e-01 8.111239447956685167e-01 9.070439005831319734e-02
5.138190152848298720e-02 -9.947638129410040220e-01 1.777811608219191652e-01
3.098170205880816375e-01 -1.078424297136440502e-01 2.850615217656261025e-01
-4.807153075815440157e-01 3.147471046065342115e-01 4.425354865669224869e-01
-2.939816047228062112e-01 -9.439430075316772584e-01 1.942038649222403990e-01
1.723607025897374093e-02 3.043504071600319771e-01 1.794350257678268279e-01
1.603989347443373903e-01 -7.112440856186798277e-02 -2.210656429378619892e-02
-2.610434059212716207e-01 9.136750882860456002e-02 3.583820392447475967e-01
-3.951416629662863333e-01 1.687858254316122464e-01 -3.768804347243137620e-01
-1.866636688568437952e-01 3.986606883563734161e-02 2.423680030935106144e-01
7.416991595473330090e-01 -6.835506298985117857e-01 8.271375526581264959e-02
1.585472844524824232e-01 3.421708113804516199e-02 -7.751671890917430363e-02
2.288771233439928499e-01 -3.609462658572796245e-01 -3.492344638104464827e-01
-2.018018725221168985e-01 1.323382330729940271e-01 -2.622911117757886212e-01
-1.923296269564003791e-02 2.896670682265160002e-01 -4.645721020410475410e-01
-1.961127672237194045e-02 -8.159289040707592422e-01 4.844928058183236019e-01
-3.622960188502936107e-01 -1.934905780628947553e-02 -2.669140003468694067e-01
3.966828249786349958e-01 -9.021003348986662562e-01 -6.084347934237734068e-02
2.041908405029438378e-01 2.988381722440612287e-01 1.873086082729492341e-01
1.740891255129206894e-01 -8.101990323543908357e-01 -2.376737730275539640e-01
-4.308172669918951536e-01 5.198008692167662703e-01 -4.721060383270972993e-01
8.783532237546237686e-02 -9.683749479810751515e-01 2.752996805396164537e-01
1.429421160497135190e-01 -2.681490190467583079e-01 3.995583023195726780e-01
-8.681260348407784377e-01 1.171169242600230559e-01 3.834504245725389726e-01
1.694177632270210676e-01 -8.081142877018945847e-02 -1.745563228791202348e-01
-2.423109721342735501e-01 -1.682443041327535971e-01 -1.605766218158368730e-01
6.762200072787827310e-01 5.297653552621927053e-01 1.235312538962382301e-01
1.368827086048309827e-01 7.383227381185780702e-02 -9.511597655117433325e-02
-8.993951021210090380e-01 4.471644344593762033e-01 8.341375930037297007e-03
5.309327773641824705e-02 1.720065534113135730e-01 -3.434757183944390224e-01
1.545268505968492856e-01 -1.267666795446663053e-01 1.593339205277840565e-01
7.429032368035266565e-01 -1.533417349592232359e-01 3.113822018919747969e-01
8.795571954879554122e-01 4.235292712256432668e-01 -5.968603206418299223e-02
-9.012524952704945025e-02 1.809570832215848524e-01 -2.966226617135983012e-01
4.382197353517842675e-01 3.420660642629843040e-01 2.442323452117167171e-01
1.078288760709988081e-01 9.761241967839603961e-02 -1.535993797913243475e-01
-3.683904882075592635e-01 6.163319990190097020e-01 3.352266346529516050e-01
5.448281905602112563e-01 2.362636387214022970e-01 2.626048005718958356e-01
-1.021183108093090541e-01 -2.588739694496771104e-01 -1.389697721176938461e-01
-4.524382688245537909e-01 -8.452930962174585172e-01 3.178442934342781689e-01
1.819484301320858088e-01 4.662809059022995917e-02 1.377270803556211211e-02
-2.502826021212967156e-01 6.318100082988246935e-02 -2.228448805856539094e-01
4.831509931579648365e-01 -5.401092533723296230e-01 4.403490474994246062e-01
1.023150211408754284e-01 9.620780945012640251e-01 -3.309550782609703423e-02
3.476620022257886355e-01 2.912455510146244597e-02 -4.908910259539490673e-01
-8.551169675243958102e-01 4.578165681739072013e-01 1.917092635796381339e-01
9.823506739962314382e-01 -6.313487875531954840e-02 -2.332659594586517227e-01
-4.701082830451758926e-02 -3.065310564015501504e-01 -1.795726057966893496e-01
-2.453919333055397944e-01 -2.798069606285563671e-01 -2.036510894383460890e-01
-2.676682181968076391e-01 3.758204978822371478e-01 -4.831171632542658467e-01
7.875377783141581656e-01 3.876591379607109422e-01 1.224396048001171744e-01
-7.158908753474587661e-01 -3.044055803709969088e-01 5.115905904085802369e-01
-4.849320310899863928e-01 -8.584199553545660555e-01 1.379773018663189854e-01
4.058503954330188179e-01 -8.097501435167494543e-01 -2.110098249836138418e-01
5.176189817532843573e-01 -2.399164394327596983e-01 -4.820739168951738152e-01
1.357045543355516470e-01 9.141298418972336470e-02 -2.945417573237611442e-01
