-7.202171094298659426e-01 -6.043287741216708531e-01 3.103191140688600358e-01
-3.644849333021948912e-01 7.767076011227621590e-01 -3.968192585096425584e-01
1.013404172340079817e-01 -8.729246874124294564e-01 4.658479948965458250e-01
-8.802287608866858903e-01 -2.798729906804774958e-01 1.421500407282751677e-01
-7.793963601612567960e-01 -4.245976128431837582e-01 1.174279878521473502e-01
-8.947513308038819169e-01 6.504893839802354527e-02 -7.228057324785433502e-02
-4.679445178069471800e-02 -8.692686621107549305e-01 4.907470598685158003e-01
-6.823082633028471067e-01 -6.584687209476550729e-01 3.173320860499629914e-01
-9.349187246678318797e-01 5.746133528826109782e-02 -5.055355926284400836e-02
5.278368839515508171e-01 -6.667682328089188371e-01 4.784706812458648373e-01
-3.762624364156901269e-01 7.001984110242083226e-01 -3.994324530960973174e-01
8.864745298419587360e-01 -1.619407190673991526e-01 2.430760518848834872e-01
-2.189640745162111778e-03 7.708452520587570911e-01 -4.355975351470319779e-01
1.891691887528415550e-02 7.775574730635814724e-01 -4.234097125762995573e-01
9.635253493813926429e-02 8.600208073169373080e-01 -3.998898800708271528e-01
6.933290713502013869e-01 5.211046704587379841e-01 -2.833970835026467516e-01
-7.266792610278884068e-02 -7.946762268447217226e-01 3.943605012221376716e-01
-5.626819377202672001e-01 -6.329846599730041268e-01 3.660357844512812098e-01
8.676843155801398089e-01 -3.275267929588453475e-01 3.184556957061339122e-01
-1.274916859206050579e-01 -7.731520007405543460e-01 4.850976233719533348e-01
-4.358182229249888961e-01 -7.610668146179824234e-01 3.133093108319383591e-01
-6.899374140135232647e-01 5.760923640801915990e-01 -3.160238249168437208e-01
-3.582000219351263448e-01 8.050313572025565856e-01 -4.878530309328374948e-01
-1.671535287668736436e-01 8.692012436728808744e-01 -4.674824420612591069e-01
-5.231641511389786281e-01 -7.265893402332864737e-01 4.057674869540089380e-01
-9.029725417662218812e-01 7.276732108179725933e-02 -6.914050681643575669e-02
-2.168777475096743956e-01 -8.623779235342075022e-01 4.578585703897866122e-01
-9.802724985212105668e-01 -6.130038794079701453e-02 -3.716010095122920017e-03
5.845568348337164544e-01 -6.844320854060743642e-01 3.795619521419715814e-01
9.056365689859957602e-01 2.603076463462836720e-01 1.060361500121163175e-02
9.022051283885078599e-01 -4.674678240655441575e-02 1.761404284214155569e-01
-7.108284937234795285e-03 7.658414365028640702e-01 -4.699089138352009476e-01
-9.686012497892907414e-01 -8.367017702330772910e-02 -1.036411033138467386e-01
3.545097893945787781e-01 -7.985220316455852174e-01 4.147290131785074663e-01
8.973875017945400767e-01 2.968113907498760584e-01 -1.496576273801710211e-01
8.935977813395501457e-01 4.302182152450980124e-01 -1.619122238582267337e-01
-2.998684779033268799e-01 7.155282354351391039e-01 -4.259416292856904040e-01
8.388893962252198522e-01 -4.067895236053468144e-01 3.421345098962196296e-01
8.790874246249141821e-02 7.802244401728697376e-01 -4.920163092315584241e-01
6.153300840386276560e-01 -6.702707642994190085e-01 4.096855507341134461e-01
8.808149830742891817e-01 4.629940141750595733e-02 8.401131493385716187e-02
-9.108928275843067857e-01 1.001574229038677960e-01 -7.793320861528296728e-02
5.977783595088274060e-01 -6.407066811989813315e-01 4.566966527100579376e-01
9.250077371733497200e-01 -2.146425235700194778e-01 1.391378419083054707e-01
-7.951048112529508494e-01 4.125990899858472671e-01 -3.701321573377824303e-01
-8.657810163039584284e-01 -4.719179917249915479e-01 1.550760844390249860e-01
3.318882032250534964e-02 8.672409877258311361e-01 -4.110150771801052705e-01
-1.920536990175113479e-01 7.533730712423257758e-01 -5.032891762279632086e-01
-9.477632741551449413e-01 -2.994760377759063674e-01 4.109880876720536230e-02
-8.883104991554835461e-01 -2.675070614112518008e-01 -2.710589102589819246e-03
7.760366884320478720e-01 -5.022129605758324233e-01 3.760728625487176346e-01
8.912123010645959242e-01 2.884703390295165204e-01 -7.048150598548909643e-03
-8.249686229151342864e-01 2.668845205093702266e-01 -2.857335474427455946e-01
1.778284131219976527e-01 -7.787953172630149856e-01 5.192396911957465333e-01
-2.044858416795247436e-01 -8.608239850255342551e-01 3.987225252120721319e-01
7.678476419681238285e-01 5.985791349383804416e-01 -2.327066740444295456e-01
-8.618599970629647888e-01 3.999909732993355838e-01 -3.234606933398634920e-01
-5.164998159811869938e-01 7.217355876469995213e-01 -3.841074232654011489e-01
-3.538303816770774213e-02 7.836249959592507253e-01 -5.082718982755699555e-01
-2.171851494388358783e-01 -7.447155381776399130e-01 4.265237117473395512e-01
-3.490304880073084037e-01 7.396507335340595235e-01 -3.920887754411019333e-01
3.916017282782185416e-01 -7.282381196943650270e-01 5.047473224429919192e-01
2.224187952098857501e-01 7.725388120332156161e-01 -4.779594721683957381e-01
-7.297068937517235954e-01 -5.028493761885651780e-01 1.593996715198903735e-01
-1.363837705087124312e-02 -8.816910324270404997e-01 4.613536715691990975e-01
9.377350546177638524e-01 2.626927177981333017e-01 3.847943642641766127e-03
3.840511645412634789e-01 -6.730761697521482345e-01 4.126944844915312327e-01
8.274091461823742666e-01 -4.446305188868148739e-01 2.681550765625216326e-01
-4.850175322318640014e-01 -7.216608869220353384e-01 2.915260538511688093e-01
-7.705059161176202043e-01 -4.297702018354000453e-01 1.267427385921073568e-01
-3.166489716605501159e-01 -8.094882976424503385e-01 4.664372527344160524e-01
-9.230308323895001221e-01 -3.691914290062995319e-01 1.269535888499454535e-01
8.646760289669570554e-01 -1.036483808122531936e-01 1.712388499932892549e-01
2.687390033045636284e-01 7.478390292528988015e-01 -3.893338054874447285e-01
-7.748025685550524733e-01 -5.863055067771085760e-01 2.368315154623280849e-01
3.742049050671977239e-01 -8.020234199447690004e-01 4.376037763286400595e-01
6.867548694255151132e-01 5.227359031850874471e-01 -2.810498987002366666e-01
7.976401169217686160e-01 3.667314786286637873e-01 -1.110125940934195699e-01
3.696711149956582454e-01 -6.723561861713469590e-01 4.411823714416617248e-01
-2.953673874849080949e-01 -8.205708873181867258e-01 3.587583724819987108e-01
5.318646004542711969e-01 6.579917239617272262e-01 -3.832387388742310996e-01
-9.027174937834633317e-01 6.916524247462219055e-02 -1.900749825914175573e-01
5.504735847661147430e-01 7.284793761097859699e-01 -2.842979762882690831e-01
8.035330428298369521e-01 3.552396564385767452e-01 -1.598558109338036326e-01
-4.974258382295254077e-01 -6.551703448670987973e-01 3.731246882165388246e-01
8.895296338146283510e-01 7.454231584494161456e-02 2.823880062264557192e-03
-7.726559528849482605e-01 -5.858540004179418892e-01 2.510699462714844898e-01
2.377568200923214636e-01 -8.061522166937207245e-01 4.018261837804899539e-01
-3.464955359631016751e-01 6.895550093064638508e-01 -4.581253852797654846e-01
4.539752534853809252e-01 -7.002026472350169062e-01 3.701698518949348982e-01
8.942454571665213736e-01 3.181282179819399647e-01 -1.602705491329255716e-01
9.427672882622084582e-01 1.636536532938016875e-01 6.597117740452893009e-02
-5.574025584089651320e-01 5.794359475921161406e-01 -3.692966341968740851e-01
1.950059573847581218e-01 8.783346414819693804e-01 -4.365265850780558621e-01
8.897254608048135172e-01 4.352432498163115171e-01 -1.680918766073626891e-01
8.449936490407508050e-01 -2.488530498718272976e-01 1.704220008686604670e-01
8.518475848526044780e-01 -3.197904987036611635e-01 3.232999577391926227e-01
9.800624396655596149e-01 -4.101699808102937661e-02 1.547101924553611063e-01
9.061954457145185993e-01 1.006452913185683883e-02 1.433167736811624127e-01
4.091688077241413812e-01 7.681925476807618391e-01 -4.490032533381453916e-01
-8.116543843582395557e-01 2.765708414024422579e-01 -2.801939991654349704e-01
-8.567262033133478116e-01 -2.166717237452879807e-01 6.793208625129593115e-02
-8.934668350632618550e-01 8.518921745702174100e-03 -1.426624986408861762e-01
7.430856996314216811e-01 5.462883948386538790e-01 -1.647829240633197356e-01
9.880560104245220687e-01 1.560423092237922249e-01 -1.790038654873395488e-02
-5.985535831865619327e-01 -6.997844866972039446e-01 2.654982401524723645e-01
-5.571724762099473233e-02 8.218244442742419498e-01 -5.248733173252394524e-01
9.049014542414649531e-01 -2.660158576491986615e-01 2.833999325276326253e-01
-1.821984993303767120e-01 7.906158734787699371e-01 -4.050374502437253943e-01
-2.932381516662333487e-01 -7.394946941147291231e-01 3.734188807565282375e-01
-6.410813119716050057e-01 -5.627009023055538073e-01 2.286155883807398925e-01
-3.860288192152251663e-02 8.254719002187332899e-01 -5.240795857980574679e-01
-2.429579876716921882e-01 7.686229105897154357e-01 -4.040649533628486445e-01
4.531616820268207224e-01 -7.614832823835521181e-01 4.098365881759684082e-01
9.251523343141426770e-01 1.765661753262010303e-01 5.913801761600936957e-02
-1.809669429201533064e-01 7.989572039996175601e-01 -4.039348663627599367e-01
6.207612765256239618e-01 7.108925580976513947e-01 -2.832148069158800796e-01
-6.398602198965483989e-01 -6.776327081034991817e-01 3.484030561447968299e-01
-3.772335519823680761e-01 7.093721991660028037e-01 -3.936877080364826198e-01
9.046963781014611961e-01 -3.587387071269962369e-02 4.903133646428433495e-02
-4.458427021068767093e-01 6.517898922676699236e-01 -3.995696130758610853e-01
-6.991519426019349170e-01 4.749301925560839854e-01 -2.924723055760019008e-01
6.048554178732387099e-01 6.939270147781800846e-01 -2.599999527549585188e-01
7.112330535755566618e-01 5.760225397499939559e-01 -1.850472777757931342e-01
-7.641154008806027020e-01 3.835044355169807684e-01 -2.523985292759535204e-01
9.910949435252678352e-01 -7.841419642265613776e-02 1.299140170721543863e-01
-8.885824518892234680e-01 2.533918054702917200e-01 -1.555718878627301849e-01
9.859314158420652285e-01 -1.087810390833953700e-01 1.395901702349848506e-01
-6.307646375820975537e-01 5.458498624005247990e-01 -3.247392978214220793e-01
8.883166814428861136e-01 3.251026886790503445e-02 3.133822521375673881e-02
-6.318688115569982833e-02 7.612523188519382256e-01 -4.576041689681272784e-01
7.550021332850063160e-01 -3.552203967314658817e-01 2.797807278112534601e-01
9.725433643007039275e-02 8.462453032543557629e-01 -3.928634284367937823e-01
1.861415007309895064e-01 8.741073580867028125e-01 -4.645413997498446523e-01
-1.617985175098837491e-01 -7.549908657948239954e-01 4.528105889712567556e-01
-2.536149394573676275e-01 -8.223838684143786049e-01 4.805314711023068730e-01
1.000023209700586502e-01 -7.615927799815264132e-01 4.972763502632789323e-01
-7.985640270940876917e-01 3.827337075958435753e-01 -3.581382903560089148e-01
3.354722737825221457e-01 8.068300598356460407e-01 -4.667932870749872398e-01
7.438612028794783226e-01 -4.298530485358483810e-01 3.796416409600127384e-01
-6.353966138720901213e-01 -6.864935620673665584e-01 2.607288005275832932e-01
3.878228645631236482e-01 8.231904133193403972e-01 -3.620837832966176117e-01
5.947698587094365497e-01 7.349306799906764054e-01 -3.439164806013810249e-01
3.697673382816226706e-01 8.163563771882770270e-01 -4.483875922405227699e-01
-3.455492713852055253e-01 7.011166152732503098e-01 -4.157839581598860024e-01
8.162445762365058144e-01 -3.539727419076035830e-01 3.431050266699983142e-01
-8.249919236685639978e-01 -2.942084349127745968e-01 9.546587815240278885e-02
-4.379996868871929294e-01 -6.898536334603916353e-01 4.043454279260276230e-01
9.395180924386212773e-01 -2.594917147829776671e-01 2.331394207191833101e-01
9.766748788724414210e-01 -7.626816166896824289e-03 1.445562034658683936e-01
9.448425788454904994e-01 -1.412992882362920088e-01 2.224764066214742486e-01
-8.786218271727891382e-01 -4.530367426206982628e-01 1.476109633890478612e-01
-7.400195041772805737e-01 3.895379542444397658e-01 -2.857000160194730909e-01
9.668001944721443808e-01 6.393124194566351948e-02 1.153484802499398915e-01
2.468107473805056795e-01 -7.839221305632211312e-01 3.971493312419391852e-01
8.124534435154069367e-01 3.271193206092632977e-01 -1.205333508376974644e-01
2.107283483331202634e-01 -7.286503455874134838e-01 4.493305399859948146e-01
8.957842128029578355e-01 7.850719963086133513e-02 9.445613066735387975e-02
3.993177357644496217e-01 -6.600574598529286297e-01 4.244194357371250392e-01
-5.034523409562092766e-01 7.489737692674149905e-01 -4.311241468465452642e-01
-4.927542522501527911e-01 7.517205072665793519e-01 -4.522191437948211989e-01
-8.737578058408691506e-01 6.017357313705366806e-02 -1.437025969494820365e-01
-9.785375945578725920e-01 -8.823370176906655815e-02 1.096751787633960633e-02
5.713442990275426903e-01 6.061666951401381009e-01 -3.083398267891505617e-01
-2.610841014288630690e-01 -7.623602292412851034e-01 4.693405111149861475e-01
9.397930285097397252e-02 -7.534928497597234154e-01 4.431153530040711774e-01
9.062754406497874893e-01 -8.202416760461025969e-02 2.000346674716288464e-01
-3.799710459405525875e-01 -8.108297027297024506e-01 3.492025561430383007e-01
2.201376396110101552e-01 8.034551396563442971e-01 -3.698973863403358653e-01
7.247485307855733305e-01 6.403844676148032766e-01 -2.638023160333520245e-01
-6.665286625932644871e-01 -6.737466739456311471e-01 2.610032820621601135e-01
-9.011868970604862694e-01 -2.390195819493889651e-01 -2.103044511074783282e-02
-8.657887198204993195e-01 9.932518897565696669e-02 -1.386066577747391837e-01
-7.365120358672027079e-01 3.881428607477664938e-01 -3.013428356115223639e-01
-8.450733318548860895e-01 -4.497756436792970103e-01 2.228550686887066090e-01
-8.740140784686467601e-01 1.971930500190282876e-01 -1.378910715278395260e-01
5.035479281966016574e-01 6.509069867305049550e-01 -3.257926493040206872e-01
8.415585349180497721e-01 3.201354183337755677e-01 -1.595675768559475516e-01
-4.277308176097809334e-01 -7.771314820652578392e-01 4.356006880269326365e-01
9.801398178371359959e-01 -1.136628478449052959e-01 1.177674322772155890e-01
7.605202952994246646e-01 -4.207655809232523914e-01 2.502047322139424046e-01
-9.807891366561110047e-01 -1.138863473154070050e-01 -7.456144980092539731e-02
-9.688006507910520426e-01 -8.111691382835393982e-02 1.598695042476636768e-02
3.399273866125081534e-01 8.013541620519774034e-01 -3.452270624314905945e-01
-9.113350453900450621e-01 -1.325156654509675735e-01 -7.862096820378401685e-02
1.155541782864782652e-01 8.863408726713609687e-01 -4.517007643355736568e-01
2.789500279173420805e-01 -7.636336070681737365e-01 5.167010670371128267e-01
-4.017237629586132286e-01 -7.161726307668382363e-01 4.289334485717245515e-01
8.284088810205162412e-01 5.165413005081777031e-01 -1.610214510696023338e-01
8.669527506913170534e-01 -2.612155964793392293e-01 1.620852214356421350e-01
-2.709435677029596867e-01 7.633056934640853886e-01 -5.190897512367881328e-01
-9.148609317703929600e-01 1.867942296141554270e-01 -2.557787554518898276e-01
-7.985464260114478741e-01 3.521490794014170422e-01 -2.235415481959854289e-01
9.174624608577648388e-01 -2.907409300810999131e-01 2.693445047405222392e-01
3.762181287165035637e-01 -6.952070792174341873e-01 3.943958095330614144e-01
9.005329142228657435e-01 4.091754951673843288e-01 -1.024507494181023243e-01
9.205394664137586114e-01 5.392115667491400449e-02 -8.731718742547139520e-03
-3.421540741652545625e-01 8.168290208771458172e-01 -4.322663765546555514e-01
-6.316432622974147426e-01 -6.706489189717064203e-01 3.578080849915157846e-01
-5.555261810405490719e-01 6.072470822545038560e-01 -3.521520997772654149e-01
-7.359111174220841489e-01 -4.511368605658445663e-01 1.724893804257172092e-01
-8.925110642005075201e-01 -1.192151944074212183e-01 -7.045912066139128904e-02
-1.488283187685583431e-01 8.087536503164065582e-01 -4.042648421394414160e-01
8.210077243715168116e-01 -2.493822799091284237e-01 2.653734239197813594e-01
-5.335664704567123495e-01 -6.251326202376906727e-01 3.225446309554418911e-01
8.657531517105350183e-01 1.992977003953696757e-01 1.347865475042532611e-03
5.586543519373060596e-01 -5.773466393868991187e-01 3.589220328769444079e-01
3.232234079989173003e-01 -6.946776713961364536e-01 4.679711679205025843e-01
-2.643476324854512893e-01 7.215426286217327956e-01 -4.768261666547844446e-01
-9.779255872848230391e-01 2.400989408912628312e-02 -4.817315789521822017e-02
5.117260071485244532e-01 -6.973484513908210225e-01 4.789292039988115035e-01
9.332074533679151074e-01 1.590280070131287748e-01 -7.062654713090969760e-02
9.578998223967203351e-01 -2.081482365692138292e-01 1.722832202210017594e-01
2.452386010114183945e-01 7.498902936743228054e-01 -4.014896681667476930e-01
-8.472265728068586466e-01 -4.888614148909317114e-01 1.479690908921107995e-01
-1.223043486021151149e-01 -7.622629683126035394e-01 4.181724817675561146e-01
-9.986017889443218332e-01 -7.389387812787301391e-02 -6.344404223815729160e-02
3.180516143589092737e-01 -7.760559428331913479e-01 5.122390912536368690e-01
3.299586495273110764e-01 -6.938054633793415693e-01 4.257155654208649720e-01
6.355909967749627798e-01 5.562840296502561399e-01 -2.659958012942455485e-01
-7.438277581183367904e-01 -5.830509043702758465e-01 1.886319443571154164e-01
-3.366618942779709966e-01 6.952276021950132279e-01 -4.674204449566836672e-01
7.433363323215506080e-01 -5.563966495224024200e-01 3.333058760980149304e-01
-5.899686401140599168e-01 -6.705168290040968149e-01 3.794232853758545132e-01
-1.236271868829125486e-01 7.797070304821800413e-01 -5.159049216944164851e-01
-7.838421218639810562e-01 -5.648870211100757155e-01 1.908305645418083840e-01
1.224533247688838582e-02 8.760941939296456038e-01 -4.962539100472760367e-01
2.344235170901445009e-01 8.674318488880189415e-01 -4.070769122029753162e-01
9.693189091101418464e-01 6.616188316027098171e-02 -8.150904674324362456e-03
9.175977843833956760e-01 -1.572982887836242016e-01 1.042871351059385387e-01
9.824597506711496564e-01 -8.473815773286044739e-02 9.674559450301167818e-02
-5.434827857781988625e-01 7.068155260600754719e-01 -3.791141638263453850e-01
-5.139454861922680973e-01 -7.186628342970928784e-01 4.105188150973044792e-01
-4.479283669968310844e-01 -6.756014724344051592e-01 3.388447494747935385e-01
-4.843433680021105303e-01 6.245260593846436725e-01 -3.979318335018963704e-01
-9.973880640959339461e-01 1.922681975411029073e-02 -1.130607222972285636e-01
8.105353562863601979e-01 -2.729365594844896936e-01 2.793036051209834558e-01
5.339414903943260314e-03 -8.200764892119936089e-01 3.957678482144169063e-01
9.308107798186601167e-01 -1.645029674195510466e-02 1.671249566783550577e-01
1.759205288191283134e-01 -8.587601717497759246e-01 4.450738783457959813e-01
-3.446393597291952382e-01 6.931668506185179046e-01 -4.310339394748762265e-01
-2.298407277253482484e-01 8.379250819177774812e-01 -4.210418533054935963e-01
9.461900852480832347e-01 3.236170954764600038e-01 -7.267013722933081399e-02
-1.286377550821069526e-01 -8.788162340468514966e-01 4.377603029717598293e-01
-1.097573110171798649e-01 8.110284212270041371e-01 -5.261508826378248349e-01
9.218063399964085969e-01 2.943225335473801940e-01 -1.178644591594748235e-02
4.427865066055884369e-01 7.857877429179198625e-01 -3.269255102410300040e-01
-7.467119951066185646e-01 -4.316755501622394076e-01 1.964996838303697813e-01
-1.192310437882951879e-01 7.838717809314943441e-01 -5.180539207941899926e-01
7.125626521149328596e-01 6.382163726886954658e-01 -3.058719933674742819e-01
-8.460592383806803118e-01 4.228008566677282087e-01 -2.570123858138951278e-01
9.357940828058423088e-01 2.166145097676707709e-01 -9.850113812700204974e-02
-1.713432214544178822e-01 8.355806583032904244e-01 -4.113153482150964102e-01
2.614520244604095003e-02 -7.876215008126346007e-01 4.058621337100383197e-01
-8.572822183543342689e-01 3.540866055670958135e-01 -2.080794824441891677e-01
3.842875971814986302e-01 -6.910807978572279797e-01 3.934063463876050770e-01
6.916605733064308259e-01 5.215271924660704883e-01 -1.979997438686752487e-01
1.651386788452176638e-02 -8.737120920474715779e-01 4.862021721935058105e-01
9.043829152963978046e-01 4.075195147488906433e-01 -1.076647574029428456e-01
2.502556526404747794e-01 -7.169933481448299561e-01 4.624450201509681668e-01
-3.300028443956558033e-01 8.257993347825819397e-01 -4.514608473069001149e-01
-9.351812652360466105e-01 -2.281492030726040010e-01 1.030380800245908890e-01
6.093637181356079680e-01 7.140319165942954349e-01 -2.812673427931929870e-01
8.314180907047436300e-03 8.733296836497042026e-01 -4.998443065875313174e-01
8.041774001782586723e-01 3.960557697102483621e-01 -2.086014224092275493e-01
1.469605951964108870e-01 -7.421595026236444959e-01 4.578266036585775245e-01
-4.735463398832384097e-01 6.315585153098131066e-01 -3.997595660327178391e-01
2.947051407079546714e-01 7.688897159539950232e-01 -3.581123381354222590e-01
-8.884711019056952264e-01 1.072242825407884043e-01 -2.067422581828215200e-01
-1.908255914458053815e-01 8.459265186129675262e-01 -4.213458380441655882e-01
6.492689684892155588e-01 6.832948285350548545e-01 -2.586478149413817262e-01
5.391504343638389152e-01 -6.999670339993818713e-01 3.734760161686609958e-01
-6.341603933033989060e-01 5.269310481281110903e-01 -3.298384134876561902e-01
-3.798295518233127943e-01 -7.224838548499267210e-01 4.339170622779278674e-01
-7.428904125269519820e-01 5.649936816517493465e-01 -3.753519601711733933e-01
7.671068421470880194e-01 4.739665417634814637e-01 -1.333508262783189846e-01
-1.742838116261758996e-01 8.547042905881305774e-01 -4.276208851178043280e-01
-3.349012930365837248e-01 8.116254707633376864e-01 -4.928636673016942304e-01
9.030417368845237158e-01 -3.133521049697245986e-01 2.018338123580177279e-01
7.892149512904239606e-01 3.740489547911069468e-01 -1.294934926317125590e-01
8.469541571835935700e-01 4.773027392351057441e-01 -2.220674207050777893e-01
-7.505684768871698775e-01 4.375141980056304614e-01 -2.605872389275314394e-01
5.427685711238114941e-01 -5.971955561775443844e-01 4.512533799298079074e-01
4.382748729183262304e-01 -6.666768515600687284e-01 3.819418134379252705e-01
-7.236215474904781342e-01 4.245001860115498182e-01 -2.857603709138081816e-01
-8.669172441886526803e-01 1.055915582074158782e-01 -1.307974458445685939e-01
7.338580632349889221e-01 4.536111900876645953e-01 -1.908822321473755967e-01
-1.110916236852463601e-01 -8.290893708850338717e-01 5.063957355560826379e-01
5.362469535454512659e-01 7.340418411987158498e-01 -2.883502879383687545e-01
-9.393588725029670128e-01 -2.470509176026573495e-01 -1.375944670778057877e-02
-9.402718372634653043e-01 -1.708017348741960040e-01 -6.225629228107910917e-02
-8.326887064228450930e-01 2.105710519477841658e-01 -2.142773156169775761e-01
6.240270787634253358e-01 5.683995061402363769e-01 -2.963222881212740356e-01
-3.736682200447808966e-01 6.875259443848619201e-01 -4.794059854599567183e-01
-9.689761496923934292e-01 6.402467258729961641e-02 -1.774285204446581221e-01
5.370673697316272199e-02 -8.498483265584599877e-01 5.112799646715998625e-01
1.500236536737651061e-01 8.803081782364466923e-01 -4.245727488273583483e-01
-4.271494412701398180e-01 6.852242772198129384e-01 -3.850479482929525799e-01
-6.319185916082413756e-01 5.228875370599477268e-01 -4.128183401334433733e-01
-1.481090838828173772e-01 -8.581641282294600881e-01 3.959494115216199428e-01
-6.025732217156907211e-01 6.272768466362075301e-01 -4.615032587601263225e-01
5.378306246477433383e-01 -6.137848729150715554e-01 4.625908748166773776e-01
8.913049887604197474e-01 3.300554801492922019e-01 -1.663566178447026811e-01
3.891173227957767655e-01 -7.970414080320517014e-01 4.485737748827640092e-01
-8.546176929246789289e-01 1.946703668382762653e-01 -1.562923540420138591e-01
-5.665779877866730097e-01 -6.362755119315802732e-01 2.600912267762251484e-01
9.424943185095354670e-01 -8.794040328686079933e-02 2.020883770949062352e-01
-7.741641448230235367e-01 5.349184191939666544e-01 -3.462667618898662703e-01
4.624382209993514042e-02 -7.920825775756892284e-01 4.038167775350954836e-01
-2.469230901749937812e-01 -7.526424800668163329e-01 3.816980724149534043e-01
-3.387634086891454510e-01 -7.178875216061328945e-01 3.767780150824559526e-01
1.493864091225872159e-01 -7.683909853236561283e-01 4.112673881518700836e-01
7.206561786876152231e-01 6.057394373698727907e-01 -3.145107978289313211e-01
-6.035325502673799525e-01 -6.681524520024795244e-01 2.454896370126700700e-01
-8.610154705349355453e-01 3.376317306086731307e-01 -1.991104321697808599e-01
9.977084241524882824e-01 9.816203534849494983e-02 4.456214079352513457e-02
-3.593417130920657510e-01 7.344656594676746142e-01 -5.107432544934684682e-01
7.678020611088364200e-01 -3.991002306645224929e-01 3.647582022801583168e-01
-7.681067405829566930e-01 3.438266862274619862e-01 -3.027383641384336355e-01
6.126691775197897621e-02 -7.686296928103937276e-01 4.992047595422083317e-01
3.960332479338343759e-01 7.291976898507097626e-01 -4.381563162700793379e-01
-1.455903684680438792e-01 8.664959458004881654e-01 -4.380455873729185989e-01
-7.688356738650851119e-01 -4.060646214871352910e-01 1.414067620712089746e-01
-7.921798671502221501e-01 -5.397404879640751441e-01 1.647748700874250016e-01
-4.349851525580785139e-01 7.317443544962216606e-01 -5.010741596690275745e-01
1.100784829180106311e-01 7.818743082266734756e-01 -4.923405304603516441e-01
4.772827699460381878e-01 -6.452600062290015925e-01 4.736965807355680291e-01
6.640017658629600306e-02 8.873239214905839223e-01 -4.426037098145649273e-01
2.201811427177919334e-01 8.729948008113523894e-01 -4.475112095542163049e-01
-8.898023489713111633e-01 3.260076723587802816e-02 -1.545533039374868967e-01
-2.689345300619886414e-01 7.179287755622562051e-01 -4.661346374726020314e-01
7.193074948269708724e-01 6.371349032346301788e-01 -2.964469562423062143e-01
-9.922589471989604615e-01 -2.423342748012873027e-02 -1.102929922440103183e-01
8.737536931499343407e-01 2.206114850458562870e-01 -9.519788977816662223e-02
-9.719001801648472494e-01 -1.476957197391506327e-01 4.297952297828196155e-02
6.644911693358965810e-01 6.512704167566233382e-01 -3.455437606515334159e-01
-3.511054953095209541e-01 7.860819526166797910e-01 -4.007211763939022009e-01
5.641102793331860266e-01 -6.186371495068800908e-01 4.652468990500459589e-01
-8.530838256869022196e-01 -2.620452286819989762e-01 2.462410389828302570e-02
7.786767846418852779e-01 -4.149252164460104919e-01 2.415494216270226147e-01
-6.051750737029718552e-01 6.830565112200024380e-01 -4.222965117908754062e-01
-6.028079511876956870e-02 -7.609845427047112754e-01 4.629018507454032982e-01
-4.911146541791883147e-01 -7.444523384898728002e-01 4.168668808893800648e-01
-5.994429285297144805e-01 -6.569118735804323483e-01 2.427550540463772610e-01
-4.663278790210774183e-01 -7.524126269664258571e-01 4.260368348904585711e-01
8.086738024583403073e-01 4.508064063967898161e-01 -1.064323163960863156e-01
9.038656413166228365e-01 -3.030626768790103398e-01 2.864421779232999010e-01
-2.183375398195571970e-01 7.911977896756214879e-01 -5.246868715672430294e-01
1.721126966122125401e-01 -8.249480181433437309e-01 4.055816510116077578e-01
-9.048831551704985543e-01 1.405942585020236446e-01 -9.926957350036196004e-02
5.037956658509442631e-01 -6.403547162117362301e-01 3.615686325117402622e-01
6.042283951925819796e-01 6.478334766900699648e-01 -3.722391261228723547e-01
-6.003456337035331103e-01 -5.824344865903933188e-01 3.099039710939244241e-01
-2.403182146504979078e-01 7.780258974695880569e-01 -5.225650076221624030e-01
7.934692938663263639e-01 3.901872494896831967e-01 -1.085959567913762358e-01
6.522457910456166408e-01 6.179828696161839829e-01 -3.499970444475671849e-01
8.751289957816899001e-01 1.046285787888970170e-01 1.986839693769634069e-02
-2.157628075857229433e-01 8.481502568878139803e-01 -4.297983380381301677e-01
2.632319730677385450e-01 7.576362142397448096e-01 -3.790104940783809440e-01
-2.437104755224355213e-01 -8.427321676501680070e-01 4.720282749711343651e-01
-5.355854989712394154e-01 6.201054334651284750e-01 -3.587469450528016357e-01
-1.443479206528653913e-01 -8.777715004104845731e-01 4.434956121833046327e-01
-2.218060732573217120e-01 -7.595853783460587705e-01 4.676244695593484990e-01
-6.226915260956817910e-01 -7.128726071011382004e-01 3.065562460973559888e-01
-4.242415135076851862e-01 -6.949543319281787923e-01 4.078325721615927435e-01
8.781614707223425187e-01 4.387331627901701614e-01 -1.907498954825598281e-01
-4.335977501397262901e-01 -6.899595029464372642e-01 4.031949343342511316e-01
-1.042099336981571339e-01 -7.729656437035351546e-01 4.058410869946302291e-01
-5.893448431536312260e-01 5.433833339373630444e-01 -3.863002999488637235e-01
-8.809512764442946064e-01 -2.584418860308267396e-01 -3.102838821925694296e-03
2.480731432272026415e-01 7.450212897811764323e-01 -4.268135201214595664e-01
-4.212857789026535071e-01 -7.914924613949785304e-01 4.311554285028874611e-01
6.286209146857651975e-01 6.649970602303406642e-01 -3.652602467083789772e-01
5.497740298176615470e-01 6.233361634031771015e-01 -3.025532923014018771e-01
7.630609663728298298e-01 4.866392588529674379e-01 -1.380769495089866072e-01
-6.431752658381678645e-01 5.141935355451550116e-01 -3.285136245412005329e-01
6.421727834673635060e-01 6.987368550428473268e-01 -3.344287579657521658e-01
4.001116340082295220e-01 -6.703628937420448297e-01 4.736245798493767256e-01
-9.413055583082157174e-01 -1.839881516586732713e-01 -5.412456452743573398e-02
9.243171019993050574e-01 -2.951976613398992200e-01 2.155594435871942272e-01
-4.553119517649231174e-01 7.554238085574209727e-01 -4.821463937524138599e-01
8.759639868969160137e-01 9.211046765355256072e-02 3.620482844702668096e-02
1.386335543116404279e-01 -7.612411035654272906e-01 5.043136887562869042e-01
-7.960391991212859009e-02 -8.627610968483598874e-01 4.049084933406991160e-01
7.438685113465669518e-01 5.787203455170385480e-01 -3.012605913233610822e-01
5.635378689391780105e-01 6.509823914696534208e-01 -2.629723239529190293e-01
-1.122345136998822157e-01 -7.961560885242390251e-01 3.878701297462191500e-01
-7.806926630268109513e-01 5.205721158182666786e-01 -3.142427371348281429e-01
9.692173992134790472e-01 1.344198776139995423e-02 2.013360736066168930e-02
-5.989189690462622950e-01 6.891085312621586523e-01 -4.165709893740041081e-01
9.594678149333227823e-01 -1.826503845824447303e-01 1.446988395328016319e-01
-3.220862353503846642e-01 -7.240885555277526420e-01 3.787319825826386266e-01
-4.436038521750040181e-02 -7.960151183283408205e-01 5.089853951065155258e-01
8.458407263937030018e-01 -2.002815203084826745e-01 1.650648831983512199e-01
7.231378111051309787e-01 -5.353189580214862131e-01 4.097126715506017591e-01
7.013669992811386589e-01 6.173983630394749289e-01 -3.265807863017000656e-01
9.540907530188025287e-01 -9.225755931919990549e-02 7.412920999199222594e-02
-6.132525342624484122e-01 6.308935229249623688e-01 -3.392292810638373179e-01
-4.547903920904895481e-01 6.703613985793906993e-01 -4.864392316843110797e-01
8.695939637248334408e-01 -8.700520636879795211e-02 1.663996521896394520e-01
8.341518468742046277e-01 -2.825420183973094690e-01 1.849948065431746003e-01
-5.133342534277077762e-01 7.213016839309490669e-01 -3.826219120670232288e-01
8.412766518814902561e-01 2.884073169079649501e-01 -1.274852800860184210e-01
1.971116164383745206e-01 -8.535307969187988508e-01 4.418875463438288742e-01
9.652263966356304792e-01 2.257683105368129550e-01 9.426705349630569788e-03
-7.475911352979115465e-01 -5.841229871776016935e-01 1.908369361972234446e-01
-8.275480451894206002e-01 3.041348579418008957e-01 -3.169034126658836215e-01
9.995368436139147050e-01 6.154350574184704048e-02 6.353433845647557532e-02
-8.817035861768227623e-01 -4.209869899104305424e-01 1.861843876205266923e-01
-3.612497194431714409e-02 -8.794225451561114015e-01 4.724413895151839959e-01
3.991355623997439039e-01 -6.843222436585633117e-01 4.877964334229049626e-01
-8.720438180868984590e-01 -1.274133788208863527e-01 -8.922898008666028252e-03
-4.796587462786774392e-01 6.622194887054040358e-01 -4.842876141158298231e-01
-1.686517611947167816e-01 -7.648719746803431807e-01 3.983894396091789414e-01
3.744509743209000208e-01 8.133429982359452470e-01 -4.482575272577382086e-01
7.752060197797788765e-01 4.548311923512720623e-01 -2.486282179327252428e-01
-5.102392511066322633e-01 -6.614556799440579615e-01 2.907854322040154260e-01
-8.824771847521337698e-01 -1.576078797203244453e-01 -4.200055679417767640e-02
9.618505647023447569e-01 2.500351142197559384e-01 -8.289518183218495123e-03
-3.447789899628362492e-02 7.973312918679653638e-01 -4.079889822929188004e-01
8.925575739642856998e-01 -3.573507134513506742e-03 4.447313544044377565e-02
2.181292223747842152e-01 7.939419114442757275e-01 -4.907962206037833064e-01
-1.650192255482494375e-01 -8.552336696549279749e-01 3.923116631173335644e-01
-9.304720285678085290e-01 1.726909304463254413e-01 -1.143624748521661072e-01
8.597271997319336778e-01 4.541518261505946286e-01 -1.130684690414799493e-01
-9.089296315282757721e-01 -3.690612058505302606e-01 1.573519206244053392e-01
-5.026958475601269738e-01 -6.827454486772455144e-01 2.861258221457176343e-01
6.255083178729390347e-01 5.718115729620004695e-01 -3.077543327272890261e-01
-8.643728443137738138e-01 3.424373326637527026e-01 -3.259733538681346965e-01
-7.948141196783885531e-01 2.960603481740080589e-01 -2.729571717953026000e-01
8.486328511529175334e-01 5.032847115874617971e-01 -1.908760050191881108e-01
-6.808520796775640038e-01 5.234236990721821137e-01 -4.249268161692345003e-01
-6.356502736377450669e-01 -6.423506084241075165e-01 3.583462756834228102e-01
6.716481139051652116e-01 6.204548186001593857e-01 -3.432989490226961982e-01
-7.750116911220435167e-02 -7.661031682423247169e-01 4.214383751989679294e-01
4.153663591778542497e-01 7.105610200488922112e-01 -3.336789282667238510e-01
-1.758941587281929453e-01 -7.755754692776466452e-01 3.857263299961251057e-01
9.931752526454861174e-01 4.225551888746643253e-02 9.748475930432665137e-02
4.479530033663083888e-01 -6.332152923002538625e-01 4.303638681941913680e-01
-3.744450991228593512e-02 -7.600177463753519103e-01 4.534385306628402890e-01
2.515685857696782768e-01 8.689000296842922522e-01 -4.319183783761266771e-01
8.849739112210748271e-01 1.133628117165103553e-02 4.923395269397165541e-02
-9.528087389221255865e-01 -2.522066260957628869e-01 -1.020971609668181980e-05
-7.115109247723526709e-01 4.282779885283700683e-01 -3.028220500429805728e-01
-5.681370904977464109e-01 6.591008260725788048e-01 -4.710250460690536545e-01
-3.152673952560978710e-01 -7.235743057131112099e-01 3.883758671811911589e-01
-9.653383515098307166e-01 8.130888985953194092e-02 -7.323486310842518276e-02
-8.915826767150559773e-01 -1.611349896568590734e-01 6.279412138007671451e-02
4.452912549769498796e-01 -6.618825429958103967e-01 4.797452979573240128e-01
-9.244913791402967762e-01 -2.097218104064641278e-02 -1.451232670778528910e-01
-2.666340328326569087e-01 -7.558596457206450125e-01 4.637306529103533692e-01
4.933763439418856755e-01 -7.280667660264543706e-01 4.717558362262158633e-01
9.227146947837518987e-01 9.882948377927387729e-02 -3.586306351292031791e-02
-6.547069176241828714e-01 -5.641980453389167094e-01 2.132114154132475070e-01
-2.114849553093482160e-01 8.597904829402491789e-01 -4.591937998196077286e-01
-5.040894688905931398e-01 -6.483131002068993620e-01 3.122647453438006093e-01
-4.503210367233019817e-01 7.357093530999335718e-01 -3.822077357668390851e-01
-2.636225792343882546e-01 8.259624747634931596e-01 -5.071855798389669490e-01
9.810488941377725203e-01 -1.173279691911384287e-01 1.242709551531895884e-01
-8.963893265808975386e-01 -3.537876383272071656e-01 1.692888808045128757e-01
8.634970091707192541e-01 1.792393422327764052e-01 -2.689013568396000226e-02
-7.560072491855909238e-01 3.716321910514023830e-01 -3.303469174164483935e-01
-8.163396970058108826e-01 -4.592775409257703334e-01 1.083774173275809383e-01
-3.764152748455237840e-01 8.001266701574777374e-01 -4.212159270692931723e-01
-9.633266395276486316e-01 1.266616544842837921e-01 -2.043624162266734767e-01
-3.863502523651529685e-02 8.733804580721006294e-01 -4.256569328845489775e-01
4.095461602755391395e-01 7.611134513719745032e-01 -4.486200364615139380e-01
-5.024513982833759274e-01 7.410065049711945795e-01 -4.612800874775382920e-01
6.268822450652080658e-01 5.743562194838407464e-01 -3.139556852222173955e-01
6.787101262865199436e-01 6.120319516338326160e-01 -2.074773918335543199e-01
-8.781365415977384625e-01 3.924077959113282388e-01 -2.660784516376663023e-01
5.826979677540172764e-01 7.414553693059738881e-01 -3.142442601547408287e-01
-9.961052553426243961e-01 -1.042702594829215124e-01 -4.947904801330511165e-02
8.810445225466608798e-01 -2.659877674496752831e-01 1.616366609740194360e-01
4.150257618176296237e-01 7.425275182867626667e-01 -3.196143829390475921e-01
-6.902044830508863305e-01 4.988808651738496636e-01 -2.952570749582153486e-01
-6.519900310367814367e-01 -6.088318939678445396e-01 3.455791472883513737e-01
9.268533449660546486e-01 1.068414795602431466e-01 9.775754370757432088e-02
3.995268037871645417e-01 7.034658074778447068e-01 -4.049348488602858565e-01
-8.556530270101408986e-02 -7.903617994044839223e-01 3.948022016328751049e-01
3.294268273348137654e-01 7.593177006794464834e-01 -3.489563267350709874e-01
9.622974590874092682e-01 -1.620338291945497972e-02 1.594391944212300849e-01
-9.529808566618924726e-01 -2.961090953689926586e-01 8.854041431169233645e-02
-4.547014754653903035e-01 -7.651209452653572329e-01 3.128467597585422588e-01
-7.168477219046204274e-01 4.271796545594947481e-01 -2.940373749895851541e-01
4.024544857276917131e-01 -7.832008605701612503e-01 4.744257572847271343e-01
-8.012409876037063228e-01 2.900313597047750602e-01 -2.329855383631593557e-01
-9.953313033775011975e-01 -1.466125744344729670e-02 -5.152855055976036242e-02
9.254942699372896708e-01 -5.523200192146894560e-03 2.329473120307523279e-02
3.862692066606415731e-01 -7.251721782101739899e-01 5.049408198081618560e-01
-5.659281104465149204e-01 -6.105903849436021824e-01 3.364166933661091319e-01
7.281551250975518697e-01 -5.584020306893122676e-01 3.182969461915081677e-01
3.189371105798451400e-01 8.450163636022663960e-01 -4.453946207101067145e-01
8.184104334193481600e-01 -3.233201837123069189e-01 2.029880033805086248e-01
-9.188785046083602914e-01 2.430675232088814752e-01 -1.547449886675469899e-01
-9.891223018441631654e-01 -1.246680510248889817e-01 8.784722311922340404e-03
-9.989637278956597921e-01 1.217888070135246352e-02 -8.425087105179886182e-02
-5.769843968638647125e-01 6.208872330043383458e-01 -3.414036412818323707e-01
8.092987348598731367e-01 -2.641321523454369102e-01 2.631210004871137875e-01
-8.842574095183086680e-01 2.202077885307362481e-01 -1.413233732061418002e-01
-2.366292928611415658e-01 8.533867785656013005e-01 -4.551816113183208001e-01
-3.653103837087058881e-01 -8.342018869242946444e-01 4.049308709368775738e-01
4.097293342976097291e-02 7.769251498317100157e-01 -4.226576539980140823e-01
-8.679695326325689297e-01 4.104949863527886933e-01 -2.800280828416729650e-01
-2.544878257469300187e-01 -7.873613709303097785e-01 4.819129632844970090e-01
-1.010254515044052004e-01 -8.472466554819899631e-01 3.919578362148543049e-01
-1.408827975033458413e-01 -7.552670701075537840e-01 4.397012576662327477e-01
3.931557160093994141e-01 -7.779705789463245980e-01 4.037786432312142071e-01
-2.674338571598335879e-01 7.321419997604934338e-01 -4.212587906501936152e-01
-7.348724963922326214e-01 4.970658920499410049e-01 -2.787632821725268828e-01
-7.962496253566229143e-01 -5.586354809153861734e-01 2.393971148975029828e-01
-2.253763873783317939e-01 -8.674057618623414179e-01 4.305745587875685620e-01
1.656120615384864825e-01 -7.545648376003896152e-01 4.201025851820268109e-01
-4.930493081670925815e-01 -7.287607489228704605e-01 4.181215679479640124e-01
-2.297450558249060915e-01 8.482657698302482618e-01 -4.349005564401646207e-01
5.622198963269720018e-01 6.234571078504769215e-01 -3.500718833899991722e-01
2.425316437089707899e-01 -8.295614827073477526e-01 5.003011443349140164e-01
3.222874252435334319e-01 7.312412218511893380e-01 -4.304951505960212810e-01
-7.889077348996834660e-01 -5.127944493064144904e-01 1.414843960778345844e-01
7.953378328452510582e-01 3.622862092116999055e-01 -1.516767431791961607e-01
9.564412317943508102e-01 -1.377019685237141633e-01 1.049309903447664810e-01
-7.415919340783113656e-01 5.417091437420601396e-01 -3.057395512415299610e-01
3.121513894491752539e-01 -7.709544996837187636e-01 5.140538540486263575e-01
-6.276791033331056979e-02 -7.700644521245760821e-01 4.170196228413403094e-01
8.241769259753314314e-01 -3.363096199815419074e-01 2.032646711351726032e-01
4.876452377793840665e-01 -7.442959816938873319e-01 4.044579066380620813e-01
8.118601942126724147e-01 -2.524129771889704887e-01 2.311079974562513795e-01
4.081244250020907849e-01 -6.775102285741509966e-01 3.908164748147055501e-01
-7.763328206305941670e-01 -5.835354755729725840e-01 2.213143761689776723e-01
-8.642862687842467473e-01 2.220625618373219534e-01 -1.521288468004342587e-01
-6.150953066044079209e-01 -6.681383339664273002e-01 2.436997970725168494e-01
-9.688300992448598548e-01 3.596275399600189215e-02 -1.655890797946198978e-01
-3.211734360995976978e-02 -8.702637397046668610e-01 4.175109077224209986e-01
-8.589660353742469834e-01 3.428760560082823594e-01 -2.018363478112487897e-01
-6.684958828705576117e-01 5.592269492355150806e-01 -4.370372064691993574e-01
5.119261616858228336e-01 -7.036851397761519911e-01 4.764343178776904719e-01
8.482480032508717960e-01 -4.095854779241290822e-01 3.309440527492925055e-01
3.371682615054806820e-01 8.370769592216525945e-01 -4.455532327349067123e-01
-1.023644614423063204e-01 7.864826328821281631e-01 -5.179183983401811631e-01
-8.131866395214993881e-01 -5.435333105496917838e-01 2.068693845312342128e-01
5.301274623161456034e-01 6.337858264606219816e-01 -3.366668769724741050e-01
-9.006094144457803541e-01 -1.420369086567970507e-01 -6.726809989286509917e-02
-1.722647184481770344e-01 -8.583248287519169573e-01 4.796421512409700938e-01
7.342859872550078215e-01 6.199094925422546920e-01 -2.236383195846546046e-01
9.055139436517004592e-01 -3.336082359207838133e-01 2.331451153960021339e-01
-6.588598410926368443e-01 6.312950300204022147e-01 -3.537042821410622540e-01
-1.885405090373630799e-01 8.041993192381007294e-01 -4.035840340384362346e-01
6.084068936647968329e-01 5.803343340867372913e-01 -3.026804879399526693e-01
9.673132494537878268e-01 1.887993692392323786e-01 3.665699206308374591e-02
-6.871931441558276621e-02 8.254720725923458957e-01 -5.252605849956736295e-01
8.763407822430125949e-01 -9.373388995319384062e-03 1.031952377376085944e-01
2.314005117437007569e-02 8.865249370132989304e-01 -4.743689558364532766e-01
6.575628610632016091e-01 -6.276734279621372092e-01 4.179190269609844854e-01
-3.193300234893449163e-01 -8.211805794569282391e-01 3.577095298714168536e-01
6.000459222958902661e-01 6.638333239870299884e-01 -3.775744347748860030e-01
8.632534380717752365e-01 -1.885979422972339226e-01 1.417900386594110607e-01
2.992694810464390232e-01 7.913622922348803046e-01 -4.772560303799193715e-01
-5.857994263661375767e-01 -7.364614404352867183e-01 3.316294638755510338e-01
3.649693096161097383e-01 7.190580605044640805e-01 -4.218566768078937934e-01
-6.713590782560661108e-01 6.339527668340269040e-01 -3.814425088582946155e-01
2.343835872419492428e-01 -7.347761565714114873e-01 4.206542702227920594e-01
9.055759656244045663e-01 -2.786004941095401519e-02 4.438952388838100782e-02
-6.497366886369485561e-01 4.884952207152227777e-01 -3.623880168239927424e-01
-7.604917913426392229e-01 5.298729344809235409e-01 -3.863392235800672814e-01
-3.403473609730895966e-01 -8.387938720690301109e-01 3.859775144656514834e-01
8.721002778331138350e-01 1.716007068408459957e-01 -4.755737882446220421e-02
-6.870674639878813217e-01 6.081521748709693975e-01 -3.446815097610204104e-01
-2.700286738599313452e-01 7.829215065552092012e-01 -3.993343933296422676e-01
-5.620385985975172582e-01 -7.284482170214053864e-01 3.811141192971490010e-01
-6.366679839689602938e-01 -6.178273857926069867e-01 3.525597441141444799e-01
4.151361265529330269e-01 -6.763941638800293754e-01 3.878926010754969456e-01
8.881891062742552911e-01 1.829881585434606217e-01 -7.618873002314162368e-02
7.986438059334554085e-01 5.487556192031580737e-01 -2.551221497195013121e-01
-6.447115294116437800e-01 6.157016280171684341e-01 -4.444455036672295689e-01
5.518470757614019062e-01 7.443793044754838384e-01 -3.853553820218166281e-01
-3.438015275161830919e-01 8.211773041953065455e-01 -4.542146285805994110e-01
7.538580394552294450e-01 6.125864362504940264e-01 -2.413110713811446317e-01
-4.898857045830145029e-01 6.886619844304665561e-01 -4.910120487430021385e-01
-4.617978276370462987e-01 -6.996463051114801823e-01 4.158573123628942492e-01
-8.708181669043906226e-01 2.439912846997010776e-01 -2.882909298588430258e-01
-8.257514244490979927e-01 4.449348971410985176e-01 -2.632447362805441782e-01
-7.811712667279541167e-01 -5.380492610878055970e-01 1.591474051160567393e-01
7.745565249585251166e-01 5.751101527183289930e-01 -1.920976072159407966e-01
-9.048305289833096232e-01 -7.361615947637355217e-02 1.223973314770587621e-02
-7.581115083513901842e-01 5.522596265495927081e-01 -3.473897113778398604e-01
-8.670382046438633861e-01 -2.560410415512655580e-01 1.211194457145879644e-01
-8.785899247785032840e-01 -6.253778195132631001e-02 -4.244139475591850175e-02
1.721892253360394476e-01 -8.604871874918926800e-01 4.737775416765079295e-01
7.120004161383360897e-01 5.654304460193584347e-01 -1.811392604829705766e-01
-1.016504650982512636e-01 -8.584882815016368074e-01 3.993592809299908453e-01
-8.876371200739071599e-01 -3.808493302232257016e-01 1.810129583483812421e-01
8.088643352433492195e-01 3.772220457641640157e-01 -8.978367891124314215e-02
8.860860527654421670e-01 4.454777090341877632e-01 -1.638148424480122545e-01
-6.989912911216590308e-01 -6.484284354217596524e-01 2.454645002503168527e-01
-1.535329141082766302e-01 7.477527109445751829e-01 -4.578922215248278360e-01
-1.965720773146699407e-01 7.686265562095913051e-01 -5.168583040357555003e-01
-6.890137039801609298e-01 5.992338123603947464e-01 -3.349983972991482095e-01
2.097867740690299021e-01 7.828478591985186252e-01 -3.791407941314741126e-01
-1.121643673578047035e-01 8.442823557270002777e-01 -5.197936604013311257e-01
2.106514712203725465e-02 8.772147596290850169e-01 -4.943214316676047826e-01
-6.347248978405739539e-01 -5.950593741152044869e-01 3.410692021235425253e-01
9.847515087013594126e-01 -1.603189171552739031e-02 5.203138596175068548e-02
6.047914443850116450e-01 -5.370059764798958968e-01 4.162003092200418641e-01
8.662366062807712597e-01 -2.714188911030784856e-01 3.012371444843684465e-01
-6.147764731258690274e-01 -5.751120609684652329e-01 3.115152336097147256e-01
4.811906937463371059e-01 -6.258992866605773697e-01 3.855675431229624306e-01
-8.493921609272536699e-01 -2.414769160606603238e-01 3.354128456480500592e-02
-5.917869727674924807e-01 5.596286471834605036e-01 -4.313084669639029589e-01
-7.251146073548776494e-01 5.190423420331712334e-01 -4.138619781935934383e-01
-7.294684589104687422e-01 -6.295306279912844527e-01 2.700440896306058325e-01
-9.588628241443389877e-01 -9.679914621443133638e-02 2.973145964620568793e-02
-8.729598030494841732e-01 3.976617757951333987e-01 -2.619714875983857882e-01
-3.173264210509916805e-01 -8.480113455099199671e-01 4.095149198121912915e-01
4.899742241680224430e-01 6.886468036737212195e-01 -2.972957512493793475e-01
7.269200537516312677e-02 7.661869119544635343e-01 -4.585675149489434332e-01
-1.741436251761621090e-01 7.460588340289541209e-01 -4.459892779081203185e-01
9.918028079572632771e-01 5.850908473129142612e-02 2.174118596336878373e-02
9.441777300234953652e-01 -8.772716076748172942e-02 6.807990956551600303e-02
-1.489339501104325891e-01 8.350400631191216005e-01 -4.092797249245420099e-01
-8.726230091799983546e-01 6.251454937961839486e-02 -1.411582075826640081e-01
2.262509076667575288e-03 -7.593420796873436851e-01 4.506496781283120256e-01
9.448607815819155542e-01 5.754031070102332522e-03 1.543771305233269386e-01
6.086431734514037295e-01 -6.758258248935420376e-01 4.001590491024895613e-01
8.211228509777801499e-01 3.985573679043522555e-01 -2.140701261345029083e-01
4.696181213576490210e-01 7.170940066368740595e-01 -4.245535209188160963e-01
-8.653683045335305302e-01 3.071654264683155722e-01 -1.834717384572229215e-01
-4.404356677847531820e-01 -6.829900719210750815e-01 3.940563516554005385e-01
