-4.086334207945928054e-01 5.284623078880253955e-01 6.447091768122710231e-01
-4.764157889208361363e-01 -1.874704928899613154e-01 6.408888822320141232e-01
1.176659819048853951e-02 -1.638871666443495745e-01 -1.994155286182966169e-01
3.313960503017402970e-01 5.743412188557107667e-01 7.236838141991847051e-01
-4.661725924393362308e-01 5.157500036926991882e-01 3.744267779002868335e-01
-3.356595683669844066e-01 -5.747659110832359364e-01 -1.367011396754115871e-01
-8.310342901734449894e-01 2.345908659341172375e-01 4.344231204326258200e-01
2.254222576730318672e-01 4.006333449382935147e-02 8.338439424436328018e-02
4.701247986516445820e-01 -5.014173397124738196e-01 -6.949273431226794528e-01
6.335237404755457435e-02 -5.471420988432521559e-01 -8.410829800233425857e-01
-5.729212580451337189e-01 2.908847557702423092e-01 -2.761901355107090894e-02
6.010612304528640815e-01 -2.439739453340160902e-01 1.199458043189193940e-01
3.288656814789101546e-01 -4.778520238946237786e-01 -8.239624357269309529e-01
1.680418198923084028e-01 9.024688745514730659e-02 -7.414889556251605951e-01
3.882079125631162086e-01 3.290857355314636412e-01 -2.890915646844974818e-01
9.074305857845864631e-01 -9.656972512327992308e-02 1.111835071421325288e-01
-4.718196188363014687e-01 -2.079963649048090779e-01 6.155932211220481731e-01
-1.221345154972560826e-01 8.126742766987082867e-02 -5.295745347461269237e-01
-1.410577551903543225e-01 -4.309253913270825326e-02 7.971767676785800338e-01
3.328660791549756248e-01 -1.072963915757719766e-01 1.652221327847218924e-01
-2.227317883115484676e-01 1.421005706391786361e-01 8.331840725226466460e-02
-8.525572807815845477e-01 4.836545886390378191e-02 -2.556367760335379047e-01
-6.608782268018323913e-01 3.568267664077802714e-01 1.249371094694828460e-01
1.995499402329431182e-01 2.572924555473199981e-01 3.571690791579786028e-02
2.957056581004176635e-02 4.676182913589223555e-01 1.959690495703520219e-01
-5.582415121088878107e-02 -3.659614207849116313e-02 -2.706987769388258247e-01
3.559455934303534241e-01 2.805836263926224650e-01 -3.685492963791313636e-01
-3.012715576028063280e-01 8.305883465602652282e-02 -2.798554623752400605e-01
6.185729947096083592e-01 -4.226333195395218789e-01 -2.232456508113475901e-01
3.333963627212341296e-01 -1.066211344816578449e-01 1.800499546979678622e-01
-5.915379992884018945e-01 -6.101700354270688242e-01 -4.513603998630431047e-01
9.789265629349553910e-01 1.166095528489140692e-01 -2.261080342173968916e-01
-2.971655022244980571e-01 7.798430095018658859e-02 -2.353265508538252282e-01
2.059777760085590714e-01 1.461566550679688492e-01 3.897585494491424135e-02
-5.360216656720221406e-01 -2.136978750952409911e-01 -7.541258789503703097e-01
-8.947336156435632681e-02 -1.652991190883947858e-01 -1.691957547470401280e-01
-9.072763021323357879e-01 -9.707632275282475354e-02 -2.934315087301830327e-01
-5.473401289345991572e-01 -4.963212996436481284e-01 1.121167344151485779e-01
-2.624762458312322466e-01 -2.399079721570826496e-01 2.519734887942529644e-01
-2.144490592283824770e-01 -7.709028798401596286e-03 -1.771903112257094126e-01
-2.617707198186662865e-01 6.480792194795256811e-02 -2.971289688984470878e-01
-1.372738642726221980e-01 7.859592833413196755e-02 -5.811567141636349021e-01
-7.546168859811620555e-01 2.725931133787391492e-01 2.177387310086423278e-02
5.197401004072305097e-01 5.523727344538273965e-01 6.309435296874821297e-01
-9.191284604218113996e-01 6.363007374744943101e-02 -9.443986388601492699e-02
1.563077456133224741e-01 1.725330893333337501e-01 9.993990130857861864e-02
2.144023395051569691e-01 -2.890531763939454559e-05 -1.271784787623745638e-01
2.232342961451659891e-01 5.752582234162739033e-02 -7.952738125278536740e-01
-6.198142034795177391e-02 -6.114734502007809214e-01 -3.179023556576415777e-01
2.323434065669496840e-01 -6.093193796899931680e-01 -6.883720158521258181e-01
-2.481186940969324350e-01 -5.336607830236395067e-01 -8.218696431517318324e-01
-6.523534609057256572e-01 -5.844714442874934246e-01 -4.127480039532687717e-01
4.917722819913267207e-01 3.106599307048028558e-01 -4.435492983824680935e-01
1.147095658763212650e-01 4.214857409661518228e-01 1.405557478674676897e-01
9.296144416052188886e-01 3.087873664044779032e-01 -1.256904681897209053e-01
2.108646472053726517e-01 -2.036996453256453843e-01 -1.351077428581240747e-01
-7.148280008704817057e-01 -3.388657761973354332e-02 6.417940140095710344e-01
2.414897413426498884e-01 5.787413440579474155e-01 1.996763044926461173e-01
-2.733204745975204020e-01 1.060600559272048132e-01 -2.845296795575888351e-03
2.683659601671577466e-01 5.421898910454420184e-01 1.393793979118601589e-01
-9.010758272917158695e-01 -2.191900120717324429e-01 2.950361976163287103e-01
-8.021322232176232581e-02 -5.892635879966669210e-02 -2.432766659121092245e-01
4.297302066638246654e-01 -1.398332400766662820e-01 2.978113605485893656e-01
-3.949249136619555241e-03 4.330279406586882984e-02 -7.635151171589974473e-01
4.510134426230036353e-01 -4.701075962669887948e-02 5.878922316950493387e-01
1.941479657783549417e-01 -4.402505457862601057e-01 -2.220594829222471422e-01
-1.254107112650738876e-01 6.101331468336447517e-02 1.723414030075066938e-01
3.671801909010378312e-02 1.997954558821950499e-01 1.589661179530632851e-01
-2.055185139230785440e-01 -2.056816442831076175e-01 -1.645048367630160338e-02
-7.957341441141003724e-01 -4.709343339178742038e-01 2.206225422577418743e-02
4.524307991918453675e-01 -4.786370007347143241e-01 -2.626852370299754269e-01
7.570765157153709346e-01 -6.182955865493697939e-02 3.716771675094470151e-01
-2.196965153254311631e-01 1.997345347194052004e-02 -2.298951613485424317e-01
-2.779325457478855066e-01 5.337894291769663679e-01 7.454433104997622017e-01
-4.631628665139964074e-01 4.268830723114634407e-01 1.863930779692276607e-01
-1.472629840604216915e-02 1.403190755956943911e-02 2.537888328820441242e-01
1.682331077492855154e-01 -5.520512686986650541e-01 -8.142624058553556976e-01
-3.434526278652117459e-01 3.153664911857509967e-01 8.702161752585348964e-01
3.186767397362537668e-01 -2.741014427245836993e-01 -9.266122809161318752e-02
1.081129024891755303e-01 -5.983257774157730857e-01 -3.579054069918543579e-01
2.153069269538275265e-01 3.328327280349465678e-01 3.373546378370771009e-02
4.447335962695848632e-01 3.760877034863460144e-01 -2.637557185015498296e-01
7.375869886732418224e-02 6.650708123816094774e-01 4.684861077468153723e-01
-3.319086159435394312e-01 3.070597141669774710e-01 8.853109416714768920e-02
-4.313474091508741060e-01 1.738712758764452693e-01 8.523903483727708341e-01
-1.087595025289322392e-01 -4.814784091615841866e-01 -8.862711853509188664e-01
5.074911515326981093e-02 2.306664733073429119e-01 9.202161958789892848e-01
-8.862589294188595590e-02 -3.514641073346575547e-03 -8.023252212309825993e-01
-1.571111059379618272e-02 -1.204470970659697049e-01 -9.076693813095305652e-01
-3.112155892130664125e-01 5.143589060267653723e-01 2.915841926848002919e-01
8.468967245589340553e-01 1.749779830010039783e-01 -4.530796576201246983e-01
3.546789524567967589e-01 1.936979281481914228e-01 -6.173500567942362682e-01
-3.649356671519948248e-01 -3.636784470807066794e-01 -8.536009892296241297e-01
5.981922055983193015e-02 -6.292444476840254597e-02 7.171781646207893157e-01
8.241340726819875728e-01 -7.072881792092300390e-02 2.858555383537262351e-01
2.573489617471404478e-01 2.618810564346766290e-01 -6.719344314004443985e-02
1.477764685810373513e-01 -8.521246143453155286e-02 4.360393918463079665e-01
-3.224872815135278459e-01 -2.788481982244657709e-01 3.606572331406994736e-01
-7.807104703630081133e-01 -5.075073366043936218e-01 -8.514882647560577389e-02
-8.094874839651283738e-01 8.549509406999045158e-02 -2.662123487677161005e-01
-1.891833427453503691e-01 -4.397509894928524621e-01 -1.068696170032255727e-01
-4.859136888538831411e-02 2.383332306405765710e-01 1.612507389652744760e-01
-3.709270918213374291e-01 -2.708423460154438800e-01 -8.541578329175465445e-01
3.278046689952340831e-01 4.527478031232967659e-01 -2.982500937509086764e-03
2.806369467945674101e-01 2.240901261584206938e-01 -3.766335646832023598e-01
-8.339544104126729307e-01 -3.382790639227319374e-01 2.511856112581219991e-01
-1.136116173568607890e-01 3.764992972643391167e-01 1.790567206956160951e-01
-1.723540775787380519e-01 7.285494560541028175e-02 1.293819558553678251e-01
-2.441960346684526884e-01 2.376126638439690630e-01 9.728118575639885246e-02
1.667543306912838419e-01 -4.671536451646500776e-01 -8.856594736412970459e-01
5.060694461805704814e-01 5.753430072093584924e-01 7.771955706300726074e-02
2.556119877521991768e-01 2.491631938443753524e-01 -7.252592284342318507e-02
1.887851547866774282e-01 -6.293196003694510043e-01 -6.628462813404584208e-01
-1.320935341092578930e-01 -1.574458463350477677e-01 4.540312931400751761e-01
-7.419908434687365328e-02 -5.942620098789950234e-01 -7.957739895348223680e-01
8.429621225674223117e-01 4.621685630255670252e-01 1.871764063776388820e-01
7.730720993501103422e-01 3.192323050352486313e-01 -3.662133198200176465e-01
3.075836528828258531e-01 -9.175869312538552369e-02 8.845713563100739141e-02
-3.522665125225650784e-01 2.190017887651927730e-01 -1.276098339623076439e-03
-2.929936178142350522e-01 -2.169667145578901835e-01 5.431256217001834141e-01
-3.912142545490787660e-01 -6.561829375633373429e-01 -2.972024031835256430e-01
-5.318628321048255447e-01 1.495766558795254553e-01 8.039125585080307834e-01
3.475133403553397060e-01 -1.429775923578451846e-01 7.615649462491110022e-02
-5.919248703956488944e-01 -5.446475170054831949e-01 1.026615598225865192e-02
3.427736082807538720e-01 -3.830462774889766830e-01 -1.600476179308118474e-01
-2.509014518038892305e-01 -1.623367271626172392e-01 6.486429395404227360e-01
8.072900617812421853e-01 -1.543747759047205681e-01 1.791501899010245202e-01
-1.883911888713289129e-01 -4.913642684992091669e-01 -8.663884227778754221e-01
-6.078412716831477214e-01 -4.856174795573300340e-01 -6.402530794867723474e-01
-1.576506184273176181e-01 -2.131627035476451049e-01 -9.148439807908463894e-01
7.686198375144808193e-01 3.271091159664799020e-01 5.392949606930560469e-01
7.464150203611018553e-01 6.460198072072154130e-03 4.600881470734406453e-01
-8.971070222948406281e-01 9.139767484354755986e-03 4.217848750232873201e-01
4.211142782587519173e-01 -1.335578281012737567e-01 -8.760169833949680296e-01
-1.680702754886044259e-01 5.155594183834348865e-01 2.701982351242855351e-01
4.076378110224154194e-01 3.523820927909830647e-02 7.175841215653588900e-01
1.166924205621500676e-01 -7.135333454719187951e-02 3.893696633021563325e-01
5.998160739260297580e-01 4.922897717637202408e-01 -1.188818477222954861e-01
-1.915366343722436360e-01 4.765783259333638555e-01 2.370380342840700816e-01
9.705835297309622911e-01 1.928861355794921073e-01 1.616840849375141553e-01
-1.785125019571197069e-01 -4.073509322503911928e-02 -8.149360442390140014e-01
-7.100499865218132256e-02 2.662735280880383915e-01 9.272409703743738074e-01
-8.376715494085137381e-01 -3.858831624330699706e-01 -3.945247185884860341e-01
4.297194293823219935e-01 6.571668974820199516e-01 4.354154705705584050e-01
-8.900276252121612774e-01 -4.018342422255118396e-01 -1.544620177646462977e-01
-7.218077903668728146e-01 2.661933904450723976e-01 -2.551224663671752824e-02
-8.552843024138357952e-01 5.481931927708179331e-02 4.966881578799030028e-01
-5.976250844976241927e-01 4.632267359599656631e-01 4.526749179953882818e-01
3.231898981433302398e-02 8.930163764344607735e-02 -4.428781763225346224e-01
9.358167897341848063e-01 1.834194203021405345e-02 1.938411047838917989e-01
-9.638183879444290891e-01 -2.357904180837276376e-01 5.900109757913072489e-02
-3.505375901474152012e-01 2.376446271771768814e-01 1.868354285274642645e-02
1.953537946641284162e-01 1.652786328180813336e-01 -5.398131979761779942e-01
7.597212214917622650e-03 -3.253911909531425062e-01 -1.767082326413433047e-01
6.100217037443745882e-01 1.966030171597080989e-01 -6.080338922175854144e-01
3.629006203670560871e-02 -1.353102744697947390e-01 -2.096621382135244183e-01
1.695153744105823423e-01 -8.620187511401966596e-02 5.895031502564239689e-01
-3.408934004520381422e-01 -6.798962203457026288e-01 -5.004294032167261319e-01
5.709011818080381162e-02 -1.103300899990518474e-01 -2.168704738718705560e-01
-2.283406397319062975e-01 -1.295329668116379680e-02 1.923115580676966821e-02
2.142495253742340566e-01 -3.073631329958045888e-01 -9.337873304823642862e-01
8.551839028776082596e-01 -2.443493179422751849e-01 -4.356590440039091461e-01
5.638127721346054555e-01 4.848537179314237333e-01 -1.289918487015186133e-01
4.356485315446439466e-01 -1.114928235326179962e-01 4.280380542975774638e-01
4.850150167142376345e-01 -2.701368785829399988e-01 2.771258452513192597e-02
8.000975947752317907e-01 4.958522914976492557e-01 2.598307061232469350e-01
-9.445010517112255588e-01 -3.060583773348303782e-01 -6.192655249814116997e-02
3.485001853985797982e-01 4.151678295787828432e-01 8.290910755156851719e-01
5.607670615668688407e-01 -7.727800884646747470e-02 4.838775261860788768e-01
-8.926526617784377171e-01 -3.985239219489811191e-01 -7.950755489001391785e-02
-7.333308033352309296e-01 3.612832322273521468e-01 2.576643941891941791e-01
2.039517053651293821e-01 2.145611916967067601e-01 8.898512972213694638e-01
-5.661240350338339056e-01 1.101868063229916178e-01 -4.040904394221251916e-01
9.871066415008099282e-02 -7.324262621239015225e-02 3.943874241917466050e-01
-8.227448925736721153e-01 -1.044328292208937803e-01 5.012997374389771554e-01
-4.444700403656153820e-01 -4.820563108558651999e-01 -7.691185165374558874e-01
-3.563795211946878538e-01 5.354752608525662483e-01 3.438332065607150878e-01
7.986399856094452687e-01 4.080947583156911973e-01 4.458762463936188358e-01
-2.670127399391467038e-01 -3.204051605958653237e-01 6.418646188046167600e-02
-8.251340756519662811e-01 -2.773410952272685748e-01 3.484711509213326841e-01
2.410346200665147431e-01 1.892598693513681263e-01 -3.410363297839685282e-01
-5.022130120171869327e-01 -6.393656170543052797e-01 -4.974764520024818060e-01
-4.240023264626352484e-01 1.227587307156707136e-01 -3.469060858333437580e-01
2.356157732361824075e-01 -2.527171144055798471e-02 -7.856548942537823488e-02
-3.466970790315714313e-01 3.562742477383821355e-02 -6.418028709653897934e-01
1.663172784097927126e-01 -1.739541287807205849e-02 -1.935146656540679411e-01
-3.229793128647194811e-01 4.433514592445925162e-01 2.067074147187986932e-01
2.192880166749135440e-01 3.862186162673855727e-01 5.265118956646513276e-02
6.210208273894064490e-01 -1.607310920304358959e-01 2.938390241813466086e-01
3.209016940414223251e-01 -7.677652960913859681e-02 5.660990814205766331e-01
-6.238123636833584618e-01 -4.130670816821656322e-02 7.022118917003283833e-01
-6.737659082472052807e-01 2.958648354944688474e-01 3.285309005242663654e-03
-2.408061176407654269e-01 2.066825954371663554e-01 8.779222091407527795e-02
1.112774324353447003e-01 -5.946901530147055137e-01 -7.757316495857853322e-01
3.005779272425982418e-01 -7.891727540173207323e-02 1.581001799445697353e-01
5.751998897620069773e-01 -4.157138788540867824e-01 -1.852630600904045799e-01
-7.815559640053425239e-02 5.385870516815166251e-03 2.331175959106028261e-01
3.559855922069751766e-02 -8.850133169638510489e-02 -2.318447920907168724e-01
-3.283993796243048907e-02 4.268115544381161919e-01 1.915421662215971710e-01
-8.644569055279716085e-01 -2.749066963212442039e-01 -4.064328669019970919e-01
2.148211397300712755e-01 1.526020024802068054e-01 1.638905646146074715e-02
9.088087918033896928e-01 7.897583198477414745e-03 2.421963393819734356e-01
-5.500534721683597583e-01 1.555944331444343298e-01 -3.006161969387773358e-01
-1.236544741933878339e-01 -1.001098405434004135e-01 -8.762799542882553361e-01
7.293397717563727678e-01 2.961480264619804625e-01 -4.309171163793485415e-01
-6.614280292671670392e-01 -5.932606268667587335e-01 -2.541684316411401134e-01
5.211596407184263535e-01 -3.675777114740352847e-01 -1.008029816959074842e-01
1.055645453336679779e-01 3.322995245583045681e-02 -2.905097720841918751e-01
-6.708230214278128323e-02 1.634319692633528220e-01 1.692650189559491980e-01
-7.861095389712723369e-01 2.456785911678943668e-01 5.238137012678957261e-01
-7.404115189816962150e-01 -5.482088865820868850e-01 -2.216346783985777003e-01
-1.095886762516453672e-01 -3.650600379241684124e-01 -9.276380170900173638e-01
-2.201298485706079666e-01 -4.285415975385343246e-01 -7.460039358551663613e-02
-2.537906443663724976e-01 -2.256993540313006752e-01 4.115193618711723289e-01
1.837561874111035276e-01 -6.346511885498934413e-01 -4.811667341402547926e-01
-6.188710052120455218e-01 2.839707883166039948e-01 7.146593444488733571e-01
-7.286289549742500093e-02 5.931518111692517525e-01 3.436083391244761365e-01
1.027903624832699619e-01 -3.146155379564991583e-01 -1.824657119827795548e-01
-1.897750952869804442e-01 2.810079628065177693e-02 -2.925707695272540820e-01
1.916064602814431805e-01 4.146096386772535336e-02 -1.913014072214543337e-01
6.880762801953413943e-01 5.617109706640618372e-01 1.255556817926563318e-01
4.057803275705729185e-02 1.873889206414550423e-01 9.138198343243155719e-01
3.864926631491351627e-01 1.465256002140149505e-01 -6.992964149203626523e-01
-8.394562126978774019e-01 8.582899054264685190e-02 5.185758251437428967e-01
1.716620617958901085e-01 -6.138390605272190520e-02 -1.713658648444184029e-01
6.331439377119980616e-01 -4.267275587893110123e-01 -6.079314058300234747e-01
-2.060494539868686359e-01 -2.723680504795247814e-01 -2.425906842437500210e-02
2.366799011881970671e-01 1.423735572065681076e-01 -7.718593535534344630e-02
4.167514921243372639e-01 6.584266636599228617e-01 4.537424877101670639e-01
8.379026519152937835e-01 4.535584310402863695e-01 2.690723888359046190e-01
-8.675681745551200308e-01 1.693149905997675397e-01 4.189917611664005781e-01
9.361415288104288357e-02 -3.169038517731286309e-01 -1.831983767937075958e-01
2.303338068144087092e-01 -7.233305437532196180e-02 6.151859044096563700e-01
6.241933026430463993e-01 -4.474913231199201813e-01 -2.981418232197493579e-01
2.356908304289220546e-01 1.940624983184812136e-01 -4.463648582717807956e-02
-1.704951967934940915e-01 5.901518712163543109e-03 -2.676115953752846166e-01
-2.897063009937985711e-01 -3.937723891547403182e-02 8.049612404923973674e-01
-2.080059667669691414e-01 -1.162054057330084017e-01 -3.451252057232577497e-02
7.436667396349271042e-02 4.641387130551364454e-02 -3.300939592128154243e-01
2.296713083057020377e-01 -8.390709817915614765e-02 -9.999569749713084488e-02
-4.312087999077086065e-01 3.253874190215947943e-03 -6.582065786405187913e-01
-2.058364038112742711e-01 -2.797377660271685440e-02 9.317242810970369216e-02
2.157231423563697389e-02 1.412836195504989512e-01 1.805514347592810653e-01
-3.203530145740017820e-01 -3.170098334553319575e-01 2.113460398095825254e-01
8.075561862075526509e-01 4.802076818006174586e-01 2.973508346647888434e-01
-3.745585209539191440e-02 -2.749785347651449996e-01 -1.647615934741045451e-01
5.492436589797432545e-01 -1.263787047149862175e-01 3.846486287865826803e-01
5.152900036782280813e-01 5.988917810655142171e-01 1.381153940449160455e-01
2.597810588164505829e-01 1.837176115016690703e-01 8.661420539747447522e-01
-6.848387803806252894e-01 2.321305505839102168e-01 6.736861720991151881e-01
-3.611996999504283878e-01 3.657990001654111700e-01 1.266585149652846298e-01
4.709523541703282412e-02 3.330770544905262143e-01 1.472084369543857907e-01
-5.856535812506959982e-01 -3.455125803557564379e-01 4.034490904610654183e-01
1.078779986629696680e-01 1.251412031349044551e-01 -4.710253856927567595e-01
2.208390492512075642e-01 -5.987041576750492533e-01 -4.003193685088761167e-01
-3.795561515699480970e-01 -1.820839415098093605e-01 6.487425980881590393e-01
-4.561439678325560770e-02 -1.242666506414933508e-01 6.022195301515359533e-01
-1.890587003859101334e-01 4.725983073096796661e-01 2.336422087319564023e-01
7.056348355218116097e-01 -3.623680406000184817e-01 -1.539621225643868496e-01
-9.775325967930874604e-01 -6.450214208009158456e-02 -3.036910065644073467e-02
6.780022347662228999e-01 3.133302519096347605e-01 -4.342104569943531778e-01
-8.669649042379298232e-01 2.315749919061406981e-01 2.347237509462215543e-01
-2.841526224957591218e-01 7.265946896139326150e-02 -2.690107640202221706e-01
4.464789482023161504e-01 5.159414540546484185e-01 -1.425872789255953899e-02
1.265785242109962183e-01 -8.830578956880844044e-02 6.095227611821921743e-01
-7.411427310263175583e-01 1.381472735164281651e-01 6.400752294489954197e-01
-9.881876014958670962e-02 -3.505809366520322157e-01 -1.381569289715689208e-01
-4.243994055080885786e-01 2.598621218935026622e-01 -1.419282964319994005e-02
-7.581719733001870409e-01 2.558311331121254084e-01 -1.201856660784029855e-02
4.790249207661321784e-01 5.821950771241470868e-01 6.225076571083199006e-01
-8.804447191134113782e-01 2.032222346368185995e-01 1.325644749875863337e-01
-3.335222431895087380e-01 5.067143076162902160e-01 2.849552346356641896e-01
8.380747578961796895e-01 4.684244308669888723e-01 1.614389708799253975e-01
5.525481458389457784e-02 -5.512378248668628467e-02 -2.469219437303879217e-01
1.295318313629841844e-01 1.297463445362150303e-01 -4.438065587411719748e-01
-1.009953872040755818e-01 -6.859218647320833862e-01 -5.344281527072520799e-01
-6.098424554786403551e-01 -9.831285161863187461e-02 -6.491643182493769260e-01
-7.736002246811871652e-01 -1.231071303352089703e-02 -4.284978097416647924e-01
2.788287666464340231e-01 2.295874781697973543e-01 -2.429239659063387735e-01
8.291461400028241613e-01 3.070056187431439709e-01 -3.260394998645034237e-01
2.385429384184144241e-01 1.745792126628424312e-01 -2.672960110461198857e-01
-6.445325343456049794e-01 -3.289922129183697752e-01 4.171328327275500847e-01
2.118805386299792426e-01 2.106723868336170258e-02 1.457984201311438577e-01
2.238520627978078936e-01 1.347064440087379911e-01 -4.771830725676741262e-03
7.825226023612254223e-02 4.155537022327620011e-01 1.549962631132268398e-01
8.181222592782400049e-01 3.882745550200134010e-01 4.294232288270939391e-01
1.178568882885958589e-02 -2.487745920042577219e-01 -9.453828105471425713e-01
1.688715987374145022e-01 1.713461717899753545e-01 8.664362714120305009e-02
-2.049646648960875839e-01 -2.771746663644286679e-01 -9.128387578413823533e-01
6.106405210472021228e-01 5.366370727050145950e-02 6.159040078700773746e-01
-1.820157166160158713e-01 1.391325376506688249e-01 1.182139027200949655e-01
-4.531223418778062006e-01 4.168284521581993585e-01 1.712462383905552776e-01
9.544945611961666021e-01 2.281453665314872037e-01 2.086781760891232851e-01
6.644597943618699709e-01 2.463591012315912709e-01 -5.292506176403757312e-01
5.707423533010703709e-01 6.065117727815090287e-01 1.846000646854391025e-01
5.377604785071425919e-01 2.233909069541052950e-01 -5.937262635296649549e-01
-2.643919810602436415e-01 3.607820248827872112e-01 1.498404654125282676e-01
5.241939587172305126e-01 3.365170208483367342e-01 7.581325159393912383e-01
-1.146968600710939895e-01 -4.494935805949171193e-01 -1.596379897770213163e-01
-2.390970897307658771e-01 3.367408038150750821e-02 -2.260447328448118298e-01
6.935089932464141849e-02 7.205887481996041399e-02 -3.728553749852936416e-01
-3.302021336302966570e-01 -2.864120966637567767e-01 3.508729559290477140e-01
2.320341507692993410e-01 9.080464689115815002e-02 -2.638941872269755587e-02
-7.024804487646508777e-01 3.373034968103494902e-01 5.658264013328659914e-01
-5.351517128251567224e-01 1.781564291985053561e-01 -2.426482578497194120e-01
5.504308447415828809e-01 1.611879051362731866e-02 6.207562191886601966e-01
4.990591683286644820e-01 4.494539109240126007e-01 -1.681823523031546197e-01
-6.188789303173542616e-02 3.409637680773460189e-01 1.684830990061260969e-01
-3.963358258316255212e-01 2.531957143489649842e-01 -1.892260476397920888e-03
-6.523521013914679312e-02 1.579328314941666478e-01 1.708541633865174048e-01
5.046919642951793739e-01 5.212989076955741874e-01 -3.555278765885638848e-02
-1.786693818295342906e-01 2.564170952337545550e-01 1.349434587404479136e-01
-1.485049502846410852e-01 7.595586979435750563e-02 -4.815281340213627415e-01
3.406172435476795823e-01 -5.992080991130339651e-01 -5.305203279816297357e-01
-4.369439693152881166e-01 2.399087696945305936e-01 -5.128641169238063596e-02
4.011228653381941345e-01 1.015721301215249950e-01 -7.505376564226592384e-01
-2.883125857479970633e-01 5.950015811409444660e-02 -6.047197069223956278e-01
-6.063538030831446823e-01 1.053804777930783670e-01 -3.990115910426128010e-01
-9.408300895606479530e-01 2.758270850707715549e-02 3.040060596922373737e-01
5.614372130285913975e-01 -2.183181237941344277e-01 1.646287994711057578e-01
-8.978116923051729925e-01 -3.737595543226421846e-01 -2.228261073127639214e-01
2.572916671584307147e-01 2.194625063968526635e-01 -1.096312958163719875e-01
2.087546527035070154e-01 3.334644202701387422e-02 -1.512738518369627916e-01
-2.005694603577340418e-01 -1.083664168536504768e-01 -6.602589317401894031e-02
-6.703295862614717660e-01 3.168175434569736604e-01 4.433021416477265358e-02
-1.572497526185135941e-01 4.470173973547897361e-01 2.139471220157215248e-01
-4.406719343561156244e-01 1.618784004546650335e-01 -2.177221969190616391e-01
-9.270901909687666587e-01 1.337305954617931669e-01 1.854317932814744385e-01
-4.719651571980674198e-01 -1.156551708856965871e-01 -7.499775809827043949e-01
-1.662649670699128113e-01 -1.544607196015650441e-01 3.409838892840749702e-01
3.956616371804828891e-02 6.657922364619552891e-01 5.246780696298560809e-01
-5.274214546196015485e-01 2.010394224208049974e-01 8.049924984485372637e-01
7.658030101503493503e-01 -1.987441766499069562e-01 1.423352315944269031e-01
-2.665976186751825225e-02 -3.322178929869216146e-01 -1.681833686902800828e-01
1.610641454919133075e-02 -5.553553136549206626e-02 3.420699299537978133e-01
5.199868764025302736e-01 2.378235427926920220e-01 7.610601912775138977e-01
1.452541145283908486e-01 -9.864012724843639057e-02 -9.084757748944000122e-01
-7.212027591569619700e-01 -4.146657372368067196e-01 2.388328110860586939e-01
-2.271160794293399787e-01 6.041164417413175808e-02 5.622186775159451755e-02
7.632156528721966149e-01 -4.731683584586394292e-02 3.840425062365273590e-01
-7.924376746511698280e-03 6.796802154821791897e-02 -7.147898381850966709e-01
-3.647717348246135582e-01 6.660473138492153944e-02 -5.599178249372429583e-01
6.284767028626266905e-01 4.138532320301422929e-01 -2.767571397635810726e-01
-7.974283949266939286e-01 2.391398306351680825e-01 3.710680063823477374e-03
4.480634226183741881e-02 2.016491615128747361e-01 1.563952683661513632e-01
3.874363375516918367e-02 -1.071041079031412324e-01 5.868233347197926442e-01
-3.266765655995491069e-01 5.141481225561576052e-01 7.423700237088569631e-01
2.473043760674121239e-01 1.784990359996717346e-01 -2.103646543093435628e-01
-2.161356282298796949e-01 5.233919416997243231e-03 8.411031095172021299e-01
4.082206076701099251e-01 -1.115505180754109704e-01 4.198989243741328981e-01
-2.149287345835758922e-01 -5.530357589856554901e-01 -1.792478059529211132e-01
6.668102002232316472e-02 1.063977787178170542e-01 -4.611818435223691282e-01
-2.833178617238849561e-01 5.989058739701906831e-01 5.128406453619063221e-01
9.545918177934953341e-02 -6.221443808957931310e-02 -8.871278950492962334e-01
-1.956668383754480156e-01 -1.452384399402773529e-01 -5.447199565302848073e-02
-5.053493563367645880e-01 3.517318438127490232e-01 7.698030954392095504e-01
8.389471221680618040e-02 2.387606581145265694e-01 1.340983589344543203e-01
-8.643562138563521957e-01 -4.202408962689140326e-01 -4.633373848548076081e-03
-9.866539100183369104e-02 -1.399324520495779933e-01 5.951618132031163411e-01
2.604107503050521188e-01 2.059039495747476967e-01 -1.683168349319310586e-01
-7.946567904667573012e-01 -4.048153506378734390e-01 1.862926435541238934e-01
-4.446790074878637644e-01 5.209200629865263776e-01 6.146756230753008809e-01
-2.165144897473156582e-01 2.036280890280438849e-01 1.036357619318110518e-01
-2.086408772991096283e-01 -1.233029576684213646e-01 -2.689177491887729046e-02
-9.555036753114970471e-01 5.935172971339841563e-02 1.850180120655399163e-01
7.584135777310753168e-01 4.981760097096160078e-01 -9.298654784178217100e-03
7.350489142634509809e-01 4.657619621958749012e-01 4.878566387170435448e-01
1.745866845491273189e-01 1.522964506732066847e-01 -5.775943035699329098e-01
-5.334647835257106951e-01 -6.173303306722457418e-01 -5.259080901037748168e-01
-2.256503019506970464e-01 -5.165574620587767285e-01 -1.369228834921604188e-01
7.280725830636930462e-01 -3.920051033287360598e-01 -2.968692619952510436e-01
-7.404035279764141775e-01 -5.200964845145695792e-01 -3.971380666637155943e-01
1.761252524782737916e-01 -1.119360686780918601e-01 -9.135269397918427403e-01
7.631260086206967941e-01 -3.667296605791223185e-01 -2.927745471482881556e-01
-5.184507676926602970e-02 5.389211842090994020e-01 8.146998598076001796e-01
-9.072457156674823553e-01 -3.482897385316727767e-01 6.372675811801756240e-02
-2.095892911947612181e-01 6.149696483773263445e-02 -3.710339475954234634e-01
2.454739456312838575e-01 2.060117436522713730e-01 -7.333484580843523115e-02
-7.910065418942682225e-01 2.703601105045028152e-01 7.195538672552961867e-02
-9.494609161660904489e-03 -1.308853116147773166e-01 -2.113969493410475797e-01
8.673959969563673766e-01 2.751817338266268065e-01 -3.179687345737410298e-01
2.414181286103083413e-01 -5.865879039559723784e-01 -3.843805558705928882e-01
1.824593372532131164e-01 8.534115761215946283e-02 -7.530508260172776858e-01
2.981234249374715706e-01 4.305616915246480714e-01 4.809887071040910671e-03
-2.760558872474486170e-01 7.785361424460432445e-02 -5.247764078044112601e-01
9.664716165767740508e-01 -8.389207735319695325e-02 -8.963160425299106226e-02
3.185505798579871262e-01 4.590001179531144615e-01 8.214905824352433106e-01
-1.445783810339038578e-01 -2.530136011618204228e-01 -1.015811464394983099e-01
-4.351666588653635981e-01 4.746312159507932726e-01 2.575347657906999488e-01
-1.967069450124966923e-01 1.025304351723920343e-01 1.035033869968014358e-01
2.118858773660447781e-01 -1.220688366678711195e-01 -1.249749875824822387e-01
-5.464472353989825448e-01 -1.128712605749426640e-01 6.948206957792604221e-01
-8.061608818496098783e-01 -4.971999411342118980e-01 -1.775382471822868902e-01
-3.171244772692917158e-01 5.173647692235154860e-01 7.442023232687923207e-01
-7.780750512328556967e-01 2.894701218071456528e-01 4.835853404994998050e-01
-7.725207764884480799e-01 3.186093437711142173e-01 1.872016077526064970e-01
8.525614944920758553e-01 2.957450958676162145e-01 4.251604531747374960e-01
2.621703287079703015e-01 -8.828579686700235548e-04 -8.482507187181247410e-01
7.053596987553752973e-01 4.940342047949619064e-01 4.963027051326734940e-01
-9.336800852596771963e-03 4.047289460201121125e-01 1.784599238423041079e-01
4.610873016547781256e-01 3.286218253912747134e-01 7.964315751007450261e-01
-5.802288865166036480e-01 -5.644875824441349943e-01 -5.777615139380418707e-01
2.273348981769328647e-01 2.223198855480487679e-02 -8.301736554815798419e-01
-3.067501422372459485e-01 4.593622044742606270e-01 2.235666805552044001e-01
1.014326252187223859e-01 4.030073644419696621e-01 8.968205975951681896e-01
-6.445242930767949852e-02 -6.750496016731697413e-01 -4.648480163651194652e-01
7.875053472303533697e-01 4.603057940134878678e-01 -7.800942975189574524e-02
-3.001354772737843124e-01 -4.457102114643434199e-01 -8.596857633443420396e-03
7.972123049016471841e-01 3.977122873757304999e-01 4.579550141554234455e-01
4.314594585390063020e-01 3.752541910188252894e-01 -2.494302241003494847e-01
2.161818498737395899e-01 3.320794075741570484e-02 -8.196788202956373226e-01
-2.189679821152506201e-01 -6.751197307175462736e-01 -6.138358468474299778e-01
-7.338527603322011483e-01 3.103634351868090127e-02 6.446115009329723700e-01
2.563586403402431380e-01 -5.744704960578434633e-02 6.453529915987570309e-01
9.458352528413095373e-01 1.914228047963279222e-01 -2.643322941653113434e-01
3.525580660613264472e-01 3.983300468508628178e-01 -9.681680517050453294e-02
6.585045027614674362e-01 -2.932127718399336613e-01 -7.144584422710152927e-01
5.339659439504523819e-01 1.112030872223970790e-01 -7.155934800436164478e-01
-6.421514777973402754e-01 4.362656978260022189e-01 4.103549783707962639e-01
-7.888152339471669050e-01 -3.934990003381333423e-01 -4.811343005363823422e-01
-1.518273443971980829e-01 -3.241250589017019013e-01 -9.676118698515684402e-02
-3.201985722963865411e-02 -4.518939874671480950e-01 -9.080941908507214055e-01
-4.757298329830925709e-01 3.302990655579648299e-02 8.050784294683359654e-01
-4.471909085962889052e-01 7.690147436452805796e-02 -5.116820752217424717e-01
-2.135100776012898716e-01 2.597271271220065736e-01 9.137090518087909174e-01
-2.083143322054565871e-01 -2.141062489526870671e-01 -1.027732146554384725e-02
2.748222918369750412e-01 2.262060685981254760e-01 -2.184000715084147004e-01
8.317330021138340523e-01 4.737428748455242977e-01 1.260056780752892569e-01
-3.413578871695185923e-01 8.598468354629783261e-02 -4.840892281654152751e-01
-2.172750333560631297e-01 -1.333092002971711654e-01 2.822654293050709529e-02
6.226543760403122768e-02 5.230542255997309639e-03 -8.288217875484344965e-01
8.278700519986950113e-01 2.216853261270792519e-01 4.743212463785111965e-01
-4.029705111460202271e-01 1.403445440525611099e-01 -2.343452381094239534e-01
1.412112250499735280e-02 4.016192972891548529e-01 9.034415771839416909e-01
-1.774639380223027862e-01 2.938286084515645893e-02 -3.076516348536706968e-01
2.394727764826306282e-01 -2.953559524032005057e-01 -1.452303831990733873e-01
-7.175110141772224059e-01 1.496433816336505684e-01 -2.549836884950801297e-01
-4.613848872838515192e-01 1.985643760132528579e-01 -1.468645321405024073e-01
-1.406323780678429280e-01 -1.634989997924211347e-01 5.077230599791106025e-01
8.369909055250323027e-01 1.730336526815904885e-01 -4.667497036690252954e-01
-1.976728335586698526e-02 3.785291176412135944e-02 -3.616470049180541824e-01
5.841928498456753216e-01 1.173837300956536156e-01 6.780351199561145403e-01
6.817721134794639815e-01 5.781354806048119022e-01 2.592040444334595128e-01
-7.740488381033552301e-01 2.330071899387451961e-01 5.564229844458655760e-01
-1.415565181213450097e-01 5.326228115744792158e-01 2.833761059170497587e-01
3.903093220901244220e-01 5.561730440858182467e-01 8.595498802694767626e-02
-3.093646176356181221e-01 2.215308245703047074e-01 4.061649158394369657e-02
4.782492311502412607e-01 -1.864854528104319953e-01 1.895124650615772899e-01
-6.337273650848166406e-01 3.297214465682039575e-01 5.220445043910351690e-02
-7.736656192276465394e-01 1.425384765483252991e-01 -2.172749762973330834e-01
9.235125879909620306e-01 2.952633984564341160e-02 2.319696808655238029e-01
1.775372956604209240e-01 -6.416332602424471565e-01 -5.116474907302821507e-01
9.492679999536931534e-01 2.772445066079901044e-01 1.868553642511068258e-01
3.443418029534182634e-01 -2.208647482534303597e-01 -3.162406518036455644e-02
-7.631048024659184970e-01 3.419855256694326884e-01 2.805219494675011971e-01
-1.879547528755179664e-01 -1.858350425315691834e-01 4.488650929222121611e-01
-2.548274234205139543e-01 -6.676226699966749667e-01 -3.591122611084524019e-01
-3.389977254053595512e-01 -2.960072935456128373e-01 3.371821788946397502e-01
2.342890928302758802e-01 6.729274380318612803e-01 4.400408759664324876e-01
-5.761689516256501831e-01 -3.817176292777614832e-01 -7.240607419232477637e-01
-1.874479977074683737e-02 -1.723575347467387886e-01 -1.926356199477385622e-01
1.324623378496353476e-01 6.327836764100180922e-01 3.351302076036198896e-01
-3.413056676720047089e-01 -5.798712577001114976e-01 -1.415124846968580097e-01
3.856974186729544285e-01 6.644064622058707403e-01 4.130941838015684264e-01
4.883986760342541866e-01 5.782110465009203670e-01 8.786773920680683581e-02
1.844884396738478427e-01 -8.638185754381684511e-02 4.355507934390308034e-01
-7.348292412986422162e-02 -1.024343248060495815e-01 3.659279078286991616e-01
-3.966069556902785398e-01 -3.857357148697564408e-01 2.087448605074469499e-01
-2.601482579012305840e-01 2.298401123959274706e-01 8.364156685264211022e-02
2.724019069232165857e-01 6.119278240751137021e-01 6.957793514077381669e-01
2.134790865765480994e-01 4.589227528431444325e-01 1.000788936674676249e-01
-2.955261101290874159e-01 2.844087170178720703e-01 9.147410326728436236e-02
-9.168282704148745799e-01 4.559418748321398401e-02 -1.295416752801109850e-01
-2.423772081784051902e-01 6.798316839940568568e-02 -3.567096062500874076e-01
-1.995705456876273043e-01 7.809271169391693301e-02 -5.087669225935027573e-01
-5.229725711485010836e-02 1.976739388087566524e-02 -3.378218487347583454e-01
-3.785975846643639398e-01 2.301700510797548560e-01 -1.393348613009944524e-02
1.968218177056751950e-01 9.626364236402873420e-02 8.756756417284242144e-02
-4.432511642473913605e-01 4.899955410136933032e-01 6.825215630650147691e-01
7.199690386345636295e-01 -2.042644263510830782e-01 1.667849533079455437e-01
-1.550328407939654540e-01 6.159137869814443889e-01 6.566878229811582424e-01
7.425292334053286147e-01 -3.169868293990993902e-01 -5.877984415827212095e-01
2.029605174733864759e-01 -7.092263056208381045e-02 6.322150728382834872e-01
2.376962525431206841e-01 -5.567087044698584286e-01 -3.338635536624243727e-01
-2.333152061541131084e-01 -1.935309348845546187e-02 -4.222928432759985584e-02
-3.301236633867691284e-01 5.295529035995585332e-01 7.174140748498415432e-01
8.846354331842552765e-02 -5.349931826349376696e-01 -2.796727555543206400e-01
-6.400203586041303128e-01 -2.722066124674511478e-01 4.970973742821147567e-01
8.586116641349552658e-01 3.049658042076182074e-01 4.105376228602728994e-01
2.337680312343445310e-01 2.007394123427663490e-01 -3.649537841597232796e-02
-2.026405376460464203e-01 6.033262732540567441e-01 6.577258237498516680e-01
-1.482496895930400516e-01 1.685242012550314528e-01 9.144267612318047744e-01
-5.569766485738648631e-01 -5.951883997987784669e-01 -5.491897138545736023e-01
5.838654639314040384e-01 -4.481771379053026694e-01 -6.456147379555974286e-01
-1.149586806289176477e-01 -1.503481662751916248e-01 4.615386359473533373e-01
9.505098885709521994e-01 2.065023543470760614e-01 -2.339246834419213272e-01
-5.959102556837944098e-01 -2.191573571451164437e-01 5.768514005659592936e-01
1.049037285734032571e-01 -1.375710485924405979e-01 -1.929707747524876116e-01
2.687749049289291370e-01 -5.534462023690210897e-01 -7.713263445904904314e-01
1.191903547757897502e-01 1.956036644781832326e-02 -8.233152843977783464e-01
-1.184531007209319170e-01 -6.007202862066242099e-01 -2.807541058080573193e-01
-3.474785329165864245e-01 1.301904254035499142e-01 -1.350156060055281715e-01
3.678996808006623209e-01 6.524765590090831902e-01 5.496925528408592720e-01
4.431667487259641769e-01 6.434071767602351777e-01 5.087997250832897445e-01
2.465436937480636748e-01 1.045899361383171786e-02 4.193156211350507201e-02
-5.516521765977755454e-01 1.391401050154420227e-01 -3.404604280732553279e-01
-1.703112440637411518e-01 -6.427173135598279741e-01 -7.109216079955569256e-01
-2.390172270806840693e-01 -2.772132260638058288e-01 3.834963215554234445e-02
4.731237204052204381e-01 -1.705183950858115138e-01 2.312108974027694552e-01
-2.958284189886078441e-01 8.466280039220359932e-02 -3.453127612359532250e-01
-3.818958788575602115e-01 -4.431222034158019407e-01 8.775653472873519434e-02
-5.580870390013462773e-02 8.656231160376755274e-02 -6.145517298975534670e-01
-2.332881745197117884e-01 -1.664322949228424220e-01 6.310315855403745289e-01
9.460027423865825513e-01 3.009141827791243506e-01 -7.464989923202323963e-02
1.805951794130299104e-01 1.601395478099995884e-01 -5.282202338771142536e-01
4.143690495251723949e-01 1.835430292381518835e-01 -6.495877520803848837e-01
-2.115351474240801943e-01 -1.703668490133153357e-01 2.404645157136295619e-01
4.938541898397499907e-01 -2.957789035608789363e-01 -5.937913497877890349e-03
5.929727019042290159e-01 4.152319968053670984e-01 -2.731293504386543280e-01
-9.795383471357981264e-01 -1.063859780541881184e-01 1.313780655660174990e-01
2.462932380655668552e-01 2.881585132006631578e-01 -2.798798831968540152e-02
2.830376770712087486e-01 -3.116020528751279814e-02 6.867400586201687362e-01
8.775735747927149166e-01 -2.313298835818888011e-01 -1.231810364492578330e-01
1.364287609502420340e-01 3.771664056962532041e-01 1.130067974674413001e-01
3.383580471477888318e-01 5.367866257382107875e-01 7.596270057677698695e-01
-6.658046325963072609e-02 6.009329489526187007e-02 8.722905828497881098e-01
7.208899390629495141e-01 5.241192960362770492e-01 2.245310830718336148e-02
5.280292112948571370e-01 6.362162785012903665e-01 3.694918555077360556e-01
-1.813581185089949976e-01 -9.894683912577997842e-02 2.006035691545340061e-01
1.563166358058960259e-01 1.385682187874414384e-01 -6.170392319686680560e-01
8.876312148479618136e-01 1.108703929120000153e-01 -4.430267770355661994e-01
-7.013526796283894305e-01 -2.160445575391508333e-01 -6.223788422739409132e-01
5.405263804364212055e-01 5.532793771662543048e-01 6.111710134772564418e-01
-5.859272647604256701e-01 4.592605338530934556e-01 5.310288609306892393e-01
-5.953935334670228396e-01 -3.588586341228096055e-01 3.802803138267623062e-01
-3.677481156944908403e-01 1.101991137928868963e-01 8.646064683759562275e-01
5.120607480262433508e-01 -4.424582469618962843e-01 -2.155936273144255233e-01
-6.482531486588416492e-02 4.776295359573282800e-02 -3.862375255054518730e-01
2.913399016763003058e-01 6.714096084305508638e-01 4.242099093247553299e-01
-5.393246468494058421e-01 4.402710161651360865e-01 6.539515554894375082e-01
-3.134544581952445341e-01 -3.138511079153323280e-01 1.988132749170845037e-01
1.390333161673540652e-01 6.638277318972534147e-01 4.224979017116846647e-01
-6.835501363156044896e-02 6.224260413632780320e-02 -4.201196978207373811e-01
-2.150893131940671832e-01 -8.547355298724701456e-02 -3.127143338722718213e-02
-8.171630834342762384e-01 1.944886055134439629e-01 -6.442737339357638982e-02
-9.404558456191199900e-01 -1.696350022466131813e-01 2.506950066763434237e-01
-2.725236192524898571e-01 1.643511088071630821e-01 3.966408010307422710e-02
-8.895401524455288644e-01 6.313682946374286897e-02 4.310970879451586080e-01
-6.982818157979159279e-01 -2.160629929453296849e-01 -6.253769688360878432e-01
-6.546591080390887774e-01 3.936872605715256990e-01 2.132621000025829161e-01
-1.258478702989743736e-01 -4.260082390979462175e-01 -9.087362892204865483e-01
-1.523176134348007138e-01 -1.529292416277745759e-02 -7.964527421783178518e-01
9.577413429902860154e-01 3.968028668480231419e-02 1.548384283818846907e-01
-1.964986960090367440e-01 -1.771722036867072747e-01 5.652895489847931110e-01
9.524534010609487789e-01 -1.100077945428477727e-01 -2.689436172431463046e-01
8.004618994051180270e-01 2.905653594881577040e-01 -3.803812910226877508e-01
2.022325946380505168e-01 -1.114100897787058397e-01 -1.342112066804881654e-01
-5.536638719996583857e-01 3.482089196226642036e-01 6.919105660022449589e-02
6.655881511674091588e-02 2.011013564346489091e-01 9.136456547684315144e-01
-9.059506537998261722e-02 6.943714020260027819e-02 8.790270489831746303e-01
6.289869144655363398e-02 -3.887911740903837177e-01 -1.963145287083128410e-01
-4.307049297900928525e-02 -6.281070171425370274e-01 -7.472645658908196875e-01
7.752027780235142274e-01 1.717857011949773527e-02 -6.235641795722326464e-01
1.986733542794845431e-01 1.660995221318123383e-01 4.578147026432930616e-02
-9.735361821672575688e-01 -2.494147531615774349e-02 -2.637727715277572715e-03
-3.775657666274875868e-01 3.836710195222811995e-03 8.207851326202456610e-01
-6.265824743293400001e-01 2.124518031770356030e-01 -1.754347958441890565e-01
-2.346121601562931591e-01 -1.521216614940236467e-02 -3.677657472481300760e-02
2.049892908339736586e-01 9.708028195327082777e-02 7.088601581469024249e-02
-1.015015771303424269e-02 -8.799274531156663082e-02 3.894655403643452196e-01
1.877189972688188824e-01 1.435536148332059725e-01 -6.326335865889588517e-01
3.928270310015717359e-01 3.177173275254506768e-01 -3.281533149137192407e-01
6.921359283135719576e-01 1.596287290423185345e-01 -6.032554198780186727e-01
-4.494030711082467322e-01 1.048788095362056250e-01 -4.292504363777284171e-01
6.658731503477605118e-02 -3.354777461048188969e-02 -2.573045234410081261e-01
1.972148665181631122e-01 -1.708335822805216730e-01 -1.402110079341164495e-01
-1.534553276222887230e-01 -3.204327318474631519e-03 -2.675022898897048140e-01
-4.947244415333659773e-01 1.399559902262964388e-02 7.900635838759143548e-01
3.873083648653015132e-01 -1.265098564329024226e-02 6.709907281916982491e-01
-8.955120059649878117e-01 -3.849484480529999364e-01 -2.005771938331727122e-01
2.461955183689580329e-01 -8.661565057552636504e-02 3.862266050974417775e-01
5.321738576214278815e-01 4.635148410954295639e-01 -1.598862083522735456e-01
4.340197540995498204e-02 -1.277104989454256045e-01 -9.172848041804335661e-01
6.915643022448521304e-02 1.183726144959308391e-01 -5.757049701738119474e-01
3.490124939975061125e-01 -2.276521034637883911e-01 -3.313674222125095881e-02
1.173870898124686028e-02 1.162850120114232444e-02 2.613683156902702476e-01
-2.542964852404089870e-01 1.345898145681326541e-01 8.951330159863986058e-01
-3.714541213073418446e-01 -1.156290083399981600e-01 7.302921674941980079e-01
7.600806421567762872e-01 2.496255639700873177e-02 4.636129452733276923e-01
-7.662936541974627591e-01 -1.950843473246340748e-02 -4.436644686895631629e-01
2.142464142182589071e-01 1.044937541558423749e-01 4.273800020863327553e-02
6.063111739575682835e-01 -2.916482508446019417e-01 3.026407202888920997e-02
-5.863672630836432031e-02 -6.075152176424026829e-01 -7.791053655925325172e-01
1.215924202946186972e-01 9.685083848024171604e-02 1.690136595526209318e-01
-5.276645361483534025e-01 2.018743878496859490e-01 -1.848570996797553878e-01
3.781534763625140627e-01 2.708983901255503368e-01 -4.428512451254490445e-01
8.700622509697992779e-01 3.434775569934054862e-01 3.631057264180377886e-01
2.581832465683909783e-01 6.178395172625760212e-01 6.910110113753408223e-01
-4.018056576727556672e-01 -5.295865114985774946e-01 -7.594646628217101014e-01
2.207106085445082744e-01 1.646877412045310851e-01 -3.174899772021830269e-01
3.005961592032226903e-01 -2.917772403594549036e-01 -1.141971568667490000e-01
2.977437488024594070e-01 -7.976277916678305158e-02 8.309038375334414084e-02
-7.659314381233498503e-01 2.877312385481469725e-01 5.138203361636211053e-01
5.883251639401098076e-01 4.924169984943980727e-01 -1.178010373349972356e-01
-6.106689968334708674e-01 3.547488659603326155e-01 6.733725990548551366e-01
3.437317756135406799e-01 -2.719921573771210133e-01 -7.433368496016136417e-02
6.501282087612555438e-01 -1.183164945073656230e-02 5.228600618668485245e-01
3.078384862858845605e-01 2.556990781152550518e-01 -3.035322803022691418e-01
5.703520152641140539e-01 1.272561149672098157e-01 -6.896730015444682005e-01
-2.046432354892873118e-01 -2.022367258851290039e-01 -9.001052255830347404e-01
-8.308053225523608365e-01 -2.460658968146224590e-01 -4.679028745365435560e-01
-2.805372727575589642e-01 -1.255337748926713404e-01 7.160321405080994905e-01
1.202402915458550131e-01 5.729076196525411113e-01 2.480434615646238961e-01
-3.802902079399468338e-01 1.354414488142604844e-01 -2.039455645771348635e-01
9.589275952089605648e-02 -5.733909249848012646e-01 -8.078649768650701946e-01
8.012203814941509794e-01 1.264715667380456043e-01 4.849502701509681435e-01
5.112217507616670931e-01 -5.470878403037928578e-02 5.470494214666090649e-01
-2.350722130789014153e-01 -6.854547223220112118e-01 -5.521554570332780632e-01
2.169867656198167516e-01 5.461182792453533885e-02 -1.413017676849058213e-01
7.915585896894963280e-01 -1.622201189969716961e-01 1.832823476037085952e-01
-6.486957993523792543e-02 3.036695974734568426e-01 1.626992856214868888e-01
-6.073602064349591101e-02 5.698075683127558078e-01 7.786913655319270822e-01
-9.178610865708962674e-01 1.421591587343709051e-01 2.589693101297216860e-01
-8.606902387937845345e-02 8.676851612071422026e-02 1.855107465318103499e-01
3.032680697635365963e-01 -5.609498861765194189e-01 -7.389663495618774558e-01
-1.453032727637312282e-01 -6.915326714010219811e-02 2.322610018350744487e-01
-1.412879851357859151e-01 3.780422924755094116e-01 1.786030013265292316e-01
