-1.965412407072377188e-01 -5.539997288181960355e-01 2.930110885178721647e-01
-3.048741140901627955e-01 1.950256113255010582e-01 5.175007666428723674e-01
-1.282352731768976739e-01 5.200055186443480748e-01 -5.004212032250336950e-01
-3.775727486181124776e-02 4.963156806345819794e-01 -7.422186449241685580e-01
2.680367758647541065e-01 7.176510696643123577e-01 -4.283925859847510509e-01
1.805205399216599713e-02 -2.901765650201276192e-01 5.887079340810419392e-01
-4.159429122475117868e-01 5.567368667881450461e-01 4.327329981735487663e-01
-2.306770161806551145e-01 6.473113190705777065e-01 -1.329451758235915271e-01
2.669363233562055057e-02 6.458787532829072253e-01 4.741560026328401900e-01
-2.588636029164593233e-01 8.536884217747974235e-01 -1.265113292986868587e-01
4.398190779577942910e-01 -1.210436933176099600e-01 -7.651446813193918395e-01
-1.595159004384811563e-01 7.895135079834795233e-01 -4.161700225753057203e-01
-2.200234528032422587e-01 9.609143201299823467e-01 1.642880309076813761e-01
-2.789036771638161993e-01 8.916748598876121923e-01 7.129696301043516107e-03
1.196119150500468686e-02 -5.386669152578333897e-01 1.684167908168004157e-01
9.748443336028391609e-03 -5.203939127969695599e-01 2.272879613666222154e-01
1.354956583759058530e-01 -2.279477525854390618e-01 -4.741990274185161058e-01
4.465637386026020672e-01 -3.237069820040923140e-01 -6.616840167462306743e-01
-2.553492285429731501e-01 3.280174563041604041e-01 4.352738780532823260e-01
4.448564745236105455e-01 -1.851388013162866275e-01 -6.702194446204682299e-01
2.119308709756840270e-01 -9.559318992013836613e-01 1.739951407898448956e-03
-1.231748815258698615e-01 9.949506451725457223e-01 -2.543792887147199380e-02
-1.679092801049574812e-01 1.551418954061357935e-01 5.316618915772809428e-01
5.214731576113627171e-02 4.918734099617278477e-01 -2.474957763600354743e-01
9.185091748549296942e-02 -1.651055232632644421e-01 -8.929642819103532636e-01
-3.950804682186487282e-01 -2.389065655719000425e-01 8.475613362023862729e-01
-4.100543085853744496e-02 2.379250791999059089e-01 8.369977452463064349e-01
-1.124198409961998657e-01 -4.056939941269716021e-01 3.951012401193054191e-01
1.240898006954478522e-01 -4.522591561708502739e-01 -8.124402925976815792e-01
-1.630767832795242678e-01 9.769589911545720762e-01 -6.379461455356807975e-02
-2.791141626990304922e-02 1.194424433076788361e-01 8.441073715902233099e-01
3.058159737386518806e-01 -8.572338590474511966e-01 -6.640431686772166331e-02
1.343104715823236206e-01 -6.352749221614099051e-01 5.498853902489344581e-01
-4.243799664256898141e-01 5.630750783710622431e-02 8.732672255618671997e-01
-2.027059908274265465e-01 -6.119189566708620465e-01 7.872139516163422224e-01
-1.986566989198127187e-01 -6.671682924078629062e-01 7.377156507398836549e-01
-4.051719370746221793e-01 2.360253229660367880e-01 8.788138250924278916e-01
3.993882788744301804e-01 -1.812790190720458827e-01 -5.615743571204687701e-01
1.196105160707601478e-01 7.584807914892184311e-01 -6.265069877037078294e-01
-2.682377585708903278e-01 -5.968033848341111058e-01 3.708953313235634486e-01
-3.021164810120897104e-01 -2.113476345103850462e-01 9.508696350184423496e-01
-4.128202872582456551e-01 6.535474702910077927e-01 5.419424071982683611e-01
-5.215460634892359060e-03 -5.402867718361615834e-01 1.646491153556290943e-01
-4.979153824010056420e-03 2.837508276384056310e-02 -7.877684767758589279e-01
-1.426543887830555336e-02 3.216701128226737705e-01 7.100001546438121647e-01
2.501287137092640944e-01 2.014868224378433270e-01 -4.936677067478405512e-01
1.917777238537279605e-01 3.854344241132700577e-01 -8.853970495480554259e-01
-1.903629679990562901e-02 7.116975563901810631e-01 5.530006727396887811e-01
1.510699539788699086e-01 -5.793355649418955311e-01 3.324896495910264482e-01
-8.292233821483709078e-02 -6.706206092740858438e-01 -1.867159018053859976e-01
2.974889903907397271e-01 -7.907436480617628938e-01 4.202597796334023306e-02
2.308200482061018577e-01 5.705645916109359783e-01 -7.636637273819303351e-01
-3.707502110857643363e-01 7.497715481228870438e-01 2.319619183886341696e-01
4.073275200070136659e-01 -3.918744386517298284e-01 -4.840174050707147235e-01
3.877130044353912508e-01 6.709091772812592058e-02 -6.005322292944564877e-01
-4.471727040953846211e-01 4.434772217651611337e-01 5.885913122748711590e-01
2.015399078846031866e-01 -2.715471487957627494e-01 -4.321176596595479591e-01
-1.991746168759414570e-01 3.810833384639877863e-01 3.899040980029925274e-01
3.383093077506793001e-01 -6.796171275871123463e-01 -1.353597531862670289e-01
-4.195424723153425850e-01 1.693493094938437193e-01 8.735773080693676196e-01
-3.495767319416322461e-01 7.045085509809162483e-01 1.565610673063867198e-01
2.671697587410720720e-01 -8.898901537940610007e-01 3.491758745655023505e-02
2.493435193455400545e-01 -4.619763325207014160e-01 -2.742405636791825918e-01
-1.096855579216438753e-01 4.726040148444711209e-01 -5.065354010944547181e-01
1.640243678881047329e-01 -5.926263396254232152e-01 2.283410113506504913e-01
-1.171523542686314784e-01 3.752017791976531846e-01 8.748162289606498110e-01
-1.300857484586734891e-01 6.687331826519008482e-01 7.048710756929398302e-01
-1.343059112454602910e-01 -6.290371239391262526e-01 7.881827137778638637e-01
3.178863924504666816e-01 4.502071791220588204e-01 -4.830865664591686981e-01
3.561438026541581259e-01 8.465994477070599988e-02 -8.940141146483313594e-01
-2.792291971646475579e-01 8.989949195350991351e-01 2.969173270510700943e-02
-4.257830734354796642e-01 5.234780385103874334e-01 4.775112666624864999e-01
-4.352776210893146702e-01 5.406799703095507281e-01 6.267516672010401413e-01
4.423466693477486333e-01 -4.032692839995933309e-01 -6.329583870764595721e-01
2.804891425170584762e-01 6.888490153260898863e-01 -4.465095295886034044e-01
-2.114184996530713290e-01 7.372573135134450339e-01 -3.235050073749324850e-01
-4.275781910235998406e-02 4.747595113381295473e-01 -7.418510279360477355e-01
-2.749537346591061221e-02 4.572420133112025109e-01 4.522208823072422224e-01
9.163305896455843647e-02 -4.794151843474601660e-01 4.649677895697614249e-01
4.033532228557946131e-01 -1.153493557928809421e-01 -8.489246823628825434e-01
-2.544026032991271793e-02 9.464765907089458530e-01 2.292877827764500387e-01
6.305691609447175439e-02 7.371704284999543999e-01 3.207157759341255909e-01
-1.149489372332311438e-01 1.447495802571135970e-01 5.609443028246161589e-01
-1.302449242526800000e-01 -7.569360773290444433e-01 6.656839844483871671e-01
-1.242035036134325199e-01 8.762683185970739919e-01 -3.714626307118054638e-01
1.886478075137136556e-01 3.240181423552647155e-01 -4.298681817852460507e-01
1.296497236252334428e-01 4.276747633568817597e-01 -3.414196156914952596e-01
-4.244407622788097523e-02 3.096659894740418917e-01 -7.540609092683125958e-01
2.481042733727856220e-01 7.411486012891261854e-01 -3.299548319723346057e-01
2.222126532437011803e-01 -8.311519510746563366e-01 2.572711397218747642e-01
-3.087854201640043428e-01 -3.191153632938676377e-01 5.281025317159605548e-01
2.577829538083815236e-02 -2.845370520036983875e-01 6.112651537230746612e-01
2.531645879060510085e-01 1.226047283100710344e-01 -9.429988961781772261e-01
1.799529238644943518e-01 -6.084005887731861462e-01 -7.364578339725708078e-01
3.027628627719646248e-01 6.361214857850466808e-01 -5.343339022979815001e-01
9.457493655366302002e-03 9.378201565060451106e-01 -3.395489890956216450e-01
7.666228361134680425e-02 9.812716914247493483e-02 -9.107641422500744044e-01
-3.785209293219113924e-01 6.752255687067253431e-01 2.633131451100758080e-01
4.057042646747193171e-01 -5.035831199954154958e-01 -6.867581811982180762e-01
3.068859595223945580e-01 6.126766496806145268e-01 -4.800206431802283014e-01
-4.185614124004996550e-01 -2.174473870814130627e-01 7.887375598999619708e-01
4.586543192656649531e-02 4.113377037735248543e-01 -8.427896940197360243e-01
-3.725899083543729451e-02 -5.946055853707622463e-01 -2.041075598167624017e-01
3.540537901487630923e-01 -5.637065786525418121e-01 -2.741026309514022485e-01
4.290226800559495679e-01 -3.729564457919727904e-01 -7.253706058760124309e-01
-2.603625149685483975e-01 -4.773163030689704378e-01 4.185178279337183893e-01
4.061710799236021296e-01 1.242545189598152564e-02 -8.418193533509017445e-01
1.686935351749878076e-01 -7.378643988824741262e-01 4.440766320107523701e-01
-3.164602986515808181e-01 8.489560699228264617e-01 4.043674589288357990e-01
-2.197599953975014619e-01 -7.136366011314884128e-01 2.182901654679861858e-01
2.712007481335301784e-01 -8.119759885209067996e-01 1.248115712042505154e-01
-1.777404358296857390e-01 -4.697638997855527188e-01 3.558390541211226554e-01
-2.350982171455446856e-01 -1.472460979656120827e-01 5.363313973136828450e-01
3.670160788026548548e-01 -3.777143018659792628e-01 -4.341120526813795344e-01
-1.164728584435295172e-01 -4.131196805105392666e-01 3.882277024374966579e-01
-2.379396733599249691e-01 3.246739879710625609e-01 4.357099513161777904e-01
-1.852550311505834213e-01 -8.418158093884342552e-01 4.700664906175998636e-01
2.999119721154572815e-01 6.441802898939621436e-01 -5.111457795541667348e-01
6.115054782960052671e-03 5.445868616164593196e-02 -6.340516719625375330e-01
8.851650253063773899e-02 -5.355855880500692834e-01 2.611003081636108503e-01
1.728917041300200019e-02 7.627010623030484604e-01 4.381517654247676918e-01
-1.632909425192735908e-01 6.663955508548113915e-01 -4.636388797065940093e-01
-1.576406679185776705e-01 1.607434311503653235e-01 9.616616108776989691e-01
-3.573856338788561904e-01 5.248919983965276703e-01 3.348306984241932183e-01
4.443762898848246379e-01 -2.219692870610347202e-01 -6.529233163162618814e-01
-4.455410134996313776e-01 4.930392578337450815e-01 5.930976227956276103e-01
-3.484334572172750888e-02 5.608479548164397865e-01 9.276458405899679766e-03
-5.391256594127853685e-02 -4.250019928132394709e-01 8.740202025915305706e-01
1.724235233968218414e-02 -2.270571968550962327e-01 6.476459999824969449e-01
1.434615442322388357e-01 5.627327258286618505e-01 -1.990533786658509330e-01
-3.748273540116816571e-01 7.094869991297849676e-01 2.412436322375906828e-01
1.299785315020079157e-01 4.334599207664899256e-01 -8.648457310406875154e-01
-4.044068987426056860e-02 2.244385141826803209e-01 -6.613074928784655748e-01
1.812437732227253073e-01 9.215875211689816826e-02 -5.059615709370717251e-01
-3.102110532046752911e-01 7.095635548150148741e-01 3.165151295025075973e-02
-1.066470996942467664e-01 5.327897541667769854e-01 1.586195555761101550e-01
3.353424359041832364e-02 -1.746075088434788369e-02 -6.025619594021315306e-01
-1.673618574208927956e-01 5.819886035050253481e-01 -8.471040731810083879e-02
4.285877031380834201e-01 6.511175401709173860e-03 -7.890136539153242978e-01
3.734611578362249662e-01 -3.723836444381838084e-02 -8.871636152752081506e-01
-1.048301891229011344e-03 9.658669479947535885e-01 1.264619708765025996e-01
1.484475935182192341e-01 -6.464318287214014802e-01 5.104139820071518230e-01
-2.689580179678872571e-02 -5.592459377187464220e-01 -3.665594275308686756e-01
3.992749506841508089e-01 -5.692642569072037251e-01 -3.728702174762691945e-01
4.148934036639517209e-01 -4.022478993555848592e-01 -7.408547550938564541e-01
7.508304824187305576e-03 -3.787778509758414347e-01 -5.430806033995659865e-01
-5.001897762867877489e-02 9.630570617808591471e-01 2.123404674143990201e-01
1.823728864259634708e-01 -5.380309875346471760e-01 -1.139136208303758308e-01
3.358875183239464716e-03 4.490243177660832030e-01 -3.252881987001949304e-01
-4.313463000925512603e-01 2.382133509498373936e-01 6.123903844509858141e-01
3.293796917975896354e-01 -5.148189480025325837e-01 -2.833065257339240639e-01
1.401294206402570464e-01 9.068207723834632583e-01 -2.042058241960412746e-01
-1.913807853866890743e-02 2.028551637680588715e-01 6.917273572776346802e-01
-2.364121697639986856e-03 -6.991148702349463118e-02 -7.471287711333491899e-01
-3.563322517367200626e-01 -2.492176949954858500e-01 8.987333439613951480e-01
2.171547685049005916e-01 -9.403071998423452316e-01 -2.341424084613229761e-01
-1.862478403263313209e-01 7.899141754571841201e-01 5.985228961083853827e-01
4.205863462554173537e-01 2.437200090735121630e-02 -8.091920868129449662e-01
-2.364511192496503156e-01 6.657519857524497597e-01 -1.584966878286098724e-01
-4.218387136002408472e-02 2.886819615016869012e-01 -7.506307217010229627e-01
-2.728991574052793134e-01 -4.662874273934308200e-01 4.379138211816114845e-01
-5.977780520674533943e-02 3.492892869590556448e-01 -5.526867933975352365e-01
2.580286168787034318e-01 7.321281658950312687e-01 -3.766939346107183728e-01
4.199606190565380315e-01 -3.226276424398614173e-01 -5.408487188653452460e-01
-2.934831895726142115e-01 1.192265640939351862e-01 9.733133929715489518e-01
1.169811120051060249e-01 -9.575766987109601835e-01 2.388221447894896265e-01
1.746227295098870536e-01 -9.697472019316428771e-01 7.079065789780943085e-02
-7.446516486141784019e-02 4.091808079726936831e-01 -4.948580979268303315e-01
-1.904686207763679473e-01 -7.751046858546078999e-01 1.261289706128620458e-01
2.514309839644414124e-01 -3.579986243234969390e-01 -3.759277038970804119e-01
4.336076946940950472e-01 -3.670178491125434816e-01 -7.150639477743823136e-01
3.389483500835278607e-01 -3.097962404083728916e-01 -4.486386262255253055e-01
1.924283961342327653e-01 7.040891504356124875e-01 -1.419293401792433296e-01
-4.371221799284539244e-01 -1.723126715544085613e-02 8.337331556238288810e-01
-1.377979150230105587e-01 -5.744235719588941524e-01 8.271232265533254857e-01
-9.680559815380462840e-02 4.067158038572062928e-01 4.107134834408416868e-01
1.360342933795861270e-02 -2.389774583496399041e-01 -7.584297402302185853e-01
-2.315620446997392057e-01 8.558743360854084159e-01 -1.997089321609794299e-01
2.685698471654611175e-01 8.669390335515365920e-02 -5.160211978984949877e-01
-4.551734453357541010e-01 2.108347446945198211e-01 6.916632172905250453e-01
3.939371399475206093e-01 4.389755440791035662e-02 -6.062647246497137044e-01
-9.876421215564144818e-02 5.547371534179529329e-01 -6.306772345547952963e-01
5.169405519499550329e-03 8.220688236188659070e-01 4.005489094630402813e-01
2.872048167064854551e-01 5.543459477485460640e-01 -7.254455325822914968e-01
-1.121579669104335181e-01 5.297800716316206637e-01 -2.874364214573725818e-01
3.756579927732042745e-01 -2.203590251571971859e-01 -5.207143222205259381e-01
2.097029278279166078e-04 9.116416189163967232e-01 2.703637870422100908e-01
1.314659063662055594e-01 -5.595649532470431398e-01 3.028117640033164415e-01
4.368078212980129882e-01 -4.656522842554189912e-01 -6.030897002760953196e-01
2.629371601934568647e-02 5.753086015006489418e-02 -8.595735710988107181e-01
-6.220177080503152406e-02 -8.617496262032177112e-01 -2.145718816763497183e-01
4.051821185710257622e-01 -6.003537975175444741e-01 -3.845295461264837678e-01
2.533289005567111452e-01 7.484164864490009395e-01 -4.123646715195683488e-01
9.999210139144618092e-02 -5.579428708531621872e-01 4.713798349596309140e-02
-1.088870702228311310e-01 -1.003097883658785605e-01 5.661129726108117266e-01
-3.370694071193218455e-02 -5.766880515040226918e-01 -3.604552765135979331e-01
-2.855261293483096208e-01 7.258138177536461733e-01 -6.428814947190734930e-02
-1.353028150696801157e-01 6.187744083551696139e-01 -5.396563045678373083e-01
-1.990880002952623018e-01 -4.496334057015760055e-01 3.856530934973092517e-01
5.942228295027401908e-02 -6.218462177441802519e-02 -5.724044113200341677e-01
-1.880645246719191976e-01 6.437159548694428857e-01 -3.608124494249962400e-01
1.982060797247341688e-01 -9.587717615610314992e-01 -1.771580019539548689e-01
1.351490296650348644e-01 -8.489271784166498719e-03 -9.388354548594551874e-01
-1.914598143112728260e-02 -5.571605644664074930e-01 -3.035275438683189830e-01
9.020118527315099111e-02 7.103558696290659391e-01 1.923805924990053817e-01
-1.165987828666388421e-01 9.815452013022392119e-01 1.863693499941497800e-01
-3.187297262582401425e-01 3.273988043179689167e-01 4.570616193725033916e-01
1.568143128011830478e-01 1.973642677474447271e-01 -4.829533036858169037e-01
1.237554512755353886e-03 -9.552291081018934316e-01 -1.441262828323618683e-01
-5.155550802210203537e-02 -8.155177491658449629e-01 -2.964870611575886605e-01
-9.929913403268444960e-02 -2.045819214293917998e-01 5.353558384443446450e-01
4.112909911223109893e-01 -5.442569770796170658e-01 -6.338618686760637555e-01
-2.049378738167240699e-01 4.045789748020551246e-01 8.973904315317861036e-01
-3.671943737513194694e-01 -2.341581322053929159e-01 8.924749416269366353e-01
1.259343081347342186e-01 6.631434416655397346e-01 -7.226819352617551706e-01
-8.118199248909641064e-02 -6.573750033070767662e-01 -1.586622999273953061e-01
-4.500216896702742275e-01 8.548061202273266046e-02 8.053666139170633231e-01
-8.036969076213247576e-02 3.511524632652670563e-01 4.839346900134190999e-01
-4.352309279701336853e-01 2.156426570609166204e-01 8.372622738405487430e-01
5.209247669317472462e-02 -5.733194851239797885e-01 -6.812790088169966563e-01
-1.427711007131528820e-01 8.489455242519988731e-01 -3.827838451274402365e-01
-1.356808935350062029e-01 -7.141574165977898625e-01 7.120189813050300520e-01
-4.486184850368705734e-01 7.353436315654129918e-02 8.101265965037646177e-01
-3.043268894994830553e-01 -2.152151984299982279e-01 9.487428034336010674e-01
-4.139097890028026749e-01 -1.158868791962728156e-01 6.700634568421559578e-01
3.871465716187417194e-01 3.099827006513226069e-01 -7.472173244755679899e-01
5.261937462357740847e-02 -8.990794239123556242e-02 -8.716708675876974066e-01
-2.366896038756155785e-01 -4.616863880375289726e-03 5.473748429137448301e-01
-4.581508797499438818e-02 -5.999681914459965570e-01 -7.196880971510587199e-02
2.698974815365782765e-01 -1.458075311579159483e-01 -4.895074153693533825e-01
7.959141407240365174e-02 -6.343093367989658393e-01 6.572882967092167350e-01
-4.303065541219748269e-01 -1.383693931284334377e-01 7.299876213230446220e-01
3.413524353209352880e-01 4.055551260505438349e-02 -5.519594125623935588e-01
-7.253128192032524957e-02 -5.812497047613363055e-01 9.789793314855063655e-02
-2.349778956708532263e-01 -7.556282666649030144e-01 5.755321532090706960e-01
3.987200420159128234e-01 2.684156634302909405e-01 -6.694398009492367185e-01
-8.579416435604404409e-03 -8.784822117652449358e-02 6.782216455039526970e-01
-1.073458451107284391e-02 8.977322217220776168e-02 7.865096786786888172e-01
1.050271088085561605e-03 -5.650388959258680899e-01 3.489717686895212750e-02
-2.225197361460503342e-01 9.378555004082431701e-01 2.956749268100285488e-01
1.746993483173538142e-02 -5.320409687083228478e-01 1.931816034486985301e-01
-2.932776836053384989e-02 -9.146789268380914883e-01 4.310789149761037331e-01
-1.954618284504044956e-02 -5.409849109833653191e-01 -5.209828498872457470e-01
2.474791828305163421e-01 -1.220663982942980959e-02 -9.506389092653210193e-01
-2.311553562400276152e-01 9.090898623908932885e-01 3.775866830870165947e-01
-1.441363764498418132e-01 5.683032546452629896e-01 -1.847971204354784958e-01
1.124451876645876230e-01 4.173578980414919259e-01 -3.476992019928989985e-01
-2.419120387005192496e-01 8.189629910153992665e-01 5.498338704262349941e-01
-6.221544753842302850e-02 6.128911872447531106e-01 6.915188912260457066e-01
-2.062773693984960577e-01 -1.099427506143861033e-01 5.406069527356733850e-01
4.318094429385945787e-01 -4.770400913877501647e-01 -5.250341331134331657e-01
2.700487743549407904e-01 5.073843809217931655e-01 -7.848552531859879222e-01
2.281018611562444787e-01 -3.059501235347404369e-01 -4.101424417855873972e-01
1.124955660117918504e-01 -6.418680354557479983e-01 5.984982187399563447e-01
-9.700369580287487858e-02 -7.246188010344076780e-01 -1.880562298090751316e-01
-2.554884122374541100e-01 3.632439343121151021e-01 4.086732197874750061e-01
-1.076333141929993326e-01 8.269700441416751868e-01 -4.543317931542549815e-01
-2.447125952331372922e-01 -6.145681402617904077e-01 7.595831359444812358e-01
2.423570332699666041e-01 7.263129460223006761e-01 -2.883036908138012500e-01
-3.415911854021866922e-01 8.347936488818934464e-01 1.970893809253149442e-01
2.025196124541832343e-02 -2.384688358628145322e-01 -7.778826102079776650e-01
-9.026004051503622172e-02 5.111825810557416583e-01 -2.956499601309315328e-01
1.928138468413367057e-01 7.228352120918072332e-01 -1.350164786521397264e-01
3.213564286605864462e-01 -7.670014993537920267e-01 -4.172391551411804012e-02
3.561472761985424729e-01 -7.852834415791477563e-01 -3.735133156975871116e-01
-3.113800179137984903e-01 7.287360562080988924e-01 1.951288412250395607e-02
3.332232470356065734e-01 -8.079959074018904230e-01 -1.176097180869493386e-01
-3.848460602560653254e-01 -2.798549192207915870e-01 6.308233346717153633e-01
-2.254313544348011678e-01 9.308539160499017528e-01 3.174138011863496533e-01
6.225325131014908253e-02 -7.245279677787876127e-02 -8.850275956439965785e-01
-3.954512925019127434e-01 2.333981547345914398e-01 5.626153829967096565e-01
3.858099739806831185e-01 -5.023763544703918615e-01 -7.217230828765188733e-01
-1.911343670314440690e-01 7.616753310201308524e-01 -3.700628152155122641e-01
-1.813297290952608776e-01 -7.946935147374352415e-02 5.468211149166251062e-01
3.830721095539151716e-02 9.154245918561829676e-01 -3.902213071500563180e-01
2.298898807548593881e-01 6.701733712400165244e-01 -6.643983796173760226e-01
-2.039981884355386854e-01 -7.049075012100823601e-02 9.900265049431392628e-01
-1.162200224171404395e-01 3.004090353642266953e-01 9.025111404956450700e-01
-1.785668862433525128e-01 7.308202053096641837e-01 -4.126539021293465503e-01
-8.889683609179650781e-02 1.000000000000000000e+00 2.761932234702148617e-02
5.355759506638591017e-02 5.538942512152708053e-01 -1.255093197147958695e-01
-1.539075297205821369e-01 8.921236883134333606e-01 -3.058847666147048727e-01
-2.290927303806009757e-02 8.287281878353651710e-01 4.373455548808861115e-01
3.554186299453476749e-01 -1.150644233008674688e-01 -5.371704625822607548e-01
-1.658559558492185906e-02 2.047432267174906506e-01 7.068633559291244151e-01
-3.679168552299958428e-01 4.606470192844708267e-01 8.209420607385784496e-01
6.777539356682096838e-02 -5.549311689227178768e-01 6.936966693880877721e-02
4.094498080260086659e-02 4.362571807635669541e-01 -8.314953653954427759e-01
1.450594643255095351e-01 8.923374922298906720e-01 -3.248924989522170015e-01
2.875050325750777569e-01 -8.984608211559340640e-01 -1.861202522318221309e-01
-9.315818623423762282e-03 9.601056019115786766e-01 -2.749137522028696212e-01
1.802745578842170418e-02 -2.434024233902098155e-01 -7.703277870980992370e-01
-8.809705153765362562e-02 8.859694081511212405e-01 4.211154761345800024e-01
1.613653807165491005e-01 -5.145668293016475436e-01 -7.944552363870576173e-01
-3.059177453816097070e-01 -4.456378775125838798e-01 8.448535423036339642e-01
3.284308201618842959e-01 -1.928972688392013024e-01 -9.042498260536192545e-01
3.156001852529575769e-01 5.988425621146571398e-01 -5.219545155561373662e-01
5.743651154528529867e-02 -1.127457706825605449e-01 -5.698231049600176457e-01
2.575172470023676368e-03 -1.802849734844209628e-01 -7.035326141444103731e-01
-7.761209748746147885e-02 -3.483680624263592596e-01 4.519680024428219256e-01
-8.830869949807754193e-02 7.859428160939460062e-01 -5.183794999874055121e-01
4.729193259722104525e-02 6.506469322733081651e-01 3.568597919980172062e-01
-5.437024722362697807e-03 -1.561242839896429258e-01 6.488450115622367287e-01
-2.110876257899160779e-01 -7.078744880669849415e-01 1.967560618403257910e-01
-3.834026885509621008e-01 -3.828004517877434121e-01 7.592562778538846091e-01
2.968063559488157144e-01 5.414790148057938568e-01 -7.249994216674990888e-01
1.661651554097830774e-01 -6.261852350980167126e-01 4.277027691716459579e-01
6.183584333417427303e-02 -3.453225685995940375e-01 -8.090420975687228067e-01
4.004404315763672728e-01 -1.245148182102421980e-01 -5.802028028961027095e-01
-2.112201678915181235e-01 -2.617940295609267887e-01 4.988702143979205084e-01
4.417041006619342181e-01 -3.692557480559264249e-01 -5.964810850343778004e-01
-8.987612567342305459e-02 -7.206126097953314824e-01 -2.169540786068117344e-01
8.912823719745115170e-02 9.272253629507567485e-01 -3.151510783989731057e-01
-2.976520945125658568e-01 8.309269213042549396e-01 -2.145952620333671512e-02
-2.301243692130595098e-01 -6.414213638895802649e-01 2.747943490628058094e-01
-3.070943228598211339e-01 6.132366801838278203e-01 1.509823720788391332e-01
4.428122247902553377e-01 -3.159112037591390587e-01 -6.146546507238913604e-01
-3.134513311028127528e-03 -1.224927172793126157e-01 6.733478140209834262e-01
-1.731097565490183066e-01 1.878286044936074706e-01 5.188926047386164253e-01
-2.247884757759700813e-02 5.612634277208098377e-01 -1.494594922330358747e-02
3.888071378300802516e-01 3.130463018249644569e-01 -6.478718113700465686e-01
-3.426580923535094692e-01 6.240048386967137484e-01 2.089663528588738550e-01
1.918428967377269201e-01 -4.556469039826864242e-01 -2.658571825922741438e-01
-1.449228694859207855e-01 -6.180416572210162274e-01 7.960823798594885981e-01
3.586547408090530187e-01 4.321081448794466540e-01 -5.830786742820676105e-01
8.502234218965165624e-02 2.639189363083717654e-01 -9.008439846588843780e-01
2.826423870433830143e-01 -1.323961516562437990e-01 -4.964983506386167478e-01
-3.117074176063486801e-01 8.820153574624540749e-01 2.741068221217395906e-01
-3.677606284721952196e-02 1.953519990156537545e-01 -6.922979649729782414e-01
2.126800640456823557e-02 -3.281678597127878350e-01 8.142285676788370008e-01
-3.169962358560909910e-01 -6.022896098960712763e-01 6.596163057124612150e-01
-1.607904213273431138e-01 4.335261299200488527e-01 8.719573959278767994e-01
3.818418729333267758e-01 -3.165343887181076288e-01 -8.283201654533135505e-01
-2.840856576385497045e-01 -3.453855284446185059e-01 4.996920039932171709e-01
-1.988206733313876706e-01 -3.726840263569306533e-01 4.390641692683592279e-01
-6.689583480418924422e-02 3.363024203876078255e-01 5.131196678188748583e-01
-3.356259370063775088e-02 2.044931115966712454e-01 -6.507570669295583698e-01
-1.587030315660895030e-01 2.014315515424406830e-02 9.803610865514326145e-01
4.186479908093362901e-01 1.470799373259163434e-01 -7.548962945233070876e-01
1.940612715570035618e-01 3.785531103203753495e-02 -9.529852507915166360e-01
1.511888854739257548e-01 1.338643746955926472e-01 -9.419452830843584312e-01
-7.959578412581937157e-02 3.969018870785470110e-01 -5.417734484325104072e-01
1.157535525791392739e-01 6.974161970553178769e-01 7.005567541960232292e-02
-1.287792767503438962e-01 5.023283126570946555e-01 8.200851560082695890e-01
-7.930900541324906183e-02 -9.538421430235339837e-01 7.127474074036800611e-02
-2.478403450880006798e-01 6.118612711950862648e-01 3.316758332575125978e-02
-1.191711257458492705e-02 -7.752760074034990012e-01 6.323881309384675742e-01
-2.680581869909601789e-01 6.640710887947121055e-01 7.246341449096379561e-01
-1.775055056886692181e-03 -4.963518413799166695e-01 -3.997931765691692951e-01
-4.857685631155017614e-02 5.562132143155773534e-01 -2.840879572684153545e-02
3.127714074784274014e-03 -3.285493339443886773e-01 -6.747430640754672471e-01
9.483308726961280077e-02 6.725525939754254390e-01 1.052320806545535975e-01
-6.286083233762801425e-02 3.696184052479237203e-01 8.244980800695429490e-01
6.211997024079993907e-02 -9.664252526000877141e-01 -1.842184237438427019e-01
1.458240773694506331e-01 2.911300713732677958e-01 -4.419704974843470247e-01
-2.670167721057433718e-01 7.338427571714921660e-01 -1.352004423586180559e-01
-2.159448921934528989e-02 1.648823392878253080e-01 -6.440053417307269878e-01
-3.340583629070037475e-02 6.542772807399918067e-01 6.217583250592035871e-01
1.000885844547169945e-01 -9.671563380774463869e-01 -2.035020159429270503e-01
3.622430426221818767e-01 -4.240713978939068540e-01 -3.983521043871098843e-01
-3.520885087591920093e-01 -5.037475068474643880e-01 5.879527131091585312e-01
3.371333244718460187e-01 3.824735983533288919e-01 -5.250285564938962368e-01
-1.618431634352010262e-01 5.323649091774507180e-01 8.183403359235261743e-01
2.461095251408367823e-01 -6.325183571001697924e-01 3.469748821356643392e-02
-3.209962215192123380e-02 7.299999534196569551e-01 -6.183957056218617465e-01
1.014291726244444941e-01 6.846429013030785882e-01 1.030462961286550405e-01
-4.890789855566245181e-02 -7.265625249022666932e-01 6.942994532908866034e-01
7.395621085533719830e-02 -4.277295642208703841e-01 5.306797306098535172e-01
1.361579327708311443e-02 -8.447426987799844245e-01 -3.799658408130900944e-01
3.772136298030995816e-01 1.429025876453649258e-01 -8.585600351767751492e-01
4.076207371509488753e-01 -3.905244877724758923e-01 -4.852499695019096282e-01
-6.448020908980219013e-02 9.922305063321090746e-01 -1.240363842459131088e-01
2.012021161059729668e-01 -5.668074222872783174e-01 -5.475870794358848187e-02
1.383038734499963118e-01 1.237485087234424380e-01 -5.074242894740151888e-01
-3.907279229812254395e-01 -5.942063960029216746e-02 6.269905356969698307e-01
-6.594352062354695565e-02 3.157757887103915251e-01 5.298938665902109824e-01
-2.555754028225017405e-01 -6.649656823841806341e-01 3.228340941002453834e-01
4.475962159716131983e-02 -4.643669501588939541e-01 -7.335982449532399974e-01
1.116989864091641887e-01 -8.451212824611349372e-01 -4.676865661957891329e-01
3.311970424435828897e-01 3.718051035266214388e-01 -8.155074803231709968e-01
1.722317759657495950e-01 2.167828443466879584e-01 -4.754864149903532122e-01
1.020603953148275511e-01 -1.560111563230556220e-01 -9.020883913663118037e-01
-3.488477713661944368e-01 -5.334485164054098005e-01 6.480916470648299121e-01
3.399146901941470927e-02 1.279480725295404908e-01 -5.675854000672820865e-01
-1.749931558830996881e-01 3.438710125559916175e-01 4.277576530624515039e-01
1.296817523277014883e-01 -1.224982674089420825e-01 -5.130917043508617104e-01
2.103891934757342805e-02 -2.366667042603903537e-01 8.043134400257784256e-01
1.125959492888307101e-01 2.081701484034150229e-01 -4.870870743247810442e-01
-3.365373883972553881e-01 8.509108009527514005e-01 2.787222772554285299e-01
-8.471115056801198362e-02 -6.493574382578110038e-02 9.459201723548568141e-01
2.583879492022015389e-01 -9.346315065003026057e-02 -5.006484705077918207e-01
-3.358522280181806124e-02 -5.808063091490600627e-01 1.780610640576544765e-02
-3.010848113781962043e-01 2.257081939957418237e-01 9.515611974032652798e-01
-1.497162541520702661e-01 1.361544638117553330e-01 5.440163932749668696e-01
-2.409670768079351030e-02 1.932366356947565478e-01 -7.793919569020069105e-01
8.916523203716633650e-02 5.721897229770638305e-01 -1.220090023249939815e-01
7.069420282932170618e-03 5.807654231436832903e-01 1.608642433764798374e-01
-1.192346989204112334e-01 6.887073102684774240e-01 -5.497694716750032295e-01
-1.525751851296201222e-01 -7.309814572302227864e-01 1.712021487686588364e-02
8.189682978958265358e-03 5.258537973219049588e-01 4.817854235951701813e-01
1.643792154109616904e-02 1.536891922378824382e-01 -5.771337123296887972e-01
-2.962114603590835799e-03 -4.564153658351587928e-01 8.240844899394891288e-01
-2.227254615813906435e-01 6.249328196931625001e-01 -8.621292090401878883e-02
3.660424552360557193e-01 4.072620313937838632e-01 -7.138590571386792538e-01
-1.579204475794100948e-01 2.351343900808528509e-01 5.041413554376278361e-01
-3.047013897948170347e-01 4.479660119455695644e-01 3.539137441468374612e-01
-4.644043466626013306e-02 2.701300472255245208e-02 8.984691443159710245e-01
-2.953076071678557013e-01 -2.675783575413490101e-01 5.316159778949387515e-01
1.476846887471556513e-01 -5.812220245396161333e-01 -7.469221606175616701e-01
3.680021037503108938e-01 1.688079901868509147e-01 -5.813921240749112540e-01
1.023448851922129955e-02 -5.180991704157710265e-01 -6.426254784840641499e-01
4.079607643811060114e-01 -3.281396533585242969e-01 -5.158725799057475303e-01
-6.239795763490763730e-02 3.954801464125932697e-01 -4.861222338161793055e-01
-1.130088073678962163e-02 4.767747526281067016e-01 6.663362181887524383e-01
-6.256075736303511048e-02 5.246907056454155338e-01 -2.061429607348413962e-01
2.660600290877613294e-01 2.938332157233812802e-01 -8.998503406496022317e-01
2.656656419931676116e-01 -8.093624170848890964e-01 1.444179587227421291e-01
-2.598442872604581622e-01 -2.555362572363416018e-01 9.557568692721649661e-01
4.422042937441127419e-01 -4.091421625398671824e-01 -6.154573165675595314e-01
1.410429527376848013e-01 -6.404952798351997156e-01 5.314945896432019534e-01
1.952019029850613208e-01 -6.340755516271292525e-01 2.587383736706683202e-01
-7.579318475509295994e-02 9.987272810795814193e-01 -5.708511422424011189e-02
-1.132706795481867312e-01 7.407144751336470767e-01 -5.263122114376130867e-01
-2.061098839725029885e-01 -4.968847972161222204e-01 3.532097614624890025e-01
3.559464958215132202e-01 4.616874982061168753e-01 -6.707269158321776947e-01
-1.170465079918343032e-01 5.265242266142147187e-01 1.748253802041933314e-01
3.247785467467717568e-01 3.659942259622862015e-01 -8.264180294550020900e-01
-3.053483289974235348e-01 4.494493551489764371e-01 3.529262198435882958e-01
7.254083042459837094e-02 2.744620116427796130e-01 -8.923189088790302037e-01
-1.925598927723027043e-01 -5.910419432609561596e-01 2.514886813534855659e-01
-5.890955398596085107e-02 -6.040556139995785223e-01 7.917558068602643662e-01
-4.331594609749619407e-01 3.507765319286045846e-01 5.711288139326416990e-01
3.101513385239728637e-01 5.065560180381908362e-01 -4.603340579153389900e-01
1.091884762595848879e-01 3.696517516150568672e-01 -3.896399176340224479e-01
1.192721198228747365e-01 -7.066528867746626162e-03 -9.322211282913333008e-01
2.404587250006787746e-01 2.540282211796850431e-01 -9.205537054317664003e-01
-2.781586163028331934e-02 -5.318531047552601532e-01 1.958029799479613642e-01
3.246758916716193655e-01 -9.217864466961203651e-02 -9.207754170650365166e-01
-3.496091352335851665e-01 -5.281845558077729041e-01 6.618383205978315420e-01
2.258816160925800620e-01 -9.417200285842397545e-01 -2.058608782951036054e-01
-2.115230799349766128e-02 -6.351831320043175300e-01 -5.010707184989849905e-01
-4.378446109205053616e-01 2.718232352280461894e-01 8.158118713162303415e-01
-1.891591112860435686e-02 1.509805946831607737e-01 8.052225255773369783e-01
1.293500852274799551e-01 -5.618529200561860337e-01 2.633958475952882239e-01
3.151355143002511072e-01 -5.055751232668288520e-01 -2.760080538341834200e-01
-3.092217082684265220e-02 3.349714428387354226e-01 -5.064454295294704700e-01
2.329341915009698893e-01 -9.197254426507739389e-01 -2.881862276559907787e-01
8.768433136799273775e-02 -7.081163881980939712e-01 -6.112190333125614439e-01
2.322506714060322830e-01 -9.474047752310656989e-01 -8.699010098524537216e-02
-1.179163694861077999e-01 -5.813984477372355908e-01 1.628903749474133189e-01
-1.640886617323604746e-01 -1.908291009441284714e-02 9.837054520185348760e-01
-3.658441862672165423e-01 -3.129631605808365635e-01 5.967090419188505468e-01
-1.462837178625653323e-01 6.136373657968089423e-01 7.567630044403146350e-01
1.892422677480836424e-01 -7.601515936131436613e-01 3.851828982549135860e-01
7.684998239459123193e-02 -4.609800307360262805e-01 6.918073562209587912e-01
1.777983646019773156e-01 -7.258330961863288522e-01 4.252114974082052967e-01
2.101428002777703738e-02 -2.422371743244768894e-01 6.432568221855886614e-01
3.340331320298614015e-01 -7.333290065660360568e-01 -5.473969655496250253e-01
3.219423883054280955e-01 5.630330927588256262e-01 -6.369170896829298156e-01
1.518387497502370620e-01 -5.603995657061298097e-01 -1.490507175020789644e-02
1.370136167820825562e-02 5.127546045504213224e-01 -2.051704866089967827e-01
4.019151357303415439e-01 1.011443435716843781e-01 -8.310048086406085499e-01
1.811042396775102703e-01 -6.562328505957560898e-01 -6.983857426959346748e-01
3.125270713674731943e-02 -1.154985271322369889e-01 -8.366652133752254805e-01
1.712353333777125730e-01 4.707272659364807738e-02 -5.118586277176819799e-01
2.357392668880775866e-01 1.437816014096129913e-01 -9.436769984419107749e-01
-3.104750367270240341e-01 2.914318941740060703e-02 5.604547068547250932e-01
-1.889664668912702933e-02 4.605995818775167616e-01 4.726724767586460985e-01
-1.564623699474714802e-01 5.766586565990039492e-01 -9.464953819954972924e-02
1.567214409609571091e-01 -5.256056473340782187e-01 -7.863091940669203472e-01
3.492793346345163807e-01 -1.385024660589378454e-01 -9.005098687494044185e-01
-3.760106364681359836e-01 5.866091938647866044e-01 3.141376805591865051e-01
2.555440893421341841e-01 3.727845177830335088e-01 -4.383558241767133157e-01
-2.202679397799763295e-01 1.366821034878933638e-01 9.790659688906265812e-01
-7.318256711082270216e-02 2.457727977849303302e-01 5.620922217978870927e-01
4.786762982811026967e-02 -5.491638426327059008e-01 1.224901632943884433e-01
1.739733942333633321e-01 4.055279551184554770e-02 -5.118203624283022002e-01
2.694008342113858867e-01 -4.416392510994587295e-01 -3.068777318218966488e-01
2.942887924218097750e-01 1.988556283610224407e-01 -5.146463394889743137e-01
-3.618777935244799765e-02 -5.838320536461200083e-01 -3.814949165040726342e-01
3.821944465707375338e-01 -3.936860050519157550e-01 -4.430887474462824605e-01
2.047094491698786545e-01 -7.118312568137260543e-01 3.426548555396730089e-01
-9.972734936829973085e-02 9.915480909036736845e-01 1.268222266092396966e-01
-2.201019268993748279e-01 5.815906614635629746e-01 6.279020532868831439e-02
1.302919235592946978e-01 6.510629439475834612e-01 -7.325457436865664418e-01
1.212412743988346697e-01 6.540169575392271728e-01 -1.915723480695301004e-02
-9.693881520510774785e-02 4.958888421096245280e-01 -6.350637216109796812e-01
4.257502696561695221e-01 -5.548174360726126908e-01 -5.216736503548895509e-01
-1.919352957610021282e-01 6.334241419518132910e-01 -3.177173153141141237e-01
-3.556047287895379438e-02 2.573177248490209901e-01 -7.622850723066973977e-01
-3.229444334358902435e-01 -3.937189147593301852e-01 5.233947117956483375e-01
4.146022912523823073e-03 -5.652429020694315076e-01 -1.182292140901429478e-01
-3.578777163670343042e-01 -4.951944614351186380e-01 6.128348886774327431e-01
1.967046554029579508e-01 7.378444972229678545e-01 -1.427153528899730017e-01
-4.165429770604848758e-01 -2.404065053815693243e-01 7.272889154280347546e-01
2.158063502437250758e-01 -3.157393619400049589e-01 -8.965832057525359167e-01
-4.547241108685433075e-01 1.618791069956734274e-01 7.082291183281144153e-01
-1.087346231113427500e-02 1.105653663395159275e-01 7.603962832033104302e-01
-8.288117959821850178e-02 -8.898026967096734907e-01 -1.169741164583458504e-01
2.215307427291979547e-01 -2.332335777515461006e-01 -9.215136083814391421e-01
1.049910356270277040e-01 1.248231013846292370e-01 -5.186264018974598988e-01
-1.635035297563900147e-01 5.979661499477184616e-01 -4.202066937024153126e-01
6.543345651770240967e-02 5.587868871567368556e-01 -1.249479740371938347e-01
2.045527965012238492e-01 7.422701121300647742e-01 -1.662594713190726214e-01
-1.623350884003333938e-01 -2.378995120252057893e-01 5.053690837659522428e-01
2.269437942715594667e-02 -2.202120456062293952e-01 6.718923165640789952e-01
-4.068364971724817147e-01 -2.728198049848619688e-01 6.928105697795451379e-01
-2.290490762064580771e-02 9.344850005039133656e-01 2.561016761468478675e-01
2.094303352535562823e-01 8.068303877895760534e-01 -4.416967682900734826e-01
4.387535469776968067e-02 6.081981168574311925e-01 1.047527958095819806e-01
1.795111991915079308e-01 3.671012994141239494e-01 -4.023052443307566506e-01
-3.240755393378725313e-01 7.757253265264077990e-01 5.497470485374614801e-01
6.762461948880599955e-03 -5.374924460106491608e-01 1.727360206978413026e-01
-2.798808890378307046e-01 -6.597626351057449545e-01 6.589545875220599314e-01
-2.825714885917963298e-02 -5.686532523990807109e-01 -3.249888021929576154e-01
-3.615996376384144062e-01 -4.907460218968933696e-01 6.688130358156644251e-01
2.935965346557902200e-01 -2.383636265599953230e-01 -4.610522242782841285e-01
3.299347268599834293e-01 8.035399178899495232e-02 -9.150020714084656781e-01
1.283840618599326189e-01 -6.364886175108197541e-01 -6.976670787649064120e-01
-1.556452786952243761e-01 2.427918293318339638e-01 9.414996995234036214e-01
2.014651848523349720e-01 -4.212300545837327492e-01 -3.091263111133683572e-01
-7.561113514754636000e-02 -3.971867643072257703e-01 4.064888180369117254e-01
-3.012636959282197768e-01 6.373208800198842949e-01 7.353892314681282905e-01
-3.106535373321137050e-01 -6.247878365797612243e-01 4.909201480999241252e-01
-1.117758437923636189e-01 3.460180008945071967e-02 5.783063835219403037e-01
1.759147390456629600e-01 -3.230914256224630132e-01 -4.023398235150564273e-01
6.177198313460214446e-02 8.729203695227293336e-01 2.099535865119116496e-01
-2.947099116337012492e-01 1.131815581991946068e-01 9.736924371579703807e-01
2.901714376306034904e-01 5.988222611700624309e-01 -6.686284176130217194e-01
-9.067006674406563604e-02 5.555499358248831010e-01 2.256092938674728737e-02
-7.289900912453191328e-02 5.935835779251956712e-01 -6.626152973427530402e-01
-1.348016552775118670e-01 8.117675521233458369e-01 -4.353498221430097126e-01
-2.314903590797949551e-01 -3.778736596129479985e-01 4.510058473755174657e-01
1.858551217572751713e-01 -5.711312023854127062e-01 -1.937176571887455276e-02
1.971780666858179432e-01 4.682974783623355397e-01 -8.456304433139595345e-01
1.668901535618445842e-01 -9.409024748804649674e-01 2.003103139112215325e-01
-1.319970608822035596e-01 2.830206916943434070e-01 9.180942170343011632e-01
-2.576571485056274868e-01 -7.585944399893441714e-01 4.765539493620860600e-01
4.882390612437306071e-02 4.177510030602489023e-03 -8.815435242820562900e-01
1.634934743285921255e-01 -5.969724443501486233e-01 3.362041987262402998e-01
3.735388800731613834e-01 3.217253800393830021e-01 -5.976271295223931634e-01
-4.567698276924626044e-01 1.399109225458781414e-01 7.381875852018536799e-01
2.750577123258873304e-03 -5.797523405783221451e-01 7.690795807251139538e-01
6.301004027061818391e-02 8.816917818448287703e-01 -4.553541543164940086e-01
-1.228238941821222785e-01 5.219488101080528297e-01 -5.477022707849528160e-01
7.246110331780494795e-02 -9.189505455608731888e-02 -5.572803854079556585e-01
2.767966060065234490e-01 2.402142298434614964e-01 -4.963637912735034963e-01
8.570929290772963394e-02 -4.868267253954250418e-01 -2.487154680520741179e-01
1.002133344806077631e-01 -4.904056724750873730e-01 6.120794425442098730e-01
2.503010597375570634e-01 -7.059659639980213619e-01 1.665452213002294179e-01
7.175950609014931925e-02 -5.554804702676867656e-01 4.006875350113055234e-02
9.858089363213477785e-02 8.740462897063739911e-01 1.034844978403185178e-01
-2.544046537408367059e-01 3.542545303025129155e-01 4.156206720479369565e-01
-1.816647070048135471e-01 -2.077175885589195303e-01 5.164319805114949702e-01
2.708429341203353879e-01 1.503490448517021405e-01 -5.106664579866344589e-01
-2.142953422133460906e-01 7.182367030990267631e-01 -3.127168547227088258e-01
-1.344287108846276002e-01 5.312843668612867720e-01 -4.194864745350327384e-01
-2.394414367954844081e-01 6.560034058889935293e-01 -1.200486370761234683e-01
-2.746250451528982617e-01 -6.083812291450773069e-01 3.803474161207892057e-01
1.235940871681067282e-01 8.788920197893648201e-01 -4.188417969368414262e-01
2.699630975286972934e-01 5.555480534060036613e-01 -7.446765881968654410e-01
2.437234639500738265e-01 -6.191017015941724377e-01 7.783790341069549840e-03
1.026379249918470127e-01 6.519820829189607592e-01 2.945321978548849640e-02
1.967453736077296178e-01 -6.505257814756076895e-01 3.042589444243969932e-01
8.229665566813455790e-02 9.523841582013954365e-01 -1.495700464939916929e-01
-1.446315442918825189e-01 2.087420456420799320e-01 5.221296536745068106e-01
7.203611035313541543e-04 4.809454813034513831e-01 5.793404225852060163e-01
-8.310503305059031842e-02 5.271063931417974135e-01 7.699092379495887650e-01
4.368291329031837207e-03 -2.214145184692960511e-01 -7.168760283915087683e-01
-4.340180042387353221e-01 5.744243537115348852e-01 5.462839703008950387e-01
3.716935996640315931e-01 -4.710708364416939520e-01 -7.610904390676873632e-01
2.004022308387511664e-01 4.263939014343952616e-01 -8.661309625451552030e-01
2.621635387477438961e-01 -4.404739285437910823e-01 -3.044223347602790786e-01
3.593994866803806171e-02 1.890400857652524691e-01 -8.746944793827486908e-01
2.660890145229425352e-01 -3.181290156034433658e-01 -8.920588317338250528e-01
1.709087032592298272e-01 6.001878936172431178e-01 -7.662024652207338749e-01
1.831289177586754302e-01 -1.412265777498844521e-01 -4.903417096274187981e-01
1.721605972228738846e-01 6.681515514320568450e-01 -1.200426286932699815e-01
-3.547798628950296629e-01 4.696390815385406148e-01 8.263384736087131532e-01
1.661195567818594954e-02 -6.663294316543572071e-01 -5.655503348797269458e-01
-1.330994874905239711e-01 5.416999553112115118e-01 -3.273067680173532001e-01
2.798726964831780295e-01 6.397108328550394907e-01 -6.298169604512100506e-01
6.321331511806770054e-02 6.903553107020843349e-01 3.064878774261038386e-01
-1.914515015260366548e-02 -1.702731085317590320e-01 6.180973889692710221e-01
1.040220042980293802e-01 6.536675394511034520e-01 2.889683451403866898e-02
-4.432753243900730000e-01 3.045300780199488438e-02 7.091572081219383872e-01
-1.636554176480015943e-01 -6.860120539882537116e-01 9.120039007818579735e-02
-7.556379064971649809e-03 4.249500167159682151e-01 -7.961344829505635490e-01
2.160111107850472556e-01 -6.893411009279034607e-01 2.815037318855018178e-01
3.603837296325439942e-05 5.523609040142926085e-01 -8.765348009890656933e-02
4.230901539949146611e-03 -1.535046537699796543e-01 8.315333997942286892e-01
2.818502216010597694e-01 -6.239248245901006795e-01 -7.124325764389568549e-01
4.228224515740234835e-01 -1.182252365331826621e-01 -8.152800759019419585e-01
3.542887465220091736e-02 -5.578997642735312734e-01 3.195323722514956111e-02
-2.074121919617318566e-01 6.884718637597893043e-01 -3.233333648040815911e-01
8.233071653317099170e-02 -3.632485464465440850e-01 -4.203020353214036442e-01
9.858670667824477596e-02 8.491465862254330421e-01 1.377035864136408883e-01
-4.589776443305597364e-02 4.617407201583935139e-01 4.033650650760119416e-01
-2.397775825409884376e-01 6.667536123210239252e-01 -1.462109427059324340e-01
5.704504979579672758e-02 9.467870776184404980e-01 4.917769119921303056e-02
-1.796055849031606144e-01 -3.353176923048679092e-01 4.564489036098194896e-01
-2.316930728498155234e-01 6.702077216725019770e-01 -1.905786611764884175e-01
1.003768571590550329e-01 3.650719546632492096e-01 -3.938138464870662991e-01
-4.580128434871141158e-02 2.424177306030703694e-01 -6.993862897839379089e-01
1.050337244872592418e-01 3.645360106289223245e-01 -3.939461737355895998e-01
-3.029357543775909600e-01 -6.643155577339303619e-01 5.276249039941817154e-01
4.034579065309009116e-01 -1.093434146524844934e-02 -6.112008016618402095e-01
-1.064923850286203233e-01 7.771718570790245861e-01 -5.056735137150936144e-01
1.510146597627217979e-01 -6.682020462028129826e-01 -6.808170764368904893e-01
1.745956116802568903e-01 -1.438368731731423100e-01 -4.914982791405086426e-01
3.378003380182384788e-03 -5.818304029450629411e-01 -5.942247130913498321e-01
-7.555559464665420610e-02 -1.713277253241854980e-01 5.627349029191129892e-01
2.928488491488379086e-01 -8.863481300867305235e-01 -2.546280912332250512e-01
5.372062100433698528e-02 -6.479421867026347037e-01 -6.305400723676762853e-01
-8.439441344010198409e-02 -5.832697178412219463e-01 1.111458299833974345e-01
2.606012222306444137e-01 1.720281925295176484e-01 -9.335032117105833693e-01
-2.263813832617483091e-01 -6.486314590380720668e-01 2.629146547816597068e-01
-1.165590366295286839e-02 1.176655920991526577e-01 7.725882422066419064e-01
1.409993747455719378e-02 -4.190364816084919397e-01 -6.952186990859139382e-01
1.424210542551091196e-01 -2.838301156682591225e-02 -5.202671321948653116e-01
-4.120113364554223723e-01 6.580339723953957387e-01 4.116028436240410371e-01
-5.942116741324702384e-02 -6.325123851095769689e-01 -2.514627168825901427e-01
1.545921829825198657e-01 -9.656855671398922869e-01 -2.018061174341507780e-01
-1.706475842730596493e-01 6.056609228242740839e-01 -3.890523735319805221e-01
4.275305870010570053e-01 -1.318002054168880000e-01 -6.257718299265990769e-01
9.745356439480518107e-02 1.030376966065410099e-01 -9.234358478594915098e-01
-1.902863851713689491e-01 4.286270900137670870e-01 8.834465593106511916e-01
