6.768864393705571469e-01 5.827511520217675267e-01 1.345625334654762806e-01
-5.397164883913649902e-01 7.190397379824955415e-01 5.436793265410653220e-01
5.350650144379954787e-01 6.780943124872970129e-01 1.298268540433958063e-01
3.612306711905350354e-01 -7.097571791638157546e-01 -5.709677468350639051e-01
-8.325213159195234969e-01 2.136128504961949115e-01 3.205456327733126054e-01
8.737976052318322528e-01 3.668254771219386368e-01 -2.444200430066547150e-02
-6.077836674636861725e-01 -6.458411281121161363e-01 -2.016294020838299006e-01
-1.541575903212994147e-01 8.836263265909197751e-01 5.340543175179233160e-01
8.484011436823051255e-01 2.778885395650515511e-01 -2.537097618160302215e-01
-3.861814368648613383e-01 7.686389207458644846e-01 4.262901269632115575e-01
-8.733560088093690332e-01 -4.037722025493094558e-01 1.933329101653357696e-01
-3.695562413306041627e-01 -7.567125224337691858e-01 -2.135175442199519213e-01
-3.261988459531892648e-01 6.938208100637726083e-01 5.580220676892135856e-01
-1.529705399678359390e-01 8.982347229948247636e-01 4.180228672062127893e-01
-7.272284027591378042e-01 2.810555199734871001e-01 4.245112333741443700e-01
7.346016343927449510e-01 -3.454489100678678204e-01 -5.252452143246957306e-01
-4.373803473880502612e-01 -7.115963587433800086e-01 -2.091482287003464391e-01
-3.199246178876447022e-01 -8.981389035946084620e-01 -2.640797270998056501e-01
-8.341161964894696634e-01 -1.522441816273834014e-01 2.348738564138383167e-01
-5.584716439792856146e-01 -6.456919981774078554e-01 -1.708311881234392260e-01
7.070579374720297183e-01 6.768817099458878106e-01 1.786463086288020419e-01
-4.743896235817776641e-01 6.074922374388321833e-01 4.430156092177119365e-01
6.418578244220723983e-01 7.287816993935990473e-01 2.273145251123121768e-01
-9.558102926545067879e-01 1.659468813647031193e-01 3.857350517627679554e-01
1.666283524973058427e-01 -8.777013332132409529e-01 -4.832035412655494300e-01
-1.290336501069614672e-01 7.631545571479076973e-01 4.244415320380328649e-01
-9.984177537432226135e-01 -8.426430394302848736e-02 2.951409854926971277e-01
3.834722278320088495e-01 -7.489177902581194424e-01 -4.185464899096308367e-01
-2.010842693301210515e-01 -9.248934146171141624e-01 -3.411239446485289095e-01
-4.437375892382818265e-01 6.772827305658500885e-01 5.878073886611093757e-01
9.081362641273543757e-01 1.811728654707087383e-01 -1.311802179986339412e-01
4.050735373955994811e-01 8.924256163957118293e-01 3.401352008434496699e-01
8.609050530177633775e-02 -7.604977788125136806e-01 -5.131875045975456962e-01
8.630436136019269400e-01 5.456630150520436207e-01 1.839551960717490664e-02
5.979211995870833407e-01 7.488666144674817060e-01 7.090900678371983568e-02
-9.774684529884229978e-01 8.761092112832043199e-02 3.413010743176739803e-01
-7.165537551340837863e-02 -8.121693273110009992e-01 -4.857671995206205851e-01
-5.761220395250138404e-01 5.352986064941270827e-01 5.687389987934854396e-01
-7.309248890740320803e-01 2.774400378753085206e-01 4.614807027289766772e-01
8.473153968015249005e-01 1.347357707988437910e-02 -3.889552765970075709e-01
2.303224643512001846e-01 8.447126719579967080e-01 2.659665317867750400e-01
7.563779331023404717e-01 -2.868042117967153359e-01 -3.421004074336226886e-01
-6.591168151892879967e-01 4.422890600174524955e-01 4.105594639101056709e-01
6.976194639603242598e-01 -2.758204312648100953e-01 -4.048322753667261131e-01
-3.925409341648616324e-01 -8.850661752053394782e-01 -2.379779275792424098e-01
2.554442575081738442e-01 -7.065695782491935306e-01 -4.128393210940850544e-01
9.377345216027708208e-01 3.099807254980185833e-01 -9.272927478820772174e-02
-1.000000000000000000e+00 -9.765737337798326145e-02 2.819008952359333686e-01
-8.971127829020700828e-01 -4.804310243245433765e-01 1.230690592228188274e-01
-4.900101807152923428e-01 -7.105812100792319175e-01 -2.753134538656645258e-01
-8.967203366348222016e-01 -5.117875642745123299e-01 7.559944401056324648e-02
-9.234411876411748876e-01 -2.104872504470715888e-01 1.175942477270068703e-01
-8.689493530413882061e-01 -2.161115935193657078e-01 1.220138416858695396e-01
5.450950289944445082e-01 -5.773615459925727222e-01 -4.033345090244776499e-01
7.662348695992728942e-01 5.171467149899212634e-01 -1.027724344012134333e-01
-3.566740639087084275e-01 -7.375069067223035679e-01 -2.604835286932389860e-01
-4.454487015206044509e-01 6.576041250677397976e-01 5.834917603337826941e-01
-7.318840984632108970e-01 -6.894974979355583677e-01 -1.529308032258444028e-01
-9.229701765333820918e-01 -6.148625882049026103e-02 1.952918926061243954e-01
-4.176106496658421041e-01 7.546292236999213587e-01 4.297429282801817352e-01
5.679423018461836614e-01 -6.308513609309206460e-01 -5.508651384716778399e-01
8.291575492831173566e-01 4.312513910456970967e-01 2.232870110226671881e-02
1.074366920827095895e-01 -8.265799792355502662e-01 -5.340388561083566632e-01
8.105474182550704842e-01 -3.272104580067744517e-01 -4.997715086886966862e-01
-4.845031664148558570e-01 7.499316600533799670e-01 4.583369934222011888e-01
-3.908200132591312381e-01 -8.296900206426597313e-01 -1.889830555564817605e-01
-3.622874425126055842e-01 -7.697482101375788810e-01 -3.596744738505587291e-01
5.629093825589858158e-01 6.942434671805448598e-01 8.238990477726323980e-02
6.690788495759328880e-01 -3.458535564899293813e-01 -3.967513819050239032e-01
4.718020851595207121e-01 7.672954232331226088e-01 3.192448604393843814e-01
-9.823551649785249307e-01 -8.187803480209060458e-02 2.192091464938799583e-01
-1.754829261728973744e-01 7.451924002651731938e-01 4.401543424083650402e-01
8.557691690024969988e-01 8.571839930506425535e-05 -2.277609537133062911e-01
-9.284917783417552251e-01 -4.129876181148028347e-01 1.628171446293033287e-01
7.773633093766734170e-01 -3.766662573351974297e-01 -3.676860875647655069e-01
7.520905651627481925e-01 -3.606606536895223813e-01 -3.570309997817275871e-01
-2.359883526872327553e-01 7.269674210323614494e-01 4.436407191970898056e-01
7.675759772290126071e-01 4.353621984308880255e-01 -1.214364130160483501e-01
-8.981881203346008258e-01 -2.647120616391613335e-01 2.746502280649015248e-01
-8.178598645269844480e-01 -2.821578603427012943e-01 1.853684455553143706e-01
9.372234090272148210e-02 -7.906045260215045500e-01 -5.308504810053344958e-01
4.833730038413544539e-02 -7.474168898815229944e-01 -4.084211241721484864e-01
4.875943237588599155e-01 -5.393455370658348791e-01 -4.396969669197075548e-01
-8.800959798449138338e-01 -1.930303133059950993e-01 1.314780622640221441e-01
-4.551469504999990090e-02 -8.157507897565045019e-01 -3.297851826307234835e-01
-6.871346542475299524e-01 -6.478694492271115379e-01 -1.866277950178270306e-01
-9.427141137506969693e-02 -7.631662984369920188e-01 -4.190679720272020292e-01
-7.387661699011803806e-01 -4.866936744637044288e-01 6.678376685317603811e-02
3.799449750582629959e-02 8.635740874596363748e-01 5.098934574797600039e-01
-7.260693609944871563e-01 3.061526752490137393e-01 4.005602610082103499e-01
-5.627135810661226811e-01 5.957429443545675385e-01 4.192199898816136860e-01
-2.328660008574830534e-02 8.037656138547936147e-01 5.094135729069688701e-01
2.195267961914222632e-01 8.667299420424157130e-01 2.696454598964272975e-01
-8.842471141901152576e-01 -4.106762321410900585e-01 1.886318386456250773e-01
5.214588468900005491e-01 6.864556496892125770e-01 1.405913849730735521e-01
-9.525383989319583522e-01 -1.062018150165677799e-01 3.492863586684293864e-01
9.129604553001204048e-02 8.112812004394897025e-01 4.707855392253978422e-01
-8.791842164956983896e-02 7.698268545557559461e-01 4.217108717831137832e-01
7.865470917876273838e-01 3.380807774096208917e-01 -1.466560185861289223e-01
8.127095976358110485e-02 -9.021710619479231807e-01 -4.568747210856163865e-01
8.919443266585473651e-02 -8.275783052655486527e-01 -3.622712506411693290e-01
7.184195111156647107e-01 -2.717554033900608235e-01 -4.822437375973633311e-01
-6.346322828376085301e-01 4.186420673378395962e-01 4.583566200829997661e-01
-8.375523634550597896e-01 -1.420253674393568699e-01 2.201567182341723772e-01
6.873952991684352254e-01 -3.673569689591543175e-01 -3.753049356834247674e-01
9.256357265742312102e-01 7.412811883613917852e-02 -1.912393167746007372e-01
8.813274695270106873e-01 -2.538039632710293869e-01 -4.406506133942078574e-01
6.981037440639482616e-01 -2.899859352114430022e-01 -3.902005947756695958e-01
-2.731343607185998668e-01 7.798710571814587711e-01 4.089624615310357147e-01
4.832166927700854431e-01 -7.297714508307477921e-01 -5.037447971164806804e-01
-3.174965273248924191e-01 -7.580881884186706499e-01 -2.548706650981582555e-01
-5.091601285026307044e-01 7.034127064169388710e-01 4.354252862341833064e-01
5.507878589210365439e-01 6.792915154564771463e-01 2.241093254431159865e-01
8.450845760633862724e-01 2.818305755036302762e-01 -2.497593182231542253e-01
-8.229901087782764968e-01 -4.336532543233472259e-01 1.623085457380839536e-01
8.578508504305881743e-01 5.667561202519847408e-01 -3.409714180211675244e-02
-7.708872041068921543e-01 4.940202375050446459e-01 4.356354662978053627e-01
7.357316122560555449e-01 -4.604067294234172603e-01 -5.217418699016931338e-01
-8.461232289260801620e-01 7.792401200734586086e-02 4.296058275784926384e-01
3.980995708246498066e-01 8.867760362328901413e-01 3.515409653621380248e-01
-4.730494425188807583e-01 -6.924686641216732941e-01 -2.213722216624360584e-01
4.041903702285840061e-01 8.573505614707453981e-01 3.641954969917708396e-01
-7.796957474474456307e-01 -3.843731604927527190e-01 9.776411833308684685e-02
-2.683229534774746530e-02 8.144549322677746561e-01 3.692785070447548446e-01
-7.498950078957244969e-01 5.346962078799836204e-01 4.916657358910785369e-01
2.435576558708557882e-01 -6.961966865449300546e-01 -4.257556151820234280e-01
-7.293349868752847520e-01 -4.865564420787375499e-01 4.661964248370398939e-02
7.339332673221924397e-01 5.568527656611154120e-01 -6.878325070060600788e-02
-3.328610572894089990e-04 -8.180291348816957075e-01 -3.410308078008330024e-01
7.917050654734522075e-01 5.324574406860561604e-01 8.800803477576858713e-02
7.900487599018787277e-01 5.880567466766183360e-01 -6.802850145752252498e-02
-8.797786175332963365e-01 -1.304522608293826880e-01 1.692227205651767874e-01
-4.956381872555483681e-01 7.573238879255658196e-01 4.848134514899357650e-01
9.265175195719439483e-01 2.939047336586183001e-01 -8.658711809284974636e-02
-8.367105018243069514e-01 -2.192293471247765135e-01 2.440946066727965325e-01
5.114972446587666699e-01 7.979732550548759296e-01 1.259829058595348938e-01
-7.886605470023564379e-01 4.369756524487067861e-01 3.999470642010630184e-01
4.576245443064549390e-01 8.914790892858308613e-01 2.777451700486159303e-01
-8.014654664801561523e-01 3.186835285917445360e-01 5.253487082024317356e-01
4.538003740381430506e-01 -5.478384195563419379e-01 -4.992364916455813151e-01
-5.009632072527303581e-02 -7.642981489819232754e-01 -4.484295464970490808e-01
-8.358923253439275447e-01 -1.289714484721418142e-01 2.685157481314919270e-01
6.371173053527642849e-02 9.380478631997984929e-01 3.688420739804691428e-01
3.791222278944845758e-01 8.631995079949980054e-01 2.054527990706837559e-01
-9.672525683650697870e-01 -3.511235653887038177e-01 1.316091709334315796e-01
-2.763406019671600933e-01 -9.180743370316266638e-01 -3.142785233493492481e-01
-1.036188535398897825e-01 7.932376313375510968e-01 3.934756853251388242e-01
-3.677523136683561455e-01 8.310558431980131777e-01 5.197787813623877540e-01
-8.402711118906674992e-01 -6.011669159720314098e-02 2.523331956348919269e-01
-7.974127480026770298e-01 1.773728041360984609e-01 3.416929078451321211e-01
5.445103455779614077e-01 -4.913449537179345739e-01 -4.299992740707136996e-01
-3.135854880680083445e-01 6.823845488687066974e-01 5.327366270226946421e-01
7.736954878182193962e-01 -1.051399003972713769e-01 -3.843177391359188788e-01
4.826311650459539915e-01 -5.247438539659720069e-01 -4.750500998072783587e-01
-5.060880365021959149e-01 -7.900417011744855778e-01 -1.278315424343263729e-01
-6.853282187265239411e-01 4.905149410138107124e-01 5.677749460597300013e-01
6.268646764348123623e-01 -3.734695897903644313e-01 -4.657665557649108834e-01
-2.286799126836547569e-01 8.882013201564410432e-01 5.051932967548681264e-01
7.105999208593434258e-01 -5.248587385975613806e-01 -4.985857612861397947e-01
-9.018420920348076963e-01 1.296024584287066017e-01 2.833500850835703466e-01
-1.441534822344043565e-01 8.482884130225878394e-01 3.859190798256931232e-01
-8.370295277523004396e-01 -5.572333479579839599e-01 8.308433861123235009e-02
-6.561548480447317866e-01 4.674231972256787659e-01 4.066499984249277722e-01
-8.724155224603300507e-01 -1.155169094507090509e-02 2.320853123672363683e-01
2.578995720893625249e-02 8.285742420885113813e-01 5.065494476999649054e-01
6.204828624847954499e-01 7.886201053898118651e-01 2.256826214213394355e-01
4.629261747885013989e-01 7.099239036522165813e-01 2.258282869836052420e-01
-4.377975329492207468e-01 -8.428424889185118785e-01 -1.814160972945896566e-01
-2.701457196347679113e-01 -8.766648261082597982e-01 -2.548234095841240276e-01
-1.715459390242173587e-01 8.855453784353379820e-01 5.307718411746782383e-01
-1.637849273409619222e-01 -8.931451793854967569e-01 -3.014893186710346784e-01
-1.034251683244571604e-02 9.351279383186610339e-01 3.979533539807844633e-01
-8.082857602005267816e-01 1.724741928890174969e-01 4.626765903124726576e-01
1.738874599196441328e-01 9.074357032656636957e-01 4.552301249047052134e-01
9.396625428194029794e-01 3.663741980711418544e-01 -1.718859377977227099e-01
-7.152408739860373066e-01 3.461455745568039477e-01 3.960131492730002978e-01
-9.480674630307285300e-01 -5.038556764218392325e-02 3.758070701687084569e-01
-1.542880671121160674e-01 -8.035108090112926815e-01 -4.526256210752629405e-01
-7.921570431161710502e-02 -8.179500632185280340e-01 -4.852170988826794429e-01
-7.292441360837581543e-01 -5.002009125414577095e-01 -5.767026184918877529e-02
-6.358410371703540065e-01 -5.919541625777621219e-01 -5.195010222758833507e-02
8.402509962990569736e-01 3.445139461658106549e-03 -3.906740258087033069e-01
-5.073383772772314115e-01 -8.433380470852656074e-01 -2.807224265801047114e-01
9.515668475498185661e-03 7.786699038886452096e-01 4.442665130016701380e-01
-6.513464631590220044e-01 -7.703735527081899681e-01 -1.916393708889698178e-01
-1.969126664140035676e-01 -9.174676740975220568e-01 -3.208026428740710645e-01
6.299694365764365589e-01 6.016060183570094422e-01 1.324346791184873862e-01
-8.567691964056639575e-01 2.011982769238215285e-01 4.871086532356164733e-01
5.902487500796890219e-01 -5.709119161015951960e-01 -4.037634875283852010e-01
2.532523982096694937e-01 -7.644682336124706268e-01 -5.604439142720935019e-01
-5.303808992694434288e-01 5.273483856749424659e-01 4.807690998678018635e-01
9.364166603144404855e-01 -9.897885069848064155e-02 -3.028383010172239764e-01
-5.887450598632028020e-01 -8.158664994694359018e-01 -1.616207351284439930e-01
9.729122197442887643e-01 7.545344589883053177e-02 -3.014299175500488315e-01
-6.203635063993598875e-01 -6.010869230417419384e-01 -1.291449709601457663e-01
9.039298318760008444e-01 -1.595982149321918120e-01 -4.312851963358767526e-01
-9.969631874999995702e-01 -1.592494850093509051e-01 2.651101014436944570e-01
9.952516254716027577e-02 7.858366820286204479e-01 3.953719585280103255e-01
-1.651493798208604202e-01 8.948849673902330437e-01 4.205148184688143886e-01
1.764644885651324158e-01 -8.634694009308225837e-01 -5.083161426322855281e-01
8.405897118395240231e-01 -8.762030707652457978e-03 -2.397424328157408968e-01
7.483542707027155405e-01 -1.975265961263890924e-01 -3.559676133665443665e-01
5.733139250479073468e-01 -4.953943386511695524e-01 -4.075958191665849939e-01
9.648493360338835645e-01 2.641849884779113866e-01 -2.173826491689276885e-01
6.105250796461120233e-01 6.170036851148206214e-01 1.435134507808285276e-01
2.155179268639451362e-01 8.386487668634451387e-01 4.448059499970893338e-01
8.002150035678180506e-01 -2.975399877052652825e-02 -3.677993145050287849e-01
-7.459010932137087879e-01 -4.748317415596751689e-01 -3.588027147791232607e-02
3.372091900505309048e-01 7.745616274541216040e-01 2.439735759236222046e-01
2.645964545758143771e-01 -8.417381074265842811e-01 -5.026321201752513845e-01
5.790133948622907534e-01 7.886393892157999019e-01 2.659591142897946847e-01
-2.632578108905297420e-01 -7.547040082368101643e-01 -3.200112568436081495e-01
3.231817480431304901e-01 8.996460222729288914e-01 2.480646086611331957e-01
8.932263859032949505e-01 -2.250506877927094529e-01 -4.327289356473368320e-01
2.311650309494576450e-01 -8.421331538099997571e-01 -5.205967197278507097e-01
-1.652107453109757651e-01 7.760083933112672527e-01 5.466392988229989980e-01
-6.016135643713098162e-03 -7.511449089132572476e-01 -4.246036086509450413e-01
5.927763294936368860e-02 -7.867025317538852702e-01 -3.650445887762732156e-01
8.080244659023028131e-01 3.625764710985937000e-01 -3.383926414832156421e-02
-2.602526464617748933e-02 -7.554430644608925993e-01 -4.053795171503478678e-01
1.363141312163282381e-02 8.160318232692380658e-01 5.040613757643221948e-01
6.824542591292912519e-01 -2.992253609894187094e-01 -4.610845131935986663e-01
9.161627281616794294e-01 2.472958088970331203e-01 -2.787387904071386702e-01
8.650194083074369544e-02 9.382052261346978117e-01 3.601878507645240868e-01
1.369628904549597022e-02 7.852266775879733762e-01 4.667313350786732595e-01
-8.348637879930687067e-01 -6.098991143053250630e-01 -3.015919695634246278e-02
4.415649611383473672e-01 7.982030199303262741e-01 3.442478118869745085e-01
8.063793234177510927e-01 4.383415818650913433e-03 -3.495609411073348771e-01
9.247200192022507759e-01 2.967005140579239697e-01 -8.400539716875088381e-02
-8.466092796963271550e-01 -2.531357059182539615e-01 1.113909275988399783e-01
7.958122998669889814e-01 3.125428037241099188e-01 -1.058139409608784970e-01
7.488854215160862804e-01 -1.832076362367678068e-01 -4.320690984616502028e-01
9.650309997409077800e-01 1.255341036493259066e-01 -2.002611293534539705e-01
-1.146213499947096731e-01 -8.407194579661018130e-01 -3.026989838905710384e-01
7.466988958546607602e-01 4.326161947348975412e-01 -3.370399311048221519e-02
6.927566993924245686e-01 -2.839720780006103618e-01 -4.074623768420865821e-01
5.073813418831135680e-01 -6.939397068594516105e-01 -5.404211491843415871e-01
5.871240855212986887e-01 -4.706337699034126021e-01 -5.433065234422762568e-01
3.570002493316729031e-01 -7.759144904707913071e-01 -4.250728386796935321e-01
-9.183790691271246365e-01 -3.429039103296634833e-02 3.916580764178623775e-01
-1.765930317480511880e-01 -9.269480309760792514e-01 -3.839613362025923737e-01
7.860877486285657856e-01 6.614771558095904336e-01 2.404234458418365999e-02
-9.834082536334537439e-01 -7.492908307956877567e-02 3.345368088127129713e-01
-4.517525828874501270e-01 6.121785733491259540e-01 5.589009070594150863e-01
2.131464388119237163e-01 -7.374930131425979640e-01 -3.984421604648690218e-01
1.294844752657485498e-01 8.829318449373559918e-01 4.797500106856072422e-01
1.739210822994089606e-02 -7.557192194024068277e-01 -4.710197764472668913e-01
-8.193002650647208673e-01 -4.378555996966685404e-01 -2.899273636104032770e-02
7.280207831437310873e-01 -5.062949109463359409e-01 -4.914353564222948556e-01
-7.700047789732518133e-01 1.936583929963167638e-01 4.223581557755845539e-01
-8.980033985223625503e-01 1.242422822435242241e-01 4.555379241395582923e-01
9.103010331501710795e-01 4.300623639839253887e-01 -1.494247271491598583e-01
-6.748659300948998130e-01 6.161987383636198246e-01 4.961648096773491612e-01
4.314872597267985221e-01 8.785006073287450201e-01 3.333132057597364972e-01
-1.923191191918372511e-01 8.905770823494586486e-01 5.198758135354990539e-01
-6.299409370142126097e-01 4.504626184837353664e-01 5.391811454292609884e-01
-3.665103341885668220e-01 -8.346366599854027069e-01 -3.798222908350978866e-01
7.655517253408293810e-01 -1.234921444460648221e-01 -3.713409777096042252e-01
-9.436699356122175697e-01 1.847164553400258424e-01 4.171018426206320462e-01
5.849114117173697114e-01 -4.912207777138289377e-01 -4.033153979941909717e-01
4.133972185675582889e-01 -6.168183250029113385e-01 -5.565631609187771112e-01
-9.433594156852773693e-01 -7.233004776560615634e-02 3.687055298992020780e-01
-9.071374213414682419e-01 -3.859203966582794298e-01 2.007223082881388898e-01
-9.485523184173216826e-01 -1.593433158160695862e-01 3.252248732800313569e-01
9.236071797639195946e-01 -8.184374142029179899e-02 -2.748617727527970511e-01
2.726599347582612798e-01 -7.650087518180928026e-01 -5.617761712033594312e-01
-9.540328484514493113e-01 1.656995321258834253e-01 3.969604455680372790e-01
7.974244006869013468e-01 2.856634920251903687e-01 -1.521381914904775534e-01
-4.397428411883762961e-02 9.340001240584037134e-01 4.163547689732587931e-01
6.007874480816809415e-01 -5.373769269319991215e-01 -3.974386714446116464e-01
5.583293138536855604e-01 -5.480052190442964433e-01 -4.022506785234958304e-01
5.566825281695824135e-01 -6.759849838959084423e-01 -5.034236792923127979e-01
9.110124961448842762e-02 -7.484781690065915871e-01 -3.990543867250683774e-01
-6.611281499949092089e-01 4.647942252757740200e-01 5.615433987491685874e-01
8.884248100294082073e-01 4.214755842034190875e-02 -2.006895518651355126e-01
-6.569233388792559136e-01 5.194300561597474664e-01 5.735111540614926673e-01
-3.672082228335653564e-01 -8.818536799401082149e-01 -3.554621240398514459e-01
-1.957887741179097085e-01 -7.671147850063541052e-01 -3.260821323900185420e-01
2.793156054996452919e-01 -6.586561634471698179e-01 -4.927094036271991717e-01
9.122607361518565439e-01 -9.694553407886898067e-02 -4.194008022016025850e-01
-7.042221052376260726e-01 -7.353325881832978306e-01 -1.502535945031049924e-01
-9.615029643163718331e-01 -2.076632411825444224e-01 2.912006569075011875e-01
5.676108662294480078e-01 -4.546378738053121760e-01 -4.399928090474365394e-01
-3.470565956354592640e-01 6.712566874170921016e-01 5.470288827554029565e-01
8.406364255107977579e-01 5.557926425080435273e-02 -3.614418539382727724e-01
-4.180734306515429544e-01 7.882947532940413060e-01 4.532748175901946119e-01
-7.916741516880977381e-01 -6.523163435341138294e-01 -1.160318278962358188e-02
-4.942666478641165040e-01 5.606379660184699354e-01 4.784232127886828279e-01
7.503308368612346957e-01 5.386604814278783682e-01 1.021101342404640011e-01
-9.180768279201566573e-01 -4.004272303414821432e-01 3.369970151993485069e-02
2.436345523015083503e-01 8.019842377730620475e-01 2.815370751082348910e-01
1.596704816824946471e-01 -8.606801098296041896e-01 -4.013119933087476165e-01
5.226916150760712032e-01 6.817081623566153548e-01 2.115515764297817569e-01
7.911658814384942007e-01 -4.252319750729383618e-01 -4.701046343067196709e-01
-9.128664031902014031e-01 -2.625775256649553469e-01 8.742076075565148596e-02
-1.930110160633077276e-01 7.513621919258759441e-01 4.263046017310222480e-01
-6.891424861722668382e-02 -8.124540674368359028e-01 -4.867952915480260878e-01
6.166392452417349679e-01 6.273712098307006046e-01 4.978639940247797657e-02
6.373209766950358457e-01 7.951836917086173573e-01 1.884931804556210788e-01
6.170083808903278344e-01 -4.734080807193944973e-01 -5.533076410592636662e-01
-6.060970791996862506e-01 6.286359433576751421e-01 4.314966508683652502e-01
-6.884259685348804725e-01 -6.092809853194268710e-01 1.900337000348575889e-02
-8.866471491333592914e-01 -5.261846757847776779e-01 5.086905786216107915e-03
-3.733514511724547735e-01 7.513678518201201140e-01 5.845462230954032723e-01
-8.344541798659204090e-01 -3.068740312328702147e-01 2.161043644446103140e-01
-9.080251570250940096e-01 2.711801102901923444e-01 3.774865542830812548e-01
-9.136887787858395393e-01 1.299626640271017430e-01 2.863394329922950288e-01
8.964249232289638325e-01 4.217329855047753928e-01 -1.883618376003239059e-02
6.940351436533457319e-01 7.534516360875023189e-01 9.961780226646103908e-02
-8.233517834448902395e-01 2.599041409866820543e-02 3.567054342792733146e-01
6.810264686344112972e-01 -4.742034079545112135e-01 -5.482788444689248308e-01
-4.631598570296014961e-01 -7.116571151453776611e-01 -1.707935991805877018e-01
-5.896707853525151588e-01 -7.149479211942059154e-01 -2.546282402078089424e-01
3.387665595722712530e-01 -6.411134857764282380e-01 -4.435005050718749398e-01
-2.312446151597346844e-01 -8.596298193375810914e-01 -2.611042417181710373e-01
-1.610615808660018911e-01 -9.049769381999441809e-01 -4.356672128361613328e-01
-4.688610910897718087e-01 -8.128902540740857718e-01 -1.524866953212877241e-01
-5.226098214707121103e-01 6.520359920030125433e-01 5.878581472011994435e-01
-8.950006313266516134e-02 9.069111297643199787e-01 5.130331857417971264e-01
-4.363407253454261170e-01 -8.457745268880251244e-01 -1.842133232144868848e-01
-6.912538359065083515e-01 5.909008204252137464e-01 5.250399442541386907e-01
4.540082321875951177e-01 8.936241963107219854e-01 2.517211398262119149e-01
-4.218877838805765723e-01 -7.436327940054294761e-01 -3.209075367234587861e-01
-8.712671686462918341e-01 -2.088885717665301955e-01 1.255774922960883333e-01
8.247675095792369460e-01 3.433695438236285535e-01 -2.082103488537700442e-01
5.822236241200884344e-01 -6.006758287010897090e-01 -4.129836755092030076e-01
-4.218267398566039744e-02 -8.473788209012945716e-01 -3.264625652858619276e-01
-4.466518740185920766e-02 -8.850703278727405365e-01 -3.380226988316199499e-01
-2.949294757428023162e-01 -7.515646824548209981e-01 -3.370936300269972152e-01
-4.823744642417427016e-03 -9.172443066166509062e-01 -4.373126396658681969e-01
-8.532236385137674795e-01 2.032289938349072511e-01 4.881623362144040246e-01
3.968379037027978673e-01 7.432755922299031370e-01 2.326757305720014157e-01
-9.093347728697046550e-01 -4.197138516200721314e-01 2.085206890365023241e-02
-4.666238119117518957e-01 6.574560952231485178e-01 5.871963996439354405e-01
8.824275346381929008e-01 4.127086353018590836e-01 -1.836733448364323562e-01
3.433230434419268784e-01 7.633901626510276595e-01 2.567401832851588517e-01
-9.359858129190417042e-01 2.023330841365863775e-01 3.539560782191698007e-01
3.901141035742010654e-01 -7.873753097184232885e-01 -4.815100361122464645e-01
3.725789415709661601e-01 8.926888582756237200e-01 2.307599600092350434e-01
9.299421416207437341e-01 -1.552613558104467828e-01 -3.579244057975604631e-01
-5.629657672052615913e-01 -6.498898610420786870e-01 -1.917577644399889591e-01
-2.593587242022025730e-01 -7.638465694478567825e-01 -2.911147018548568277e-01
8.249070838676809680e-01 3.277290584463952716e-01 -5.332694246663520488e-02
-9.004134488235462364e-01 2.176903170207726557e-01 4.708442004976869932e-01
8.732933989397879682e-01 3.006608328689956977e-01 -6.096066018432452771e-02
-1.464873701713780008e-01 8.119027919208819943e-01 5.540543680889414846e-01
8.058891999484564250e-01 3.381241469912620867e-01 -5.893945725004740011e-02
8.375272125353157016e-01 -1.103707557972129494e-01 -2.737435780696688137e-01
8.359049505377519340e-01 -3.602181330028296768e-01 -4.386537597921077447e-01
-8.660420008046008922e-02 -8.670985727199745918e-01 -4.823183110338294388e-01
9.338798839539491636e-02 8.482356625882494505e-01 3.205823345289026682e-01
-9.206338113314911364e-01 -1.908468228418364332e-01 1.275147559278294596e-01
-4.912207828450808611e-01 7.498056817076234060e-01 4.639818135315895709e-01
9.472852237066412551e-01 3.464785812675087451e-01 -1.058335297073962344e-01
-8.001678437912994601e-01 -6.357322657350390482e-01 -8.765720893368383893e-02
-8.032349128868406796e-01 -6.151342173804065228e-01 -9.501806505878689080e-02
-2.485080315700074483e-01 8.675423872566454531e-01 5.349411333796770807e-01
-2.688115564747217134e-01 7.239892083843645354e-01 5.539926204448942793e-01
-8.833619544326813955e-01 2.448521184346769131e-02 4.166458542000048837e-01
-8.516098639481838317e-01 3.797143214510091958e-01 4.822822324772191860e-01
9.470472642910463534e-01 2.465572307803970062e-02 -2.324606214856832775e-01
-1.451285694634178447e-01 -7.936494024622503529e-01 -4.487387362107332356e-01
8.119871048429024851e-01 3.332794954855805569e-02 -2.651828534869742349e-01
-7.558836399898559710e-01 -4.566357123451601496e-01 8.711898949817284410e-02
5.804742234735419532e-02 9.492170759339545461e-01 4.249293743134466284e-01
-7.892209969930004121e-01 1.613709050988880733e-01 4.298130796618793714e-01
-6.598584841293069214e-01 -6.868748653211675936e-01 -2.122162545929074384e-01
-4.605678657695672640e-01 6.101414281126460448e-01 4.491985523438631889e-01
7.980212606684906618e-01 5.963226897673636895e-01 9.896123392377033368e-02
4.184190598777381420e-01 -5.841420867656857974e-01 -5.271729087046259643e-01
7.481394550067940186e-01 4.416209624187337202e-01 -7.154232491836895816e-03
-1.165680800490846436e-01 8.498484061076291285e-01 3.790866200038640055e-01
-4.791013622374311609e-01 -8.663823279933302590e-01 -2.705745233517259929e-01
-5.415508920733984599e-01 -7.401325978356688706e-01 -2.842271213019377241e-01
7.582487073623411789e-01 4.514779875370108497e-01 2.127523229372404664e-02
-3.205575488009492213e-01 8.519545350062355249e-01 5.187652229156470840e-01
3.874427485751655298e-01 -7.018276867966470878e-01 -4.063002468403609235e-01
7.221972012006157016e-01 7.199274223027840591e-01 5.627041770167431206e-02
5.530821427401290125e-01 -6.520843062643483234e-01 -5.453844323420335982e-01
-9.406178463082631724e-01 1.899741725628335820e-01 3.500065805718372558e-01
-9.493792401807841230e-01 -3.173814800562199112e-01 2.272508313662676693e-01
-6.518352103622288007e-01 -6.610991743391609887e-01 -2.064964897780136310e-01
7.740668665022492068e-01 3.860550868207879849e-01 -1.277664305511091170e-01
5.405831116731857344e-01 8.565028763697992709e-01 2.241306379010495342e-01
-9.923338249106026243e-01 -2.275100915263119361e-01 1.895864562003325149e-01
8.227205004437248004e-01 2.286282119277432689e-01 -1.379772532085939696e-01
8.327838620651064616e-01 -1.599804276549664506e-01 -2.905028155439719484e-01
7.951798171584960606e-01 -3.663785684016219180e-01 -3.699762853773814197e-01
6.749040227635817457e-01 -5.680178786910807798e-01 -4.594321448957268128e-01
-9.379947847870336863e-01 5.549723444766881814e-02 4.180966867642706974e-01
7.362984676444815912e-01 4.710205438239099540e-01 2.374919512773696062e-02
2.449081101402939553e-01 9.376201212774339933e-01 3.167950035777785112e-01
1.741187777585091745e-01 -8.189731823855286308e-01 -3.828487456657571619e-01
-8.386207434877240852e-01 -6.812193938534204588e-03 3.654100677586452628e-01
-8.443378478786811581e-01 2.883936055843895271e-02 3.977907337714208236e-01
2.193460747883293205e-01 -7.657731063903748803e-01 -5.559136214944488952e-01
6.338241074148071030e-01 6.758165009258375600e-01 2.675878159732493836e-02
4.640142444701040314e-01 8.004887884491032057e-01 1.474540628863786063e-01
-7.836416016916504246e-01 4.099371113584227566e-01 5.381293302631394715e-01
8.804938515664400001e-01 -1.915167173374491549e-01 -3.114425403027615280e-01
-5.368779805127691374e-01 -8.061748122441335651e-01 -1.313119969606421911e-01
7.899592265981402184e-01 -3.031485737796362767e-01 -5.089744442571185745e-01
-9.228897462407152918e-01 -2.678143539893648173e-01 8.792264835752812424e-02
-4.321400815172431187e-02 -8.302824555124920236e-01 -4.988934057138662004e-01
8.262473601006636859e-01 -3.362378335031352417e-01 -4.838727334884538323e-01
-4.830763551966871794e-01 -8.632574684015856814e-01 -2.127833655187248985e-01
-5.216176340447013088e-02 -7.579471894181256664e-01 -4.235340168224092650e-01
-2.419419873702254309e-01 -7.581915916634833774e-01 -3.550218451124093066e-01
9.044781665921075575e-01 3.866974193157572959e-01 -3.542284100993082357e-02
5.857557288612684765e-01 -4.828542916911368610e-01 -4.053159635314485532e-01
-9.524004556453381509e-01 -3.284524668711609752e-01 8.888536120864239110e-02
4.203096689843383027e-01 -6.218213740202513939e-01 -4.194784647483734141e-01
7.834523802191254438e-01 3.903629615194125768e-01 -2.705708393526765759e-02
-9.694171939651926584e-01 1.199956578004783003e-01 3.661927077579509304e-01
6.566441735866267448e-01 5.925356827838315077e-01 1.386643674116931624e-01
-3.522296503681474622e-01 7.170585987696405095e-01 5.804530248496516665e-01
6.815855015602900746e-01 -5.119162155852406970e-01 -4.030146287999939458e-01
-8.257153513806901879e-01 -3.882030951951049857e-01 1.815612525352207351e-01
-9.631672639496339228e-01 1.248661635724427760e-01 3.922220232641780990e-01
6.982938943345204930e-01 -4.613665299204269821e-01 -3.845990297624055643e-01
9.749507649543338594e-01 9.421557417261700040e-02 -2.411022580978968155e-01
-1.986553534327643589e-01 7.270599770313631582e-01 4.969637545998926154e-01
9.614559086800696930e-01 2.379224794708188762e-01 -1.489700221834033833e-01
-6.201920920228989886e-02 -9.204436161248340520e-01 -4.335320494934365443e-01
9.754118379426638397e-01 6.013575150407850928e-02 -2.751269856297764993e-01
-4.832407242468930719e-01 -8.405310414812652287e-01 -1.720894085016781705e-01
7.822974213891503714e-01 -1.987182764260980727e-01 -4.742424331393155224e-01
7.748340443731478455e-01 3.747652343360345917e-01 -1.244766381480733458e-01
1.768674976405840982e-01 -8.291062682375510695e-01 -5.387585872661518893e-01
-1.789325746951068163e-01 -9.179130861055843082e-01 -3.265054214926929044e-01
-7.357156228787586905e-01 -4.645740598517219544e-01 2.781532992032877474e-02
6.847482430480726912e-01 -5.014161807533936699e-01 -3.984977405918752047e-01
-7.231296134303041301e-01 -4.836986940564421134e-01 -3.278440248546136884e-03
8.114728792842637040e-01 2.403053192335448396e-01 -2.203805251948976751e-01
-2.390990494143391543e-01 8.874670629143225353e-01 4.717902420214656334e-01
-4.980586048909640406e-01 6.676964936666368589e-01 4.233838686073884139e-01
-8.688015341453755314e-01 -2.775233917691952712e-01 2.575556976952758093e-01
6.734225718090036672e-01 -4.958102138121526226e-01 -5.484667970305298068e-01
8.070810497811037321e-01 -3.472527524275094146e-01 -4.991466256365556520e-01
-9.205544653193423743e-01 1.066399852546248972e-01 2.768984198361874594e-01
-8.296376126199491718e-01 -5.153168581223135369e-01 1.196430531744320097e-01
-5.856249258245082023e-01 -7.367198209410322773e-01 -2.622723423171446355e-01
5.637425915894950235e-01 6.497838458515650117e-01 1.638974048443060938e-01
-3.683245971751745312e-02 8.442033007949168999e-01 3.597696295815621670e-01
-8.301910684309733446e-01 -2.033940395981832516e-01 1.962777471086301628e-01
-8.932543328057985788e-01 -5.244415083758449114e-01 3.309746752157794597e-02
-7.210386968992025247e-01 5.016793769163027106e-01 4.074001982703003844e-01
8.300575764742552654e-01 1.935693304378386659e-01 -1.537770715927252174e-01
8.146625698684564210e-01 6.309031097273376520e-01 4.492397070293457223e-02
-2.350492862637168778e-01 8.046498090923988045e-01 4.024875881269454614e-01
-4.034761657091575637e-01 -7.625500347679216029e-01 -1.837492750043664969e-01
4.684926216867727478e-01 -7.114164210890129292e-01 -5.495763570766158956e-01
-1.430385633936506473e-01 -8.692660337610073062e-01 -4.645509096053647702e-01
-5.927137501069060926e-02 8.881500514378031230e-01 5.255253534244354041e-01
7.338190288196255739e-01 -3.153033568107912465e-01 -5.151650126816549324e-01
-6.858547291311614114e-01 3.823939035207293280e-01 4.111754444670083219e-01
-8.813388430980518828e-01 2.629763241024418718e-01 4.857707358189674585e-01
1.437850113026167276e-01 -8.223420580626261689e-01 -3.755341175905919648e-01
9.388053161749501108e-01 9.752276656638146635e-02 -1.865175964205486314e-01
8.399187272639457857e-01 5.243252160097306991e-01 -1.100744923919114715e-01
3.263689095107706883e-01 8.987032172860558443e-01 2.464059306700460694e-01
5.592012492305379334e-01 7.236951430037130706e-01 2.664496682362413327e-01
-1.927055722781410019e-01 7.293024914205947784e-01 4.722843351658777000e-01
-8.108735079100247711e-01 -3.995231588144341206e-01 4.352815938889885439e-03
-4.954782965593426125e-01 -7.658947270128877438e-01 -1.249129624206929828e-01
-4.246869992509947345e-01 -7.128839024962370097e-01 -2.492898598154636713e-01
6.000616607916585687e-01 6.968205279839142507e-01 2.383656556253227754e-01
5.794707244597466778e-01 -6.145278131336671112e-01 -5.536145743825109378e-01
8.939497424335021147e-01 4.623991787070577675e-01 -1.339110903983537770e-01
5.897463160190264952e-01 6.572280872300753085e-01 2.030164646453904431e-01
4.294451711948807371e-01 -6.459031937474645213e-01 -5.719022902160929567e-01
6.350989276011411722e-01 6.759815130837463215e-01 2.157872422914271504e-01
1.550980601449278573e-01 8.689988139568627368e-01 2.953107202677476839e-01
6.240719169614099560e-01 5.974842865830720662e-01 1.023877091320233856e-01
-1.526112992125102930e-01 -9.110832072366762402e-01 -3.235362999181970456e-01
-1.098888843342905042e-01 7.546753164926729429e-01 4.733026711509850659e-01
-6.906810216469587704e-01 3.649168493820292292e-01 5.130296471437693073e-01
2.189211931557726309e-01 -8.406844099844148488e-01 -5.258104960819979246e-01
7.105765605361599180e-01 -2.681970760826346001e-01 -3.836400950244606145e-01
-4.342988535893748114e-01 -7.183843699333415378e-01 -1.974853426141878476e-01
-6.707042653005097499e-01 -7.659426654469426721e-01 -1.585151186917374277e-01
-1.143802545809530918e-01 9.095675888801142417e-01 5.079273512202956420e-01
4.887806962180197279e-01 7.199576570119016194e-01 2.727793632702865123e-01
-4.265237363400243287e-01 6.383287624612253852e-01 5.665432450917065044e-01
-9.245172128538068357e-01 -4.018308506937829927e-01 1.778402435678937965e-01
6.403466617861585108e-01 7.379763842008741914e-01 2.279601070933524043e-01
-3.365833176993908715e-01 8.341710800521391356e-01 4.512041392147599361e-01
7.284254727392719397e-01 7.257022740252777604e-01 8.649890205563716405e-02
7.902856298988472084e-01 -1.020688236729261622e-01 -3.096753322826176213e-01
-8.330757231503687077e-01 -2.484278076057367113e-01 1.340699816323481230e-01
9.734418468133135827e-01 1.152235351786944362e-01 -2.236543670414236074e-01
-9.931194153062614660e-01 -7.340728543352784130e-02 3.164216419653101964e-01
8.689428860024460688e-01 5.440406196000796557e-01 -5.690297385039534694e-02
9.417063633343361051e-01 2.556695521594191667e-01 -2.589400896110175543e-01
-1.245728755780665768e-02 8.094429158712502792e-01 3.702439631899343553e-01
7.754929626222344385e-01 6.519621557440867798e-01 -7.220930940580012718e-03
8.487740385204892712e-01 8.094265878479493803e-02 -3.532298100096666338e-01
1.440623548044391196e-02 9.082452876395804564e-01 5.009758041100619286e-01
4.198615856901204424e-01 8.253494535072847249e-01 1.742685249315335250e-01
-8.567419170712082810e-01 -4.431601154237224671e-01 -2.387927952438151022e-02
-3.723783938401757920e-01 -7.494852765947760398e-01 -2.186934893003765479e-01
-8.952161672873616416e-01 3.157914847637259270e-01 4.280428401505259051e-01
-9.068167241036103610e-01 2.721527464829969767e-01 4.518680567000050718e-01
4.960692833980365202e-01 -6.177601682989029008e-01 -4.066961119360187338e-01
7.812390500664462278e-01 6.076019099198474160e-01 -5.283482388283607806e-02
-1.733109872949962216e-01 -9.005294855267014231e-01 -4.358607439900701319e-01
9.600926306748123196e-01 2.181243216179594158e-01 -2.613728484769245464e-01
-8.646718107282866939e-01 -2.655200219977894571e-01 8.945267122265671000e-02
1.859181266515411990e-01 9.495341070629464975e-01 3.838846813805670277e-01
6.712352367744954806e-01 -3.223366657858462991e-01 -4.119970441305053077e-01
7.102267169810690950e-01 6.510077330895448489e-01 -1.742014393207997128e-02
-1.459473758233721941e-01 -9.199391975103234920e-01 -4.183422294339866343e-01
9.519533187383641959e-01 2.719499937341854912e-01 -2.364655298352731916e-01
-7.723356492118913508e-01 -6.405945581326015770e-01 2.132689105044550254e-02
1.887777888044359087e-01 7.833993501905806012e-01 3.724753832419263611e-01
1.886508847979309622e-01 -7.555835667803462163e-01 -5.473288648612592011e-01
-4.779378566862647199e-02 -7.762897386543861078e-01 -4.690477428021345152e-01
-4.105258062225725091e-01 8.022687946254045688e-01 4.664647040809591916e-01
7.519749517331622002e-01 -3.024558757466160319e-01 -3.455054943599195627e-01
-2.060041143601415159e-01 8.883425054072822125e-01 4.367787167942345228e-01
-6.897750023411968190e-01 -6.710855311461143557e-01 -3.746667635244886607e-03
-8.124407888728345517e-01 1.588888741709645613e-01 4.567371225979061089e-01
-7.596044837419425599e-01 -6.331396692525889103e-01 -1.381314246941806045e-01
2.934911427631798353e-01 7.719614347684580213e-01 3.469195226697500134e-01
5.889810743879251298e-01 8.244978045837068059e-01 2.219731776945121915e-01
8.033086415763300847e-01 2.754748630300435873e-04 -2.913109290928298512e-01
1.961452500056309056e-01 -7.435392945988117397e-01 -5.451012048048489156e-01
-8.330898656616261277e-01 -6.049702164917449831e-01 1.937139144674709934e-02
8.174665312164868247e-01 -2.552528587614817934e-01 -3.237414945594179194e-01
3.750234132532384579e-01 -7.535553444245094434e-01 -5.565528844454307178e-01
-3.207722258323475462e-01 6.761502200276712227e-01 5.275572495200191447e-01
3.408559861845578687e-01 -6.256867278823085021e-01 -5.019421176587988143e-01
7.849068718290568292e-01 4.409364819163654192e-01 -1.406673437051848274e-01
-9.411486568807230224e-01 2.009362650473086598e-01 4.131949248389897300e-01
-6.040534272496818069e-01 6.782081432972847379e-01 4.875080502279114936e-01
7.987437202978757700e-01 3.681785492003270543e-01 -1.731963394072880136e-01
3.981081533117831750e-01 -7.830303095711700356e-01 -4.830023113605128593e-01
7.657361303798619900e-01 3.899305152186761103e-01 -6.865681359379191551e-02
9.491945777283025132e-01 2.923287708858600675e-01 -2.248863494760310611e-01
-7.959891446097475676e-01 1.381922614007922157e-01 4.165045128239847627e-01
-8.481771651116692956e-01 -1.187391439177861996e-01 2.080382035985313405e-01
-8.338342846401606279e-01 -1.601794959133553686e-01 2.428971054398610108e-01
-4.272476938014145298e-01 6.179058806138534310e-01 4.677320533944043235e-01
7.094251052014158843e-01 -4.006746886015888909e-01 -5.385666157787718511e-01
8.967649435128624003e-01 1.675315037297207543e-01 -1.368435216269857091e-01
-8.621998827434748103e-01 -1.096607834133330739e-01 3.333907081949621376e-01
7.682139726461099105e-01 6.704209244747846297e-01 1.469051585863462295e-02
-7.038315660955457576e-01 3.179486588627257193e-01 4.580303427858381515e-01
-8.113050059603472697e-01 1.918690393828454688e-01 3.280643516150115735e-01
3.135088728750790033e-01 -6.833529151834557558e-01 -4.158270074891021739e-01
2.291498740153881664e-01 -6.901407962671621821e-01 -4.424786849844719039e-01
-1.760655864064177845e-01 -8.305515609969258417e-01 -2.812220019063657594e-01
9.107951555941957711e-01 8.397068717995234688e-02 -1.815471680723833858e-01
2.886447004554092421e-01 -7.876350882757245930e-01 -4.051269932667522777e-01
7.630996251810509001e-01 5.990298887485718815e-01 1.273344469380923993e-01
-6.190863474492462881e-01 -6.646696713955647651e-01 -2.177878497422283677e-01
8.072661199788134789e-01 -3.817720117124610568e-01 -4.852344087424885766e-01
3.481545271387827545e-01 7.699558443063656554e-01 3.459661586634569241e-01
9.525208645254626960e-01 1.500359383204163122e-01 -3.078116102931712228e-01
-1.484734355748602297e-01 7.824506257201779835e-01 4.027224493019879725e-01
-4.128189667326576107e-01 -7.196147360174943719e-01 -2.732864641587514076e-01
-6.681374171558922791e-03 9.032027959017837615e-01 5.083167795450390658e-01
-6.358760495256443601e-01 -7.543886443775099648e-01 -7.583663588142931788e-02
7.083265977438577554e-01 5.846394204684536300e-01 1.395513265490163912e-01
-9.538330075270387010e-01 1.210368373663546909e-01 4.123453229368604922e-01
7.826668039212307804e-01 4.191028611207905374e-01 3.871033223698353964e-03
8.972321266163372222e-01 2.959855659048670207e-01 -2.550738321078571125e-01
-6.935592274748444419e-01 5.771562838664781037e-01 5.385636873627148713e-01
-9.363787474129426913e-01 -4.302408604822188232e-01 7.037404403966461552e-02
-4.791592267135599270e-01 -6.904047523503732409e-01 -1.938118009168755818e-01
-5.433109766876155211e-01 7.211973067310799568e-01 4.771437011461973632e-01
9.659455665277698611e-01 2.657029165154682349e-01 -2.124190183872734505e-01
-6.866709663125368790e-01 3.442561202077644711e-01 4.651306236996179400e-01
-8.947908460411843068e-01 -1.499209561709105853e-01 3.328754933645780567e-01
8.115328548829601196e-01 7.593277195859134132e-02 -2.963951241789681834e-01
3.423368319865388032e-01 -6.322539365548303092e-01 -5.232948021803057737e-01
-1.613960209652480216e-01 7.448440647385020652e-01 4.481922357881993335e-01
-8.030242189873547654e-01 4.163857511432281222e-01 3.947032678286735430e-01
-2.833196517743006293e-01 -7.514174331326638479e-01 -3.284956967785618298e-01
-4.353928410342375876e-01 -8.848523647266697267e-01 -2.670537075499379576e-01
-3.527154799129800233e-01 6.693102044794720928e-01 5.490756937717677921e-01
-9.615593675371847393e-01 -3.018196220384809503e-01 1.072464629417904936e-01
-8.350451889393201155e-01 -1.595100124423894372e-01 2.178439684262371556e-01
-8.828451287406748893e-01 3.269742972446527118e-01 4.629970979881374293e-01
-2.758065565781729345e-01 -8.402360603737062394e-01 -2.395237289509271617e-01
8.410516802712448836e-01 4.901643145022107073e-01 4.525820340668660485e-02
-6.641337720652632504e-01 4.132391964563703057e-01 4.179299052373972589e-01
-9.299327390580425234e-01 -7.314439704896807948e-02 1.902333217189755288e-01
8.466606130006933961e-01 -3.415086429849210625e-01 -4.171485209678396089e-01
7.969902491539309075e-01 3.048137676670172325e-01 -1.735484942366203320e-01
-9.475121915991471244e-01 -3.102966190277322567e-01 8.743290524427983768e-02
4.765329346126994103e-01 8.623792714524527447e-01 3.099679435693460938e-01
4.816090454800122655e-01 7.011996573240876218e-01 1.938990721323858302e-01
8.904895699649052754e-02 9.100068860323065056e-01 4.818395917554884611e-01
-9.171111830983538216e-01 -4.116883062203191557e-01 3.073546338179684867e-02
-7.099471103706149477e-02 8.711384944512466921e-01 5.345734193530664591e-01
-9.123365408162242840e-01 -4.207357562045317412e-01 2.397737898245735563e-02
-8.634963536254235406e-01 -3.103606015378541083e-01 2.392818786824671140e-01
8.114756023860407730e-01 6.266183242224568906e-01 -7.157767485082347329e-03
9.590221883020129123e-01 -4.775642697417268462e-02 -3.333589377248871166e-01
8.469922597385717289e-01 5.696525196675584768e-01 -5.330431612199266339e-02
-6.079142930807945877e-01 -7.351086278873968372e-01 -6.446706969325874392e-02
4.011439244749765431e-01 -5.867590782608927968e-01 -5.013004659695644571e-01
-7.266394737033855522e-01 2.853997338705316356e-01 4.647353088106166430e-01
-8.582271882210973368e-01 3.805785830851875495e-01 4.298385901389059072e-01
6.116217257199662444e-02 -7.538445146701124866e-01 -3.945260879904398665e-01
-9.881447054976704170e-01 1.981872341725268369e-02 2.984410009514931184e-01
8.827523465363620314e-01 5.244156244882456352e-01 -5.921735097369326684e-02
7.252895918622632720e-01 4.839311613730460926e-01 2.883813570509585755e-02
-6.964303999548306923e-01 -5.271506109564900733e-01 5.660282121995385135e-03
9.911565134502349494e-02 -8.944898107179295454e-01 -4.165861077811461866e-01
2.436015723048936543e-01 -8.508627290592459813e-01 -4.972939349514558516e-01
4.586319791753003527e-01 -6.643161876477212680e-01 -5.726102494472535831e-01
6.978083171179376709e-01 -5.043444249423459924e-01 -5.321058834868503951e-01
4.267471013184744311e-01 9.035879648329619984e-01 2.838403591484642829e-01
6.409987389985770667e-01 -4.093842825256371887e-01 -3.954600853261276416e-01
-1.472987813173198546e-01 -7.834472390893755245e-01 -4.377548716044556976e-01
9.736184410703166425e-02 9.441551479166879757e-01 4.394666494323094530e-01
-1.557300648408388444e-01 -7.662293448263005624e-01 -3.491120231729329393e-01
7.813300363373710811e-01 -2.164418590676757403e-01 -4.827097038178867483e-01
-9.815200740759052467e-01 -2.270489334768065748e-01 2.557260600835868924e-01
-6.938890990855596241e-01 3.393576674313416031e-01 4.344363322780661618e-01
-3.259953210802881141e-01 -7.554971583696299398e-01 -3.488936564505772386e-01
6.635841989759702075e-01 6.618164220396260955e-01 5.690711826718018902e-03
8.007447439054196092e-01 -4.114587957432291332e-01 -4.661752932974824737e-01
-8.077181818094012478e-01 -5.823884684806747147e-01 6.904398997283800465e-02
4.408633964378681491e-01 -6.249886342478097045e-01 -4.126556774880935641e-01
