8.946142979147718444e-03 1.475438771493552126e-01 -5.838529374193622556e-02
2.294307947183912011e-01 4.747867573729153828e-03 -2.753355242119430724e-01
5.964467022139066654e-02 -9.021633786927062137e-02 -9.444134255194783778e-01
4.525443929805451626e-01 -6.488352325871178383e-01 1.830290689242102531e-01
-2.991661895168972740e-01 5.471064005918639950e-01 5.732189396229623313e-01
2.496936688657862002e-01 1.465272698770180293e-01 1.332134974418633933e-01
-3.050687221772958035e-01 -2.946106359646151751e-01 7.975391946800038101e-02
-1.365202033237603030e-01 1.279261675313534408e-01 -8.845982400181921779e-02
-4.787349483813643780e-01 4.962135845867192696e-01 -4.555732329576728246e-01
1.253115041256437912e-01 1.136782242094536571e-01 -1.603728721009917424e-01
-1.407246883183078945e-01 -1.347242327099994197e-01 -5.680406164225258736e-02
2.109118968138755656e-01 1.235569479882046157e-01 -8.436783236273471820e-01
-3.032559549408883059e-01 -2.329799237107118559e-01 -6.898492047810934891e-02
2.296887271792332208e-01 -4.489383602277256802e-02 -2.640845319559871340e-01
-3.289509391318231057e-01 3.527783041005385090e-01 5.807377025582028951e-01
4.812221103648545162e-01 -8.482126639733369999e-02 3.685336172736983773e-01
-1.560987221320959684e-01 9.163827662470486191e-01 -3.552938687973428711e-01
-3.611703178549365290e-01 8.252627062528073987e-01 -8.998472332592649670e-02
2.065743826080304324e-01 1.449566909523483105e-01 -2.102455253184202788e-01
3.034616915961215189e-01 1.439294050835936145e-01 -3.736401585355646482e-01
-3.216929571211033512e-01 2.322963802502356623e-01 3.769558436796911494e-01
4.292178289621071535e-02 -9.561831561236726618e-01 1.864838631927025481e-01
1.535952973636688923e-01 -5.761296302171437650e-02 -8.982290854001749869e-01
-4.900521753637378519e-01 -1.447157745122551464e-01 -6.407920580609538508e-01
-3.436358162317347253e-01 -2.169886408963952740e-01 -1.406602072795709590e-01
2.893875352132184720e-01 -3.166280477238931357e-01 -7.001459854905016655e-01
-3.025434639932588765e-01 1.591970388496691813e-01 -1.438631121248706846e-01
2.230260960253648561e-01 3.722479583226506739e-01 -7.639499182328496341e-01
4.098421594254353373e-01 -2.699536303370591583e-01 1.474252599703984035e-01
-4.152980615846942058e-02 -6.629029875546795791e-01 6.915069627835149779e-01
2.991927643604873621e-01 8.756528598340768133e-01 1.832931518211412467e-02
-1.475295730824870144e-01 1.367877371306173706e-01 -8.231707683186255398e-02
-2.607740852343558569e-01 4.828403197572502248e-01 6.764512738172597794e-01
3.489160646470813587e-01 7.411797306376719519e-01 -1.950427478664304715e-01
-4.729945517988072834e-01 6.599235679600796989e-02 -3.784476842498704641e-01
3.655659530785030920e-01 3.116152405802578018e-01 9.930718513041414397e-02
-3.208208692271047879e-01 7.594179779851154555e-01 -4.884340567867108684e-01
4.731979987256039188e-01 -5.845961104753978343e-01 2.781695062827443943e-01
2.669025734968812902e-01 -1.991818618458110757e-01 -7.658590253542770787e-01
7.819249861911890809e-02 -1.049328106002409000e-01 -1.032104673762446884e-01
-2.178111481581838232e-02 -5.480488807602038603e-01 7.913642347772600338e-01
2.279995419235266718e-01 9.146940095505076140e-01 -1.212188757352306440e-01
4.014736529405767418e-01 7.101942893826544978e-01 2.573256644167103840e-02
3.862937049672707790e-01 -3.404959866054944606e-01 -2.489132214754221847e-02
2.948007344139676467e-01 -6.665772109239799514e-02 -3.554775318786019822e-01
-2.242387503585402675e-01 7.835696675377860076e-01 4.613511401655846500e-01
2.563312145587619550e-01 2.583915496292312763e-01 -7.700486738310606538e-02
3.488815158534035454e-01 4.813066881045806045e-01 -4.289692240984177007e-01
1.528551888992646934e-01 9.743009333440087738e-02 -1.900284753042144614e-01
3.673498446691621511e-01 -5.887864898814005876e-01 -3.735230100124480312e-01
-3.367376380337163133e-01 -3.696995495189500103e-01 4.299566372236428013e-01
2.942759555857634712e-01 -2.059274163854557249e-01 -2.203494837837074727e-01
2.804533303456543947e-01 7.312004389793742565e-01 5.864787747979618437e-01
-3.370340529315440370e-01 -3.535055411384689927e-01 2.755107367878388835e-01
-4.693931288550561298e-01 5.544663194166054021e-01 -2.371982396434562379e-01
-3.272657240326694583e-01 2.887581330002795266e-01 3.015844465882190906e-01
2.700545735750891629e-01 2.949409146551363464e-02 -3.312953441394752563e-01
3.301211355415117343e-01 -1.572250959782207913e-01 1.455267984139862747e-01
-1.503156283038966923e-01 8.787287725292252105e-01 -4.441474918022871865e-01
4.369820111980988742e-01 -2.621264862581564881e-01 2.061748602597830160e-01
3.095261451898284610e-01 -8.133080063845762320e-01 -2.019446803966058190e-01
-6.295205520807213573e-02 -1.214392831157318497e-01 9.593822312502101046e-02
-2.429568421421346436e-01 -1.964751634173585448e-01 2.048266037750504642e-01
3.291625006711645929e-01 8.481102605837206321e-01 1.039534929801128188e-01
7.273348980974390920e-02 -9.423277323509678949e-01 -2.154214965774287061e-01
-4.139625884805133160e-01 -6.195274887819944842e-01 -3.955771876586217650e-01
3.141896809457155326e-01 -2.024241111958368922e-01 -2.857787019421069163e-01
3.816252979872089557e-01 -1.130356409533826156e-01 2.202016691485498556e-01
-1.175139245077144734e-02 1.376810760177965554e-01 8.926959796792120760e-02
-3.769236199149491595e-01 -2.000769453471129833e-01 -1.953603736807089930e-01
-1.356479690447513486e-01 1.724309973988958633e-01 9.600996947559035932e-02
9.011737360933189112e-02 -7.736085697932471028e-01 5.945880995776221534e-01
8.773023063884147557e-03 -6.673822689485923165e-01 7.041549628882610712e-01
3.454578347765219215e-01 3.406219356643919172e-01 -4.127521177685458675e-01
-8.506570469124595524e-02 1.539926877857434873e-01 -4.065059535789111028e-02
1.844787234235081286e-01 -2.190692352677102786e-02 -2.266182424642858295e-01
-3.326020481410973950e-01 -7.975301513660407737e-01 -1.223980078533303817e-01
3.279264028330278191e-01 3.310902873615882425e-01 -4.177746444717801710e-02
-3.367678986185934642e-01 -5.190386312347413655e-01 4.022785356893294195e-01
-3.339092382197155762e-01 7.662232371518583607e-01 2.639951229032159730e-01
2.780591882439579776e-01 -5.683177064238661425e-01 7.403512464561458062e-01
2.348958498200120482e-01 4.707396481734957283e-02 -2.818681434353464410e-01
-3.011545178170828563e-01 -7.190866067781040982e-01 3.065472786757806323e-01
-2.905807285914232541e-01 5.382693952543120552e-01 -7.578063377334853801e-01
-1.158426468401772824e-01 5.441976354323628806e-01 7.799423970796239836e-01
5.186636315274518738e-01 -1.552932061107070993e-01 4.829397232466600687e-01
3.609473957487762674e-01 4.357637310110580864e-01 -3.222332296900636273e-01
-1.296784646721380607e-01 -9.469396685926421142e-01 -4.181608590468335884e-02
3.547420453602669888e-01 -8.119562171018478436e-01 2.157704897460608062e-01
1.063332796714135386e-01 -1.202376501465903108e-01 9.766342576731643632e-01
-4.126210813695371793e-01 5.402804419073504727e-01 1.249944274790624338e-01
4.677426163612388721e-02 1.300252916093908306e-01 -1.010705792043938289e-01
4.694697773778014338e-01 4.339033300373421054e-01 2.827775462893240555e-01
1.183223918790146656e-01 6.098016078765242792e-02 1.378377810025594730e-01
-3.417349713630495334e-01 3.002576127606251810e-01 3.884505609857855646e-01
1.066886037724221331e-01 5.985716273600580895e-01 7.968507565530417169e-01
-3.134159989872620233e-01 -2.204664452632916216e-01 6.046948601511251686e-01
3.160424569213809431e-01 8.046107304010988170e-02 -4.308550820191928699e-01
-3.480009452763170863e-01 -7.209324741119552682e-01 1.313650169100317178e-01
7.545520014919938900e-02 6.068221887068975945e-03 1.438606040190063273e-01
-4.384744995154906122e-01 -2.232504723231487076e-01 -2.840360803541324142e-01
4.913082016033220034e-01 2.069017745193734159e-01 4.009459633770940945e-01
-2.705318332281364535e-01 2.568472850763614881e-02 -1.738731345489411273e-01
3.686210648950392077e-01 -3.267974500584853170e-01 -7.703000369867001040e-02
3.297077587223137263e-01 1.064798685766189940e-01 -5.994242026539662316e-01
-2.296230642118970988e-01 -2.161256969568532693e-01 1.035234730091121741e-01
4.274783221737430416e-01 5.294599290350686660e-01 5.854018578922384752e-02
2.801270980314206627e-01 -2.005136376491367667e-01 3.714102338264499426e-02
-3.243525726680764887e-01 1.374695126385015453e-01 5.881499466784075869e-01
-2.729899483783802538e-01 2.606571714864465150e-01 1.057261684646323141e-01
-4.597872962028963784e-01 -4.840040197731934057e-01 -3.537008456267804468e-01
3.286410827252462252e-01 3.564405879372735397e-02 2.101804000494070512e-01
9.950191229098886980e-02 9.137441372802636297e-02 -1.584613975878449710e-01
-2.196527432451651496e-01 -2.068824267996088595e-01 3.170821944899510775e-02
-4.100241599440894169e-01 -5.549308960706481608e-01 -1.706764942733544205e-02
2.549320096811151792e-01 2.223994153877075219e-01 5.730177834209063126e-02
3.268327453584120024e-01 -2.493305378271107320e-01 8.816790153485271064e-01
3.355430085531667661e-01 -7.245015201976071073e-02 -5.886503838334804506e-01
-4.057623591372067628e-01 -4.005178003252874985e-01 -9.190634334748251644e-02
3.874873316868184259e-01 -4.867897442934098762e-01 -3.452557398671592948e-01
-3.534416247145891754e-01 5.446786082554816444e-01 4.333537040571805998e-01
-4.069068972502903336e-01 -6.550380399617034000e-01 -1.179559143845031050e-01
-9.820364131238906724e-02 -1.225803703968564723e-01 -5.835220275367659915e-02
2.310362706387366905e-01 2.032605236918518521e-01 -1.799119394976494424e-01
6.361576413366658300e-02 -7.397351098324779217e-01 6.367541479001682658e-01
4.699983315970239772e-01 -5.851382721454261304e-01 1.991395023369593731e-01
3.988468952729354311e-01 2.876651589948566595e-02 8.627062069654264365e-01
-2.657861910082874868e-01 7.974184526958703056e-01 -4.969754457801071612e-01
4.473264059841453727e-02 -7.543430526739589581e-01 6.176656755320737435e-01
-1.051797249676343360e-01 -1.446174306748543303e-01 7.886778576624126069e-02
-2.744125660745996287e-01 8.610871591295196081e-01 2.249494880253381235e-01
-3.156957978457476943e-01 2.919037576247242582e-01 2.257731306914730895e-01
-2.058162647319034533e-01 7.442505046650106371e-01 -6.191130522161698568e-01
-2.200791218621665768e-01 -7.423395402981315394e-01 4.433229799886256872e-01
4.202626840704541955e-01 1.413558284816368027e-01 2.781020680712334436e-01
2.657684071527278147e-01 2.277303224522053415e-01 6.179700073087866785e-02
-3.606393862111269555e-01 7.774136178697871324e-01 -3.672141322261521235e-01
2.391663510503039547e-01 6.157802020406485943e-02 1.631687822306725766e-01
-2.633515351966567719e-01 -1.067060557098407775e-01 3.290161686197927149e-01
-3.047603253770263532e-01 2.748154089458769156e-01 -8.777509110198951081e-01
-1.601790002441917660e-01 -4.139754907551131957e-01 7.906306651870601554e-01
-1.830171029994361598e-01 -3.968895314520298062e-02 2.480986857282123093e-01
3.864467377121161840e-01 -6.818902139056411960e-01 -2.065861186094860302e-01
-5.040463977414459951e-01 -7.271458339040916263e-02 -5.906315079905990473e-01
-4.291201970467443255e-02 -9.401929468383793953e-01 -2.428024237439011246e-01
-2.785306980958200951e-01 -2.631208980186553470e-01 7.780462389106945764e-02
-3.005562005869019115e-01 4.431738419793886941e-01 -8.103153075806038830e-01
-1.157977116055135813e-01 -1.352745090865293542e-01 -4.335673915230931624e-02
7.339026202576878766e-02 2.685638876070210457e-01 9.534186060603083712e-01
3.596286584718106916e-01 -3.017615599678017957e-01 -3.146020161330781995e-01
-1.512659226520132044e-02 -6.099696110153620537e-02 9.664887029335791357e-01
3.674063629540844644e-01 7.974548621490488154e-01 1.763240102931406261e-01
-1.333679416945918739e-01 -1.146927391401695723e-01 1.606504154497378212e-01
4.304318887240500269e-01 6.284947925556040316e-01 4.434839723969392078e-01
3.868126012359129201e-02 -9.908767560902807803e-02 9.235081772190542604e-02
-4.951920045708743667e-01 2.617756764413489701e-01 -4.028914861853101770e-01
4.080064710711544529e-01 1.217584303331503692e-01 2.675572588599767210e-01
4.802092372265360787e-01 4.422572590123432512e-01 5.269066484054873989e-01
4.100818865881823427e-01 -4.431326936687003948e-01 -1.458030821384843911e-01
4.107885451771722818e-01 -6.885876833615461878e-01 4.050132508508557105e-01
4.377365250553414966e-01 5.359799634320044914e-01 5.696211902654393366e-01
-4.472245642903288632e-01 5.248769263677766084e-01 -8.034774918754983286e-02
-2.425977557362562764e-01 -8.814653406494538102e-01 2.040955204871723258e-02
-2.378519638011214743e-01 7.106435451618755561e-01 -6.387766169965971574e-01
4.413547362309571537e-02 -9.559507238299114196e-01 1.876169457607285707e-01
1.648813389517152506e-01 -7.733763111371541599e-03 -2.141101475826288902e-01
-1.964452075688911115e-01 2.051747171957813975e-01 2.416928906486588355e-02
3.454680304757141163e-01 -7.734725980703700543e-01 -1.852431442713055043e-01
1.811677856361084693e-01 1.780993096829530317e-02 1.511241650620631094e-01
-2.831021224052330254e-01 7.778156963903839483e-01 -5.093575358274669007e-01
2.624294720340401010e-01 8.927807436801536989e-01 -9.471977621430409389e-02
2.726648021993787752e-01 -1.763955387204605985e-01 7.103056093786837277e-02
4.474030030417940895e-01 1.990280225819751891e-01 3.032536522073789320e-01
-3.969046206012562944e-02 7.975212620271131536e-01 -5.911715510535022755e-01
-4.587927295866186528e-01 5.460757028767518895e-01 -4.851276912589422841e-01
-1.252393790473940449e-01 3.161779197407453834e-01 -9.263475359070704185e-01
-4.176074561028169096e-01 -6.372364973701957203e-01 -2.878561084630233968e-01
2.298417142710446059e-01 -1.687726433323681330e-01 3.966519658828585038e-02
2.346649139387146366e-01 7.000083814735974519e-01 6.626838915473800551e-01
-1.271293309605865396e-01 -6.743445209868369206e-02 9.146146671180187537e-01
-4.613404647665029223e-01 -3.206208578409426857e-01 -3.118304528096019212e-01
3.295730001343927795e-01 -2.124447175373467833e-01 -3.258502673847572528e-01
-3.355714220763270084e-01 3.882020420395629334e-01 5.498213800137436991e-01
4.526687476688948109e-01 -1.826577453234068948e-01 2.823760425002509455e-01
-4.228986159279315427e-01 5.258592638484042014e-01 5.322532011553248593e-02
-2.411206505767988784e-01 -2.144844027664992991e-01 1.596695296960564114e-01
-4.163761666116172488e-02 1.024699696315035380e-01 -1.055524051093236354e-01
4.634582681629746959e-01 4.711087885714938528e-01 5.669076780312498620e-01
5.014308365759546637e-01 -4.104874584281347771e-01 4.916304158941224856e-01
-6.933066986985897406e-02 -1.292530494721510215e-01 -3.612958009449039609e-02
-4.474903023424395276e-01 -2.373108607303164586e-01 -2.985635100882995108e-01
-4.111426764175691306e-01 -5.699136423638976323e-01 -2.781958671640125114e-02
2.573087512887448636e-01 1.794390681843574531e-01 1.122592604236674757e-01
4.789498186236279542e-01 5.253336991147800061e-02 7.490774455829730671e-01
-3.803790903049593664e-01 -7.506962117907964305e-02 -2.450862897060335499e-01
-2.030892107246174971e-01 1.387104124473554634e-01 -1.004803006527236614e-01
-1.760839437856064338e-01 1.063824847409756136e-01 8.796040438642428461e-01
3.373917282017853680e-01 -7.586545524187000844e-02 -5.671205829365399964e-01
-2.701388911319161368e-01 2.375365334626995395e-01 -1.623428246812063519e-02
-3.502548668244506169e-01 8.121430734453956024e-01 -2.973880348289596465e-01
-4.895546677369541078e-01 -2.288992863739087447e-01 -5.912841957721542974e-01
2.709294585714840387e-01 2.380058034376670573e-01 -2.086917964598158093e-01
-3.117862085891517920e-01 -6.426022721074155231e-02 4.789357278555609332e-01
3.914069112643956960e-01 -1.590211462373754825e-01 2.073433715731221871e-01
3.258968610300567170e-01 5.585741652563429582e-01 7.247548952974246506e-01
-5.083094107469177114e-01 1.120969223848722052e-01 -5.104961959770026869e-01
4.260283734617401619e-01 3.584443145249143758e-01 1.823765973307645283e-01
2.279305533664617023e-01 5.244930019766017582e-01 -6.780229106840789388e-01
-5.004771831775669533e-01 -4.273466183608146986e-03 -6.354865369586377710e-01
2.639999257343060846e-01 1.359795523996252808e-01 -7.756737086477412113e-01
-5.462522544436077682e-02 -1.192699185005943741e-02 1.713414342652070932e-01
4.673856629720634093e-01 -4.689090044830760973e-01 1.367448962834323656e-01
1.279214948692090625e-01 2.328799114692012978e-02 1.442219670419044031e-01
-1.821027432635068666e-01 9.490697746834746429e-01 -2.113925934903904125e-01
2.417672767871316686e-01 -8.454026064258258755e-01 -2.815316773892542757e-01
-4.396500610601257741e-01 5.029959289652049526e-01 -5.390308770831424984e-02
-2.088091517272225653e-02 2.940068807306324764e-02 -9.700851603146076751e-01
3.069916241633648402e-01 -2.404149473482259103e-01 -1.743805853034208209e-01
-2.924899570052408859e-01 1.058739570836318977e-01 3.880306246444734097e-01
-3.264444441940470565e-01 -3.228661587101627206e-01 2.679462931663232905e-01
-8.084795787744725876e-03 2.249972984787717845e-01 -9.447660550305728711e-01
9.517211724462602829e-02 -8.461498102457392090e-01 -4.431684208674989689e-01
-1.977832458240861846e-01 1.434851728185082553e-01 2.114262469828337987e-01
-1.931670677769460887e-01 -1.904467266403279402e-01 3.385361510096986104e-02
-8.083843852887587222e-02 -1.328921553382350906e-01 -3.167082756289742868e-02
3.972340997428430165e-01 -3.959551931981457606e-01 -1.297403319289268109e-01
-9.210935120453075942e-02 -1.387766207096964577e-01 -2.149915396907189566e-02
8.407530106613009258e-02 9.930672503317178323e-01 6.665501951892142951e-02
-1.333877723173353402e-01 4.390069807115344613e-02 -1.320349321560682077e-01
2.672904249600766002e-01 -7.929651037389835455e-01 -3.425084972760404911e-01
-1.291927390765119088e-01 1.475289094163746151e-01 -6.389376788538554675e-02
3.810028987563691683e-01 2.988824094242194529e-01 1.408911008021065947e-01
-1.038760281257778556e-01 3.757194640401670394e-01 8.696523675573878398e-01
-3.187172474426670510e-01 8.498728793632931433e-02 4.955240418536664415e-01
2.235046300821106890e-01 8.393573093858466838e-02 -2.613159630235511455e-01
7.480001947643655225e-02 -3.733898438486828175e-02 1.342250040205414108e-01
3.209189713660584586e-01 7.761485501373603935e-01 -2.296912523974503351e-01
1.070972708666187156e-01 9.729644776836396947e-01 2.019630594493919407e-01
4.895785958166893881e-01 3.936136559918755329e-01 3.946590420730110016e-01
4.290675913770127248e-01 -5.475975612322915576e-02 2.909040493555119511e-01
2.444922655575665071e-01 6.233163067309450689e-01 -5.815364753498131201e-01
3.328404482043602619e-01 -2.801878918902016569e-01 -1.311553697214874192e-01
8.862432238035916621e-02 1.718675497124563800e-01 -4.968543874436994780e-03
-2.192818993472409328e-01 -1.778697994615348610e-01 1.870043976339946790e-01
-1.735276529658316413e-01 3.744585828571838082e-01 8.226490771938328450e-01
3.272600849662397060e-01 7.834534940023412108e-01 -1.930174620250796058e-01
2.951177993579677805e-01 -2.171274933477889413e-01 2.501511888999488273e-02
-3.291094696999338209e-01 1.731497227632235458e-01 5.228913030265369688e-01
4.831475969486670463e-01 -5.430976825118225548e-01 3.280926311047887567e-01
-2.402108411869875448e-01 -3.255872319881552568e-01 7.416468510836526917e-01
4.966778717398907111e-02 9.984041707437980584e-01 7.098668650520041645e-02
4.196206434960325082e-01 3.345749718745963386e-01 7.635664529991139649e-01
-2.323144580680771426e-02 -8.349080001651419669e-02 -9.963183678473704064e-02
-4.843648667924116413e-01 4.912262129489178286e-01 -3.662263657865822974e-01
-1.019316411987985782e-01 -7.990220487921804171e-01 -5.437780560138557595e-01
-3.730183478367052330e-01 -1.235192875792895939e-01 -2.249785424581420279e-01
-2.910623857088638355e-01 -7.539415266790997494e-01 -4.594473405915722175e-01
1.943960120992020701e-01 2.306779555336942455e-01 -8.398030571917254328e-01
3.459039076425390324e-01 -2.456991570530790425e-01 -5.583421761812682460e-01
3.605295818621217507e-01 -2.920317745101265183e-01 2.770981449143593896e-03
-2.598915313021381013e-01 -2.028443597154311329e-01 -9.114729850470593142e-01
-3.966457047310922857e-01 4.865913758764285335e-01 1.781992031830688106e-01
-1.736744218277994078e-01 3.622983242155144307e-02 -9.663794160567337199e-01
-2.291533069692003322e-01 -2.156093995707207001e-01 4.501303588073391621e-02
1.545823139982576144e-01 -6.234409764799816317e-02 9.796833545360025264e-01
-7.393848830992665044e-02 -5.093092056690684544e-01 7.948213534896410026e-01
-3.108120064042294711e-02 7.386793603943091202e-02 9.636447337735829510e-01
4.635600956330737654e-01 1.918477441461289290e-01 3.350834824395141354e-01
-1.399737676637106687e-01 -8.973838057693384052e-01 2.526597379794031095e-01
-3.035255369971505690e-01 -3.846899256578928394e-02 4.471829566949132584e-01
-4.687043854194766213e-01 2.980820393005181174e-02 -3.732939470606326249e-01
2.954903364232653873e-01 -5.814496799353632145e-02 -3.605064040864263686e-01
-2.710675025505974167e-01 1.454536706574958427e-01 3.177094621823800535e-01
-2.967748962301425819e-01 -5.859876356009279252e-01 -6.777235310378110222e-01
-1.840768902539592078e-01 -1.822302939657948762e-01 1.482142926878973234e-02
2.976037662083101387e-01 -2.383556047557095769e-01 -4.551068878968197312e-02
3.411915472915247327e-01 -1.324252528798788853e-01 -5.530797016627860829e-01
-1.926911076977773363e-01 4.633889265405931601e-01 7.668027796684455666e-01
1.493145262876102164e-01 -3.545333693217538884e-01 9.110463827469357234e-01
-1.812052478293076363e-01 -4.052333329292163722e-01 -8.677301065519527068e-01
-1.482548787758189608e-02 3.090591315879958612e-01 9.279949204617145009e-01
-5.827386725168716419e-02 9.771650555977895447e-01 -2.123926530274605484e-01
4.290359658935843923e-01 3.670878334316246550e-01 7.319359452843759994e-01
4.614783404013229617e-01 -3.099979865591161454e-01 2.265918200072898903e-01
4.843730658956542090e-01 -2.261726557436924412e-01 3.311698825167489479e-01
-2.688472798589068291e-01 -2.523071650648873177e-01 6.880394416239557498e-02
9.434466770039937056e-02 -1.455563720461970287e-02 1.401846559235933876e-01
1.685874614809143857e-01 -2.123447605569270605e-03 1.475376158978335128e-01
-1.021837262822766768e-01 -3.484317821835684614e-01 -9.068420293264982668e-01
-8.193313218765196915e-02 9.380320139696513015e-01 -3.374335196979471041e-01
1.825461461699486310e-01 -9.387678388796460993e-01 -4.421969207832063264e-02
-1.302249239995379171e-01 1.247787569308763667e-01 1.660901715720529137e-01
9.314368150642117483e-02 -6.570412786346423173e-02 -1.479657482203688978e-01
-1.252119722944561309e-02 -1.185609521129434574e-01 7.358976061195778018e-02
-7.312766386411678754e-02 -1.051744887959885771e-01 -7.707673886646776440e-02
3.351013130559868936e-01 3.283819584254133450e-01 -2.901975083652450198e-03
3.605856112663589907e-02 -3.157673658225783053e-01 -9.035240450889259201e-01
-2.018692976061916278e-01 -9.479674035378658770e-02 -1.201398238669853652e-01
2.639860059450784280e-01 -1.916718595853287022e-01 3.239618020128778170e-02
-3.898253143897622008e-01 -4.771318017851531867e-01 6.192495976775026084e-02
-3.574281681016300283e-01 -1.057415210182941212e-01 -2.150570141114814537e-01
1.236685673914565686e-01 3.435217796340454821e-02 9.854197638056585440e-01
-4.026878786902163276e-01 6.081389184729432129e-01 -5.615661186790334991e-01
-1.705494088076989212e-02 2.461206290828792456e-02 1.598926922903216585e-01
-2.972794691501194353e-01 -4.169213065628337572e-02 4.264808400345752593e-01
2.344962132472196495e-02 -8.176323099508339132e-01 5.277377191455032701e-01
3.301745292579565949e-01 1.693658638652227322e-01 -4.699722137256516219e-01
2.089131503830180259e-01 -1.477443746747132691e-01 6.092990092572285465e-02
4.523278713246483423e-02 9.637779860677548882e-01 -2.424843597819321406e-01
-1.098873581858959420e-01 -4.379029123598666695e-01 -8.655855951074589161e-01
3.885271039323038439e-02 9.998193083037097972e-01 6.603935333536296859e-02
5.071022221480498970e-01 1.210166422108986256e-01 6.580461181704023721e-01
4.680430849272225191e-01 -5.476236587110246967e-01 1.335092059823559385e-01
-2.851982489816877811e-02 -9.708587017920942142e-01 -2.389571511188446230e-03
-3.026784871683885214e-01 1.248677710839224686e-01 6.892955765851636052e-01
3.506060619086135977e-01 -3.335194882703761410e-01 -5.370285675707792139e-01
-1.087123880202179455e-01 -8.587730846498479176e-01 -4.370571968786776118e-01
-4.370306905346981741e-01 6.670394496057120426e-01 -3.362616340427724837e-01
4.318190491654258500e-01 -1.280495821690558755e-01 2.729469932421781375e-01
7.210344260303161446e-02 -8.738556569120675688e-01 -4.031259037721249272e-01
-3.702571182986313936e-01 5.376460281868506996e-01 3.691881600392442619e-01
-3.195363781209958343e-01 4.685007503273185686e-02 5.223178008477997736e-01
5.081818899756574970e-01 2.579053716607169200e-01 5.608081173744510206e-01
-4.753764173391211711e-02 1.329960758994625236e-01 -7.409746035665126795e-02
2.497175405333181830e-01 -6.110086830119568768e-01 -5.911961170274682154e-01
3.284761162428407322e-01 3.234752281211838998e-01 -1.318501457431948444e-02
-1.420191067657916029e-01 -9.091717581415423854e-01 -2.790728302232583502e-01
3.306401397183136859e-01 6.138866711321790820e-02 -5.989607689853482242e-01
-4.018599471383170751e-01 -5.532718501967206493e-01 3.121025634636290236e-02
-1.702723727687357677e-02 2.442577982357329591e-01 -9.420322799893589005e-01
-5.081730566038409336e-01 1.742331960908223912e-02 -5.791919650550245713e-01
2.660080829485494958e-01 -1.967973329695312801e-01 -1.630046258327309538e-01
2.854198036322834753e-01 2.514724209866943672e-01 -2.253571954201371574e-01
-1.421444183861032828e-01 -4.259494231140144582e-01 7.991731630227087990e-01
3.179293410706762191e-01 -3.283402375332397649e-01 -6.395950442035351902e-01
-2.556921363450161411e-01 -2.356360234256417441e-01 3.765855094196543518e-02
-5.253245564970759202e-02 4.089629915848131542e-02 -1.317057071282400904e-01
-2.799237030008582261e-01 1.807838388838828025e-01 3.056381321367211967e-01
-3.643814830256032478e-01 5.057875290499297405e-01 4.041580168070804113e-01
4.869654047334584512e-01 5.591673779375681136e-02 3.970839233266346691e-01
-7.633173083413412330e-02 -6.247504599510479428e-01 -7.433915873546202979e-01
6.760348417819029600e-03 -2.307380766751978077e-02 -1.380982159338669801e-01
2.459688922961520974e-01 2.013650485233917653e-01 7.925204515273197303e-02
-1.891420481446053070e-01 -1.466507822312713705e-01 1.844464732290107822e-01
-3.917962981255146970e-01 -1.004102136266875750e-01 -2.521642615192152270e-01
-3.491353587892040977e-01 -3.664622885845587041e-01 8.573361387113628829e-02
-4.992745923594917867e-01 -1.820558034748940568e-01 -5.184963665150246204e-01
-2.682425171448273860e-01 1.314970383540578665e-02 -1.735146984523809333e-01
-3.580485999588081114e-01 4.199660607954033842e-02 -8.769625984914670713e-01
-1.621258200547038564e-01 -8.973905664484568279e-01 -2.943780938629613209e-01
1.112915059243039656e-01 -9.422412102973706238e-01 2.246151593676074532e-01
1.912349651114158833e-01 -1.162311648619602233e-01 9.343841933879847017e-02
-1.340434769725090958e-01 9.219290950623395542e-01 -3.562969545561189832e-01
3.332711602182073518e-01 -6.881607031185212886e-01 -3.637980606162014019e-01
-4.689412906859325436e-01 2.463378583913425068e-01 -3.199660769586260556e-01
1.432102450382507774e-01 1.511944720207186177e-01 8.112648441560114942e-02
-3.850575795969110038e-01 -6.605147671565675394e-01 -4.241113946681073221e-01
4.554657139772853580e-01 -1.614197683121441074e-01 2.964753931180055813e-01
3.783454948076492852e-01 -7.735736113652150747e-01 2.767343035974734744e-01
3.080291510553863632e-01 -8.318917708664836930e-01 -1.526847243176685798e-01
3.169956074448144201e-01 2.075200487490932166e-01 -3.763520642682576800e-01
-1.757613927455641267e-01 -7.952510728187675015e-01 4.259099270117448488e-01
-5.033442527913530862e-01 1.881994429537136859e-01 -5.989120015666827834e-01
5.082889072815341969e-01 -4.930662475706565351e-02 4.478875090507006274e-01
5.155628623493617724e-01 -2.251423645277047803e-01 4.537815321474841790e-01
-2.141477884711802948e-01 2.131362135445332151e-01 1.827867409259032253e-02
2.968252374726243481e-01 7.626528172920800375e-02 -3.783527484764528936e-01
-3.604482756896318363e-01 -4.654644812927917208e-01 2.667302490571881179e-01
-3.636864391983611888e-01 -3.894111019951306818e-01 -7.595239013517490756e-01
4.825456312831478689e-01 -5.297453213803966499e-01 4.061251723465589825e-01
3.912823030772755867e-02 1.375056166106551347e-01 -8.774741833609421560e-02
3.436281252735626235e-01 5.686452532367624046e-01 -4.055050006592851863e-01
-7.019633423291046781e-02 -5.595075812951120220e-01 7.630235441265038610e-01
1.525630472486525224e-01 9.667434187638193066e-01 1.543500325280831587e-01
-1.123433278363088345e-01 -9.444984297420965236e-01 -1.519092376062570748e-01
3.879919216600467569e-01 -7.704693224761582915e-01 2.272224973912995438e-01
3.184446008992700139e-01 -1.979015459064245308e-01 -6.656433057286023081e-01
3.890844060648241398e-01 -3.070416527845166652e-02 2.519630876042354695e-01
-4.275915766735626233e-01 -2.949684269379709289e-01 -2.286938883605487138e-01
-3.621768396628198272e-01 -7.475622454167609732e-01 -4.928940602859516185e-02
-2.602319475873162702e-01 -3.746604111326994335e-01 -8.495490393262670192e-01
3.769930130834613369e-01 5.166167682663143079e-01 -2.477904490463872789e-01
-4.102519360094804557e-01 4.947190680675063179e-01 -6.606749825343734006e-01
-1.280756667453611386e-01 -2.489172937817727138e-01 -9.377559960299285402e-01
4.536209509422203801e-01 -1.083219604406875231e-01 3.120252088342786445e-01
2.430329398221378612e-02 -7.864467974372509884e-01 5.730449642411536981e-01
3.195420469129728880e-01 -1.106375398083136834e-02 -4.395790082334121163e-01
4.666079056944190118e-01 -1.183754688174641911e-01 3.313136194530036938e-01
-5.033043826443565072e-01 2.337309083845989510e-01 -5.766842569815393560e-01
3.777034431952056570e-01 5.301493581516849574e-01 -2.478547992723506010e-01
4.395478527720850237e-01 6.427470255027166735e-01 3.224073943787869045e-01
-4.825210595847714140e-02 -1.020498167557798153e-01 1.165746032191105896e-01
2.644593201112304115e-01 8.147310073023904531e-01 -3.061446806436365353e-01
-2.979924369830508346e-01 -6.031001307287202629e-01 4.564676956670626895e-01
1.761436614129449074e-01 -1.228134385284583713e-01 7.953908208292254089e-02
-3.501011175321722124e-01 1.331263995045112170e-01 -1.970109102091117115e-01
1.552536295029202096e-01 2.016913203464860971e-01 9.648043088029236714e-01
-2.743939828205831377e-01 2.630200398318847943e-02 -1.757055697932196903e-01
-3.787823147849551098e-01 -7.167245180095720425e-01 -2.754627521709258620e-01
7.473412865424755754e-03 9.973493755803656269e-01 1.164847156070857870e-01
6.229611295486733868e-02 -9.440816872047674835e-01 2.393823576566828648e-01
4.784706182853030176e-01 1.830286527374141992e-01 7.230771285755336342e-01
-4.322207338058884352e-01 -5.009285300940840013e-01 -1.427145873366365558e-01
4.055665660723863364e-01 7.138300474149412711e-01 7.151598082017333879e-02
-3.056012851951459552e-01 -7.793652990473429742e-01 1.721118949171464851e-01
3.498077717639337947e-01 7.612070297679240927e-01 4.233913229557219604e-01
3.484575693502782734e-01 -2.092004135012892063e-01 -5.197377260983848668e-01
6.835798712474693006e-02 -7.134070505675825166e-03 -1.604944590442603514e-01
-6.015784374070824031e-02 1.369899855568152969e-01 1.085397959144141083e-01
1.246612527654267777e-01 9.203794270847365233e-01 3.737090317747848722e-01
-3.856237714232960134e-01 -6.806874859097882258e-01 2.903128150239555325e-04
-5.061907724557586086e-01 1.186885654408084733e-03 -5.986767511242490070e-01
-4.896575177399569573e-02 1.989489062731258640e-01 -9.560735896998280303e-01
-3.822953671137981901e-01 7.830844723779599725e-01 -2.531490993895763597e-01
-1.898274443693055979e-01 -6.979753162678851153e-01 5.416309741956276680e-01
-4.794488327901606506e-01 -3.677543775442017604e-01 -4.337440289565208107e-01
2.734720645084008916e-01 -8.600479593998711092e-01 -1.679058695761109221e-01
-4.124996888197817180e-01 7.214767261477132987e-01 -1.984053965750404505e-02
-3.866596983716327762e-01 4.667215920684121833e-01 2.279637812057705715e-01
-4.988809579308592368e-01 -1.840846723687638020e-01 -5.490039782476081598e-01
3.364947643047387915e-01 -1.462065200088331351e-01 -4.393639816037303580e-01
3.710449316276676068e-01 5.512798602204105336e-01 -2.896981529762083785e-01
4.168077249315273458e-01 -3.799674629415502602e-01 1.919382625177250973e-02
-3.786583836774853884e-01 -4.699634258707057755e-01 1.237568540558687813e-01
9.152193091465148089e-02 4.730198596874673478e-01 -8.202825571573778562e-01
-4.116112066669585547e-03 -1.276204082650502503e-01 4.347398255938082767e-02
-2.408667307093696197e-01 8.101386241810268340e-02 3.039125762746631154e-01
2.264938588308308687e-01 2.251491784390795003e-01 -8.079473055686806626e-01
-3.385354161693167052e-01 4.283247693354404889e-02 -2.131229383526109800e-01
-3.607074608075809818e-01 -4.117120862652210583e-02 -8.724012442292512493e-01
2.629464338100288567e-01 1.251743038722839263e-01 -2.991378318556866533e-01
1.927445261750571903e-01 -1.663822733247439511e-01 -7.524010403227018862e-02
-1.724348192095999932e-01 -3.752445157799068620e-01 -8.841786830178904877e-01
-2.325572838257068398e-01 -1.079881317928428446e-02 -1.579173777620330454e-01
-2.656541021296532912e-01 6.438850790026151572e-02 -1.651007251213699456e-01
-1.392615256363771148e-01 -9.431039767810206476e-01 -5.592997078927441912e-02
-1.211931548182603319e-01 8.946332466877925382e-01 3.894518232470605135e-01
-3.010019592637060981e-01 2.707717945865560361e-01 2.190972601125754093e-01
-1.379094652557173173e-01 -8.311263290310462182e-01 4.088694739229108976e-01
-4.280372223733509007e-01 -6.015712881801718037e-01 -3.440625428689531029e-01
2.839376177782167998e-01 -3.003482373367278857e-01 -7.144136820081173900e-01
1.776111963753669309e-01 -8.852849307467379469e-02 1.139737259467944741e-01
-2.729822411959758610e-01 8.770067211519975148e-01 1.822711900285297615e-01
4.622013814091139317e-01 3.069234635090312691e-01 2.977236538058922743e-01
-3.755259291174947722e-01 4.486678094226364544e-01 3.070006373067340477e-01
3.261424748973310028e-01 5.149912800818638725e-02 -6.308708295733620464e-01
-4.654197063710162618e-01 -1.461020821360354272e-01 -3.610449444542496722e-01
-3.194647974886087871e-01 -2.903769414947154556e-02 5.562936570354533039e-01
-4.113839669383320130e-01 -5.992639758912814418e-01 -4.898869054121880728e-02
2.150142172084475445e-01 1.072794468937418727e-01 -2.429299446058630629e-01
1.125651042348759512e-01 -1.123386288736884751e-02 1.409123961987733265e-01
1.270625331687608162e-01 1.710601153969435184e-01 3.963101062992298307e-02
3.081745470121389219e-01 -2.150534794381926962e-01 -6.885434767896174701e-01
-4.223320383059112615e-01 -5.959919808197856606e-01 -1.283728545015384304e-01
-3.425502419893965422e-01 3.233063367660004572e-01 2.717290969282578142e-02
-2.562401550727783778e-02 1.609847832860582806e-01 1.909861100329850875e-02
4.720172564534564352e-01 5.064905634982488358e-01 3.220434764605372147e-01
3.145070604308489726e-01 4.555275411086640025e-02 -4.285338835393140422e-01
-1.530343668482392339e-01 -2.038862914670347415e-01 -9.455334915302795462e-01
9.614287674780129522e-02 1.198604800210661958e-01 1.043003530847648741e-01
1.132540909367361209e-01 -3.660598338567318533e-01 -8.534741396885966447e-01
5.199485329751148965e-01 5.806562457953927392e-02 5.990593583133785316e-01
2.963084681600865466e-01 -9.181424230103275852e-02 -3.460593731265761419e-01
-3.024502890306262071e-01 -7.329558656217732837e-01 2.797434940585160623e-01
-4.728134364395196743e-01 5.197566705436995615e-01 -4.544619181138339070e-01
-1.492338519946965758e-01 -1.270228141402762467e-01 -7.128974470613155812e-02
-4.743366999545367002e-01 -1.545074292286206796e-01 -3.829089588647723308e-01
-2.953669831045928618e-01 -6.514046914308670999e-01 4.125135180915858180e-01
-8.714334623480497061e-03 -3.050014832263034728e-02 1.510726381296632337e-01
3.723668618118190499e-01 -3.534451620089115731e-01 -3.800647973894075715e-01
2.343445611663734496e-01 -9.172784219145672102e-01 8.997545056800045071e-02
-3.806458444707657707e-01 4.028389131013028202e-01 8.618755008020898001e-02
4.641008813874275551e-01 4.106863829459784787e-01 6.276734440711789764e-01
-3.337432460585846791e-03 6.824380356410019235e-03 1.564171232178061532e-01
2.976669542457379691e-01 2.412670691318780369e-01 9.073292295925993178e-01
1.024807967527997243e-01 -9.918571243777446478e-02 9.055341287366858172e-02
-3.668112864336509071e-01 -3.238244936661008877e-01 -6.797424620429397268e-02
5.112523775219899314e-01 2.329082822090902394e-01 5.205329364452622176e-01
3.386815824023068910e-01 -2.870322424730872291e-01 -1.547558746182041700e-01
4.656624855351678693e-01 -4.797467738492278699e-01 1.228398989169528638e-01
-3.801592817619049713e-02 -1.307151830944717867e-02 -1.331158187054861386e-01
3.499786887312413275e-01 -2.617539487562439149e-01 -5.356912023992115301e-01
-2.458251698552217646e-01 2.261812472072008140e-01 -2.013181091880557154e-03
5.161050817723077389e-01 1.506248769802839560e-01 5.235077312888043455e-01
-3.045753542082740295e-01 7.714829506309320850e-01 3.340722066348376096e-01
-5.031161815487020794e-01 3.107506081952668420e-01 -4.964085542462624567e-01
-3.613645694046703216e-01 -5.628630964173062523e-01 -6.225415174341982771e-01
3.028535036750539811e-01 -4.832500524254211283e-01 -6.024752382777481818e-01
1.528276674720051298e-01 -5.668715846449801088e-01 -7.190904017373098700e-01
-3.615908121309540646e-01 3.813928252583484446e-01 1.825864057918606675e-01
-4.325713949784698031e-01 4.782954546234331472e-01 -6.338138739258661891e-01
-2.844683967263162416e-01 2.312840722410225078e-02 -1.811095389072946982e-01
3.426902890864488294e-01 6.661652394143404710e-01 -3.221838000005458058e-01
6.290176845782854964e-02 -1.307577197302429439e-01 2.018189989796684292e-02
-4.997280562423812855e-02 3.301122807000139714e-01 9.101356113717227192e-01
4.400192424460936946e-01 -3.429226970743702307e-01 1.419767869430536844e-01
-1.305749697963480560e-01 -9.448941160678603346e-01 -8.875498388536642858e-02
5.376118442100150802e-02 1.255203339272614911e-02 1.460707909263128657e-01
1.606600732489035510e-01 7.906960903492226134e-01 5.925207030827781551e-01
-1.877002243631009301e-02 1.573031718594956052e-01 4.327089877467472923e-02
4.621876099728669529e-01 -6.170719508190493086e-01 1.900178953973368501e-01
-1.052812577305391600e-01 6.730242549911970018e-01 6.905972495581081949e-01
1.307241857636030034e-02 -1.300850822312218658e-01 2.119949575984262508e-02
5.115055097888260294e-01 -1.859267664869826975e-01 4.357773971881770403e-01
-2.984839144445862735e-01 -1.164759716984778010e-01 4.088271662172078269e-01
1.816083892577191605e-01 -8.640046662597616889e-01 -3.312834415837340729e-01
3.663444503441226630e-01 7.095927990353786408e-01 -1.750038933107864458e-01
-3.318295667777705349e-01 2.599088455504408035e-01 3.914157482130219412e-01
-2.677170889582434210e-01 8.437003115182267754e-01 2.831728696679632895e-01
-3.030985759186490824e-01 8.826236656513494205e-01 2.430583188181115878e-02
5.134364451829535048e-01 3.679882873722482850e-02 6.494431486806271359e-01
-1.995173005379431430e-01 -1.519961897639419690e-01 -6.804741359711261040e-02
2.583344301253761022e-01 2.033874209161415647e-01 -2.307581936984855198e-01
-4.039419583539303749e-01 -1.661835923044276964e-01 -8.075062011714930765e-01
-4.962756194754485706e-01 2.271603560726963011e-01 -4.155479718314864512e-01
3.215931634172384812e-01 2.084735164651339290e-01 -3.943888035513408719e-01
3.793955107258586978e-01 -5.760399680073997608e-01 -3.418963328941906354e-01
-2.081076079463981265e-01 1.559174855759525025e-01 -8.646270610554185332e-02
-1.788109843863112947e-01 4.940908929613038042e-02 2.448028715729581584e-01
4.817944225160363247e-01 2.088828955172835622e-01 7.059286250773233462e-01
-1.791717608039999909e-01 -1.698803394695499736e-01 1.283163787002919443e-01
3.281065607097077286e-01 -1.424358060135407500e-01 -4.019538522057718444e-01
-1.792142310718193021e-01 1.968879085525354899e-01 2.155428959741716513e-02
-3.249276174701852260e-01 1.412043700774520683e-01 5.837115662172701613e-01
-4.473093494235548806e-01 -2.849775671468471328e-01 -2.810535470261319446e-01
4.007379568230740596e-01 -6.834799515613539933e-01 4.469325573204935842e-01
3.496539001588745976e-01 -2.476585651559289059e-01 -3.771960679836178776e-01
-2.680724706477482511e-01 -1.246685712022536363e-01 -1.368865687412782195e-01
4.673720105828138016e-01 -5.670679852433806456e-01 1.421673800554224543e-01
-3.109044123827647277e-01 6.924248371182706308e-01 4.250171106306118718e-01
-4.960826463853362789e-01 7.979969375368816059e-04 -4.524781041540240634e-01
-4.453467341029970217e-01 2.673227576987665874e-02 -3.307189258799114739e-01
1.232166507496671448e-01 4.055385134626789123e-02 1.424366537699126301e-01
-2.905227477912047385e-01 2.167830367673565239e-01 2.894354499113259149e-01
-1.536693939635859762e-01 3.617516219780010922e-01 8.429704774772720510e-01
-7.320669041004354560e-02 1.713664552040078740e-02 -1.329707082460222511e-01
-3.184960461619649741e-01 -6.301040530902553005e-01 -6.065126667131557348e-01
-8.394973251459435237e-02 9.406500592998520149e-01 3.110340867353210137e-01
4.366562298451784341e-01 1.381473089878302585e-01 3.010578808673071149e-01
4.511025199618136083e-01 -5.002960754235721286e-01 3.528524002276476473e-02
-2.967685889071981498e-01 4.264859919609316485e-02 4.211657187936324598e-01
-2.624757688472653117e-01 -7.368675366887573741e-01 3.737673180665309070e-01
-3.703033231039044582e-01 -3.149513891303299395e-01 -8.755500268654869966e-02
-1.942367763195064212e-01 -1.563168011478038855e-01 1.784891704947123292e-01
-5.391944278446642036e-02 1.524572566247003325e-01 -3.898342580012102709e-02
3.015398867858019583e-01 2.619276646308899559e-01 -2.593669898491685055e-01
-1.695604723266196379e-01 6.080559320992433570e-01 6.978478783696463461e-01
3.862365620865887972e-01 -2.354370787007012411e-01 1.416381549625105873e-01
-7.222935272182424982e-02 9.985088256249123884e-01 -1.801819402181182792e-02
4.367472938049872799e-01 -6.863566747998696149e-01 2.524352895161260379e-01
-8.483682200868017734e-03 3.184164178262879202e-02 -1.392720670317921516e-01
-3.767253877079859703e-01 2.885426309736293660e-01 -1.131823171596944011e-01
2.722088898628686193e-01 1.505443845102591438e-01 1.438367339946886869e-01
3.662374899986794996e-01 -7.262481389033343948e-01 4.468412578992767559e-01
-1.919225198890313344e-01 -8.350662010182858808e-01 3.278537658599184335e-01
2.578901066798493513e-01 -1.213514968417672979e-01 -2.560183647238712945e-01
1.361014612019268988e-01 -7.921466434022396419e-03 -1.944410274026507623e-01
-3.442332793020295711e-01 -7.447962921173638673e-01 9.150284282527770818e-02
3.629490038603480073e-01 -3.374964913837099068e-01 -4.673952662994773077e-01
4.394487717117386838e-01 -6.839667917154715893e-01 2.018825336602052267e-01
3.361329787639811273e-01 3.296813792937847709e-01 -2.982279670585238351e-01
-3.446148778567407200e-01 7.845872963512492415e-01 1.922342444353338509e-01
3.168679752685200218e-02 -7.624499139284602878e-01 6.057616681299011763e-01
-3.682993912951657706e-02 5.637032699542235403e-02 1.599179601542736195e-01
2.773546159462429439e-01 -1.802258081744267937e-01 -2.230385479602177423e-01
-2.947723801525126697e-01 2.179661033923140367e-01 -8.232464259633498482e-02
-1.556494210453678861e-01 -2.277753272077392283e-02 -1.352810632418606496e-01
-3.835890402624599904e-01 -7.096252573224545168e-01 -8.219720319636965311e-02
-3.246163950142817445e-01 2.813122704091756687e-01 3.043628831475448937e-01
-3.955979937421110759e-01 -5.279389009272331679e-01 6.399570533894669011e-02
-1.473842098102262632e-01 9.510145572833256233e-01 -2.545441311652025806e-01
7.446666488183788235e-02 1.672796899791453851e-01 1.191278731710912475e-02
2.973716869920609573e-01 2.749497262563385114e-01 -2.186441326675765962e-01
-4.709369308666421228e-01 3.356115598646450815e-01 -2.851180114718283032e-01
5.232732581252292903e-01 -9.864440894422843442e-02 5.619012832956115089e-01
-2.433164693806956491e-01 2.356900431319836342e-01 4.926124405492363079e-02
6.005498608862653437e-02 -8.403623071578021630e-02 9.789214641930170657e-01
-3.142857698467418914e-01 -1.669134767267848873e-01 4.468777476866099274e-01
-1.294476720994751362e-01 1.795474192485740916e-01 4.369970172487758209e-02
-9.246347423368654617e-03 5.840085878751491433e-02 -1.334350871538940442e-01
-7.001465151443789225e-02 -9.237247527270325831e-02 -9.697185849460202567e-01
-7.314291331461587886e-02 -1.123683959097749457e-01 -9.675119931458562306e-01
1.266389827575445659e-01 1.279095081421909585e-01 -1.498931464970803540e-01
3.046947890692733307e-01 1.922707055682453259e-01 -6.848140419907764453e-01
1.998601731512079094e-01 -7.699978237260529657e-01 5.675804053022692752e-01
1.434919328538606098e-01 6.170875474861525767e-01 -6.941076568482975606e-01
-5.035923960984265424e-01 3.045332664681632551e-01 -4.933609957781276423e-01
-4.184091701519709883e-02 -8.768773904881705938e-01 -4.188807341740633516e-01
-1.533248855276564404e-01 3.497511421146455857e-01 8.474583454726840603e-01
5.137174920099121453e-03 -5.666866878435411481e-01 -7.828822766213112683e-01
4.237350753224533029e-01 -3.568588686551510958e-01 7.840121722775150737e-02
2.009909489931434867e-01 -9.074292892969340607e-02 1.193984646534353433e-01
1.620786604115144816e-02 -9.728665971658720935e-01 4.024247449344809519e-02
-2.307192420522818921e-01 7.042738755388602279e-01 5.484365985520832654e-01
2.125099465428376411e-01 8.183646593013490511e-01 5.187740183942345373e-01
-7.834416824722306716e-02 -1.249296603926699362e-01 -4.834439277135201690e-02
4.972024803270218007e-01 -4.601145971519181033e-01 4.283434749174491185e-01
4.875265855036902130e-01 -3.318891535996734143e-01 6.337753672993862164e-01
-4.569879734615090450e-01 -4.533481130853813657e-01 -5.069030923904045416e-01
-2.526418578859619402e-01 2.321364477055390951e-01 1.587144864245189635e-01
-5.883047000097346713e-02 -6.760497966017384730e-01 6.709863008806241647e-01
-1.234700815844915200e-01 -9.265353675327779870e-01 1.742905932298495775e-01
2.504485261947738128e-01 -1.921678788148349082e-01 -1.333094677103129899e-01
1.003772548555825761e-02 -8.114491847308709024e-03 -1.421894635557492126e-01
-4.922325164411812670e-01 -2.151127956468449343e-01 -5.856649417611106134e-01
2.764816034413993817e-01 -2.118538163320499990e-01 -9.493797942107324499e-05
1.687049337673704186e-01 3.447382564573942543e-01 9.230966986848632150e-01
-2.892814337403124547e-01 2.201695054187871037e-01 2.812758973193064671e-01
-6.483248049638007382e-02 -5.820409897390594472e-02 1.602314030497866137e-01
-1.341311022573895007e-01 8.678219412120121712e-01 -4.724471466652728768e-01
5.990995381424186333e-02 -8.722971636843811494e-01 -4.119388043821174406e-01
-3.743406464232584829e-01 -6.607072807377678547e-01 -4.577685439411696700e-01
3.162355473227133618e-01 6.080862472646310357e-02 2.005316682125443117e-01
8.091549993916488659e-02 1.365927330381727089e-01 -1.104207931679288823e-01
1.378589165417551943e-01 3.685968104078716362e-02 1.440358677199607140e-01
-1.591073560769988016e-01 6.724561687788991327e-01 -7.134508706188087412e-01
-1.579525678945303269e-01 1.831971510366682543e-01 9.542361019050332738e-02
2.287891658742164380e-01 -1.689898101679129239e-01 3.801544886296124443e-02
-1.311783823229278889e-01 -8.818405189548590428e-01 3.081407458759929385e-01
3.349330881493621792e-01 4.248613787148762810e-01 -5.124102693059972014e-01
-1.931097045888290065e-01 4.151833741757672558e-02 -1.434824169403140504e-01
-1.655437908131916769e-01 2.967017746767002667e-02 -1.390114690939247277e-01
3.874305231900391222e-01 -4.340052084835140378e-01 -3.310722135592961135e-01
1.854806870498099114e-01 1.992217027828462328e-01 2.081126509774994596e-02
3.385704785262951821e-01 -1.885259411188885958e-01 -4.019264481351653706e-01
-3.038132150085252614e-01 -2.347953270454060382e-01 -6.731089622195773892e-02
-3.876415014067052800e-01 4.695469370291599498e-01 2.243073127161193669e-01
