-4.082367303626719957e-01 5.538480390413912380e-01 -3.932630500487923064e-01
-4.821271239207856052e-01 -7.926966574888859585e-01 -3.869870935435489878e-01
5.345569117306102624e-01 3.058630269514221386e-02 -1.434795150438976929e-01
-3.594853238139645857e-01 -8.831924717982208017e-01 -1.187976617655252670e-01
1.987972900431500267e-01 -3.801304549112662357e-01 2.936384479734580610e-01
-1.084067809786050107e-01 2.834214330606089627e-01 8.918675836311477922e-02
2.435162206955778508e-01 8.287713163716198261e-02 1.249428854143980194e-01
6.623142701553133005e-01 5.515881593459357468e-01 4.857835193827927389e-01
4.523096099495286793e-01 5.699877165777399446e-01 5.758792850696455856e-01
-8.397675873630588983e-02 -3.268041159881532320e-01 3.482438074929035399e-02
4.164918880297392434e-01 -8.803160835922322347e-01 -1.564647942207914588e-01
1.632986188507014325e-02 4.127856220732354919e-01 -1.267508098407066630e-01
6.832449675648517573e-01 -6.744830120402842688e-01 -1.007855482411953302e-01
1.915723855909263473e-01 -3.599456534159748977e-01 2.792442815421987690e-01
-2.808217257595521099e-01 8.810461947122705251e-01 3.244860058280827908e-01
-4.130205496662584519e-01 -1.505783186666418416e-01 -5.647344275333340269e-01
-4.874216305604019972e-01 3.790972216551334872e-01 -4.648584427848658773e-01
2.645999930741342321e-01 1.859781045207248018e-01 1.863796906514749580e-02
3.026404560212196948e-01 -3.876818377145451744e-01 3.771000321718306902e-01
4.176529334981936292e-02 -3.989696666175144291e-01 1.714229838347718360e-01
8.357064164441432297e-01 -4.966231156380047085e-01 1.855509488616433333e-01
-3.336860082737420630e-01 -7.432694080862610464e-02 -1.377787529979911975e-02
-7.040062619533639099e-01 -2.181068462971229860e-01 8.847941918702352526e-02
5.934658661505236577e-01 1.313620371654957431e-01 -1.285034440493968977e-01
-4.820023420210376996e-01 -1.354376316145124715e-01 9.393176466008097691e-02
-3.503191878640639079e-01 2.207184386887150185e-01 1.726006952640249947e-01
4.368012302570524197e-01 7.070486378642906189e-01 5.112053483649896535e-01
1.292890893038402614e-02 4.058533082054373020e-01 -1.215550377864991899e-01
6.505022140915543982e-01 -6.087575269656593235e-01 3.096478840206766669e-01
-3.093204108495785087e-01 4.652054616297664202e-02 -4.565795044767898686e-02
-3.076512460015008998e-01 2.808179035947821478e-01 -3.576727520633073976e-01
-2.438365881279650205e-01 1.930183499433125172e-01 -2.358818411653128277e-02
3.899226942940635099e-01 4.202471523154300420e-02 5.188976116211792000e-01
2.798437858039646287e-01 2.183501796312718179e-01 5.128075164327587920e-01
-3.579477487183305717e-01 3.107748932367739858e-01 -4.075989701145407706e-01
8.103776013348772400e-01 4.548036023260135230e-01 3.661541299115317893e-01
2.906895563928588722e-01 -2.488155415946136789e-02 2.491012049747761900e-02
1.915327203067220263e-01 9.087137229386638149e-01 -1.071757124559741259e-02
8.890929961732836340e-01 -3.394043939350665506e-01 2.692734029980936028e-01
4.590607522080735192e-01 -5.786539018041508831e-01 3.798920128555563491e-01
1.449253015161853786e-01 5.260743345923876157e-01 -1.572239697824739380e-01
3.589621708752745999e-01 -9.221856714879873573e-01 -5.353316668106935378e-02
-7.723956160504913404e-01 -5.186592856822562769e-01 -1.131088273317998327e-01
1.513444168181449223e-01 -6.865113607783520644e-01 2.716192677090228380e-01
-7.351684469843747238e-02 5.004441597425181021e-01 4.746745688189423773e-01
-2.076494236003625926e-01 7.597153988318157136e-01 -2.640565368099708210e-01
-3.094299021937924610e-01 4.549351893592284979e-01 -3.699878569337084477e-01
-8.065480907044385583e-01 -2.828342095097901576e-01 -5.090018631751739298e-01
-7.104250188107055219e-01 7.313690934335139726e-01 -8.298762892960050847e-03
2.820512317101110944e-01 -5.049431204909080595e-01 -4.098674159402704853e-01
5.517657575715571028e-01 -4.867364779233954164e-01 4.230205632070661581e-01
-7.365414401593360916e-01 2.967417257186690249e-01 -4.867432128409212022e-01
-2.151506107213539687e-01 3.806572258932052755e-01 3.382304363396762548e-01
4.507059414619432602e-01 2.005683329627924727e-01 5.876901725482677197e-01
-5.470131821306603026e-01 -7.838855373634184831e-01 -1.800862183968071628e-01
-2.517905889238988837e-01 3.362408768176007312e-01 2.837369724007445804e-01
1.549737597474993255e-02 9.662770730614650416e-01 -8.372309317250765459e-04
-5.802650432452676199e-01 7.919055586589036910e-02 1.673506789735879352e-01
-2.867522031794734194e-01 1.824689459730537699e-01 -3.066271674952497084e-01
-6.909105252533869201e-01 6.092144288804621777e-01 1.944095042954433195e-01
7.709422895388604591e-01 -2.702681543290428867e-01 4.532037896539733435e-01
-8.063627616664033326e-02 8.940406284331013920e-01 -1.371158565168840437e-01
3.166019217144405151e-01 8.910079255307473689e-01 3.530440396394834424e-01
3.922015942838700253e-01 5.098754630245092012e-02 -7.478124024329049768e-02
3.776814179570643359e-01 1.992294921339433644e-01 5.627918716267066301e-01
1.814754449495103450e-01 1.778114364811198556e-01 1.534840280026786852e-01
1.178844855427856331e-01 2.304771395552756286e-01 3.032140554874180327e-01
-2.975932946442815252e-01 5.655374131484365297e-01 -3.534371606341752403e-01
-1.942242181983044047e-01 4.980122555707288678e-01 4.300543222732651216e-01
-5.132618827714904297e-01 4.693328489030517137e-01 -4.427118412209422038e-01
8.456939563187624298e-01 4.016906297234557610e-01 1.508235060507685521e-01
-2.416698751765765374e-01 3.706264116066895209e-01 -3.062058887469789603e-01
-2.824286722966427021e-01 -6.455984489229547041e-01 1.314091815995734325e-01
2.512216006316850270e-01 -6.280226951599825191e-02 1.225833715580192385e-01
-2.750042771311494993e-01 6.006710751153357397e-02 -1.696443459486875194e-01
2.271444894902248102e-01 8.206556842275646024e-02 1.909782990357613564e-01
-4.460874755945210546e-01 -2.181601296410951019e-01 -5.932892074736938470e-01
1.455767219674682367e-01 -8.927424780271087101e-01 1.245880110108343736e-01
-2.676073974283196266e-01 1.197959291038686591e-01 -1.930233221110189967e-01
-1.059835194849201856e-01 3.089758798143703578e-01 2.432434880999103932e-01
-2.390687121588630781e-01 -1.083570404987556635e-01 -1.662879234291631259e-01
-7.367397661007971665e-01 -8.736618110200357334e-02 1.086536784459759264e-01
-6.567342153324883247e-01 6.276717666184821950e-03 1.472801608982594879e-01
-7.861672264244716768e-01 -1.118795279353527322e-01 8.120937558089459662e-02
8.419271319948025134e-01 -3.686112757558592801e-01 -6.944349873729614708e-02
-3.177767583282239405e-01 -7.786345855811384054e-01 6.127372555096656515e-02
1.391595116842578583e-01 -2.435950981945423921e-01 -6.524221053028932127e-02
-2.527980391521144066e-01 3.676264713196337741e-01 3.188300428189951297e-01
1.302889178770866851e-01 3.005474153305512930e-01 4.445303378187486221e-01
-1.455180965274802951e-01 2.808228131896576274e-01 -4.530488743616133823e-02
-7.770684312410753858e-01 -1.765996656129467102e-01 -5.490498252609187224e-01
-8.243394253236081548e-01 -1.549646971097948522e-01 4.451897718370575324e-02
4.408124631436412533e-01 -4.537660946213356583e-01 4.264979868232168791e-01
-4.554048586090532202e-01 3.727926773622309842e-01 3.013905113377380318e-01
2.831327095945475048e-01 8.933403674860221910e-01 3.211593067939745583e-02
3.325013196949029859e-01 -2.872946225596719749e-01 4.020525128620075495e-01
1.934901559361846546e-01 1.531763275115575473e-01 1.754375980888132069e-01
3.248001435522168689e-02 -3.186361243254634545e-01 6.623638239691888308e-02
-2.955307740203683697e-01 -1.111324873262378443e-01 -5.062046205881434724e-02
4.574270297410627101e-02 3.368250108042805113e-01 4.106391506520112311e-01
4.703667032707612439e-01 4.908076138030932345e-01 5.935625657850579495e-01
4.518126634079656645e-01 -2.501151053606727737e-01 -2.508089691035089164e-01
-1.036443420313452463e-01 -2.925236792063020119e-01 -1.596747531871701292e-02
3.308604531014405076e-02 -2.689408123542540996e-01 -1.186301464450735671e-01
-1.775519592847990269e-01 -5.574985099230546082e-01 1.615756324849896564e-01
-1.390071634488353192e-01 -2.173644665892899286e-01 -1.596044270144264809e-01
-2.835678855500087248e-01 1.059880057648598245e-01 -6.963444358452619554e-02
9.552560608191253966e-01 2.399766355033297952e-02 2.477303757214442681e-01
4.850562637305419478e-01 7.607634038323805026e-01 3.220014724249105342e-02
9.645528872617620958e-03 -3.843736847501686427e-01 1.378702639549213849e-01
1.169699700164106432e-01 -3.065882302678150095e-01 1.435714617501029633e-01
9.098906125233805486e-01 -2.830612742110177327e-01 3.768899505644825176e-02
8.391004849487713191e-01 6.877409576188181495e-02 -4.859803305527089085e-02
7.803625573662030801e-01 -4.660936565761249484e-01 3.279190604791962782e-01
1.662000962434154738e-01 2.523572155107640103e-01 5.069951479014693507e-02
-3.210404917145737169e-01 -7.486202927962055664e-01 7.915203264154627161e-02
3.422393724497521106e-01 2.387922372488224809e-01 5.587269926050036917e-01
-7.891304587653489300e-01 2.259087973379046710e-01 -4.880397074119283696e-01
-3.752882815212640888e-01 -4.096982782220371516e-02 -5.010950217702691001e-01
3.631710097158552530e-01 8.580315547954096012e-01 3.820773707403523622e-01
1.996507208734790706e-01 -3.149944893946493574e-01 -2.886693455668118968e-01
4.502582289873959809e-01 2.449898711795613360e-01 5.950359968215441775e-01
3.138737948110013054e-01 -9.219240080577491003e-01 -1.790069879638055972e-01
7.551072429042542389e-01 -6.341791483938782337e-01 7.723669795723067666e-02
-6.396837106130107697e-01 -4.488362170932295170e-01 -5.646621508411556745e-01
-9.761645710215329785e-01 -5.599283500075044606e-02 -2.658027240818256476e-01
3.567130662881105585e-01 -1.284454335554434667e-01 -1.319380993663696877e-01
5.506448843612185562e-02 -8.699507571521611915e-01 -4.018099131686134751e-01
3.980144692826670938e-01 5.754207050090518472e-01 -1.086429764933793812e-01
-3.107494841234273789e-02 -9.439848559470357392e-01 3.782676885333617189e-03
7.588838156816755942e-02 -2.681444277703837753e-01 -4.220104495825707097e-02
1.884695161556858012e-01 -2.102232317435589748e-01 1.163679210537224562e-01
-2.155445538571205133e-01 4.546386664608636496e-01 -3.070293045022390865e-01
-9.084921967973335066e-01 1.141733253701726764e-01 2.868440860355051317e-02
-9.572643135889790100e-01 -1.565871721488464596e-01 -2.934015478264988541e-01
1.849339989284917024e-02 5.429307518803176968e-01 -2.015193120753595024e-01
-7.929940453760527808e-01 6.292600766847521454e-01 -9.473756443621465795e-03
-4.774912256159957735e-01 2.266483130060425177e-01 2.192873902731060087e-01
7.597219329762657791e-01 3.609989932892300191e-01 -9.786121674571466450e-03
3.435134111734372553e-01 3.115659677342458300e-01 5.794144124332927248e-01
-4.861970287340749430e-01 4.006512935065033587e-01 3.075394774088548444e-01
9.480080252749745195e-01 9.030040372610358395e-04 1.178054815504229469e-01
3.049371628314275218e-01 4.372721184833770480e-01 -1.130220018242982100e-01
2.199792600650136709e-01 4.521110726036794980e-01 -1.194380720569511722e-01
-3.312705545358101134e-01 8.962071750836351214e-01 -1.464468413635889033e-01
-2.693282282493423274e-01 -6.346641739240235953e-03 -1.877033595840325864e-01
-1.563449888319375647e-01 3.278633865703693417e-01 -1.708782100622855682e-01
5.214763937140648453e-01 -5.624476265124510599e-01 -3.170850565053249248e-01
-1.830437560789532347e-01 -3.379147207138745168e-01 5.358683890820648693e-02
4.446247060256771633e-01 -3.757416310840525075e-02 -1.341732132648085773e-01
-3.120218305582859730e-01 3.837456062129234180e-01 3.262863310004203155e-01
4.830177830832561026e-01 -5.775719340785626099e-02 -1.579131890915047576e-01
-3.043817602573458125e-01 5.976593408346017045e-01 -3.493492091992224102e-01
1.265794327287545207e-01 -4.965134440820964667e-01 2.730438900042284622e-01
7.162553278823057257e-01 -6.797280253236848147e-01 6.735758656678737799e-02
-8.777084061951946348e-01 3.844587959357029239e-01 4.853624651274469903e-02
-1.787554106251219854e-01 2.595652663402731597e-01 7.585674702607314579e-02
-5.256100709510361790e-01 -7.289894580542636282e-01 -3.903903763401888466e-02
3.707832714140245067e-01 -4.864109092569512266e-02 -9.030322885376894371e-02
3.348416562965592091e-01 -6.089857367359678975e-01 3.496053215843712980e-01
-3.673951244833758012e-01 -7.004444101221946051e-02 2.224570311753759633e-02
-3.667125429286426375e-01 -7.057888249894684884e-01 -5.325518704097667033e-01
7.870947435775416112e-01 -5.703038998125555814e-01 -1.406583191113913896e-02
1.485693094331433095e-01 6.196829678850668266e-01 5.603765787126991915e-01
-5.255634563712006102e-01 7.218621208916343734e-01 -2.990961513305199215e-01
9.083120931800310327e-01 -3.379764991180209122e-01 2.003415375968893575e-01
-8.730931757944891958e-01 4.242936026410507599e-01 3.777744068260857624e-02
3.060645710858009294e-01 4.947833705252513981e-01 -1.250212281136469927e-01
3.189647638114521677e-01 8.611099576661771504e-01 4.046778269987827414e-01
-2.494981384099410060e-01 -5.529708832066663193e-01 -5.831949273416751067e-01
-4.169729179697365118e-01 -5.979258577920149031e-01 -5.757933169463225198e-01
1.248973107823982409e-01 -4.569785620489142941e-01 2.615590353771191645e-01
4.104509218609699306e-01 -5.108193976747386067e-01 -3.666747644423849484e-01
2.256714392911226830e-01 -7.366330383819519323e-01 2.689523226846884940e-01
-3.173814557391331781e-01 5.749298644438571859e-01 -3.592074472458799406e-01
-1.762172675547993561e-01 -5.593816610560053970e-01 -5.693753472321917419e-01
-2.657603936962731062e-02 -2.664476980027405406e-01 -1.175142458831662101e-01
5.375747823690747440e-01 -3.290905547430136857e-02 -1.625281248487828178e-01
-3.059139801535683545e-01 5.467308966338969567e-01 -3.599770169245716800e-01
6.800816131476876691e-01 1.408701334901073521e-01 5.752810263510026445e-01
3.766788213321201617e-01 -5.013929083083028537e-01 -3.770958533989384742e-01
1.482003400938280702e-01 -4.576494783865742155e-01 -4.325166863532821648e-01
-1.964724038665164596e-01 -2.182118704960574196e-01 -4.258638438816486627e-01
-2.067498615312824417e-01 -1.375463926531785286e-01 -2.620669064770192458e-01
5.953275740198390453e-01 7.477097887963705114e-01 2.844539234113686033e-01
8.892548030665130554e-01 -1.613362727190290336e-01 3.828275335421737480e-01
-1.973640551241070407e-01 -9.434731663267793556e-01 -1.075744554957032417e-01
-7.776075707746968879e-01 5.047456047783315247e-01 1.440079409556463963e-01
-3.439741900170296129e-01 4.342217165048603000e-01 -3.913764128856559998e-01
-5.324680652282018922e-01 4.832224531646627796e-01 3.148706099193564478e-01
9.012379781077457797e-02 3.045142279782507289e-01 4.100128721648639285e-01
-8.943023348431321240e-02 -2.410391143820448945e-01 -1.715229015270116064e-01
-5.857249321940365822e-02 1.000000000000000000e+00 1.165278923394433563e-01
9.464460691471705545e-01 9.669725527262020004e-02 2.703918815603721382e-01
1.655555657498724853e-01 7.301966394664632931e-01 -1.539046899582865446e-01
3.863332284285767582e-01 5.709816309589252903e-01 -1.123498927338903303e-01
-1.216096706647287196e-01 -6.260509954779457376e-01 -5.532978480225776430e-01
-8.211770072201788340e-01 7.188165680410782410e-02 -5.088443750828671730e-01
7.187850585901648381e-01 1.071440680043624638e-01 -1.120811103148638410e-01
1.256747215115218141e-01 4.495381333789389977e-01 -1.268670356542873079e-01
-1.839817012908386284e-01 3.537233203933937697e-01 -2.332193039058215178e-01
-8.546565869850137886e-01 5.018378832037839743e-01 -2.407185323998037307e-01
3.166038144156014256e-01 4.204669648703413531e-01 -1.088612946266822867e-01
-2.447233060279659367e-01 9.581505712804596619e-01 -4.396009142160648558e-02
6.102622042944769731e-01 7.413338890088208566e-02 -1.400240282914517465e-01
8.144434569283188763e-01 1.791744263213416177e-01 4.976397194510252531e-01
-4.630946394472303801e-02 -6.721696304798440158e-01 2.063408158093149036e-01
-2.692879924694705496e-01 -4.266823922395258650e-01 1.103284191263547848e-01
2.032462645198436779e-01 1.459381741354434381e-01 3.412628110210277899e-01
-1.369570721046788897e-01 -9.647738099298924785e-01 -1.850624698297705373e-01
-8.361533278134627434e-01 5.438214823658921171e-01 1.451327099193573666e-02
-5.177684252669479958e-01 -5.951232276798368304e-01 5.757505626803050697e-02
-6.630900337153319279e-01 2.863701387346927474e-01 2.240491695763046909e-01
-7.469266478476240811e-01 2.097698350811250390e-01 1.733177426630354290e-01
-4.190428866084921489e-01 -7.076843789772337967e-01 -5.179815524953701456e-01
6.526508581787162644e-01 -6.785037842394184837e-01 -1.480737925823293888e-01
3.652192394831759725e-01 7.373349582489444609e-01 -6.870566546035601629e-02
-2.142992600266135361e-01 -4.188580968751626221e-01 1.087687218160764829e-01
3.147769934460285107e-02 3.229895587573033411e-01 -3.778512441412616892e-03
2.298156006755122938e-01 2.525330350323625184e-01 4.953347567216466593e-04
-8.222172342693768732e-01 -4.918337106826739524e-01 -3.035218786216651310e-01
2.863022913237123213e-01 2.009359792649931600e-02 4.525865461296244702e-02
3.186896115604795909e-01 4.443022372171149814e-01 5.928943815457211608e-01
2.464439224465604927e-01 -1.012342706441185791e-01 8.794631313052007904e-02
-7.855521613377433043e-01 6.472532611848317297e-01 -4.463857648550130508e-02
3.956098752733315793e-01 1.791252200132945338e-01 5.648036413422016233e-01
-2.754300491202626988e-01 1.001983313161392830e-01 -1.161223626491930117e-01
-6.751461358084089870e-01 -4.601670000885904610e-01 2.926873601148482010e-02
-8.298510351534849061e-01 3.871457943111651367e-01 1.157384910975764042e-01
-2.540183432341406866e-01 -3.986150290040466060e-01 -5.712971047778789835e-01
7.606016142217575382e-01 -2.554128027380612731e-01 4.653138402422668518e-01
-5.444813327740181119e-01 -4.766062988734291461e-01 8.135277945143284950e-02
9.259879784762300448e-01 -2.749674090650561231e-01 2.152529399968807489e-01
-6.606516418236120236e-01 -5.377051919701582999e-02 1.324908376529489173e-01
2.566171478435669284e-01 -1.081096560958137442e-01 2.772644594700359733e-01
2.501096330103599330e-01 -2.892325237194089960e-01 -2.579850400500847130e-01
4.564111372711796566e-01 3.630910053322200515e-01 6.055103106672435898e-01
6.172810362571125031e-01 4.671408388784512589e-01 -5.765543941237635112e-02
1.953413225053168001e-01 -2.145511749484541597e-01 1.595035671834014179e-01
-4.135650455680158211e-01 -3.213973934939172439e-02 -5.268391121135942434e-01
1.799416404211999221e-01 1.995568846669685537e-01 3.814181691845809907e-01
-6.648037045051614635e-01 4.604421386510223480e-01 2.471108480032365995e-01
-1.455602358133324115e-01 -2.556624844387121454e-01 -5.919865655495937934e-02
-5.682043280635895588e-01 -6.302318824046061474e-01 1.024282517789972154e-02
-2.700563324511445207e-01 -2.319747693465524507e-01 2.534514265578205992e-03
7.710957791025292440e-01 4.889317876879177294e-01 4.068084148915468989e-01
4.994783237482825489e-01 -7.622651690941772973e-02 5.401859010776056680e-01
-2.106516880060275154e-01 -1.335131101640289475e-01 -2.317349175647310799e-01
-5.438742862148870927e-02 3.730759961082512621e-01 -1.214620940292288342e-01
4.546176811405038265e-01 2.915655625516341831e-01 6.014343362636421775e-01
-2.775597171747035130e-01 -9.100371767823600688e-01 -8.792123656367593909e-02
-2.622824749275309841e-01 3.082848687425265299e-01 2.482785538104471390e-01
3.191732767307088880e-01 8.888664930571267553e-02 -5.162438592023013174e-03
6.429632162729148614e-01 6.506445228402032432e-01 8.293415882327349886e-02
2.889436084592005849e-01 8.668963512919648784e-02 3.403846057032704209e-02
1.319733920407352989e-01 -2.485319249653818452e-01 1.528162229771460635e-02
-9.069149437011764237e-01 -2.029533107655483171e-01 -6.940413146177404347e-02
1.498251678285883459e-01 -9.732193908984967390e-01 -1.151972485725145101e-01
-9.725818095469580815e-02 3.962020540682008041e-01 -1.801311456885804352e-01
9.206365573465273844e-01 -6.256188959047608023e-02 3.591168303383146521e-01
7.311634600319121269e-01 -6.294709198711960774e-01 -6.671517097480439418e-02
1.747843020619254673e-01 -7.332498208647737492e-01 -4.487552572884560553e-01
9.532803903137827550e-01 7.160546962621316958e-02 2.129137613908882176e-01
-2.186956448202532488e-01 2.326059302939211260e-01 4.980338797083928154e-02
2.808943141767354379e-01 4.538039568743574281e-01 -1.178110248786352343e-01
-1.689803223293993850e-01 6.049765547301731994e-01 4.696755210048350060e-01
-3.221039111114600839e-01 5.469384149397237271e-01 4.050161232744609041e-01
9.588734984871277733e-01 -5.456336962133600393e-02 1.814939132202214589e-01
3.093128690662962921e-01 -6.608861230410376653e-01 -4.115358048857001294e-01
-1.331928978011898135e-01 6.634725967969281601e-01 -2.729721102634631857e-01
-3.188079696327992263e-01 1.825917476838927467e-01 1.031402121102088509e-01
-2.394612249398810344e-01 -3.697777838312458210e-01 8.290909785148536937e-02
-7.694540510373587550e-01 -5.725762566252428076e-01 -2.767117568327692179e-01
5.521527888857843402e-01 -6.831726032741199106e-02 5.538792106797613135e-01
2.530905791569655339e-01 -1.324214695767302920e-02 1.391861642779844976e-01
6.357654787281972197e-01 6.085712050930343064e-01 3.078690233676998136e-02
3.638437114483407397e-02 5.304282407059875970e-01 -1.905379589055991307e-01
2.654528629924837735e-01 -5.807446594649121607e-01 -4.315033830159187844e-01
8.223883477702552680e-01 7.167466158353383299e-03 -7.830368691334307907e-02
-9.685050614220155896e-02 8.604087669715384523e-01 4.178281152130935983e-01
-8.270453033054034897e-01 -4.890800185760600938e-01 -2.355261060156767783e-01
-3.820469297649108364e-01 2.667870082577936119e-01 -4.303957555824562409e-01
-1.524080313754909710e-01 -9.619611345076749531e-01 -1.710496841920046418e-01
1.543548825877487929e-01 2.634255936090696970e-01 4.294269859615067464e-01
1.510180178613109436e-01 -8.462434946648855760e-01 -3.928255067501578157e-01
3.726634213061003065e-01 -3.773999455074978915e-01 4.192141209237972843e-01
2.030515147583542013e-01 1.284966188975345536e-01 2.059690767881664775e-01
4.002626325358857318e-01 -8.890802493453063837e-01 6.054417347857924542e-02
-2.171467720540531388e-01 2.589871807864731479e-01 -1.941140652185529281e-01
1.139403163481770564e-01 -7.926972882241554164e-01 2.116202465729805915e-01
4.625421697174125213e-01 2.666919235534682686e-01 5.998071842811011356e-01
4.639236607634719678e-02 -2.695398544820562514e-01 -1.646845668081786951e-01
-1.551056978204396752e-01 -4.626300729929829769e-01 1.375132306811117366e-01
-3.391419292072123115e-02 9.481500232241402149e-01 -5.328901728698515194e-02
-2.113440097781892069e-02 -2.792005461696743240e-01 -6.131961482059607865e-02
2.614816566982387513e-01 -9.313994779189675721e-02 4.062849832366017405e-02
1.521048614486978645e-01 3.279017868716990747e-01 -3.066179221020156470e-02
3.012571673588996801e-01 -9.372688631157168881e-01 -1.910285741431335185e-02
-3.816163495018471408e-01 -6.551477493734704227e-01 9.417472412907178236e-02
-2.785829583474618287e-01 -2.172191083424973926e-02 -3.428938701834196023e-01
-6.491700144356528090e-01 2.813231105960857792e-01 2.273587552873322093e-01
3.011376376925574694e-01 -8.748454610721623226e-01 1.431810982044434410e-01
-4.177255338591969736e-01 8.600710252442688164e-01 -1.757274267235017784e-01
8.709622741180172989e-02 -3.783965484929417977e-01 1.894137510966549809e-01
6.922969665637755954e-01 -9.636810559458036315e-03 5.562300677192689724e-01
-1.792571352607234825e-01 9.924315186927605836e-01 1.241501696380636899e-01
-7.201780641689166096e-01 1.948237868150926311e-01 1.819254860767927362e-01
-4.145997442103380171e-01 7.944400986456370273e-01 3.175529047691100781e-01
3.281984173509771424e-02 -2.778043091278412091e-01 -2.314997077619696253e-01
4.083309718411193279e-01 -3.424314073645073342e-01 -3.050488112866922008e-01
4.643551306753794794e-01 -9.531455550976503099e-02 5.225394781925741805e-01
-1.174607508439767245e-01 2.844163943962036423e-01 2.209067497666526020e-02
-1.851093080784673717e-01 3.150746891897917568e-01 -1.996718136340823735e-01
5.764118265804257790e-02 4.320401569449601742e-01 4.966526103615820920e-01
4.140946406021904225e-01 -4.833265122313820661e-01 4.109052242878475369e-01
8.841548035850256282e-01 -5.012025789548244653e-02 4.200505367121398770e-01
-6.422857415416451943e-01 7.796658656572686974e-01 -1.202158957192832472e-01
-1.139588123529264446e-01 3.228438304666617076e-01 2.758463199097566654e-01
-2.741557591148250927e-01 1.722151013491340643e-01 1.722418715697139613e-02
7.163685726420156996e-01 3.694616291730838942e-01 5.329925285375498589e-01
2.024939397031110810e-01 -2.701184016963843471e-01 2.425661254655853416e-01
-3.387158130444896109e-01 1.522902751116176068e-01 8.948183515835970991e-02
1.060522992045218604e-01 4.911473809504487420e-01 5.401320896528336579e-01
5.330222127948294197e-01 1.983743374351781552e-01 -1.153006791244357426e-01
-1.646129157594013737e-01 2.882250190485017849e-01 1.824166118237472434e-01
-3.642664524709171014e-01 9.170811609856999169e-02 6.592235851525281298e-02
7.384550839376290421e-01 2.417481068714469848e-03 -1.296066321495320806e-01
-1.135406380385714509e-02 -9.517159190977665384e-01 -2.910695516360935486e-01
-2.256410407424176423e-01 2.124515906285409095e-01 -2.797336370200824082e-02
-4.201817167242251072e-01 4.214715998948454501e-01 3.311190504298260895e-01
2.117666220637118291e-01 -6.936450564804533814e-01 -4.458512157713553359e-01
4.981923532035194002e-01 -4.284342804398280635e-01 -3.173933664823280210e-01
7.514091124877331218e-01 4.230080519698853903e-01 1.516249482857698859e-02
2.104167382751796489e-01 -5.767307111804825803e-01 3.172438690965400099e-01
-8.488839919451450777e-01 -3.741823144450230343e-01 -9.461189812500135632e-02
1.263588397222794868e-01 -3.654703428030202650e-01 2.160276347837059296e-01
-1.016721734677820677e-01 7.192521364731332412e-01 -2.493532516500523710e-01
5.126751545709216096e-01 4.805815051306566721e-01 -9.214849126120229494e-02
-1.556765379633794910e-01 -6.514741005955174691e-01 -5.548742781917257449e-01
-2.256221029016999835e-02 -5.867550107746344334e-01 2.170376425598999071e-01
-9.135037018834847311e-01 -3.086306057947900139e-01 -1.984168743729695095e-01
2.386675899511660759e-01 -1.216931881347009109e-01 8.458416417871823800e-02
-2.018270288247887845e-01 -4.907473591447900629e-01 1.398973696425379332e-01
6.087758616707393822e-01 -7.161960950828957229e-01 -1.683082261493931697e-01
-3.455521644041956719e-01 -8.543467141276429588e-01 -3.892442312642522828e-01
1.971798286759270658e-01 2.288988020510550059e-01 4.426893010236018222e-01
-5.516265150803971729e-01 -6.333077077856011242e-04 -5.748565433753948239e-01
-3.563137644264707804e-01 7.831393853300323560e-01 3.597746297776477364e-01
-8.753321988543681653e-02 4.408583694398308106e-01 -2.069158930111609784e-01
2.633665817661597908e-01 4.017755100163912518e-02 9.458983532886296175e-02
-6.059577660003179211e-01 4.417090389996448097e-01 -4.562215894226135937e-01
-5.820036226617999464e-01 -1.161858797259420623e-01 1.194388319340340954e-01
1.378508696879041096e-01 3.329937592679272917e-01 4.791027844460559737e-01
7.606361959801177797e-01 4.489184953790743560e-01 4.216064476748825063e-02
1.078398912861764855e-02 -2.835683176709142272e-01 -3.788159712964277170e-02
7.629628793312017709e-01 4.148866962762459698e-01 2.211575801979106734e-02
-1.419311611699556885e-01 3.377057178968335127e-01 -1.635408391074399115e-01
8.654118371726866599e-01 1.616417866059319808e-01 4.446333494382868623e-01
-4.265073480563906783e-01 9.176646700385437949e-01 1.185671756565236934e-01
5.272657497192481113e-01 2.427273537321809338e-01 -1.111804689891046638e-01
1.393313164357820322e-01 -9.730133419688316021e-01 -8.220992101723606504e-02
-1.161350785694449800e-01 5.957113295367393313e-01 -2.701592560360241424e-01
-8.261709270125761062e-02 4.163554882104713584e-01 4.177010211904468862e-01
9.447712965501253723e-01 2.123277650507167727e-02 3.039787385015438881e-01
-5.676414202781243645e-01 -3.105747113819057881e-01 -6.090757442043789327e-01
8.250124733902181040e-01 7.807712593819883529e-02 -5.842332130960387060e-02
-4.206714322813444040e-01 4.562406609130640334e-01 -4.236418534797460889e-01
-2.633203014060157554e-01 -5.007109273114566245e-02 -1.654428179065507709e-01
2.751951586397357458e-02 8.318249584917146722e-01 -1.568461785777081341e-01
2.502090037580996240e-01 -2.348364443237238308e-01 -1.795585319686345827e-01
6.421581384202706966e-01 -7.509575547060558520e-01 -1.270021453105048964e-02
-8.828798267440056413e-02 -2.551987390013562007e-01 -3.250118003281615153e-01
-3.030821017810490514e-01 3.497809339850843635e-02 -3.656626197301973136e-01
2.970164918124741926e-01 7.424399745806301576e-01 -9.818122735859995120e-02
-1.981738960344845701e-01 -9.328856962973450795e-01 -3.023470364990040737e-01
-6.341581977127611625e-01 -7.186514843335349845e-01 -2.218389615769982837e-01
2.478572172404056861e-01 -2.061560080223249353e-02 1.806642093436876539e-01
-1.940758857964052508e-01 -2.940716875667563346e-01 1.580909109918882116e-02
-1.994727842392127748e-01 -1.471319139903669859e-01 -2.644307815822011798e-01
3.198833447079332815e-01 -4.201477933653047572e-03 -1.464538799704197605e-02
8.206443515146512047e-01 4.194013175923876346e-01 3.847478857827338894e-01
-1.864167951884039554e-01 -1.857929595192742422e-01 -1.456926445315735452e-01
-3.171827663978835088e-01 -1.224811602137062111e-01 -4.864417877972502247e-01
6.765302950761414857e-01 2.875163597210840805e-01 5.715657414803645420e-01
2.764997997522887774e-01 8.764461236232864438e-01 8.290812594456721529e-04
2.130640102295338484e-02 2.773858043038615606e-01 1.495810897543924933e-01
7.293834596676216364e-01 -6.227166647590153259e-01 2.071062101364092578e-01
-3.743903606442327003e-01 -1.336345294384978788e-01 3.563154403131928855e-02
1.956200681064245717e-01 1.795420324452277616e-01 3.810763960173738085e-01
-2.623602464088031772e-01 -1.090983477771485799e-01 -1.063536362297827498e-01
7.970974738479895683e-01 -5.684154229931065450e-01 2.282774299152915201e-02
-7.419510040867453859e-02 -9.323723380190280796e-01 9.594519018369841376e-03
3.613828652355393078e-01 -5.046878512215254853e-01 -3.832066731290059702e-01
-5.325033909447005609e-01 -6.352538658958556406e-01 3.047007119735021391e-02
-3.130607510488965795e-01 1.824953337235619699e-01 -3.561483386289986952e-01
-1.222413385719007678e-01 -2.316551581874328469e-01 -1.422325930348977141e-01
5.880491874601182500e-01 1.623517104961073043e-01 5.940295128283172854e-01
5.708702525960763774e-01 3.624170002192769746e-01 5.957920540273141663e-01
-4.125230674573922007e-01 -6.644821972073640115e-01 -5.467194038043591275e-01
1.973986809002324372e-01 -8.478224510523377777e-01 -3.723143893915275005e-01
4.772678539482235749e-01 -1.133446608596415384e-01 -1.807365464758109164e-01
-9.086300194530763097e-01 -6.356314018626772755e-02 -4.367284494651553772e-01
-7.465641391055652942e-01 -4.691766817994814098e-01 -4.797760308810241625e-01
3.334421553780309577e-01 5.600502148220093401e-01 -1.254740751798473775e-01
4.152499870090685663e-01 -8.325319633741034009e-01 -2.472585352365522515e-01
-2.148267904396974626e-01 3.881389457251431807e-01 3.458918645912358314e-01
-2.201564905036565989e-01 -9.461451104819221802e-01 -1.877157988920007126e-01
5.023157150244395019e-01 5.167247411010054137e-01 -8.844959769262855653e-02
4.595650769380115186e-01 -2.458884269794189836e-01 -2.487578201083260609e-01
-6.233465619809641645e-01 -3.488660661322372514e-01 -5.946051111445420645e-01
-4.687882748495456053e-01 5.951116761380783604e-01 -3.869165127495658996e-01
6.847774014432412848e-01 6.312903225304664634e-01 1.256861677426162616e-01
-4.232266064746724177e-01 -1.316890758852200249e-01 -5.638752950057209778e-01
5.770333364913127205e-01 -3.201102297244284856e-01 -2.634404690665759219e-01
7.298741875387314559e-01 -5.468356314494417919e-02 5.358625610609820678e-01
3.899540971268970480e-01 -7.674436115543635806e-01 -3.275789899678410722e-01
-5.882318213875613599e-01 -1.345967734665316773e-01 1.171778563352291747e-01
-1.147687129115411570e-01 3.208951943950259511e-01 2.712079425834515445e-01
8.818725859100431386e-01 1.074316811073204730e-01 1.154222176982544305e-02
-3.131333571666026772e-01 8.663596740971691856e-01 3.210927115998568615e-01
5.090909371095270197e-01 8.176847014566640537e-01 2.523306378313082132e-01
2.076452523832305885e-01 -3.640395042953345484e-01 -3.443573183363878853e-01
-8.091623756291003167e-01 1.528819339330245997e-01 -4.984103586566827615e-01
1.126762935086778744e-01 2.356016697662763337e-01 1.613911744586941366e-01
1.803456593726445942e-02 -8.925741369448987328e-01 1.006866867153727307e-01
-5.938102302642735975e-01 7.443238218651405669e-01 2.044991562764860715e-01
2.690911488334526425e-01 7.229441083865437677e-03 8.290361652130122383e-02
-4.607861271711014561e-01 -8.216183739382166840e-01 -3.506734551506880959e-01
-8.389591042703355983e-01 -3.264693547546037022e-01 -4.568986689257858447e-01
1.404024931779737639e-01 9.791642513160428996e-01 1.782154578271403222e-01
2.104119422156375263e-01 6.468568519414736873e-01 5.641129063169330049e-01
-7.333734799090801948e-01 -4.750496141283736540e-01 -2.311880505581022024e-02
-5.467526537796613129e-01 -2.374448632306633000e-01 1.036131160887097530e-01
1.223455117690937372e-01 -6.090426070852497098e-01 2.770364836533502628e-01
-1.106127314891446195e-01 -2.259944142307752091e-01 -2.430688156208225259e-01
-9.072699590568222838e-01 -5.502384623038026473e-02 -6.038511399558810396e-03
-1.753872922210648611e-01 -6.538017601497936315e-01 -5.571143238152617139e-01
-9.734518999559732544e-01 -6.811346702999096676e-03 -2.991903238329114423e-01
-5.701215268456638618e-01 8.917695688021165523e-02 -5.586354693556095929e-01
-4.995167671153551425e-01 -3.373028029342350353e-01 -6.120260901838496803e-01
-3.295617475642755902e-03 -2.788607489123187677e-01 -6.099281079809786010e-02
3.024209118303407551e-01 -1.056723515663337276e-01 -5.567623382032463319e-02
7.179515677908520077e-01 4.725010125649374837e-01 4.867107618286037884e-01
1.445841684513080906e-02 -8.461348252707355799e-01 1.465962765573243509e-01
7.085678591064095144e-01 1.380347592536251833e-01 5.651075054597233249e-01
9.135462616074502273e-02 9.705339136901132147e-01 2.783773965773285730e-01
-2.585402851012242320e-01 1.953706298222955273e-01 3.240935776168354238e-02
-6.132586430071403916e-01 9.149444101129694529e-02 -5.626392602861803871e-01
-5.042509532970569364e-01 1.528948999974909240e-01 1.843097125090213950e-01
3.552782933920390906e-01 9.006040194422160194e-01 2.765459090000964570e-01
-1.388586119567549737e-01 -5.170705700963754703e-01 1.624413013951932772e-01
3.968677974033167910e-01 3.173854213555128978e-01 5.949166151455490548e-01
5.438152584200899309e-01 -6.476756632432514316e-01 3.257871752914403007e-01
-7.421486994421578887e-01 -2.488644851363735755e-01 -5.611998159074979009e-01
-5.360944866439523171e-01 -4.179132373911184639e-01 9.245187637200817654e-02
2.729273688562752764e-01 -2.620318994049682382e-01 -2.285573146368573283e-01
-8.694157270325933995e-01 -4.118143256782190731e-01 -2.189933781773837074e-01
8.023445959252115678e-01 1.943381706299880662e-01 5.063326716203018218e-01
-2.490812780936014215e-01 -6.383677456197145439e-02 -2.290720112600684311e-01
2.476867578796752845e-01 -2.980716579072033995e-02 1.863348667640289114e-01
3.471572289592600447e-01 -3.928851588886684842e-01 -3.424883413337956872e-01
-2.992545926007306178e-01 -2.940058360495000356e-01 5.433283448066838356e-02
1.472700016115802424e-01 9.591259959790904288e-01 2.907987634507582242e-01
1.258826249122669827e-01 -4.897294142905614378e-01 -4.561652094866439078e-01
7.422644319055234086e-02 -2.886741858197418575e-01 4.353236911983077162e-02
9.492806192066337578e-01 -1.413126619001199569e-01 1.228698879544425776e-01
-4.770088767681143760e-02 -4.019486553719403554e-01 1.266729895011111662e-01
5.865581515513282884e-01 -6.279920540468578727e-01 -2.557600450492383271e-01
2.313742928629831941e-01 -1.429492596560467677e-01 1.874181674539516229e-01
-2.735810960779906931e-01 6.177011522361473134e-02 -1.944383945503205258e-01
-8.302725221995962412e-01 -9.795733902383985114e-02 5.731365029552108054e-02
5.240605331381605891e-01 4.335551668833173555e-01 -9.638266434441010444e-02
2.544881494142167688e-01 9.905156020913285023e-03 3.107095357998530538e-01
-2.961110325937821308e-01 2.927966325905323811e-02 -8.399091185145023120e-02
9.903317382968747362e-02 3.561449918698337269e-01 -5.226763245093356963e-02
-4.152364123425177911e-01 7.454005987863218108e-01 3.454398156209115278e-01
7.204102565143419845e-01 -2.733483482465320358e-01 -1.930567728013256601e-01
9.294188197875130619e-01 -2.798899605573981209e-01 1.642370031403936337e-01
1.053697140928525483e-01 9.273878262303711928e-01 3.686671197957185897e-01
-7.196760353363153007e-01 -6.287602158525098517e-01 -2.042870614778367067e-01
1.764764731923841590e-01 -5.326028020635473759e-01 3.042560498165675087e-01
7.965837497572304526e-01 -1.378397002035383623e-01 -1.252935628090618425e-01
-3.651845463302255124e-01 -1.376083871883457266e-01 2.949758012117368114e-02
4.195194220321875611e-01 8.239278628394797188e-01 5.004155002063281898e-02
-3.157743730503241308e-01 5.046041419489359914e-01 3.942264124448469631e-01
7.999177775869787954e-01 5.095843848889384242e-01 2.197654028358335399e-01
-8.317269298814176093e-01 4.031076689329116669e-01 1.100029676306790993e-01
4.956044387633431157e-03 3.072324060403290313e-01 3.223171162401318179e-01
6.651413754044175342e-01 -7.323490833959926949e-01 3.387034118997940546e-02
4.084423218973861069e-01 -3.175117770321703170e-01 4.473249729031575361e-01
-2.167800645403270832e-01 2.514895309165501303e-01 1.130681432922642227e-01
-8.470552172973631055e-01 2.402185876433250156e-01 -4.428652863591090449e-01
-7.374606917642646531e-01 -4.980401655558568813e-02 -5.662842004704585763e-01
6.339540706806870984e-01 2.503277877416346109e-02 5.731389638149252397e-01
-2.191999233722397022e-01 2.718255879286230470e-01 1.692261694614586032e-01
-1.789502379080590011e-01 -4.593757857215812201e-01 1.317795237549643783e-01
-8.863899325768838378e-02 -3.024791308855380167e-01 -1.994579114201074609e-03
-2.920258204952558972e-02 5.445252236990515415e-01 -2.219958816057951700e-01
2.118168822211120572e-01 -5.087718085740782215e-01 3.224501035938438509e-01
1.748377452311859204e-01 -8.695445851678113014e-01 -3.611758104196172714e-01
5.308337511185673430e-01 -7.592872583453190716e-01 -2.162457036065740246e-01
-3.832504023675972760e-01 1.300500165354772641e-01 1.116321470076802047e-01
6.103521776708877855e-01 4.419631883882096379e-01 5.683290215645245835e-01
1.743217614424500683e-01 1.850103463450934460e-01 1.559050998154991874e-01
-3.882464151355957127e-01 1.057729954544534556e-01 9.851913967620315460e-02
5.308247404698077654e-01 -7.081802041168937523e-01 -2.599749985031180044e-01
-6.630876040938965543e-01 7.675290379727187640e-01 -1.073919895525312362e-01
9.096218937057044540e-01 2.449822542464581421e-01 1.544233854855014687e-01
6.111457513018869747e-01 3.350604985718683704e-01 -9.274449132590721623e-02
-5.871394767152284810e-01 -2.836497688294488673e-01 9.941614826421894813e-02
-4.338891494717385666e-01 7.283209716024119373e-01 -3.086941788929599695e-01
-8.868988962778107110e-01 -3.795228145082463755e-01 -2.412842826082713943e-01
4.368088275691774380e-01 4.471337094781949739e-01 6.023756454756749035e-01
4.050523524295110978e-01 4.516955783478090458e-01 -1.118136573345652335e-01
-5.993657727685024472e-01 -6.110676850525043058e-01 2.332201579187889598e-04
-2.263215946913120502e-01 5.841908143438513390e-01 4.465342347885059016e-01
3.222438602494237525e-01 -5.429890729228112889e-01 -4.051842456598863662e-01
-8.015363132348550523e-02 -4.859107525000326833e-01 1.682619289563490605e-01
5.153504885160729021e-01 -1.980047620018423604e-01 5.151160915011887553e-01
5.503014280783234957e-01 1.115134988856807813e-01 -1.290536559744780154e-01
-3.763228965590445507e-01 -2.556938131756291144e-01 -5.791860703604744254e-01
-7.054224365338661595e-01 -3.869781659350602365e-01 4.033223762994224415e-02
3.418053161495032688e-01 -7.811350523022062564e-01 2.470491510576231231e-01
5.114828612008716080e-01 -6.510623352404518172e-02 -1.686522955731188655e-01
-4.073578565580242006e-01 6.584172600757416394e-01 -3.505799574784767558e-01
2.136544501390189033e-01 -6.672335000572485741e-01 2.968913117095679510e-01
-8.507552489694010234e-01 2.944151008555592752e-01 1.028826425641765629e-01
1.072467812341960924e-01 -4.570762111506312397e-01 -4.466552104275113844e-01
2.219359713248202359e-01 -5.863949223673465827e-01 3.204022476080471415e-01
6.441163276153283324e-01 -2.474730863296179251e-01 -2.232537529510122964e-01
2.804759093191811492e-01 1.694613821526530506e-01 1.188587603620835931e-02
-3.828826975493667129e-01 -2.217296858693005579e-01 6.059818801767431068e-02
7.296276238633936373e-01 -3.032591775766104170e-01 -1.902623220621809386e-01
-5.964228565597597953e-01 -7.309933950236290334e-01 -3.524501284184000105e-01
-6.729246930950705252e-01 6.595297470817552687e-01 -2.869763229343331168e-01
-4.201465497406523530e-01 -3.808278845497252707e-01 1.014326317133919242e-01
-2.805514048880907163e-01 -2.587607068145920605e-02 -1.235019595486393090e-01
2.897308069123542551e-01 -7.623543873266667159e-01 2.614216931465334626e-01
-1.434003389575244647e-01 -5.146770690360310541e-01 1.604879337293787234e-01
7.899041544832986483e-01 -5.776016195481459281e-01 1.489363308705813141e-02
3.122198426219331968e-01 -1.779015287493290742e-01 -1.457119901968834397e-01
5.353295006534980471e-01 -1.007115151073332687e-01 -1.865293659394825498e-01
2.516569278670757193e-01 -4.998667651790685840e-01 -4.180797126970015598e-01
-6.064176361825233119e-01 -5.297769911740135562e-01 -5.473657398097452331e-01
-3.801131686528830961e-02 -2.733329852569660878e-01 -2.989166616620400063e-01
-5.907200757029703597e-01 3.833417071390693431e-01 2.724709538768465000e-01
-2.563627038497708344e-01 -2.288778917007540381e-01 -9.223670796664362737e-03
-2.282220129331329617e-01 2.316745092034409870e-01 -1.843636237019965207e-01
2.513960445631429064e-01 -2.433698420297455284e-02 1.480952373805703159e-01
-7.890092894014969493e-01 6.077390234235521271e-01 -2.106748702411387619e-01
2.031458764344685475e-01 2.496689480639255609e-01 4.675689916890948261e-01
4.091866239707942499e-01 8.617223324473387569e-01 3.265166479124797516e-01
6.863893941312541047e-01 -6.483249541821932693e-01 -1.288489339851356941e-01
-8.606559580989249225e-01 -2.710619248436393902e-02 -4.902087710973795920e-01
2.566236818313976098e-01 -2.954186815744022088e-01 3.286529820765898280e-01
3.341746760185704268e-01 9.114841452069150085e-01 2.665926684467642138e-01
2.709893535472667203e-01 -3.597087266253432558e-01 3.526484852210007848e-01
-4.174883496600256816e-01 2.419628554098949280e-01 2.175442006324410094e-01
6.204918667575995972e-01 3.371194412138481256e-01 -8.992502536672113134e-02
-1.087148782407264674e-01 4.619119789412028387e-01 -2.331171001848334201e-01
5.764631118320956427e-01 -3.242916835936019981e-01 -2.647621657220090019e-01
5.467522189023303891e-01 -8.044003085753406168e-01 -1.225161486855689957e-01
6.615495963771824695e-01 -1.648376607847336917e-01 -1.967063003710332603e-01
1.281090994934130645e-01 -8.739853244090411977e-01 1.452221646764471907e-01
-6.562060509280285281e-01 1.014052072505816637e-01 1.734698093193650925e-01
-8.569663570242043171e-01 -1.479536811597425006e-01 1.919700015995295592e-02
4.456730739530311292e-01 6.216832450101125729e-02 -1.055403376484382733e-01
-2.643056157868121647e-01 2.096510764202942356e-01 7.683580874379923598e-02
-2.098407007550133138e-02 -7.949540942620272332e-01 -4.766665566313200708e-01
6.893325562823136854e-02 5.190095553317652932e-01 -1.750896546812877597e-01
6.464785444597722641e-01 -6.485202030402816842e-01 -1.840570751324172027e-01
-9.624429973605883593e-01 1.640302423015352340e-01 -2.995608728540892773e-01
5.193806719373156300e-01 2.578142393356490647e-01 6.030584677075333522e-01
2.250239467995495540e-02 -2.789800568590705687e-01 -4.979598792575698485e-02
7.435082346613626492e-02 -2.755165181985246847e-01 -2.021579827453212352e-01
-9.174853721412170593e-01 -1.734496673540941725e-01 -7.144904717188685361e-02
-3.088124346679766985e-01 -3.107540619372554103e-01 -5.677046449792866323e-01
-3.203000804385215949e-01 1.068487011909831502e-01 -3.753110173458158449e-01
3.213447462788184272e-01 -6.528020462192530848e-01 3.286807613250349314e-01
7.716679162844830575e-01 4.140752946638759369e-01 4.646406439866025417e-01
4.369136322516919413e-01 4.673618830028190563e-01 -1.085257384063874203e-01
1.262598146869262083e-01 -9.242725472903823292e-01 -3.092429885044336579e-01
-3.007983938536622492e-01 -1.061610049771483516e-01 -4.590543401097693654e-02
-7.256891595164933761e-01 -3.869363633020341808e-01 2.807935614793528878e-02
-6.314793979660774381e-01 1.178630599703143073e-01 1.808889698154605430e-01
-3.690989761289334981e-01 1.060774181076160200e-01 -4.436615795106786941e-01
5.527506309385196159e-01 -6.095918825380458594e-01 -2.883286752998659996e-01
8.724352791489745629e-01 2.282833047202180721e-01 4.161988650517144395e-01
5.028076262494507453e-01 -7.836007116835810304e-01 -2.194309810606651923e-01
3.325123812174961557e-01 -8.757202910907474491e-02 -7.728610377853978308e-02
-4.844155712408729220e-01 -2.004440724576216359e-01 -5.989835747816196765e-01
-9.220578242288239856e-01 2.331146867248261867e-01 -3.553392495222859049e-01
3.067219824119815641e-01 -5.155197032473475272e-01 3.668443236415830921e-01
5.173802537883980257e-01 7.606449486167756735e-01 4.036885256022612611e-01
7.954859517855457085e-01 -5.342965528633245587e-01 -4.533816938549777714e-02
1.307493353115544155e-01 2.341284143807431106e-01 3.480699256183893975e-01
2.135323282674950751e-01 4.538777052695029401e-01 5.680086281807728010e-01
2.794427953507829798e-01 -1.466841540018488099e-01 3.362851844336412488e-01
-5.022187207088079086e-01 7.052193842583350802e-01 3.082930086461936892e-01
-7.951051528108177280e-01 6.255094583721634294e-01 -7.562345690472442941e-03
-7.831547090048182613e-02 -4.308746539144120424e-01 1.382653876602576437e-01
3.460333603597260943e-01 3.680756357833111503e-01 5.906859561529012037e-01
-8.203170658998626408e-01 5.690243319446298964e-02 1.022122048291079915e-01
1.564222708695107988e-02 3.690470014120585951e-01 -7.939506614050756417e-02
-2.838846555387802839e-01 3.705730265403103241e-01 3.183091077942890590e-01
-4.624077155940723438e-01 7.933805707982765076e-01 -2.462201273398438861e-01
9.250414077461498463e-01 -2.966092176134776381e-01 1.606412761880286200e-01
8.237648137681183869e-01 -4.705166429193579636e-01 2.605419920353378438e-01
5.965438290199025495e-01 -1.992922858992391133e-01 5.251997717081798855e-01
-7.592193743833970387e-01 -2.686897708452968270e-01 -5.480436441003886383e-01
4.041148033489344593e-01 -5.632863751463942359e-01 3.810647214054765919e-01
-2.804970761851247052e-01 -1.175201213456935623e-01 -4.394662072992460145e-01
-5.656840394841871067e-01 7.306003707029101735e-01 -2.756642758204355115e-01
-6.588591556237390900e-01 -5.070890694667912202e-01 1.803762455554441466e-02
9.454116838615901630e-02 -3.668527445130764231e-01 1.862318921742249500e-01
2.772805187723758058e-01 9.078491225093691941e-02 4.300829184404931782e-01
-7.636522668913472423e-01 1.153272461574736535e-01 -5.305925100825618079e-01
8.326414536145424483e-01 -3.362900174235762818e-01 -9.196911195120711924e-02
-6.554300811461934995e-01 -4.718616612534358434e-02 -5.859384537575701435e-01
8.010382608789481385e-01 -6.432953222342353838e-02 -1.093476437143962171e-01
5.854982087160899296e-01 -2.744640038182756814e-01 -2.477552417895762804e-01
1.963107535199165310e-01 -4.582061352707224589e-01 -4.171358272340139894e-01
-3.203690491700368903e-01 -1.525261794524377656e-01 -5.062421431829057239e-01
3.407872428791656333e-02 -2.843535887312932942e-01 -2.571203580616311379e-01
-7.384192496266037305e-03 -2.677587459040186024e-01 -2.205733365690734082e-01
-1.934210098045843484e-01 6.775027894735892176e-01 -2.915337841080236081e-01
3.061034377611231427e-01 9.016590791268427330e-01 3.372051116555462857e-01
