-5.104562171463401105e-02 4.324930154225203882e-01 1.977833798986311231e-01
-1.858683285883575564e-01 -2.765284122530511368e-01 5.127547298963702760e-01
-3.403998115317198592e-02 5.777087426834808248e-01 7.688199608559972420e-01
-1.577958000732876676e-01 -7.506783048399455760e-01 -1.978329978636705067e-01
-7.136033838952578201e-02 -3.280806530121665454e-01 -4.457830850221860541e-01
2.581822864501018278e-01 -3.429135619767599286e-01 6.765161711903721065e-01
2.205232747490285805e-01 2.933245714494575052e-01 -7.997850332137057539e-01
1.515659412958438867e-01 3.657176420200691780e-02 8.881348887346462995e-01
1.410180614851064829e-01 6.618454184172868349e-01 4.813455212762722257e-01
4.662368341330586086e-02 -6.832725912239353550e-01 7.037900497208257056e-01
-1.452505532915262382e-02 8.935638582168849986e-01 -3.899961992525053378e-01
2.036689004070882381e-01 4.929671843886606619e-01 -5.112586321435284020e-01
-3.187319562519724814e-01 8.024740494610582697e-01 -3.753799798794247439e-02
-1.700532259399220036e-01 -3.725873084742649666e-01 4.528248887855478855e-01
-8.117252030050618739e-02 2.221953634603871519e-01 -4.609027287300546671e-01
5.575504929663646636e-02 5.226637913060575569e-01 7.697007122724340844e-01
1.558718524114118820e-01 -8.737758336984446927e-02 -5.316310013367347986e-01
-1.384012092923559423e-01 -8.394684308040710752e-01 -1.276447760644458251e-01
-2.272420991769958376e-01 5.484314006916056750e-01 -7.119773903320527619e-01
2.753487964202624289e-02 5.057071749372221703e-01 1.611024130127339249e-02
-2.910952327676472051e-01 6.730615856090397253e-01 -4.647529016858064632e-01
-2.222445226352376679e-01 4.299027128315450197e-01 -7.806120717158242517e-01
-3.067806887108520675e-01 5.235461384616607594e-01 3.071035669117445632e-01
-6.796511575895325397e-02 -2.508361177940700570e-01 4.309166851592761138e-01
-3.323841139932715016e-01 5.939335410088921741e-01 3.806549267587961416e-01
-7.735230345617168102e-02 8.187888516031408548e-01 5.106461425695602019e-01
-7.697730761586728254e-02 -4.813165223562104744e-01 8.298718165341955055e-01
-3.034040611031292856e-01 5.032154589591031346e-01 3.308945292333619892e-01
7.508397784062810498e-02 2.419834200318811135e-01 -9.590549688031591025e-01
1.599819854359276206e-01 -5.299421064277829441e-01 7.736023541271157544e-01
-3.181622666569646762e-01 7.864903845265541760e-01 -1.235823139816971672e-01
-2.386856563653358410e-01 5.324220713667848770e-01 -1.425596366993128750e-02
-1.252669631454276788e-01 -6.093373518508872211e-01 6.939640217388012289e-01
2.756649476040010649e-01 -3.041315989653443075e-01 -5.502155822189650491e-01
2.734570639226461264e-01 -8.382082843610969558e-01 2.711828177336776391e-01
-3.012911586616782156e-01 2.453344524085850353e-01 7.004814496791017531e-01
2.030553943208084910e-01 -4.324662984097443763e-01 -3.181429244553261038e-01
1.460145935041260445e-01 1.798699723615008461e-01 8.596883348828796567e-01
-8.532867155908610557e-02 -2.908400990043162881e-01 -4.791712339665287201e-01
2.821558735818600061e-01 -8.535227049883450379e-01 1.950281252091311535e-01
2.228052494062901234e-01 -5.135985743649789104e-01 -1.759982868735198713e-01
2.362800312238601819e-01 -2.367984856797041796e-03 -6.251954344435984856e-01
1.568356013754737266e-01 2.457631651425341013e-01 -5.162727311064192470e-01
-1.759006500647349869e-01 -8.000611189555624156e-03 5.252602003425942412e-01
1.545287316752140816e-01 5.839654233608513323e-01 -2.386682071384887693e-01
2.383669746563678027e-01 -7.249353140855988586e-01 -6.037148960215495963e-01
5.726563338146623688e-02 7.030741754037389546e-01 5.955738159167066614e-01
-9.249985216910720787e-02 4.392817707063729343e-02 -5.316095227312188642e-01
-3.042546147591032035e-01 6.005433500362131749e-01 7.063780417082494989e-02
5.305530039756086585e-03 8.506734369052700862e-01 4.172049961470469803e-01
-2.736273946743990049e-01 8.609161721409762658e-01 2.057268103702108719e-01
-1.343548370420619142e-01 -2.366280228808478325e-01 4.734326669764919449e-01
1.524497234170057447e-01 -4.770496564590614996e-01 8.075840271915794011e-01
-1.533165214689617417e-01 -8.217062681821311054e-01 8.140474275262657433e-02
-5.166571002586395345e-02 -5.302205563681551270e-01 -1.206165894569641572e-01
-2.717460117990280755e-01 2.620989435364347031e-01 5.244177926900318587e-01
1.438851923907308594e-01 -3.003140911967288607e-01 -4.243516376266184276e-01
-2.644203717361990336e-01 3.437866137350945039e-01 -6.836004348204085534e-01
-1.427050365488006789e-01 7.165197446086165600e-01 6.341659616971517810e-01
-2.308490593449869788e-01 6.859931408020807087e-02 -7.635736203179245285e-01
-1.212247818841903496e-01 -5.891501209170051379e-01 9.041352942982823493e-02
-5.522454095265983548e-02 -1.545222818882519833e-01 -5.096542140889247507e-01
-6.746305232682060782e-02 -3.165632181091386221e-01 3.940205664260160723e-01
6.174575012176068689e-02 3.976703603552471655e-01 -3.366670398856526081e-01
-2.858418550780670864e-01 6.204633437757937076e-01 -5.281748660660405825e-01
1.808715930919622961e-01 2.206740523681116617e-01 6.068152571789283689e-01
-1.865434615182388345e-01 4.326106918440953408e-01 2.364789451448476298e-01
-7.868870079720613475e-02 -4.083967084170231909e-01 -3.889582980237703547e-01
-1.562023722449594754e-01 -5.991232554198857585e-01 2.140176606117510372e-01
1.089278317662670803e-01 3.284244658137676354e-02 -5.238746216713157100e-01
3.254683172551948167e-01 -7.490789955377773479e-01 8.945075781711298024e-02
2.198622813229885176e-01 -8.766570231284356862e-02 6.475120480449518823e-01
-2.292867536208469392e-01 2.262042548573449663e-01 4.880461665109042668e-01
-1.355384415182608882e-01 -5.487663522555983331e-01 2.298384071048614752e-01
2.730929355728561325e-01 -4.717570457884459612e-01 -3.641288760300084859e-01
1.395739123462941822e-01 3.123572478618323878e-01 4.948328063297960377e-01
5.902270288466274911e-02 -2.993544036303290995e-02 4.912226654267698445e-01
-2.985230590403111783e-01 7.177787153981928236e-01 -3.848544013115374751e-01
3.317479255160407647e-01 -7.415807314306742670e-01 -6.847362374006249475e-02
-2.567295879443680096e-01 -1.692696283958926295e-01 7.318507792649719956e-01
-8.777950483609746335e-02 -2.573313795466646292e-01 -4.967506674672738654e-01
-2.567900874970915903e-01 8.864155933627607675e-01 1.708173091759285778e-01
3.042331710183741045e-01 -3.047799657351065172e-01 -6.541298545625447991e-01
1.399670336631897785e-02 -9.817502441532025559e-01 1.216776526539444479e-02
1.079260965566334884e-01 -9.890609291946921289e-01 3.801034806014313289e-02
1.962822973722113118e-01 1.854939269873370766e-01 7.389339111837424090e-01
-2.072398781234032483e-01 7.845020712205397206e-01 5.053867392488534671e-01
2.035163436828915651e-01 4.688690921520071581e-02 7.937824154251300612e-01
-3.125864286114955481e-01 6.415351290003791229e-01 -3.227403714834690129e-01
-3.253604629831108874e-01 5.097765896201441604e-01 5.235033057314060212e-01
-3.290509103028959048e-01 5.417449577165471819e-01 4.505422454197239857e-01
4.092730593760699614e-02 1.651110248284718141e-01 4.641032653525606344e-01
-1.165111147276094578e-01 -8.205511354337691535e-03 9.541670974676721428e-01
-1.104713063176648441e-01 -8.693656937114064842e-01 -2.153658451492507508e-01
-2.352086576755693104e-01 7.484623991530810205e-02 8.658793786652166924e-01
8.974692263917465052e-02 4.128968428393161583e-01 3.494024523438677976e-01
1.587632709794803698e-01 5.455733680307227607e-01 5.667997964091218144e-01
7.961772731068905706e-02 -6.368370924931894550e-02 -9.956018354590024932e-01
1.035162598142041201e-01 8.654319837020445494e-01 1.447333708450388445e-01
-5.256287710140463559e-02 2.841916688940936964e-01 -4.128286344484303205e-01
-5.082976344619749565e-02 -2.979644453539139204e-01 9.228461780823694616e-01
3.071656446561196185e-01 -6.533986315108739618e-01 3.452807156141356471e-01
5.340319783733185610e-02 -9.708635496970272616e-01 -2.037334087308960706e-01
2.484916119620401154e-01 -3.392804809770391672e-01 5.380899332520472367e-01
-1.580410131275119812e-01 -1.193560540238296133e-03 5.125721153651588979e-01
-1.357930102982053688e-01 -7.422721470681749034e-01 -4.352911197929992260e-01
-2.310245664724056847e-01 9.435984441423894697e-02 -7.851551701067082112e-01
-3.057213154422651069e-01 3.598522073973520752e-01 6.830293408894744234e-01
-2.242882590689975475e-01 -4.019777321808303827e-01 5.833578869630281494e-01
-7.059842475927627370e-02 3.769868487091454501e-01 8.892270938215199871e-01
1.257348593558681171e-02 -4.632966233923333510e-01 1.855620495003149906e-01
3.160736572772858688e-01 -6.992009938201340091e-01 2.412085331220287510e-01
-2.311271333667893613e-01 3.544004150602040881e-01 3.869435316844830886e-01
-9.560544325370300134e-02 9.047310503366144951e-01 3.403888062118933799e-01
1.959184195810514673e-01 4.118911897883602014e-01 -5.096674300874142194e-01
1.564967053233253247e-01 -5.188857204468607653e-01 7.825348681297584763e-01
1.318810244597281855e-01 -3.248253178396248025e-02 -9.791011754510421383e-01
1.561579784382874647e-01 -8.778846000130858807e-01 -4.520580080393215017e-01
5.370249012443249065e-02 5.459591036941499054e-01 -8.143860368640024605e-01
-3.072040905421090096e-01 8.239273282867303205e-01 1.451685449761912494e-01
-1.569760908879426270e-03 -5.748388336732727089e-01 7.907681128457115793e-01
4.725471479326597696e-02 -6.092006399995041344e-01 -7.936266900626950394e-01
-1.859363998700060416e-01 -2.641840198960543895e-01 -6.498539495270206912e-01
5.170570313586320306e-03 -9.605187099269085760e-01 1.886738114872870686e-01
-2.094556899865926969e-01 1.111142658854866877e-01 -8.548686718109641536e-01
2.649013086990740229e-01 -2.004126347289579280e-01 -8.452830385425026405e-01
1.439564871357804643e-01 4.414515558168861098e-01 -3.860923920546781574e-01
1.879579492795654394e-01 -4.583313190949400151e-01 2.638185874204048154e-01
-1.279830545460640956e-01 2.720983152289158657e-01 9.153055935154565947e-01
3.221793239322158220e-01 -6.101984038361477625e-01 -2.926977884355227988e-01
2.253683499925504194e-02 5.689215826216283967e-01 -8.078168382546582205e-01
-3.367756422900654995e-02 -6.685617656976550194e-01 7.040479485835652307e-01
-1.612756355996241842e-01 6.724006060595699719e-01 6.718060645900429950e-01
-5.335666684218942635e-02 4.351526329561898332e-01 1.913879325841463530e-01
-8.617157987860658841e-02 -4.786531209993634683e-01 2.483881562779294006e-01
3.335611471973825015e-01 -7.340361873417704519e-01 -2.087612190590378836e-01
2.624682452922259476e-02 -4.949053023696280973e-01 -1.184659370679330831e-01
-1.030396116917647320e-01 2.616109312930826533e-02 4.853129049966415365e-01
-1.789351617977387732e-01 6.023804907162523259e-01 7.240123040805176435e-01
1.157878306207488633e-01 7.556721744891520265e-02 -5.246026516628261582e-01
-2.647347652031014076e-01 7.396948588608268649e-01 -4.678121847979810899e-01
-2.428533904948475819e-01 -2.354027195071244083e-01 7.557498374419199250e-01
8.668929049588723623e-02 -9.173668138609464284e-01 3.614386112185434263e-01
1.576218309389523786e-01 4.682415083151698632e-01 4.511093345773698471e-01
2.079122740632379784e-01 -7.923740841211626140e-01 4.906269441081727578e-01
-1.923224951298146412e-01 1.513578461076229009e-01 -5.790678090287557644e-01
2.779608086179679027e-01 -8.462023235120842701e-02 -6.995252817782336985e-01
2.646613874591717264e-01 -7.244873349697864562e-01 -5.654222849684714669e-01
-2.173573381999319154e-01 9.926164412328609965e-02 8.867493271502927543e-01
2.265417128278036929e-01 1.896970398773580313e-01 -6.257933884878972286e-01
1.746806225122041478e-01 6.821959115334950141e-01 -4.651622864502194532e-01
1.521878158308846707e-01 -2.632488676882667744e-01 -4.542264916830472954e-01
3.091672585954981511e-01 -5.400759486184223412e-01 -3.626011447636646734e-01
-6.667560469938528522e-02 -4.586869422997824075e-01 -3.159003456902984563e-01
1.605956788577230787e-01 5.761419594964317659e-01 3.923427965436516729e-01
1.351194320312096298e-01 7.361452408801097969e-01 3.713103647425628484e-01
-2.030265047174821813e-01 4.738297491326316502e-01 1.645072838295632278e-01
1.871966592558306219e-01 2.053667933504123300e-01 -5.605769925527852582e-01
2.555148051119575658e-01 -2.953506077561193766e-01 6.437385447832066898e-01
1.770793892147324022e-01 3.788828922879566852e-01 5.843356858994456227e-01
1.245851457976639848e-01 -5.833168661596339621e-01 7.621604236100757435e-01
-1.578232770392283268e-01 -6.855682639673483791e-01 -2.301075392043280821e-01
2.270872343856528419e-01 3.228623355879216561e-01 -6.281661665738539346e-01
5.501804615573929746e-02 -6.774629636752166340e-01 -7.357322247796453940e-01
2.569419156366448687e-01 1.394062238617526095e-01 -7.508495791273627207e-01
1.238434562405271583e-01 5.659029459223755554e-01 1.873081934904804458e-01
-5.915285486842437879e-02 -2.371209402300309549e-02 -9.864968536528375687e-01
2.440101024533223861e-01 -5.065146790083975281e-01 -2.395320984520314667e-01
-2.843703817457760574e-01 4.164689300194220900e-01 4.029697317808706436e-01
-8.406164056666584616e-02 -2.537739281607218067e-01 -9.318340301489291821e-01
-1.004670696885432979e-01 3.698731977405762539e-01 2.931924888434004339e-01
1.600433090992123830e-01 6.942524836397675481e-01 -2.280481292949484984e-02
2.551635105209580923e-01 -4.856518844566158899e-01 6.672593850863575149e-01
2.754640961237516880e-02 -8.712802399036385648e-01 4.556913687164687032e-01
-3.354121141368457959e-01 6.867857106919368348e-01 2.516978369111962377e-01
-8.025495450887785986e-02 4.658358292688418723e-01 -1.323288036472200502e-01
2.288692111135889606e-01 -9.357053918648265967e-01 -1.547057130766709698e-01
2.894826879365218208e-01 -8.564530925844157094e-01 1.439757441286945716e-01
1.571810657730601801e-01 6.996800761573449545e-01 2.177100104362639788e-01
-2.733460300253096054e-01 6.465637746754719917e-01 -5.468835515753034393e-01
-1.216355259381399073e-01 -7.994380523000595151e-02 -9.458457906954631511e-01
1.518754522772759186e-01 -9.112796651206103160e-01 3.390822194363232178e-01
-1.906838825823574043e-02 -9.434648163440542135e-01 2.274996265125100448e-01
-2.897906899476838591e-02 -8.338039546631349774e-02 -5.121080175704765258e-01
1.206866350934586163e-01 -4.612965530419938509e-01 1.917422817578109950e-01
1.971267884971483197e-01 5.491372327810460918e-01 -6.066935703192379847e-01
-1.178658345822547610e-01 8.783141264683682614e-01 -4.264772921649023774e-01
-1.218971543087980641e-01 -1.869331408845826548e-01 4.797389393463257212e-01
-4.502517062689052885e-02 2.257607418056640711e-02 -5.167409645970978405e-01
1.262035060271453069e-01 5.346486700293282546e-01 2.649829571099607262e-01
-1.918855722715487877e-01 4.939690242898307493e-01 -1.366217949608584392e-01
9.625375275986566836e-02 2.138418355070169918e-01 -9.594960367266417434e-01
4.950537244020600247e-02 -3.401039769876934016e-01 3.500657708643737931e-01
-6.464521537553314344e-03 8.566651849167857824e-01 4.151454187868113266e-01
8.157840497166880811e-02 1.141169310304632895e-01 4.971553684287528529e-01
-2.258229132919843396e-01 5.136590638891324057e-01 -1.488631841341793438e-01
3.321033163260518339e-01 -6.524570387324259979e-01 -3.858981219853297451e-01
1.134504413539225327e-02 3.642983572351067290e-01 -9.281222546807336160e-01
-3.176544502987094787e-01 6.833750236225021313e-01 -2.758650145179549762e-01
-2.344720985059429996e-01 2.258724221040877833e-01 8.547483084632309103e-01
-1.396998008891471577e-02 -1.394539543837443885e-01 4.604945403049299779e-01
-9.330619939416850972e-02 -4.802713329386407715e-01 -3.266262565337458290e-01
3.276417037259747311e-01 -7.877168482410512595e-01 -1.258443245029434443e-01
3.050448406111502700e-04 -4.727621872659590885e-01 -2.150152124453645897e-01
-1.559508475493454616e-01 -7.639355024518439397e-01 3.910104129839604425e-01
-1.256646113727528380e-01 -6.442232398447347297e-01 6.570283873270121866e-01
1.809420093147823538e-01 3.477931673852329153e-01 6.113751021582568557e-01
-4.522995955370842647e-02 -9.554884749258766297e-01 3.252811127700663829e-02
-2.844336930931354313e-01 2.355762543482280147e-01 5.719884570644861999e-01
-3.071875115571370274e-01 3.996827636135517614e-01 4.921180846893908889e-01
-2.133805816575521166e-02 -6.119280370644564204e-01 -7.693224694373789196e-01
-1.022424790747249040e-01 -8.869407637125457100e-01 -1.848972853441346320e-01
-1.808872752425775277e-01 -1.916395022122818759e-01 -8.390829248451611155e-01
1.990309399208747276e-01 -4.952319054618776750e-01 -1.875098429057788785e-01
1.791748346613211140e-01 -3.672230378687820762e-01 -3.813474213224442577e-01
1.649365414343379743e-01 8.487398465599545194e-02 5.777322417679042754e-01
-2.153174526622345375e-01 -4.973790793840367902e-02 -7.225188918529950044e-01
2.345809080991197171e-01 -2.045546016220308183e-01 6.187774775915787506e-01
-2.474451688615518785e-01 2.430704501497161218e-01 4.989998566312352501e-01
3.949607536123767026e-02 -4.914767574726796040e-01 -1.202500515304678191e-01
-1.123037807551792722e-01 -5.950857715722497332e-01 7.210046741955435934e-01
2.603951635374435747e-01 -2.729841735930444227e-02 -8.412079008562398652e-01
3.064634982841081823e-01 -8.476139762803861499e-01 -1.335052466856495035e-01
2.459573786012041186e-01 -8.001673401720191814e-01 4.158003928178947151e-01
1.028731942510232311e-01 2.940284028735671851e-01 8.622346927960300444e-01
-3.254651266282555522e-01 4.964667620198646714e-01 4.834457400863335086e-01
-1.742194760377661078e-01 -2.588646176080658945e-01 -6.140631300706108631e-01
-1.381347096765787319e-01 -3.266310774175553711e-01 4.384944186108167830e-01
-2.938604025185249102e-01 5.763125900887081654e-01 1.032007491887103195e-01
2.138307846253233724e-01 -5.361092193927166072e-01 6.131273319785144130e-03
-3.092919471399140363e-01 5.649123780202388589e-01 5.756847330215372205e-01
-2.852778957619179767e-01 7.366485681057027834e-02 7.212407705292799287e-01
-1.241131011265905575e-02 -1.126128423746475676e-01 4.667989823689570605e-01
-2.463501045318441662e-01 -2.540583779504832496e-01 6.740112197971586117e-01
7.726656711676452294e-02 -3.231015838107421101e-01 -9.481776561212522658e-01
2.923543846357264386e-01 -5.541424286982641334e-01 4.078235939248170960e-01
-8.793803345968927154e-02 4.089472013483708701e-01 2.357667784448103376e-01
-1.555966801590874526e-01 1.755706809428549953e-01 4.612148216435404957e-01
-1.495431709325999725e-01 -7.114407572913490352e-01 -4.209527240308695295e-01
2.214099999849562517e-01 -8.485459441179782347e-01 3.798981471118901831e-01
-2.632694830434872957e-01 8.961360451447604181e-01 -1.605728668990234753e-02
1.706627441320289484e-01 6.538113903217338541e-01 -2.251711110422575934e-01
2.728689790218958300e-01 -4.352064141306676848e-01 6.024319753993955251e-01
-1.153088494378629904e-02 -7.091439268795315387e-01 6.708458169407115479e-01
9.496296626665167231e-03 9.750017818974957007e-02 4.707841889795899015e-01
-3.014769719970854245e-02 9.264775752841887257e-01 -3.032907985292265240e-01
-3.312635849810924293e-01 6.291261096560054611e-01 4.006225463232169770e-01
-1.476676257083617272e-01 -7.887961224809938443e-01 -2.359261464865867464e-01
2.904983173411447295e-01 -4.688551636323016192e-01 -7.236624462187953855e-01
-1.123798414188163231e-01 -6.778158990052060018e-01 6.352157889816597569e-01
-2.367896941437175606e-01 -2.114730050727723909e-01 7.915879919022690281e-01
-1.552634883926102757e-02 5.295123706542028685e-01 7.995166062734867518e-01
-1.532897519091078187e-01 -7.534682387234054035e-01 -2.783280607784856531e-01
-1.010136595608154553e-01 1.190459705494275183e-01 4.645923762132903589e-01
-3.779811349113697955e-02 -5.568890403358411900e-01 7.955092702316767239e-01
-2.024057208959815501e-01 3.426632183275650223e-01 8.533212783525313538e-01
8.017239951469111447e-02 6.968507505648979805e-01 5.748084551610904702e-01
3.190675301959450816e-01 -5.179568094688885571e-01 -5.987068972047485671e-01
-3.003205364719616632e-01 2.165661117961783511e-01 6.827694248425595358e-01
-2.467482760042777057e-01 2.273555024725896212e-01 -7.544636091581501391e-01
-1.081884032414176522e-01 6.611252187755024545e-01 -7.247649247965682884e-01
9.278588206096121879e-03 1.509318165744654161e-01 9.514052438535097744e-01
-2.044156888640460690e-01 -4.588383617368767542e-01 4.882506770996747902e-01
-1.483865748920945027e-01 8.682205188507166049e-01 -4.275858550592489538e-01
2.760577555795529214e-01 -2.650816475488450563e-01 -5.803625021042437826e-01
2.654240543553783582e-01 -8.730155211775110224e-01 2.093132648372424132e-01
2.107642308481078638e-03 3.466986373709898261e-01 -3.613025744067136502e-01
1.227235810653371090e-01 5.300583857489824524e-01 2.611312641474326512e-01
-1.079876914016024564e-01 4.775009204400287866e-01 -7.213760482648848282e-02
5.131709165887236856e-02 -4.166565430118199242e-01 2.598388349085951621e-01
2.389850683817545951e-01 -3.587600893934785040e-02 -6.215248406732172270e-01
-1.593415579881136968e-01 -5.738782155835072674e-01 2.620728469877107725e-01
-3.213406270858096825e-01 7.843701974635222118e-01 1.784444952243548765e-01
2.958857480048213140e-01 -5.974868998512874452e-01 4.527581289934090036e-01
2.622868829798135071e-01 -3.868551290683319710e-01 6.622395367487264872e-01
-1.108185384803630491e-01 8.668349351014010828e-01 -4.531855309978629620e-01
-3.290076883883548131e-01 6.807937308157421263e-01 1.613161135521084047e-02
-1.437979552311783038e-01 5.239661093535142866e-01 7.967594668721672546e-01
5.677066143350321253e-02 9.277001961011621667e-01 -4.386201783014437305e-02
8.179706064772192253e-02 -9.593332889093387772e-01 2.379635233423067486e-01
-3.292322654969010998e-01 7.668609203858381962e-01 1.773888636218022563e-02
2.739885584710598510e-01 -4.813019297755240511e-01 4.345301102972907170e-01
-1.389052678743508129e-01 -7.076522929839464959e-01 -4.853885607755445974e-01
2.082565094902286418e-01 7.396496738229128842e-02 -5.958971898186217198e-01
-1.953176895074701935e-01 -5.329631386044967334e-01 4.244652530625018794e-01
-1.884543496184014622e-01 9.440216343732047433e-01 -1.079839345022410163e-01
-1.337235755139620230e-01 4.522582291681249700e-01 1.541308149793622628e-01
4.432988391642632073e-03 4.881913068950837209e-01 7.660012476309770169e-02
-1.075970787878373913e-01 7.801863410549825240e-02 4.773612048019065801e-01
-2.758935791961407702e-01 8.590104720723785725e-01 -1.811564471448777747e-01
1.435511241346150435e-01 1.865777039684119940e-02 -5.398038424076341268e-01
-2.346019426908123873e-01 -2.782350814943735165e-02 8.572033396633621516e-01
1.749897026312948189e-01 -1.004500126492524764e-01 8.730542305860961028e-01
7.738007341812173923e-02 -9.688355740776976033e-01 1.990015145902758742e-01
3.314334060951060756e-01 -7.623453825519936888e-01 -1.651194028132151881e-01
1.813707891695346131e-01 -4.037315387981986747e-01 3.440394199711117040e-01
3.222449566569840496e-01 -8.044415229264906264e-01 1.696403439999016795e-03
-2.025125055283241160e-01 5.082516965564777278e-01 -6.265014301748114689e-02
-2.037509798035447295e-01 3.246908141397367165e-01 3.895790763532371859e-01
8.636210015765917458e-02 2.852916728016410275e-01 -4.440165520563952861e-01
-1.336401881985488926e-01 -8.645815359569869463e-01 3.698116544560558355e-02
-1.734931424481697126e-01 4.681351347533491136e-01 -8.186400089156257165e-01
1.894897620610504763e-01 -4.001679022536437369e-01 8.076141047385743121e-01
1.689050245617684520e-01 4.958089445666635786e-01 5.527421008218080800e-01
8.355093105724555047e-02 -6.515582141903589752e-01 7.260765769660582070e-01
-1.108960820077607851e-01 -4.429740552412737009e-01 3.230429172139698824e-01
-2.604570237202907812e-01 8.195642823285593792e-01 -3.474747678317425259e-01
-1.739692872188034201e-01 -2.096728506846633200e-01 -8.460335374415152154e-01
6.199462198912451122e-02 -4.954897393605136036e-01 -7.704515057185813698e-02
2.148505646443333861e-01 3.380113239317147217e-02 7.072201048117805477e-01
4.817665211484299659e-02 4.555353166512226548e-01 -2.433773853041500124e-01
-1.594199054568512797e-01 -3.644949823074208339e-01 4.422965757252485530e-01
1.861874826743780964e-01 -6.697755649427348246e-01 -7.090060230845961486e-01
-1.230311656991588398e-01 -5.219098135282773665e-01 -3.327830368279943163e-01
-3.297814040099458222e-01 7.377057666796759117e-01 -6.118563518110534810e-02
-8.702963826497361888e-02 -9.828338787995907766e-02 -9.663951684098962547e-01
-1.200162098004112776e-01 -8.000260117863026155e-01 -3.780739472863123285e-01
1.591902130070017851e-01 7.557871487924450182e-01 3.558998858788214870e-03
7.974263455107856446e-02 8.791990807592697799e-01 2.000878650641149947e-01
-1.322844423411861647e-01 3.789130482696870805e-01 2.884947567395617640e-01
3.119443427081740050e-01 -5.698335056071167637e-01 -3.173283524324690408e-01
1.128273026333818096e-01 6.955057379233243742e-01 5.170584000243710898e-01
3.135812955624941445e-01 -7.644919595939867474e-01 -3.657245957529944858e-01
3.131992306783997759e-01 -6.428193922501435065e-01 -1.002330951480840948e-01
-3.397926784324710459e-02 -9.559091951098137585e-01 1.156103704329183857e-01
2.916777808794253080e-01 -5.629180701817739774e-01 4.835068261517500576e-01
-6.093154366907340552e-02 4.790318129185530682e-01 -4.889079423718607764e-02
1.532288022115153581e-01 6.738098988388083743e-01 3.818976565206950169e-01
-1.034367926773291924e-01 9.532465125739947309e-01 1.717781072625220729e-01
-1.680055816475143349e-01 9.282886535165588704e-01 2.251934228080626765e-01
1.404432284221337202e-01 3.475643358067967981e-01 -8.826688189823833630e-01
-1.984342750773037123e-01 1.779148696208179836e-01 4.864973471703324392e-01
-1.052974849615945230e-01 3.702467615549208668e-01 -9.055615365598536082e-01
-1.801862101369985369e-01 -4.293149578312434045e-01 4.393137528690595484e-01
2.250694658014303906e-01 3.897043078216160805e-01 -6.620474332920772698e-01
1.967765215977028137e-01 -1.669788605902099987e-01 5.582141114065092280e-01
-1.111212072114727417e-01 -5.021071757971927729e-01 2.506810701938533836e-01
-5.955732405733101670e-02 -6.846866859138995842e-01 -6.708906523257123222e-01
-2.665509143423792082e-01 -9.283278014627008301e-02 7.214953796187839608e-01
6.599554319641891265e-02 1.966301635279021909e-01 -4.772227487799582391e-01
1.369252795299995967e-02 2.321065552017441136e-01 -9.723216102693473806e-01
2.744509931045752693e-01 -8.598160770849345713e-01 -2.980659993957425202e-01
-9.906629371206644719e-02 -5.784389133272297423e-01 -6.729593277749532435e-03
5.902211428752108385e-02 4.662599570195205545e-01 -2.360493786677055339e-01
-3.058934070234075597e-01 3.573834257677229731e-01 5.355425619172750062e-01
1.852643249378314316e-01 2.620616334333739084e-01 -8.775190464826287950e-01
2.495146993119370937e-01 -5.425146627145255307e-01 6.534838121755329743e-01
-1.513007277805471359e-03 1.225761338943238549e-01 -4.912833629078994790e-01
9.750334499639114194e-02 3.254408506418692837e-01 4.302740204222104126e-01
2.161760668116220752e-01 -3.159919145874013346e-01 4.859918280046674477e-01
2.104385071036345700e-01 -9.313059484294231583e-01 1.838008196420236606e-01
4.029598172644603682e-02 -6.014874936193747024e-01 -7.986484571388793308e-01
1.515096375513869942e-01 3.468772301806546388e-01 -4.649969658565901720e-01
-3.139599560964668329e-02 4.801640109167042425e-01 5.433690605563076120e-02
2.965020166529204748e-01 -3.615100355725642811e-01 -7.458453570002075983e-01
-8.218323244883743092e-03 -1.142351007160855719e-01 4.664419698891134058e-01
-2.871019640925012162e-01 6.610710616109867210e-01 5.442114581498153081e-01
-1.890308475446238201e-01 1.028281235533986121e-01 -8.887766895311303150e-01
-9.302030402878150306e-02 9.704747093616508113e-01 -7.431101414067158017e-02
9.422840130835574701e-02 5.255658485627210386e-01 -1.672816947452785974e-01
2.643342754152277485e-01 -3.764058229801720556e-01 5.666305289848044824e-01
1.901532365395452173e-01 5.136011480985444022e-01 -6.853559112863895075e-01
-2.295521820372971034e-01 5.401990237831489489e-02 -7.546210376752002791e-01
-1.462588251362217651e-01 -8.226407149264594043e-01 2.460866729979289402e-01
1.787743656948692084e-01 5.099760732502858218e-01 -7.179059326850799616e-01
1.611523637798142339e-01 7.093792071830835599e-01 -1.378407570331695829e-02
-1.357969213141945464e-01 -6.326230133843232517e-01 -3.135545689041686207e-02
1.907053523785386118e-01 -3.032292124761016283e-01 4.608855363109147230e-01
-3.291554172185759408e-01 6.276071088139442145e-01 4.230986124673724591e-01
1.226298216035495020e-01 6.214752401225336065e-02 -9.773885002115215714e-01
2.678290139811203008e-01 1.796588513808125911e-02 -7.962085384650755548e-01
3.318830244792004835e-01 -7.277593963861576087e-01 -8.704039382842630734e-02
-7.214795843292488853e-02 -5.110013937823078001e-01 -8.122911547290189160e-01
5.314851625858298123e-02 -4.450250895737138390e-01 8.658984078252129901e-01
-2.125577372559803724e-01 4.937452089746606765e-01 -1.938932053157108315e-01
-1.499708537286085774e-01 6.901212311478068795e-01 -6.754285350835921298e-01
-2.054135555133894397e-01 6.297061419364968771e-01 6.828752034535819915e-01
9.344494407607552289e-02 -8.908624427216494945e-01 -4.483227992341933810e-01
8.707156831964098231e-02 -3.236839217468092111e-01 9.034782309345789075e-01
8.878683391574736239e-02 -4.344645234128537425e-01 2.345027923184862528e-01
1.592068419418671277e-01 6.822199573073939316e-01 -4.426487881302838823e-02
6.402513221135985909e-04 7.001927419237700123e-01 6.431047716765455613e-01
-1.562271733780750127e-01 -6.647146466498051742e-01 -2.523943796739451795e-01
-4.347577996119283972e-02 6.320784390158293853e-01 -7.641120408975217160e-01
-2.842675313355863542e-01 4.682804197544345182e-01 -5.529335800497914288e-01
1.853036847576156332e-01 3.803756910504647870e-02 6.064294484021320875e-01
5.871038773904628527e-02 2.861897304255727748e-01 4.197006197404252736e-01
6.622816023414472564e-02 -4.892224463365012488e-01 -8.750649351544498300e-01
-5.638680896941027088e-02 -5.351799101865117869e-01 5.151374090754945456e-02
-2.625462779098076682e-01 1.268426431604121329e-01 5.872555399404802978e-01
3.208886561924567671e-01 -5.099095177873578244e-01 -5.871487204911036706e-01
-1.665305925023664313e-01 -3.206158323828947054e-01 4.723903113666664266e-01
-2.003837132589178505e-01 4.465737081810703946e-01 2.239902996110415545e-01
-1.208821095911394305e-01 -3.563281295380841818e-01 -8.575895292079458443e-01
2.837281150478204728e-02 4.904613980744759738e-01 -1.302434068076475104e-01
1.643127014687786325e-01 -3.072046907893423162e-01 4.302959716319802452e-01
-1.358371412344303863e-01 4.187587247972277549e-01 2.284393786484648914e-01
1.623542776944952581e-01 7.481852842893665922e-01 -5.973239829901749037e-02
-5.426702505713557750e-02 -2.242206007602234596e-01 -9.568127007813771456e-01
-5.035303800799072194e-02 4.771478362648252647e-01 4.918190951236970504e-02
-1.573120570157154063e-01 -6.975704104327075106e-01 -1.402686655185534925e-01
1.335452987394374902e-01 -1.116354140128723860e-01 -9.759431361934982618e-01
5.856138140205918025e-02 -3.724818749516399796e-01 3.175464187679988837e-01
2.405464279677360928e-01 3.174069575330480154e-03 -6.335295297574079498e-01
1.110007612118196207e-01 -1.727117291837661495e-01 4.772366515274445442e-01
3.098898100738254335e-01 -6.583387589302895915e-01 3.065800994398316659e-01
-1.397874533905052730e-01 6.233768617679362745e-01 -7.418094243687304301e-01
-3.179777965042410171e-01 6.024099904757761470e-01 1.801215316621160578e-01
-1.350424700657846533e-01 5.954271172347728180e-01 7.492934503429572457e-01
-9.697930576318844476e-02 -4.920405529240042264e-01 2.432478749263732865e-01
-2.100345487657794274e-01 9.380058994962177099e-01 1.901164830239532658e-02
-1.561160187239263308e-01 -6.920317048279106542e-01 -9.646340447402516893e-02
-1.838989674110176609e-01 -5.605344132187651401e-02 -6.322472431376365831e-01
-1.471565388674956898e-01 -4.334453668394134818e-01 -4.816714272911885586e-01
2.478798033450199667e-01 -7.096515250040664746e-01 -6.085405481526870997e-01
1.464655158441894971e-02 1.444374724996755066e-01 -4.851770517638451241e-01
-6.457276667150475824e-02 -3.965586331165182332e-01 3.275513786024127350e-01
-1.777580117045413632e-01 -2.869793404180829288e-01 8.541649577197468757e-01
-1.838199927750156781e-01 -1.791393770829339815e-01 8.861218322923142265e-01
-4.215800637619188801e-02 4.214176986599593167e-01 -2.523011144225185687e-01
1.456809227179165223e-01 7.374936246258975148e-01 3.003820793161330882e-01
-5.411244951522595908e-02 3.466059219783989009e-01 3.213711871216484717e-01
-3.032740391043557415e-01 8.315912317686937616e-01 -9.673152729899980873e-02
4.504326214719986399e-02 7.224270178637373641e-02 -5.045882082484323128e-01
2.662941738554013282e-01 -5.770621158018243158e-01 -4.751804130675473664e-02
1.384360882741027601e-02 -3.744190727928130014e-01 9.009236917398242284e-01
1.410917825378333323e-01 -4.385598630370925455e-01 -2.627283047863654408e-01
3.117217591630598306e-01 -6.445283258705025720e-01 -7.042544320044948070e-02
-1.283730227503774857e-01 -5.087772737171536441e-02 -9.443423900776000135e-01
1.327166699799531835e-01 -1.869387142646828925e-01 4.838726383368845974e-01
-9.566812694061790912e-02 -5.485046455267177379e-01 -2.008368052641614776e-01
-1.731232712111056560e-01 -4.344380054862443385e-01 -6.898803032366268573e-01
3.038576925470782841e-01 -3.471750181480258712e-01 -5.987775091666078797e-01
1.050334319943670297e-01 7.444941895267319643e-01 -5.554511002851424406e-01
-6.041811453830962103e-02 -1.613538822361015868e-01 -5.105692784162944031e-01
1.683859350732361260e-01 7.201796695485471744e-01 -1.557447263557553141e-01
-1.375892641599730515e-01 -7.339547337662323534e-02 5.041779850544310104e-01
-3.672751305429926283e-02 9.670690597466485849e-01 -5.311001653169357406e-02
-1.807111121368919493e-01 -6.512460561755398780e-01 5.215078983797377665e-01
-2.752556593746072755e-01 -7.555751301264523401e-04 7.529800107217161642e-01
2.530010012231195815e-01 -7.631950050279951991e-01 -5.345534648755330132e-01
-2.865417999524244030e-01 8.466992040260887809e-01 -1.676347743674189705e-01
-1.464476426152147293e-01 9.466922517071161280e-01 1.717654081877303951e-01
-1.079522056525793472e-01 3.945360923304926382e-01 -3.056856890742820076e-01
-1.596793575755524608e-01 8.419381722814502922e-01 4.502873650383719117e-01
-2.724168655293354169e-01 4.143029014237751273e-01 -5.385838237794319250e-01
1.796802282589713695e-01 -1.905650852413970087e-01 -5.093914016851912585e-01
3.000139752276785310e-01 -6.297691424445447383e-01 4.971841974705804024e-02
-6.151377377201707776e-03 8.143035198927518481e-01 -5.449280317919523720e-01
-1.742766988857402943e-01 -4.698130380115336235e-01 -6.262486227020397367e-01
6.856347877790276713e-02 4.381582752767752831e-02 -5.115658835535841220e-01
-3.087976724067070800e-01 8.292286625022646795e-01 7.484504615972203956e-02
-1.268705547774433839e-01 -2.532129112138229443e-01 9.077815514936146135e-01
-3.314786227149891795e-01 6.310608257899572582e-01 2.399044981871948090e-01
-2.060973670717405060e-01 9.364636987777043009e-01 8.168465722160149489e-02
-2.577144718323158834e-01 -8.191797209830367632e-02 6.528466746471642823e-01
1.665126838473142690e-01 2.138263992101856747e-01 -9.157210828960444804e-01
-1.378285892216736808e-01 2.799645071818369635e-01 -9.162755426423921934e-01
-2.447974935197628696e-02 7.810580786817793442e-01 -6.002825820862659478e-01
3.110185224244239530e-02 8.454418950206145089e-01 -4.641659307978185378e-01
-3.874706904359683651e-02 -8.019760016951464898e-01 5.393192607213423972e-01
-1.520403641792683336e-01 1.501561444332843442e-01 -5.367172892594549438e-01
-1.108161182308917692e-01 6.172758916370320037e-01 7.379151227196374396e-01
-2.518248613890275989e-01 8.669785003891409270e-01 2.638019984981502253e-01
-2.893149176067650319e-01 8.457232308332728321e-01 -1.529082337324434160e-01
1.494693348450639447e-01 -1.836324618864110941e-02 -9.697607632101463704e-01
1.188150331917635499e-01 -4.206486230635423929e-01 2.694996549732974755e-01
1.659947114727049755e-01 -4.062140818091020678e-01 -3.262739668944511506e-01
-1.506467141486654004e-01 5.570045643919605549e-01 7.719734200131895818e-01
-1.340018502527047517e-01 -8.308487838909672796e-01 2.968736300645243298e-01
1.875957577924182718e-01 1.333970444286800006e-01 -5.710453910749430095e-01
2.087521060578144128e-01 4.902908243017524703e-01 -6.327769186919935951e-01
-3.504528139749020499e-02 -3.719155301761142285e-01 3.350254495989691828e-01
2.273093623495884563e-01 3.700816810589726003e-01 -6.854879504532418455e-01
1.682365943078527049e-01 -1.363322468599890702e-01 5.360417001621633482e-01
1.347952906071460399e-01 4.090499980233222033e-01 4.291345627815533192e-01
-2.044511938209814528e-01 -5.224340182783483028e-02 -8.334021767950205994e-01
-2.628384450322280297e-01 8.962975821182449510e-01 3.731221573631697541e-02
2.523631711065877914e-01 -3.800449550200725723e-01 7.028202866602132337e-01
-1.868501688200331079e-01 7.197774827763506189e-02 5.176533078997324067e-01
3.156660056022483896e-02 -2.233605163549312045e-01 4.298341611318836630e-01
-2.253311016940313383e-01 -1.015686871259297019e-01 8.559358116328509292e-01
-3.034773858616839348e-01 8.359755882531184623e-01 -6.447177281955267236e-02
-2.913644990198471785e-01 6.520813661206497081e-01 -4.823090319721179409e-01
7.277897039580773220e-02 1.926164487158141042e-03 4.989523201998209978e-01
-2.369269439530068133e-01 -1.837877208320109756e-01 6.134880932591744163e-01
2.991908528652021393e-01 -6.492270977017966516e-01 4.175319823432687150e-01
-1.845943598419177156e-01 -5.159205161241947613e-01 3.955963767741660364e-01
-2.273108574359144207e-01 4.975019889551967611e-01 1.395499226250891678e-01
2.163778917045913741e-01 6.264436009694125673e-02 -6.056091062848484308e-01
9.109770170815724433e-02 4.256602944670568878e-01 3.376513955941509715e-01
-2.094404972620449445e-01 8.660255371912521927e-01 3.523413217821369514e-01
2.137135666365193865e-01 -3.293038908277977628e-01 -8.851078838610040300e-01
-3.833333796431525470e-02 -9.580551474557313929e-01 6.428970547982393313e-02
-1.541467414940261016e-01 2.256273192403125682e-01 9.162115444353419180e-01
-1.505781878310123167e-01 4.556801025315194709e-01 -2.099939239626852083e-01
2.743014775686097306e-01 -5.177198148482311524e-01 -2.866207002890025501e-01
-2.266648117025731601e-01 -4.101293567580987509e-01 6.230672303122325451e-01
4.432981636425742389e-02 5.744064283363812390e-02 4.864810398471209885e-01
-1.381797210377272156e-01 -4.237601934871560450e-01 8.237036611613186565e-01
9.332865835774009633e-02 3.916076640477798576e-01 -3.695030317121326124e-01
-1.994556336287698628e-01 -1.238912602337387814e-01 -6.806356027821431898e-01
2.377593751865995086e-01 -5.523163631222153258e-01 4.611384926090959097e-02
-2.834524815683074350e-01 7.436655075047380326e-01 4.463188939610994166e-01
1.941062915430640801e-01 9.325455767066265222e-02 6.353597083736041151e-01
-7.389636718441011665e-02 -5.535948603719319516e-01 7.721172043375960047e-03
1.181830738665897856e-01 9.280095001660487730e-02 5.259896296804529303e-01
1.722399778319110286e-01 -8.213402125720216107e-01 -5.392221800134814336e-01
2.618569854408832054e-01 2.719321573379883741e-02 -6.921304164111485857e-01
3.440863265788118852e-02 2.833103586632382265e-01 -9.555495421497998132e-01
1.573050914402943923e-01 6.905711112489716363e-01 1.574263852493819338e-01
-1.846308937935119132e-01 1.195733589439273159e-01 -5.836601815396070814e-01
-2.123754466095442994e-01 2.510906028135641010e-01 8.717141456320861570e-01
-5.007491626209351065e-03 4.896048316557291558e-02 -5.065221167992346452e-01
5.147135365600915419e-02 9.302124428508004028e-01 -8.488948001974050417e-02
-7.427662057340076937e-03 -3.175256693493781479e-01 -4.137047581984426015e-01
2.299271392221331478e-01 -3.807205817821913141e-01 4.444368252378845807e-01
-1.134957693862832968e-02 -2.670914674707599024e-01 9.367148292002659415e-01
8.154531988033147938e-02 8.157139013028352759e-01 -4.618669074180244971e-01
-1.517649342818470082e-01 1.314949323787749091e-01 9.328931971125417055e-01
-9.860655513740565481e-02 1.563310587641069116e-01 -5.006385628549404609e-01
-1.666799534335000887e-01 -3.107560342298107403e-01 4.766416045820363045e-01
1.537768490048694869e-01 -7.937890960647343563e-01 -5.897676294697872246e-01
8.846511789494465594e-02 -7.183992764531986763e-01 6.626840159708725642e-01
2.095102406592170563e-01 3.365306519571401589e-01 -7.967151775676102332e-01
9.085372537838136420e-02 -4.507607416907541964e-01 8.529399273012515659e-01
-1.143103896495269445e-01 -7.260135991952604284e-01 5.700615694252693100e-01
2.055564984944761309e-01 -3.772196604837209644e-01 -3.909480302357449255e-01
-1.510102034078251998e-01 4.557810619142135256e-01 -2.101600956323699254e-01
3.033365179619283009e-02 3.778611784323098743e-01 -9.197782535648194591e-01
6.091507350971446522e-02 -8.228042341832261242e-01 -5.644866628862562630e-01
-1.846331866336851923e-01 6.293898363167967913e-01 -7.029729301534717312e-01
-1.522096098803379649e-01 -2.380656768153377179e-01 8.957170669239810090e-01
1.809962095438501506e-01 4.960968430125033413e-01 -4.217334689041673523e-01
-1.664561396867971776e-01 9.580457495525803724e-01 -3.619255616045655155e-02
2.061456449556463566e-01 1.117005887405117109e-01 7.005504098632902021e-01
5.855968321630217188e-02 5.050158765108300196e-01 -1.406163796700403701e-01
-2.578665236299903518e-01 3.897592402625517649e-01 3.840493054100594938e-01
-3.212277272064235634e-01 7.775896319685717817e-01 2.070095068659603965e-01
-6.356363026371558873e-03 -5.986693234437516775e-01 -7.873942625935193007e-01
-3.122855063106336759e-01 7.348861505223964752e-01 3.676461953197508459e-01
1.824521682238356146e-01 4.797894230829857776e-01 -4.370754370789842191e-01
-7.344024383564226599e-02 4.787921960138760147e-01 2.598138789050353972e-03
-5.089924059933730732e-02 -7.475595309942837385e-01 6.069642679878847202e-01
1.732237640571664128e-01 -3.045871946400411923e-01 -4.352607044013367399e-01
-1.603363351867376912e-02 4.861553263802309011e-01 -6.185773195167505734e-02
3.040406727630780015e-01 -3.007311740225326324e-01 -6.584745728299240541e-01
2.471674253094012785e-01 -5.369334160067660289e-01 1.929602658099211221e-01
2.164900684914593254e-01 -5.458121454179754722e-02 7.870809348069149891e-01
-1.125675755117514810e-02 -3.843408338999280693e-01 3.131189510776754559e-01
2.585464102203311465e-01 -4.297211085512314677e-01 4.551917158074448855e-01
-1.643907471065255421e-01 -2.072796927131379252e-01 -6.008006401819686593e-01
2.489388637479178212e-01 -6.427039554511931874e-01 -6.738098448291474085e-01
1.877333711727762477e-01 2.363177613270498190e-01 6.329194942966668291e-01
2.456463618705636009e-01 -2.272903940474249040e-01 7.066243550894456549e-01
-1.323484919519870850e-01 2.620120542326926927e-01 -4.574578785159595373e-01
1.562894279366313643e-01 -9.802519830977008963e-01 -5.113744461230193550e-02
1.483921006887284344e-01 7.796791261541423657e-01 1.341332788695090428e-01
1.801862227464892108e-01 -9.704894688180111251e-01 -7.662165811453075515e-02
-2.600251767219873833e-01 5.230448391907257522e-01 -2.507312402602410728e-01
2.328115471979942952e-01 -2.270595875638618533e-01 5.948225020667374796e-01
-2.922363901483391313e-01 3.563758881172798820e-01 4.895232246196142278e-01
-7.453971695143594978e-02 -2.905438055984963519e-01 -9.251918200642289536e-01
9.127463565892672548e-02 -3.980324994945891315e-01 -3.130591314670575498e-01
2.283210072706481353e-01 5.362504897614504829e-02 -6.219961107696729830e-01
1.505185509065371241e-01 -5.073532952129842233e-01 1.895551293462525294e-02
-3.433877075082570479e-02 2.823271397776660474e-01 3.813127682059736512e-01
1.912035426452923792e-01 5.289498699592691811e-01 -6.632617079666771609e-01
2.020560807619539156e-01 -5.216262960760168488e-01 9.693567491646282175e-02
-3.081431852751952416e-01 6.230761831251678817e-01 -1.504803425781776061e-01
1.617858856473051443e-01 4.969545067503739477e-01 4.529347788356934967e-01
1.050975539497838590e-02 -3.810309517045147865e-01 -3.492629105759281205e-01
-2.875515127665732029e-01 7.204698179972646166e-01 -4.258108641625528157e-01
-1.848497360400409850e-01 4.974985069038477259e-01 2.320468610206618057e-02
-1.184073782779434814e-01 1.645621650772417788e-01 -5.069756692423076361e-01
5.062643445584850271e-02 -9.356980915657049369e-01 -3.329900302198919304e-01
9.459668570918454422e-02 -6.223829632729326322e-01 -7.835036449568510974e-01
-1.829150894126240767e-01 -6.692355101466399558e-01 2.905061234897775568e-01
1.200813322566326169e-01 5.769154916382928100e-01 1.276621829476703440e-01
5.083877374233396196e-02 1.476325058899164155e-01 -4.894540724627091666e-01
2.015045767571554125e-01 -4.815117967665582532e-01 -8.319234262132260138e-01
-1.421768195606073759e-01 -4.732926218503011317e-01 -7.506115798446180154e-01
-1.319336133797038291e-01 -7.015669227439819133e-02 5.012914230261782400e-01
9.440747427339250819e-02 2.927013405802408319e-01 -9.348621855852571327e-01
8.620936596226005943e-02 7.774710178630930280e-01 -5.281422266397421961e-01
-2.314443360627323754e-01 5.504682335622719247e-01 -7.043103623525106549e-01
-2.005461961087829370e-01 3.770634094473499648e-02 -8.646252844431066009e-01
1.341500323742445266e-01 -4.776800360043002569e-01 1.571418459969459169e-01
2.401541928097917708e-02 4.140833209603179133e-01 8.554343951730604134e-01
-1.771826610481123665e-01 2.893781756598955979e-01 4.014673672075851352e-01
8.417477390216100697e-02 4.514684270269180844e-01 -8.633296622327678582e-01
1.599904019611529393e-01 -8.613213128371483007e-01 4.351374171052318496e-01
1.784077420430065231e-01 1.402503492326331869e-01 -5.609281389263346407e-01
-7.973721809532206828e-02 9.037072103375816123e-01 3.427789164624156504e-01
-2.031847769717766428e-01 3.246133349765612519e-01 -4.688132071804139156e-01
6.771114850257854700e-02 4.052927032460275081e-01 3.297048377921795725e-01
-3.128307103904597319e-01 6.245053616005986630e-01 3.274620564239222320e-02
3.789262466582413169e-02 -1.397768390137948125e-01 9.561580534959397415e-01
1.718481954257738975e-01 -8.705218547972133347e-01 4.066112200388131703e-01
1.304473690615861881e-01 2.928244755075256611e-01 4.893460187108834569e-01
1.579736868620931489e-01 4.395089303261867641e-01 6.881684423798831718e-01
-3.039366624013987161e-01 5.940938909705605342e-01 -3.191129829154065733e-01
2.694539603605869971e-01 -7.466064549395207139e-01 4.360692999433760098e-01
-3.243783383842823720e-01 5.205428398217115671e-01 4.143825251771877105e-01
-3.349607186443601115e-01 7.092397374221136586e-01 2.155270266538383273e-01
-1.007991974286805426e-01 -5.809593338252665440e-01 -6.227164623920564829e-02
-1.331340903056691949e-01 -4.965016591726295614e-01 7.809657133200064161e-01
-8.412691542431743885e-02 -5.008335179520029962e-02 -9.736421499038168115e-01
-1.622852457322360997e-01 -7.063311266465759353e-01 2.421211546810026968e-02
2.289842714996709327e-01 -5.456273481492466271e-01 4.122336681284713422e-02
-5.168953802904678596e-02 -5.144268195903638485e-01 8.196181249985426964e-01
-2.245474378510570190e-01 8.406106046696198986e-02 8.791714837280761863e-01
2.005779685244195587e-01 2.962848477679712045e-01 -5.595868870043890775e-01
1.622358195946767001e-01 2.568509293652213588e-01 5.558376459634042366e-01
3.202606406420816509e-01 -6.929888696401309556e-01 1.265485173500345839e-01
-2.795521830642476169e-01 5.726231389831392127e-01 -1.213122320618112843e-01
-3.272888608284666573e-02 -5.022550574880882968e-01 1.289260428158129634e-01
-2.918794048695934618e-01 1.360359247650155534e-01 7.117496488799814891e-01
-1.960503151704622582e-01 6.974658004991235449e-01 6.246251411591859926e-01
-3.017939543966157712e-01 5.826706883697814199e-01 -4.335342682069198150e-01
1.658731065830352513e-01 4.441419308025055246e-01 6.544984101404427435e-01
-2.321927185024887652e-01 8.832474869713491383e-01 -2.630369411518013179e-01
2.729371824320163675e-01 -7.891564051298119997e-01 -4.569429718080119662e-01
3.292185224055873549e-01 -6.136546236809515831e-01 -3.636677205550804537e-01
1.317810644526640484e-01 -6.606363332229338303e-02 5.249451397512957529e-01
1.627714536494676567e-01 3.836851708139930595e-01 5.155959020374495383e-01
-1.777666550221673747e-01 4.960702933227711942e-01 -6.535196930237242852e-02
