-9.134703439368323519e-01 3.992251220102385201e-01 1.249244425724449215e-01
2.566992308565042014e-01 -8.020844923784475888e-01 2.539296078672284573e-01
9.741934221488904866e-01 9.135399025789973926e-02 -2.692363660671589498e-01
7.969896299156109531e-01 -3.721392581849636838e-01 1.839409273411689999e-02
6.035967619571913634e-01 7.214835466896362126e-01 -2.296275258710329115e-01
5.084861041540478244e-01 8.359742860384224983e-01 -2.758229313986852449e-01
-7.611034635194116049e-01 -4.117761900801608643e-01 3.605044105212825145e-01
-7.408750175315638176e-01 -2.958617305744086767e-01 1.990547064666015331e-01
8.981505289632824018e-01 2.056847102277813977e-01 -1.484360671182474445e-01
-5.683244911275998623e-01 -5.261426469394785421e-01 3.292220196947579502e-01
-2.383435308704134059e-01 8.802300289722019278e-01 -2.861313033002417794e-01
9.553935617620106235e-01 9.029355231437437290e-02 -1.367655979757503026e-01
5.763088032680073747e-01 6.087496830130886272e-01 -2.294594485742855183e-01
8.244671098868701087e-01 6.919594213353458256e-02 -1.634842478854920955e-01
8.602611188882581805e-01 -3.631991292564580864e-01 -1.756848188060725624e-01
9.945596688551401332e-01 -1.249448297958420107e-01 -1.735011913478879397e-01
-8.019930848631230402e-01 -3.194749016227219074e-01 3.466483333043648973e-01
-5.047803622143738345e-01 8.029199470483961987e-01 -2.047622609819585993e-01
7.114284809929856124e-01 4.453067894197147991e-01 -2.136583062921843523e-01
5.399538073884733169e-01 5.889832298298762758e-01 -3.088609523688859437e-01
1.965792970212689728e-01 -7.946005749782429906e-01 2.541183938082187677e-01
8.182616392328367905e-01 -6.999917158388656302e-02 -1.890549281136488791e-01
-5.458288634090175950e-01 -5.938684807790300946e-01 3.674412637566667472e-01
-7.812238000086217937e-01 2.615233568134220365e-01 9.803991088435803913e-02
-8.856179860290493977e-01 -5.834665359862706291e-02 1.057621922688902066e-01
8.819961296047005295e-01 4.398966146089504647e-01 -2.886375225163800295e-01
5.454060173024928293e-01 7.345235082553602801e-01 -2.181130714019091088e-01
5.948118181860673204e-01 -6.071020204927980446e-01 -3.054943879118309641e-02
1.000179927577914407e-01 9.158567018300437512e-01 -1.745203896568088275e-01
1.026022054056643235e-01 -9.033657600655055075e-01 1.257269901992169869e-01
1.528665602522082390e-01 -9.066602877932870008e-01 1.177719410189353166e-01
-2.763269043390447766e-01 -8.458707263304725554e-01 3.600314903301210512e-01
-8.706487925105893533e-01 1.922471352122609167e-01 3.719341792866475566e-02
7.898605902750425178e-01 -6.118382906106061281e-01 -3.671148088606279725e-02
7.507465537645743314e-01 -4.734914032113343163e-01 6.107493421418853929e-02
3.759018454100951975e-03 -8.322137402031888342e-01 3.183341020140468269e-01
-5.878980071041882693e-01 -5.859550652085044886e-01 3.761831155902793378e-01
-7.031588152076844178e-01 -3.522836129888393675e-01 3.112784700054168074e-01
4.265599770849694966e-03 -8.263613553905391207e-01 3.153332811047233619e-01
-5.738978201501404586e-01 -6.490193953382540348e-01 1.990730275896437640e-01
-6.461459922991178439e-01 5.353000872778138630e-01 -2.970363302198786304e-02
4.921763652289694591e-01 -7.461978651919856098e-01 3.145075208506302716e-03
-7.091827872059427440e-01 4.510578919678197019e-01 6.248820331294428071e-02
6.038162860050088065e-01 6.936918113197720892e-01 -3.921889311579924708e-01
-7.386297555579576235e-01 -5.937558834961158549e-01 2.977033335106593070e-01
7.512113367811463771e-01 -3.774752628776152918e-01 -6.639363568726428487e-03
6.433898057763700606e-01 -5.208480770354210199e-01 -2.702565600062584866e-02
6.142575902704746627e-01 -5.454398765203336552e-01 3.098775906569121996e-02
7.028158191744395822e-01 4.872931912023925061e-01 -3.765000927786595342e-01
-8.283095234308457400e-01 -1.780241989304825467e-01 3.155001905849258437e-01
-6.785597062902471999e-01 -4.642292947623164467e-01 3.617085393043640296e-01
-8.370521423327349497e-01 3.842649964296441789e-01 1.651337821287917895e-01
-9.695004908376001485e-01 -9.274643990159404938e-02 2.379849438742904499e-01
6.686764205223100221e-01 -5.427616490909514813e-01 8.607144371116270953e-02
-2.129395559566651663e-01 -8.465575304255815725e-01 3.586167999914584015e-01
2.597789511599572498e-01 -7.571074150402903324e-01 1.413207025387648863e-01
-3.480153335542673920e-01 8.740555174612255618e-01 -2.559598352945476329e-01
8.233731628365308364e-01 -2.757145879242552944e-01 -1.867513842157725590e-01
3.023935188204869839e-01 9.236280072719983414e-01 -2.378347884240114285e-01
7.774473080373613953e-01 3.147934305889923401e-01 -3.382054009140695316e-01
4.661214040691788463e-01 -7.996728693581911518e-01 2.213903342955306219e-02
-4.318477518477099042e-01 7.682609920051162167e-01 -2.088003783457012819e-01
-6.886037433541269959e-01 -4.800784694025626576e-01 1.893524897361357484e-01
-3.495804736870494200e-01 -6.773355668472803570e-01 2.863320769578729941e-01
-7.423125588159288357e-01 -4.053902477166737017e-01 3.591391951860684051e-01
-6.061072932144628833e-01 -6.995800086290553388e-01 3.458916199354172827e-01
-6.181306040584798600e-01 -4.872842750392276656e-01 3.411612834761468260e-01
9.770067675377158700e-01 1.184326034386437021e-01 -2.649109921549238078e-01
-3.924450214436006612e-01 8.071546619984587556e-01 -5.214629109552497421e-02
-7.228055169634803878e-01 -5.291170881528929337e-01 1.964012514841214918e-01
8.208194210349216702e-01 -3.130626218635478297e-01 -1.799150412008381772e-01
-9.169844269003247783e-01 -1.478915252385261565e-02 2.793510589603250271e-01
-9.337070829125865279e-01 -1.383875062379427423e-01 1.438188305095228214e-01
-7.989780276674801618e-01 -3.884584232032842199e-02 2.007140478351831514e-01
4.666100080345128576e-02 -8.678407737545340561e-01 3.177553312711061673e-01
8.105170660245127889e-01 -1.979477199196251480e-01 -8.260629098285721117e-02
9.571476898204015482e-01 2.636520376892814363e-02 -2.765753597836284605e-01
-7.312583497503214458e-01 7.003431939378963467e-01 5.126910119967773710e-03
6.319800461013642678e-01 7.499295803110029857e-01 -3.197796312489322723e-01
-8.342768875589551270e-01 2.356187071783251985e-01 3.233566906151409681e-02
7.160972927744645444e-01 3.953192385250692831e-01 -2.312351517963502634e-01
7.801575180216769878e-01 -2.956152719251817218e-01 -1.362070289945887247e-01
-7.085136147233332959e-01 5.969872640424854771e-01 -1.119873972390370009e-01
-6.981392835042977696e-01 5.250809832807803446e-01 8.040259848826944444e-02
-7.812543111307451715e-01 2.625903620494554613e-01 1.115416360040884514e-01
8.149398711457592759e-01 5.423216176266260069e-01 -3.202731682607017905e-01
7.920075901252493500e-01 3.992967146527389155e-01 -1.857129433136340269e-01
-8.369556207303964213e-01 -1.549900791334143380e-01 3.112462502002706910e-01
-3.782381172106409895e-01 8.456051908710970899e-01 -5.618614901078945734e-02
7.201626346556765368e-01 -6.974681222085108434e-01 3.107606475817803471e-02
8.626064231784467129e-01 -2.107606666521864291e-01 -3.678816002679859143e-02
-4.708053946892225006e-01 -5.987881355028773500e-01 2.890825115989609784e-01
7.611410075308987500e-01 3.507497026741345780e-01 -3.450685097943448354e-01
-1.840638418759758810e-02 9.988454387015919256e-01 -2.238614550775739898e-01
-5.173297387889552734e-02 -8.523526540500773185e-01 3.355541802369694238e-01
-7.978010110468839455e-01 -4.848702125505062466e-02 2.069313193840159326e-01
8.679122525820974765e-01 -1.516202061330321760e-01 -2.365721844141082664e-01
8.134937591980998528e-01 2.571234637061154404e-01 -1.739868609535607513e-01
3.257364935362782599e-01 8.819275297378472711e-01 -2.136841331305141534e-01
-8.976862608577206304e-01 1.393373783039153144e-02 8.715119572068372178e-02
9.154490115226170399e-01 -4.027275726970693248e-01 -1.147986315124429751e-01
-6.555050478128447988e-01 -5.011372650846445120e-01 3.673560316674457926e-01
5.251712009151301430e-01 6.131589168929028055e-01 -2.676464483340409983e-01
-8.697337027057634451e-01 8.317166520883251257e-02 7.245164323846893517e-02
-7.101794394534289845e-01 5.423961492992798172e-01 -8.954426455507309701e-02
-4.762283228560260651e-01 -6.460122131988564886e-01 3.661728018536202778e-01
-7.404354308830563003e-01 3.785405895814032973e-01 4.687861694743635649e-02
6.410933883124901866e-01 -7.594267936976563105e-01 9.436092214303279380e-02
-5.799090908070182460e-01 -6.315320393458074832e-01 1.979169546718957950e-01
7.066599364888048740e-02 -8.070912757565630313e-01 1.525738224974653168e-01
2.573826268407630735e-02 -9.431330820119335767e-01 1.712350089554883215e-01
6.961803644700305105e-01 -4.670785478332806773e-01 -7.429802788777130351e-02
9.359385585403516838e-01 2.815198187618107029e-01 -2.024404985981791694e-01
1.136254161651361755e-01 9.612786907648512846e-01 -3.327317219615825161e-01
5.015084207487653378e-01 6.374614763742826318e-01 -2.610816464144611326e-01
-7.919783695173909788e-01 -3.561878028160634924e-01 1.677426727517779548e-01
-5.561051535758154002e-02 -7.763965221016655427e-01 2.720137783709239421e-01
4.088916412757053198e-01 6.927362016867515404e-01 -2.783140679949742680e-01
9.227908234875759064e-01 3.268092874749766175e-01 -3.026649501686422550e-01
7.627941087601942671e-01 2.639636084336426380e-01 -2.654617322089061759e-01
-2.712741848047598991e-01 -8.543469152345817275e-01 3.565642880429013561e-01
9.200327783096812206e-01 2.494420659611223390e-01 -1.706503797331000716e-01
4.553157036795213997e-01 8.271709102101023614e-01 -3.786719335112042617e-01
-4.105635436910370917e-01 -6.521951585208005664e-01 2.488371608264627333e-01
6.014541791458153513e-02 -7.839066065389044269e-01 2.486027940328161268e-01
-1.540088580582366640e-01 8.281603456071092717e-01 -1.565813103709640386e-01
-7.161612444200772254e-01 5.576823767240756125e-01 -9.724234246431578965e-02
1.893950107008416373e-01 -7.699881616942333418e-01 1.726221962605765103e-01
4.991564333316226287e-01 7.845880705120081844e-01 -3.882406366499394079e-01
-8.376726608761572157e-01 -3.353839139250313628e-01 3.409771971980983252e-01
5.639377831034524391e-01 7.152432394645434899e-01 -3.953075952603946619e-01
8.081221260400707207e-01 1.804890625576921204e-01 -2.944966565924726498e-01
7.828167956003709849e-01 -3.391700187276442957e-01 -8.719340045498538000e-03
-9.213928703530255282e-01 3.698317655370971235e-01 2.685048720629637509e-02
5.771169098389971053e-01 5.546562687759929444e-01 -2.872449788128537684e-01
-1.954483406711832738e-01 -7.604065363562493296e-01 3.230265677702796046e-01
8.769579094814478060e-01 -3.329119920912504416e-01 -1.855192077806836759e-01
-1.770933075280163027e-01 9.292011252599351456e-01 -1.202684466469477603e-01
4.227754838924236563e-02 9.976671911850596430e-01 -2.528881435480541673e-01
7.199189681969401233e-01 -4.177340204632956078e-01 -3.216848021361786054e-03
-4.342219787647849105e-01 -6.637831372405590402e-01 3.583208931623372839e-01
-8.836046484400005285e-01 6.251864549495617096e-02 2.623174696045963428e-01
8.600206148874335321e-01 1.158910374044853642e-01 -1.358428889816182261e-01
8.688965087818579791e-01 -4.061952140956471835e-01 1.497054121270732958e-02
8.798574126393295947e-01 4.044533362312868197e-01 -2.165823902459007022e-01
-8.840791444640215824e-01 1.830232197498615765e-01 3.904513250804918928e-02
2.167755018782897836e-02 -9.539570007223644454e-01 2.678501357174704056e-01
-9.361635604984498427e-01 8.576049291663308261e-02 2.481899951009217398e-01
-9.229989629584377520e-01 2.845382896529694006e-01 2.812648537509801830e-02
-6.086205457560333043e-01 5.833299372945788264e-01 -5.348811599083283172e-03
-5.777036363026476495e-01 -7.210408148719750221e-01 2.322040984024935639e-01
-2.454713213519955917e-02 -8.988982141787001945e-01 3.254827263563581097e-01
-3.380636574618573476e-01 7.712320928765676875e-01 -1.142222560545741450e-01
-6.346346547341783495e-01 6.295892879659297225e-01 -1.299724742626879315e-01
3.913526938991216397e-01 -7.116111762417007824e-01 1.555695734693432475e-01
-1.692666083379794351e-01 8.776468430824269085e-01 -1.183384997133748312e-01
-3.702443311405904658e-01 -8.164948806696953332e-01 2.013660256238967994e-01
4.310777763439855859e-01 -7.140063691825819792e-01 4.479807044544697331e-02
-2.977298512270118436e-01 8.376601825033095361e-01 -2.612712994255524390e-01
8.589361809914248802e-01 3.637039644520820847e-01 -3.534601955437758347e-01
-6.360275281291103422e-01 -5.343960492544138630e-01 1.968386928161180716e-01
8.549726054050355017e-01 -3.622420647304670505e-01 -1.762591857256763928e-01
9.695133118274179562e-01 7.101875514924578525e-02 -2.731771757578108084e-01
-2.960327390797897196e-01 8.945275852651447535e-01 -8.562389614249642233e-02
2.664536490999231955e-01 9.422826521473226524e-01 -3.293564899396680956e-01
-1.265388731582479664e-01 -7.761983228751170305e-01 3.100182299830356314e-01
-5.111117302041531252e-01 -6.448075970703414095e-01 3.762263308243665727e-01
6.785812671606599178e-01 -7.115740978976877740e-01 1.017895528133718891e-01
-3.387688139218976158e-01 7.654311300993630329e-01 -1.792210112699463009e-01
3.723561413128130826e-01 -7.604880888735374711e-01 2.155990725283341014e-01
5.270031951352390776e-01 6.972848306857972744e-01 -3.961070476750189751e-01
5.493420783573674804e-01 -8.176886939932450638e-01 5.337384413675377165e-02
-4.715062799577991459e-01 7.697888853601076997e-01 -2.070762212600191499e-01
1.152448772682588968e-01 9.072412922969608218e-01 -1.762780855227555621e-01
1.935012710569147254e-01 -7.699860107503969653e-01 2.064868446600388319e-01
-3.438488262936000850e-01 -8.775126095619308897e-01 2.509718659780445504e-01
-3.510957941309942321e-01 -7.858521768224708826e-01 3.737598321567657256e-01
-7.715256926445923646e-01 6.451963210101296919e-01 -6.698612948502360998e-02
5.321559131406344845e-01 -8.378208465879476430e-01 1.105997448205456174e-01
2.437690477656186128e-01 9.186596438354845962e-01 -3.608510172612753863e-01
-2.486447540354161656e-01 7.990432234806595924e-01 -2.203159296511182919e-01
9.834364927499936182e-02 -9.550513219191727465e-01 2.495640593465252299e-01
4.510798022229230431e-01 -7.952115544082478671e-01 2.295723499335616466e-02
-1.959624911122516688e-01 9.764704774628401029e-01 -1.589317018497717893e-01
6.151386767627882168e-01 -7.537569732264651767e-01 1.627854509052933897e-03
8.066277679030549042e-01 -1.761279468125699077e-01 -1.605826266632473798e-01
6.437723800351339287e-01 5.895587335727704437e-01 -3.915278343042520870e-01
-8.943639416634482364e-01 -3.228081268886114907e-01 2.013482998282743741e-01
9.279933613384334645e-01 1.605169201007222712e-01 -3.137756618705350720e-01
8.166410272665975967e-01 5.065023969837266771e-01 -3.489128756894364081e-01
3.842337321419462270e-01 8.305170888589783473e-01 -2.106513541621120034e-01
3.297399105373985950e-01 8.281073105702929649e-01 -2.044860201823367196e-01
-5.960044205867547351e-01 6.198791577748334891e-01 1.346265133685644634e-02
6.732637663006053597e-01 -5.517395101992426110e-01 -7.748493616189297550e-02
-1.696970838540566850e-01 -7.531948601385386466e-01 2.910302892953103848e-01
3.514905577280998811e-02 -7.879896243142016088e-01 2.658809089236339185e-01
-3.630453606412171325e-02 -9.532794294091121445e-01 2.077385845642930051e-01
-7.884055149648258043e-01 5.400850754722567038e-01 -7.566522172755836551e-02
4.796500480016344659e-01 7.070178241997493451e-01 -2.222177160007724472e-01
8.458386167091277441e-01 2.053450258459071920e-02 -2.673869361285529100e-01
-8.165741780469384370e-01 -7.956757481210957605e-02 2.706841310483935614e-01
6.477093037385103225e-01 6.148330765100886719e-01 -3.940350967373351110e-01
-7.257741810670098603e-01 -5.843864379042288393e-01 2.299827331652813944e-01
4.399748121422410452e-01 -7.358178871174057001e-01 1.966122015191006933e-01
-1.514266785422065664e-01 -8.732395748249964784e-01 3.478293403689561858e-01
-6.087757906103941075e-01 -5.539185570653161195e-01 3.719323192837001857e-01
-8.249315854970762363e-01 1.423529332810559711e-01 2.072150697613419912e-01
5.857245464978849334e-03 -8.087709855918820967e-01 3.024997095693428006e-01
8.985777600830306966e-01 3.356931827583518602e-01 -1.935286090729617381e-01
-9.067136192919923454e-01 3.603457942916931112e-01 9.193334808890766055e-03
-8.563647026267616758e-01 8.285939596653291855e-03 9.826090900814310469e-02
-8.788277559550616846e-01 2.221601200103436036e-01 2.686807805836370980e-02
8.608792442347598106e-01 4.712817024545499778e-01 -3.085949652311839042e-01
9.985552713594925134e-01 -7.830783605757114796e-02 -1.603659799697049193e-01
1.814962271899963620e-01 -7.964008786714783517e-01 2.574516491204848490e-01
-6.297467182323575052e-01 -4.427254914012729303e-01 2.619713460160917329e-01
7.822565278185164006e-01 -2.764394858477352002e-01 -6.731186182117267214e-02
5.765453028329776686e-01 5.542509051062690650e-01 -2.919775988775497599e-01
-8.876025730907787237e-01 1.400846330542323548e-01 5.202363971681160659e-02
-8.347636252713644955e-01 -3.510801763898788869e-02 2.698118786714425177e-01
5.720802130109177153e-01 7.772241489646497525e-01 -3.594249690948422282e-01
7.861274042174080101e-01 -4.810722220144755257e-01 6.094541628382482701e-02
5.057059304479100126e-01 -7.391008193987652630e-01 1.893776453636629165e-01
-5.984062312633522396e-01 6.568205127651154385e-01 -1.431006254752335838e-01
-7.750985828766132624e-01 3.311249220191785914e-01 2.554977001791042951e-02
8.042937494460454806e-01 1.773352565005796300e-01 -2.871191072355300244e-01
-6.713580757974525470e-01 -6.160492489731367316e-01 3.592023858519063362e-01
5.422253669416993160e-01 7.474336139155748349e-01 -3.915699879860568555e-01
4.132731411172385072e-01 8.645309610390430333e-01 -2.356446871823322797e-01
-5.355212149517237646e-02 -8.025103457765698778e-01 1.770421042929844202e-01
6.767653145663116154e-01 -4.810508435173686537e-01 2.374772808143448682e-02
-2.257217082970691402e-01 7.999554602751508536e-01 -1.688595231282593312e-01
1.533588894154168658e-01 9.115892891748951232e-01 -1.841356537171721097e-01
-7.816544378429257645e-01 -1.761135217799543740e-01 2.788413767222914230e-01
-3.384879227976517191e-01 7.881062935409434145e-01 -9.136472479380634837e-02
-7.398906388333404971e-01 -2.552120310560529459e-01 2.629553079984260355e-01
3.299711657881980176e-01 7.358359417140561964e-01 -3.248552165366018207e-01
-8.874801283525417528e-01 -3.406389092828664977e-01 2.058517299243050880e-01
9.897152464337883870e-01 -7.478543438846185776e-02 -2.143673271444893336e-01
1.091039237474745044e-01 8.045785929890539867e-01 -2.720875363929791124e-01
-7.900410166308370341e-01 2.598236543293687140e-01 6.422268442538087152e-02
-5.335912496167893870e-01 8.670623727884536613e-01 -9.505930880174777442e-02
3.023155345421510432e-01 -8.677337126930037003e-01 2.533456004259405092e-01
-6.108605628642219676e-01 7.799358609996848157e-01 -8.380058113019466307e-03
5.894339707964989516e-01 -7.382845006683783629e-01 -1.567060126075358120e-02
-3.040233006605388977e-01 -8.394325423956011667e-01 3.610952551491973250e-01
-4.968198721795188399e-01 -7.867803870293580415e-01 3.369424857901733295e-01
-7.516527039443994251e-01 6.576939032881524705e-01 4.087754200725830095e-02
1.329483831059351528e-01 9.572144437571161735e-01 -3.363921152053437891e-01
-5.223189682944877621e-01 -7.542159729285206060e-01 3.542321459215654333e-01
4.986228770256890264e-01 7.927124518453521063e-01 -2.255740011909548592e-01
7.705307001341885620e-01 -3.802007474949898880e-01 -1.389794705290584020e-01
4.872469670652649909e-01 -7.077497491596891344e-01 9.227028828634999125e-03
-4.921268080373883413e-01 8.888854993838684049e-01 -1.033160317928100008e-01
-9.560085221462298888e-01 -1.841352046280164689e-01 2.268433949793480231e-01
9.153820752780394976e-01 -5.080642741665795242e-02 -8.314807222655026808e-02
-6.242378599226038327e-01 -6.362484930223897273e-01 2.047560110524837274e-01
-7.820411895839152194e-01 -2.693042688571168353e-01 3.283227261712783895e-01
-4.727774119085104143e-01 7.136974388346146725e-01 -1.627916844320513867e-01
-7.359303872230229526e-01 4.094532321786007456e-01 2.962326015406105580e-03
2.392079335848012467e-01 7.820965146171752203e-01 -3.342205497456054997e-01
-7.383029001013484693e-01 -5.312577792943151689e-01 2.031409490847762012e-01
-7.584121186302504591e-02 -9.286249257577253724e-01 3.104056926538808492e-01
-9.157220290585402767e-01 -2.006497385780469100e-01 1.552521707907013604e-01
9.996076316018086549e-01 1.237499037824805158e-02 -1.930901802874986362e-01
-8.036057041117500299e-02 -7.995881808315533634e-01 3.187664253507599965e-01
-3.398562936932809087e-01 9.475981516319796905e-01 -2.086303156588686647e-01
-1.408480131086357612e-01 8.141487104217483006e-01 -2.322243689446565618e-01
8.567824265535709527e-01 -2.590089032108344735e-01 -2.065528422029645206e-01
-9.033092830194787703e-01 -5.964884196613954442e-02 1.067278615983623252e-01
-8.162358317488143111e-01 1.507812141208982881e-01 8.970418835058759088e-02
-5.379444086556911531e-01 -5.699698960172946416e-01 2.307377429330506879e-01
-7.009496196936347845e-01 -3.634325901417570504e-01 3.188376115858299054e-01
-7.691522796483956093e-01 -3.676590010751347726e-01 3.540559835640758046e-01
9.185872155667579309e-01 -1.930769000561681215e-01 -2.291221382523962458e-01
-7.431082172523300056e-01 3.818840607663798181e-01 8.649168612722171745e-02
-2.599589406104974021e-01 -7.592509016207827921e-01 3.499800639810218827e-01
-4.881685926846950352e-01 -7.750676677702400541e-01 2.225252507197169882e-01
1.977993067429195950e-01 9.549711215237240980e-01 -3.318438736637477349e-01
-1.457608432108622176e-01 -7.699627804905887496e-01 2.126298911405791470e-01
-6.812010237459951156e-01 6.768917129253170240e-01 4.935280573106745616e-02
4.117550717659619330e-01 8.728904690211144457e-01 -2.429200756059571864e-01
7.963595044525358935e-01 -4.045116097249510378e-01 3.358702695906640862e-02
7.009637827308701219e-01 4.562358745246416492e-01 -3.623365834354428383e-01
-5.606107723468810589e-01 6.410298421822174797e-01 -1.128664587265738456e-01
-4.506747615984646460e-01 7.168196601183083327e-01 -6.920820222552123702e-02
-2.676348338293197404e-01 -7.390939085497139072e-01 2.183274303556445306e-01
4.637376021605109089e-01 -7.093496189071459845e-01 2.350809388653788551e-02
-9.106196198287074273e-01 -1.154428746626653610e-02 9.506421913792002798e-02
7.692875579066134062e-01 3.062249800245293030e-01 -3.266243773233991621e-01
-9.620947709011186122e-01 2.074428922677472864e-01 1.844774534625851226e-01
-8.976038800666740203e-01 1.807925843426879398e-01 2.303140980439265795e-01
2.784583388815420682e-02 8.307063242254236757e-01 -2.030231338939889607e-01
6.616527598860480822e-03 8.324487208465439769e-01 -3.017357163327188396e-01
-7.338119357802520559e-01 -5.384794928617848697e-01 3.562105766420200492e-01
-4.794742303407181772e-01 7.832752812555275890e-01 -1.960890809936553444e-02
-9.827144024793025290e-01 1.512661314648109101e-01 1.674662579101246496e-01
-8.028405368178764129e-03 -9.606903617832174280e-01 2.283872960058309642e-01
9.926639302324860026e-01 8.220456247577097308e-02 -2.266660496015786841e-01
5.153365722318563602e-01 -6.483523974042832982e-01 2.366346867018981337e-02
-8.892344903223133867e-01 2.611735920556378932e-01 1.669813132810894427e-02
1.174749300286799386e-01 -9.149441218525156128e-01 2.909069869486279880e-01
-7.023493203880613045e-01 6.735565395674810718e-01 4.884298678492496326e-02
3.328434936680112477e-01 8.325527090794252461e-01 -3.878749628468929345e-01
-9.509789563370810717e-01 1.896591634802391180e-01 6.483239700445703191e-02
5.358870051283562974e-01 7.866920624010909080e-01 -3.741542456455286270e-01
-9.120845262080354843e-01 1.858553790042268561e-01 2.267266683199242738e-01
-6.006290768160268412e-01 -5.955089492255324357e-01 3.790451194310704430e-01
6.937953776923295734e-01 4.544485407605104443e-01 -2.237333450195042872e-01
7.355119901591555820e-01 -4.164946012671141284e-01 1.561973165945244012e-02
2.617107362903722256e-01 8.235807205405157871e-01 -3.757896468094047426e-01
-9.578354581080550378e-01 -1.299800891692981242e-01 2.564260717162016867e-01
-6.322489275168576839e-01 -4.803165109562717028e-01 2.166566090638209208e-01
4.370260932804133636e-01 7.157888287607215849e-01 -3.792787527712177531e-01
2.352012440113777914e-01 9.607413837088512043e-01 -2.641864242821955200e-01
-1.413525455377075135e-01 -9.315265526990065270e-01 3.015908845422008433e-01
7.536439961189469461e-01 4.086016814555495924e-01 -3.656872687257295973e-01
7.663876783864878028e-01 5.396346655752772836e-01 -3.726799503628611676e-01
1.391037726994557855e-01 8.197856076591493180e-01 -3.332728874224082372e-01
-9.379395812723004822e-01 4.186220777187267539e-02 2.583578611063182540e-01
-2.538518021423769033e-01 -8.110981782071253754e-01 1.817524621422457742e-01
1.982504148590444326e-02 8.817382995513692867e-01 -1.627516042912847960e-01
2.214046015040356530e-01 9.592439641546532947e-01 -2.458139026698418494e-01
4.284634654140688781e-01 -8.750333669927917724e-01 1.810906678035358319e-01
8.947524325734941275e-01 -1.859534373659411099e-01 -4.256459048082895241e-02
4.920100895679244135e-01 8.116954481595045623e-01 -3.758925308185404046e-01
-4.018539755043922801e-01 7.600509007376723414e-01 -6.879166146259088621e-02
2.043952038281009742e-01 -7.931594637105774392e-01 1.184707086838747286e-01
8.687454873342059791e-01 -4.852960491822319589e-01 -9.606542098909610916e-02
-1.947935590700830555e-01 -7.805237615764700765e-01 1.939471142411055837e-01
-9.324381108919510552e-02 -8.485788104388169995e-01 1.588849850751968273e-01
-5.377258175684294095e-01 -6.952428006704843844e-01 2.023902519951817358e-01
9.553578055868431340e-01 -3.096155315549326548e-01 -1.293759053624969346e-01
-2.348884262177819079e-02 -8.815310968026258687e-01 1.461581265868391877e-01
8.358254805628759776e-01 3.316609369506892668e-02 -2.609967587678791445e-01
-9.484112881260139405e-01 1.795313898521486984e-01 2.111176724231375590e-01
9.838525861840334841e-01 9.593403942729181177e-02 -1.734075857842001522e-01
-3.824541865112353611e-01 7.498254653647860035e-01 -1.026388272597452411e-01
1.362530810384373348e-01 -8.347798672099370210e-01 1.164022428330428877e-01
6.462602481813165545e-01 4.721663678967440436e-01 -2.931043369755346739e-01
2.071905748206578635e-01 -7.769033522190836871e-01 1.382390812333406105e-01
3.015550729549735035e-02 9.766198751941330691e-01 -1.922627304972349127e-01
-8.646786336766254522e-01 5.346462101306985737e-01 2.178466510983649573e-02
8.199558249791153441e-01 2.336386216387659198e-01 -1.698701483714565863e-01
7.456495483240447308e-01 -4.634192757186909040e-01 -1.211300043943708549e-01
-8.571854325818263343e-01 3.138979906313924539e-01 -3.159473614471435422e-03
5.302995367378480207e-01 -6.220439109993618487e-01 7.933023662650436070e-02
-6.104804995469816087e-02 8.187006565602391595e-01 -2.438511725094920368e-01
-8.300023561334169964e-01 7.091975149290445646e-02 2.304863182576444569e-01
3.160213325264347728e-01 -9.246349902212818161e-01 1.412200845642909153e-01
-5.050303615190986362e-01 -6.604844453865875709e-01 3.788031843577147062e-01
9.664460522465297965e-01 -2.325005295889982226e-01 -8.224559034324632756e-02
8.997607607357895887e-01 -3.639675842113445636e-01 -8.863898322904323335e-03
7.387643058314705691e-01 -6.585943599087561440e-01 7.100066621658106258e-02
2.457942062124498783e-01 -9.259731765646938006e-01 2.371186618463302087e-01
-3.085860194387470279e-01 8.194441844427277077e-01 -8.701473631833625544e-02
9.801383321688059702e-01 5.771350028557305917e-02 -1.507635594012719515e-01
-9.548913742253462011e-01 2.749994074313034664e-01 1.563796313679058636e-01
6.475445836695135071e-01 -6.533325350541027143e-01 1.353254565424860667e-01
-3.883367780638181666e-01 -7.497509151244514669e-01 3.766069907756006696e-01
-7.188767949523457990e-01 4.214565359902923691e-01 3.643367363753719640e-02
1.456497742683757757e-01 -7.785208194879977839e-01 1.741124927653573684e-01
7.938023023650550014e-01 -5.224414875733988106e-01 6.381092854170400397e-02
-1.591334408444445847e-01 8.210093928322764745e-01 -2.545148451553783109e-01
7.856047025486649904e-01 5.770283465660774880e-01 -2.563091003744858987e-01
7.315105739846105015e-01 -6.862031417651949239e-01 3.074384401467420216e-02
-7.465491907142610684e-01 4.026183143546936405e-01 1.055998123461983074e-01
-4.586946575880777588e-01 -6.224777919561075290e-01 2.451842093185079841e-01
-8.700119437297682001e-01 5.111047858161716917e-01 7.416275599541176378e-02
1.394198622186982039e-01 -9.254891530635264152e-01 1.327689238468111876e-01
-4.931966378499640924e-01 7.438503762830659394e-01 -1.618413716464868132e-02
-1.641496337683936713e-01 8.779303504895237253e-01 -1.197723272673413969e-01
-8.075889842834554910e-01 4.668338586110195166e-04 2.156848457244383843e-01
-9.053238536160581607e-01 4.554188130601249940e-01 4.945047625114248890e-02
-4.117947883478914051e-01 -8.212318703734539094e-01 3.492557856125107496e-01
7.934854769866874769e-01 2.145823313792162290e-01 -1.994927961467279354e-01
-7.127309667914094593e-01 7.281784326147762165e-01 -2.344531063415678657e-02
8.199035519832463814e-01 -6.928916155196578920e-03 -2.121730884340841672e-01
-9.589145308947347734e-01 2.305487892668325878e-01 1.771648773898910900e-01
1.053586862710052391e-01 9.380647201489801246e-01 -3.492345905854726262e-01
3.060154766846568952e-01 -9.291464779014704245e-01 1.526811286003067480e-01
-6.970208374469450963e-01 5.162367921212396293e-01 7.768009364015004969e-02
-7.776068294728704089e-01 -4.772887190577190797e-01 3.503004606374859886e-01
-3.386822061677762785e-01 8.408696812868329262e-01 -2.552577375274353577e-01
-5.783573057125757089e-01 8.400893009326774186e-01 -8.621826716185729267e-02
1.890007898899559446e-01 -8.999730107314654060e-01 1.080699455998238995e-01
-8.155213724069257930e-01 4.670266129352859674e-01 -5.378033755084485334e-02
-6.958015730524109710e-01 7.200953305596339282e-01 -1.082047588270796667e-01
8.583813156032227276e-01 -5.231186723238678837e-01 -1.658044565279119531e-02
2.974768225172676472e-01 7.683142732223530169e-01 -3.525735241481536275e-01
9.073137647821797325e-01 2.610038432406546274e-02 -1.038077200876950379e-01
-9.758277726251245454e-01 2.092015538259947016e-01 1.093878003877012534e-01
-8.663032839995896683e-01 -3.806319308104068044e-01 3.072726004363833807e-01
7.262296602051974137e-01 3.897420407358500594e-01 -2.217667065576060526e-01
-8.224952835478271940e-01 5.461898852581047459e-01 9.186199264370639717e-02
1.980858899900076603e-02 8.406225218011620370e-01 -3.159212897008062404e-01
9.548863931042975706e-01 1.118923097540759221e-01 -1.436210592243393480e-01
-9.384729661322123162e-01 1.128612869883546393e-01 7.139377158051220251e-02
-2.057734654200002733e-01 -9.266701817280784681e-01 2.436802442006477110e-01
-6.638035912994205701e-01 6.396777925632961548e-01 -1.327740352786104250e-01
4.593051233207260386e-01 -6.713915312217033637e-01 7.574005091145191715e-02
9.339122293680650611e-01 -2.498766741820377946e-01 -4.332393068211769921e-02
8.267062676118075437e-01 -1.305735015359615059e-01 -9.851340761240783006e-02
-7.864441635831790345e-01 3.896386814227204010e-01 1.451068096622124548e-01
-6.376667640809383641e-01 -4.297121103038938905e-01 2.815934853845117880e-01
-3.959175252946771639e-01 7.536602280793820441e-01 -8.069813264257857943e-02
-8.728989873631025631e-01 -1.646547045196791736e-01 1.303733585375541348e-01
8.667998827627100278e-01 1.174820467394487311e-01 -3.106900407379398765e-01
-8.475290621737965324e-01 -4.408069854406793109e-01 2.496249823925709432e-01
5.642299474008950488e-01 -7.980059835488592102e-01 3.119026871384276284e-02
8.157122610030345111e-01 -5.043878601135288742e-01 -1.187924949520703238e-01
-9.243644038859052947e-02 -8.979395562165938260e-01 3.337299602867077608e-01
-1.080056508198172921e-01 8.699900001503931835e-01 -3.098218541994071651e-01
8.563791503152775597e-01 2.562964499014352415e-01 -3.443386590511994250e-01
5.651229543912023034e-01 -7.726677708652043286e-01 5.450919433710566843e-03
3.516375551690523737e-01 -7.613860924950526243e-01 6.516239820722030673e-02
-5.365552171608147791e-01 8.661620498982075533e-01 -1.270914194705193567e-01
-2.209227603490612757e-01 -8.138251471880098009e-01 3.604349553834125808e-01
6.432287552678779274e-01 -7.457087014791033974e-01 1.116197948758812092e-01
-4.172775081311773104e-01 -8.481585145152205074e-01 2.829185250512646910e-01
6.305790130528496906e-01 -7.700160274922027703e-01 9.188701280851591102e-02
9.013806889350780560e-01 2.334981166398208408e-01 -3.325511404838549234e-01
-6.191310794021144259e-01 6.691070315114172606e-01 -1.491643278725413579e-01
6.446353368623145563e-01 -7.059984431073390576e-01 1.339140141285594943e-01
4.644996961913667177e-01 -7.874380060244138280e-01 2.068057338921834298e-01
3.245826346994063472e-01 -8.445945454081614789e-01 6.273411721898330962e-02
5.509498105195336226e-01 -6.664171114855831357e-01 1.530426256165194066e-01
4.126630748582306163e-01 8.851667949757853204e-01 -3.386596189671767787e-01
-4.586502677189425170e-01 -7.460875667235484787e-01 1.998355635616965997e-01
-6.301218934418590933e-01 5.572465836888965685e-01 2.509635698770319896e-03
-5.346007959041849666e-01 6.464496170961432364e-01 -7.710796056643298702e-02
-3.995811706253360462e-01 -7.658188945854259577e-01 3.766196162367115852e-01
7.122209181287789681e-01 -4.289034838505468850e-01 -7.436948245765358234e-02
-9.318424231547154379e-01 2.605225752518229854e-01 1.903490154397266820e-01
4.600338476539391208e-01 6.844703902596017686e-01 -2.431248406912287774e-01
-5.769553910423921295e-01 -7.447090648248312350e-01 2.693923898253730020e-01
-8.473042264685830549e-01 4.592541472101455691e-01 1.343998317646301621e-01
8.990218703566453806e-01 -4.547825435470189692e-01 -6.536192079850128289e-02
9.070666545909567002e-01 -3.639193690106556911e-01 -1.578241358448803089e-01
-9.240452311890651194e-01 2.014765719587083559e-01 2.177315005354707456e-01
9.053639597818998741e-01 -3.658761578197610720e-01 -1.578901303847063398e-01
3.693076556729529281e-01 8.051902318428396654e-01 -2.083661294919730289e-01
7.545299812953402130e-01 6.196416984665742422e-01 -3.314211005233555496e-01
-8.069179607855199166e-01 -2.479122360366841846e-02 2.279311167649821224e-01
6.255660372261098168e-01 -6.379174926474764362e-01 -5.343921145985581350e-02
-1.147454077525039279e-01 -8.635470221772163502e-01 3.459564387195647739e-01
-6.667146929729582672e-01 6.373452614442118858e-01 -1.315541406924393697e-01
8.355335782354370577e-01 6.603756185970013903e-02 -2.731715651108609921e-01
-7.127503754161316207e-01 -3.357316355291205534e-01 2.169509760627653661e-01
-1.072464501518912150e-01 8.159340486622146393e-01 -2.216218162635746336e-01
1.264519386484686259e-01 -8.318518836645267811e-01 1.203376489770247720e-01
5.251786850380861793e-01 6.023464542411363087e-01 -3.111694430043141502e-01
8.201219697069647152e-01 1.226338296465584593e-01 -1.712282266507550443e-01
-1.610969538346369856e-01 8.098106323130281892e-01 -2.104892483136544812e-01
7.290717777397950350e-01 3.417774008346557424e-01 -2.602634448439321013e-01
-3.358965991740098800e-01 9.549233874838269909e-01 -1.543115541017761883e-01
9.836470179436060945e-01 -2.063158152704228643e-01 -1.315049742686620615e-01
8.958295512592417964e-01 -1.613234107811743756e-02 -2.807629690864005823e-01
-8.087109522328207456e-01 1.580616078615958153e-01 9.990665252478839187e-02
5.347771436713268933e-01 7.780031041666757297e-01 -3.803918997309642114e-01
9.268569309012647528e-01 -1.258898298661119686e-01 -2.489623802954800402e-01
-4.427089208275991616e-01 8.932835046864104900e-01 -2.004386872147476406e-01
6.231230558874946146e-01 -6.928561150041362415e-01 1.471429455978992273e-01
4.356778339209209094e-01 -6.830119578788027557e-01 9.893859113786483694e-02
7.957536417019940300e-01 2.154923747786222366e-01 -2.992804146204934845e-01
5.536850805394597508e-01 -7.846135100755259328e-01 1.638013434859585116e-01
6.018428317414878936e-01 -7.945489439564278333e-01 7.893739088581024077e-02
7.693295513751418069e-01 3.985286203696778440e-01 -1.913192166205524292e-01
8.275427834038369124e-01 5.323874826696156637e-01 -2.928923469730608242e-01
-9.568125148447627071e-01 -1.812663359791969186e-01 2.246234937623171335e-01
2.165712866666411329e-01 7.935894241202327004e-01 -3.373852708172603854e-01
7.064567855102310556e-01 6.596514855836514979e-01 -2.513803045529235947e-01
7.747201035484727605e-01 6.003910505873666370e-01 -3.183989878674851615e-01
9.173959985454146482e-01 2.045135988946222005e-01 -1.535100339904518496e-01
-5.280827891125615681e-01 -7.457225568850838204e-01 3.578399971009027514e-01
-2.646433903448024427e-01 8.181645684446274824e-01 -2.506783106867898070e-01
7.750761692651713108e-01 -3.048459178673132985e-01 -4.905748104290480471e-02
3.714966280742797444e-01 7.648910703342912676e-01 -3.816239716204224419e-01
7.162992586475157575e-01 -6.981569225464187012e-01 5.426592838624830911e-02
-4.672588188786642727e-01 8.773456725631432196e-01 -1.967147100071452992e-01
7.884246628115157973e-01 -2.525193345338808126e-01 -1.360769535202988878e-01
-5.772360702284160539e-01 6.413758860045669641e-01 6.468968761781796785e-03
2.882870387474090745e-01 -8.429387401755424891e-01 7.116970389969169697e-02
-7.034453568070002383e-02 -7.895798250989757294e-01 1.922584780379547331e-01
9.864208753284352538e-01 -5.618767836645238711e-02 -1.271302973249385515e-01
-7.433418733456590433e-01 -2.722340631564587610e-01 2.956715960648886310e-01
7.461912917710527005e-01 5.966844291218454943e-01 -2.325114947968948131e-01
1.509676613477586860e-01 -7.949586527585499329e-01 1.399032836361411569e-01
-2.584665504896883625e-01 9.495691564530097661e-01 -2.580774911406853445e-01
-2.181460651297544850e-01 8.145205551813231581e-01 -2.454192050831934813e-01
2.502023326191192831e-01 -7.820093349374572789e-01 1.064347161216128018e-01
-1.405260938671522852e-01 8.307102836092123965e-01 -2.713608283525829612e-01
5.931528304408485441e-01 5.756646040667716679e-01 -3.684926802470600560e-01
-9.516319055262021376e-01 2.311738196448097082e-01 1.862157170176501897e-01
-8.665570939289756192e-01 3.953358657438893475e-01 1.591584913083907427e-01
6.573316046306700855e-01 5.420293973454816117e-01 -2.159465165669159081e-01
-6.202093633122941485e-01 5.650615097551962007e-01 -1.485114347621134361e-02
-9.724931930872187102e-01 1.122943474903689287e-01 2.082927902609789661e-01
9.390417555343774647e-02 -9.217923018128049151e-01 1.374988831518294818e-01
4.243785924084378935e-01 7.280547306159707022e-01 -3.812055674346042644e-01
-4.720365841585604794e-01 -7.221434946240097297e-01 3.799459707938126485e-01
-9.294331335547756368e-01 -3.535020282863025193e-02 2.785469206026545685e-01
4.699766001968466722e-01 6.542373080957257780e-01 -2.734577209639948991e-01
-8.761404332994635613e-01 5.133952892354372022e-01 4.878816304016889843e-02
-8.609432322519536274e-02 9.788584208309519807e-01 -1.704229492805157675e-01
8.203591297997440968e-02 8.825397177961411543e-01 -3.540908569134092465e-01
6.294056618426846494e-01 -5.627816487976711191e-01 8.656718677712978149e-02
5.176115031827446256e-01 -6.309810141963960728e-01 5.799959546635875124e-02
5.775736734731220373e-02 -7.938314320525526879e-01 1.727303649722281564e-01
-8.967222070406686285e-01 3.101325817333238088e-01 1.865895257747865466e-01
-2.325919358590418928e-01 8.272804623464827811e-01 -1.195402560202183939e-01
8.102831000024369734e-01 4.779113381375166836e-01 -2.064328266989653160e-01
-7.926811422497567206e-01 -2.196476168072437340e-01 1.640753863442187266e-01
7.065376500131070880e-01 6.450751478700689212e-01 -2.384433099432523850e-01
1.943066512314840788e-01 8.636893653201919152e-01 -1.898932909836414107e-01
-8.143376847570810151e-01 5.258565592255992627e-01 1.090417838333744283e-01
7.424353523898065133e-01 -6.736237248645473574e-01 3.679590299509823831e-02
7.717541061237124245e-01 -3.248550922743431713e-01 -1.307729211317603391e-01
5.085592660962999778e-01 6.739197563051683160e-01 -2.275404559388469472e-01
-3.612568548218607623e-01 -6.977400777448894420e-01 2.243215905024553425e-01
-6.267142004714866266e-01 7.550415533693042303e-01 8.225866586891672494e-03
9.948152863299431978e-03 -9.327845248067694328e-01 2.993517756233739502e-01
8.567640064600171579e-01 4.653292529470289263e-01 -3.241259180062916467e-01
9.954257937330892592e-01 4.385998224272173729e-02 -2.222350029625911605e-01
-3.507708141622118414e-01 -7.518890646010437662e-01 3.716226486915129024e-01
8.159028356954178829e-01 2.580902495432170207e-01 -3.362336053392231960e-01
6.915840478557645499e-01 -6.034033373712486270e-01 1.134876955729593462e-01
5.270641241231382307e-02 -7.804056438898613335e-01 2.150106273000333967e-01
5.406314875978494028e-01 -6.125416337948532686e-01 5.452502055252000934e-02
5.472677229233003926e-01 7.516281868081009510e-01 -2.235398053926341277e-01
-1.669173129958782253e-01 -7.653815190102560839e-01 2.146469296807227145e-01
1.291988943920901189e-01 -8.253848285579308275e-01 2.885651593697274309e-01
-2.270467076996659020e-02 9.930250643365902130e-01 -2.811024406291294797e-01
2.350874487324493278e-01 7.794717249383045221e-01 -3.261564607551489803e-01
5.847255574967766822e-01 -6.821394737735122504e-01 1.575111397167916205e-01
8.822753919014348911e-01 -4.594624273095548328e-01 -7.758570183446200294e-03
-7.101485856286368081e-01 6.773616867493725824e-01 4.432849069773275863e-02
-3.619634409104562772e-02 -9.586730499725443222e-01 2.429030335246394334e-01
8.578314103876686844e-03 8.288696354771704078e-01 -2.043744993074369798e-01
9.919898462632094072e-01 9.332818651027531553e-02 -2.248861248392455825e-01
-9.421305034704804404e-01 3.606196791803434332e-01 7.989778380581542827e-02
2.395540758578384721e-01 -8.375547895960584466e-01 2.715327936778607620e-01
-4.400995893949185556e-01 7.483210836902457475e-01 -1.930841950252900063e-01
6.702200626404036798e-01 -4.835333223663159097e-01 1.423910500644849642e-02
4.864511188030732902e-01 6.413185705196807751e-01 -2.746082361959654161e-01
-6.014701894967638962e-02 -8.353966481638750441e-01 1.574556337051224719e-01
-9.714900481851337366e-01 -9.233092717294831553e-02 2.322418084282234785e-01
5.042461169219530914e-01 7.861303020849909062e-01 -2.244679169401556929e-01
-6.120103885021119794e-01 7.002610234675322731e-01 3.285100476412706333e-02
7.583458242646110570e-01 -5.391394084123779518e-01 -1.089611297408977497e-01
-8.030842771421017323e-01 -2.003162664340900623e-01 3.120454361178275349e-01
-3.524307322716715984e-01 -8.625790471558004713e-01 2.301790594666684731e-01
8.799515705934096710e-01 1.887788050040767607e-01 -1.436798068989670885e-01
9.969261428411353432e-01 -6.683902837386068718e-02 -1.973266607460607835e-01
7.293070744455972809e-01 4.244290991716635486e-01 -2.075279528512142535e-01
4.609165719646139414e-01 7.903911674714059199e-01 -2.156800472990196837e-01
-8.428598665641108267e-01 -3.351397408607587058e-01 1.691748106710391775e-01
-6.814181995635486266e-02 -7.718054999037289310e-01 2.362496308366213993e-01
-5.519764840419097984e-01 -5.311131092540078980e-01 3.080986854481085335e-01
1.971552428163697024e-01 9.377678697927447349e-01 -2.071760721394178550e-01
8.133528843395885222e-01 -5.291540629341284774e-01 -1.038869307685625076e-01
-7.324870033241875911e-01 -2.703078637836942577e-01 2.434234825625258836e-01
-7.697380543337160042e-01 6.313892457503958999e-01 5.411427366661946542e-02
-6.601737392829359896e-01 -4.821892894149667486e-01 1.987403204394872780e-01
-9.337070037709088721e-01 3.784407101009955032e-01 1.035291896340293644e-01
-7.470006946578648943e-01 4.777363277229961236e-01 -6.081272847354556726e-02
-5.000187370537018117e-01 -7.653086450561186194e-01 3.568377682888495550e-01
1.283682315077807057e-01 -8.458040564204110101e-01 1.152366065621486524e-01
-8.287281004298134857e-01 -3.867211063314228703e-01 1.823075474133464269e-01
8.057243869170648276e-01 -2.841517447453331680e-01 -2.832575781878466162e-02
6.800422931447246411e-01 -7.312173152443303126e-01 2.721711553433573544e-02
-4.111535958476184582e-01 -6.595688868136313499e-01 3.397630305870125156e-01
-5.758950482163093243e-01 -7.468207351483914236e-01 2.745288898206043049e-01
8.761048363173795650e-01 -2.787530378546882598e-02 -9.550377174697206872e-02
9.911358042022673231e-01 -4.902040991061377279e-02 -1.375426068833364435e-01
9.274095405428520733e-01 3.226163115566687001e-01 -2.207856314626351901e-01
9.885877142190426792e-01 5.851467376816814336e-02 -2.429103525289197651e-01
8.349734823132076711e-01 4.396486444181815223e-01 -3.573056856185689578e-01
-8.987421377223263619e-01 -8.531800995715028979e-02 1.128169141059905817e-01
3.468039679763815775e-01 8.528109371580413489e-01 -2.085546328041383290e-01
-9.481205807468974511e-02 -8.551196391931428220e-01 3.433822733641357927e-01
-6.250369939829890642e-01 -4.647679331107761325e-01 2.363464245962549892e-01
2.115972109166919246e-01 7.826380042933179793e-01 -3.111767608022348308e-01
8.548957915492831905e-01 -8.023011055291098814e-02 -2.463485364859512861e-01
9.864375565842696536e-02 9.766032407719283936e-01 -3.141301738853881087e-01
-5.427623062059390158e-01 6.763778907007272911e-01 -1.469161567174985250e-01
1.829536278342809019e-01 9.276141474611077076e-01 -1.966145357093453949e-01
-3.148161441736221922e-01 9.628110189454978096e-01 -1.851481305836847613e-01
-8.031875921791477024e-01 1.345177660805594866e-01 1.418860248125282664e-01
1.845439405090467666e-01 -9.300336282704310120e-01 1.320411548319693207e-01
-2.103058897827338181e-01 -8.058570213592740616e-01 3.570157765694554897e-01
-3.763465736422613728e-01 -7.874137579451092606e-01 3.734983471620011430e-01
-7.744098222073264592e-01 -4.034121130494140450e-01 1.749748001140411513e-01
6.913596930961553033e-01 -6.954150206844990079e-01 1.000143185446944333e-01
-9.866467233560212158e-01 1.308415242519233301e-01 1.521933405786478621e-01
-2.697140603609940457e-01 8.611974988984796298e-01 -8.971824705482406292e-02
-5.712139387347767716e-01 6.145291530938442603e-01 -4.784531383456696457e-02
-6.271927698833599241e-01 -6.052171134697937882e-01 1.976199689762587752e-01
5.270144344369596112e-01 6.026189548584011124e-01 -3.225267991687167379e-01
-5.360262153616266456e-01 7.779564225294290924e-01 -1.933091830598591965e-01
8.149944069873102936e-01 -2.102696087821919468e-01 -6.725986480851355032e-02
8.211962498819700418e-01 5.568751517927211098e-02 -2.463886424762976868e-01
-8.440202367349353141e-01 -2.190121234872161871e-01 3.283334909540388535e-01
-3.537663929687421827e-01 -6.924035030808303182e-01 3.360080758774762755e-01
-8.059064936907028853e-01 3.302889943345794777e-01 1.644737255334655923e-01
-1.350862119275270667e-01 -8.780808496922772877e-01 1.677514772452290970e-01
-9.153609925157933924e-01 3.065683557631017075e-01 1.984555312697987295e-02
8.995161703304402900e-01 3.389283895275367331e-01 -3.289571802383060017e-01
9.950934249354982386e-01 1.453944258556097609e-02 -1.652877548075326053e-01
7.721949418380471553e-01 5.362938491896017679e-01 -3.704902977244672324e-01
-6.309119157476086315e-01 -6.987174182396967970e-01 2.633021608067845909e-01
9.558496298939652691e-01 -2.290437760708639858e-02 -1.040264906998863564e-01
-8.445128667040607828e-01 -6.904721094112563351e-02 1.202166396581476338e-01
9.615278626177434784e-01 -9.600291442645562945e-02 -2.418584744266051023e-01
-5.419578166088896004e-02 9.720737550824004591e-01 -3.051561712344020849e-01
7.917164779011668374e-01 -4.056273140751242012e-01 -1.511233599389895932e-01
-1.539187389383468996e-01 9.947062703626566860e-01 -2.090647401744814282e-01
-8.689338640651053103e-01 -4.050520706463046627e-01 2.538170331612004671e-01
3.381613937153730709e-01 -7.302795092638809660e-01 1.610766088518544858e-01
-9.751185345771194724e-02 8.773634117888574613e-01 -3.150696801695674898e-01
9.590586743295790306e-01 -2.291060887476521479e-01 -1.885207926720433302e-01
8.035902526826760317e-01 5.336315557055233416e-01 -2.341794567932282412e-01
5.629673536959902691e-01 -5.946844849210490835e-01 3.623641311089260963e-02
-2.087027434082892319e-01 8.057364513505180792e-01 -1.667206650424411796e-01
-3.431931806258855522e-01 7.665264792802857219e-01 -1.181780042931907804e-01
-5.076907513671771177e-01 8.006808054288874210e-01 -1.645338358332017192e-02
-8.741635918070539413e-02 -7.776942088433245193e-01 2.933091227038747140e-01
