6.547105813815577990e-01 -4.002166379156663761e-02 -3.176413022621459858e-01
-1.872206620513232611e-01 2.098920818800493471e-01 -1.763206260189491004e-01
8.320842457195070097e-01 5.789965409912986583e-02 -1.125344082868398460e-01
1.348765568540746529e-01 -6.605575900790314758e-01 -7.480386645800811696e-01
8.858892914721585576e-01 -2.764884104052113822e-01 -2.218685966428824985e-01
2.098961371734060499e-01 -4.239811716391331253e-02 6.264722161241064180e-01
-1.740835616292099597e-01 -3.459418262539005751e-01 -8.377406547385242153e-01
-7.603040716186731940e-01 4.818779149873920198e-01 -3.024458082816707805e-01
4.026298374411238501e-01 -1.292271912837559544e-01 -4.889559720768096307e-01
-1.000000000000000000e+00 9.731237013529310531e-02 -1.280018053484727747e-01
2.995422811389886197e-01 -1.806562568814402969e-01 -5.900876325474929684e-01
-6.229424513063419599e-01 -2.108566090460343712e-01 1.118525451534188725e-01
-4.092307857365525686e-02 4.168700968498607190e-02 5.081657423961282172e-01
2.399673057614137295e-01 -1.612199145093440866e-01 4.924287755274492362e-01
2.527481571973818619e-01 -7.401945315102103073e-01 3.233228692492031570e-02
-1.454024165675262825e-01 5.097891014464114162e-02 -3.031829936736820108e-01
8.596476016566029221e-02 -3.319033799506053706e-01 -7.837662549284865054e-01
-2.736685813840020742e-01 -5.225458810970908669e-02 4.963958770675514637e-02
-2.155961660288837067e-01 -8.336201618689944581e-01 -3.953625940105476300e-01
-5.138180056638972371e-01 -2.482358537589804404e-01 8.008556779763031930e-02
4.596852825542558363e-01 -2.390892763951710936e-02 -3.350122673153271835e-01
-8.996864555433168320e-01 -1.072809916400602193e-01 -4.944793933389973750e-01
4.834435698079224131e-01 3.028634652291333773e-01 7.856896259649265302e-01
8.813616898932954968e-02 -7.228840012650332436e-02 -4.545983806802728622e-01
-6.758072312112468616e-01 6.567525824408914081e-01 -1.058819917389345888e-01
-2.276518765656218857e-01 -9.973655290473217028e-02 -3.628021500612972627e-02
-6.159319783694813255e-01 2.363084418246186591e-01 5.014200280085793215e-01
-5.516913421596186806e-02 -1.364016091288756671e-01 -1.556314682753280332e-01
7.868850491050423113e-01 -6.095436944930431311e-01 3.871563594015818566e-02
3.817712285904927005e-02 -4.146096000540057669e-01 -8.151052022683074050e-01
2.488873841560554634e-01 7.714241071269851702e-01 5.577423145147046846e-01
1.405852149473870161e-01 -9.316136423562881852e-02 -1.963436086379893863e-01
7.612227345902051745e-01 1.287892239775760561e-02 6.166411564375182675e-01
-2.423004563143472123e-01 1.235377295853252316e-01 -5.019153127362462330e-01
5.193873340414177919e-01 -7.835227325203966697e-02 -3.988683749236406895e-01
3.288626974198229913e-01 2.680548300442331389e-01 8.190007551863943691e-01
1.237415542435720966e-01 -8.139293255405022354e-02 -2.813160094442894721e-01
-7.534883158307961182e-01 -4.656368442081437187e-01 -4.879283050827011858e-01
-7.398967244827172607e-01 -4.340145408270926208e-01 -5.658568192701137756e-01
-4.491374405774222200e-01 6.152464992144572875e-01 -2.077895783026601773e-01
-4.129812246782529339e-01 5.540306887305160993e-02 3.990746647909164113e-01
7.671447137223909307e-02 -7.865863960244801056e-02 -3.039725710118652557e-01
-2.955873529670867139e-01 -3.836769870884331191e-01 -1.710552490907068027e-02
-8.944341312618357964e-01 2.931134056913807240e-01 2.381071409764866920e-01
-7.688060644193102089e-01 -3.743705196226854715e-01 -5.767752399085258608e-01
-1.170629216969189673e-01 2.289809314241928948e-02 -3.331904755930106266e-01
-3.936923251230937670e-01 -5.954466383858644241e-01 -1.164407621558271461e-01
9.077188549763033631e-02 3.982228128311072757e-01 6.363034091847888721e-03
-3.828623457040030154e-01 -6.988012573066629818e-01 -6.477042017113691097e-01
-6.214643917062138145e-01 5.190552701694326476e-01 5.361313627101885748e-01
5.082779002407763341e-02 1.765088948796832979e-01 9.120156053232000848e-02
4.844269658849927329e-01 2.465856287048183437e-01 -7.667505359478686555e-02
-1.637258904523626601e-01 3.504808038809401061e-01 -1.392037580738532954e-01
7.735830028450977336e-01 -6.439107737962244116e-01 -8.440802978684783242e-02
6.850480573246194027e-02 -2.326855013936351413e-01 -7.387226055237000599e-01
-7.039270660661975376e-02 -3.380005552562802551e-01 -2.545776333271817723e-02
1.415594789307616230e-01 -8.855841326993219020e-01 -2.785910730771363197e-01
-5.826279257546890245e-01 7.316988071351667733e-01 3.998459574903157621e-01
3.254411101364337866e-01 7.454735597093711807e-02 -1.169735551370173765e-01
-1.717094931193376972e-01 3.888211584233805529e-02 -1.681238757014807128e-01
-1.480417589052596683e-01 -1.681545082173618311e-01 -8.809299657540435591e-02
3.322884790399546207e-01 7.570875806083655624e-01 4.828412460680374663e-01
2.503922330384738548e-01 6.154256356671913286e-01 9.337693220710498176e-02
2.341878834999309156e-01 4.947496236849920903e-01 3.473520271966970552e-02
-5.163933152296696916e-01 -4.216763098107012553e-01 -2.931877127997679564e-02
1.228536001696547419e-01 5.557693219590360556e-01 2.824980485569069180e-02
5.107877356320630335e-01 2.647031443338632162e-01 -6.759668985666060503e-02
1.418358946861824343e-01 -2.909044911023953017e-01 1.193456706880272888e-01
-6.226938394506598834e-02 -1.686691507273396784e-01 -1.233737731527549814e-01
5.223873393154022660e-01 3.157793972462891730e-01 7.687110742196716640e-01
5.652459798522578849e-01 5.633223383307198739e-01 5.962785342661878207e-01
1.120496410145386812e-01 -5.859655982582229194e-01 7.096820972159550989e-02
-2.469544678402611770e-02 7.100155697963895784e-01 5.236924273190939755e-02
5.489101530840209166e-03 1.143280038549951069e-02 4.105521465233802902e-01
6.354821598895399326e-01 5.627482632847969901e-01 4.342895238994030072e-01
-2.582068455965688125e-01 -9.255066031660451331e-02 2.714748289654924946e-03
4.566251314544638729e-01 3.629974272569247429e-01 -6.822720837996515929e-03
-3.938246456851138833e-01 8.471920089442395163e-01 2.612015877072334513e-01
-2.537437171136636693e-01 8.690230745090951059e-01 2.968143964011796254e-01
-4.880771196900038356e-01 4.894368595810684730e-01 6.391972900166703608e-01
-4.192961685709039599e-01 7.848927120820490266e-01 3.035149270515407130e-02
7.941576355868521508e-01 -3.962487055955040693e-01 3.600962639246079178e-01
-9.645622417008751226e-01 -2.514370905406494022e-02 -4.750104910170273309e-02
1.782517736441758746e-02 -9.901370140440916845e-02 -2.318000413299393103e-01
-2.173516002693397786e-01 -2.657097145120393758e-02 -4.037220448167023329e-02
-9.791080927228679176e-01 3.566554849112489600e-02 -4.098208681914559948e-02
-4.966995344520407918e-01 -5.149359109321226952e-02 -7.487214987181898262e-01
1.306430050789025576e-01 -2.691452203158542500e-01 9.115660429912612883e-02
1.612001397584711393e-01 -1.993840372794281057e-01 1.495495186481367866e-01
8.018584560104012882e-01 2.898995578621768043e-01 9.704398784657315702e-02
-2.039635510059994161e-01 5.162306867497608309e-02 2.935984968428938524e-01
-8.711005909495661559e-02 -8.357345564312758102e-01 -5.707191904065330723e-01
8.766923785993817608e-01 -3.477088328557954022e-01 -2.372540959966760732e-01
-3.190854746087292138e-01 -4.433834884359038053e-01 -2.921188998883882115e-02
5.060097618890130322e-01 6.647065883772138584e-01 4.167260195778161869e-01
5.399683458477405607e-01 -3.394774730363181448e-02 -3.451143110342359543e-01
2.211259345304290025e-01 -1.463469582096411647e-01 4.871237597389170837e-01
-1.821821056012751239e-01 1.117976403354436904e-01 -1.686732649229760461e-01
-8.731200004669399384e-01 -2.179984448266248098e-01 -5.048859123761589851e-01
6.742849988235590786e-01 -4.036551930289511425e-01 -4.938554087952607419e-01
6.613098432816542915e-02 -1.813462055998565914e-01 -8.397587335657703822e-02
-9.261610743734061124e-01 -1.611022420996539306e-01 -4.142381556154934863e-01
1.590092229143482971e-01 9.932161427364782913e-02 7.428380288978272961e-02
8.597874756464811696e-01 -5.647911630537897493e-02 -1.683085878404590174e-01
7.480514357195582331e-01 2.524510087189364982e-01 -5.607187766849952050e-03
4.990222894260668562e-01 2.357240220558884103e-01 7.812949972700639067e-01
8.014393638309372792e-01 -6.056831745741776407e-01 -3.018675200118080271e-03
7.318014729708374189e-01 -3.820606867891156999e-01 -4.367131917412270248e-01
-1.653034764495575071e-01 6.501968153032876285e-02 -4.691418876273698024e-01
-6.547776339167366011e-02 -2.752175956042160476e-02 -3.145477322418646637e-01
-4.962828841821302350e-01 -5.860359110422491691e-01 -6.907530138014699173e-01
4.656362356652109513e-01 -2.443276385125957018e-01 5.635233133985818599e-01
8.695801223537521496e-01 2.086762662773614385e-01 4.490313654365490903e-01
2.501443823774428532e-01 -1.935439922878290711e-02 6.740111240895436673e-01
-1.829962242222479551e-01 1.253405852489290762e-01 -1.621122423895544340e-01
8.153813197376844069e-02 -9.989627097406122980e-02 -2.287653113964773222e-01
1.847940503472541391e-03 1.990812615750933989e-01 7.530112754616685722e-01
5.195817349676513930e-02 8.234908369520996252e-02 6.728311854225664801e-01
1.345686091056326472e-01 5.347344049970185337e-02 1.199553426237935511e-01
6.546857152871833618e-02 -4.051446397500993446e-01 5.944314725109708930e-02
-3.003626459641069446e-01 -2.176573410167618461e-01 9.113901631962486455e-03
3.174431253402130171e-01 -4.512082025490263826e-01 -7.262759315585352038e-01
-1.084063472912667053e-01 7.439610043671285311e-01 4.754234240514657039e-02
-2.348495052602748989e-02 2.960522451943240485e-01 3.051402654661463428e-03
2.636371960795020342e-01 6.259812476486243948e-01 7.420146630619290917e-01
6.962659030090050105e-02 -5.818999924975203353e-01 -7.936071321814228696e-01
7.608636295486249645e-01 4.299036871251188385e-01 2.977234408766311624e-01
7.999295248472841277e-03 4.638024449112834735e-02 5.843117297859622417e-01
6.117772403289462035e-01 -4.051995389865339914e-02 -3.345956737216021493e-01
-3.071399912824432921e-01 -7.077760836675879297e-01 -6.834750592357884402e-01
3.648380094659265938e-01 -2.289149831350026885e-03 -2.661096056127707499e-01
-7.585851324553489761e-01 -1.391001871668064438e-01 1.278147845610803079e-01
1.883274272361774582e-01 -7.157093710408363174e-01 3.092395058127365634e-02
4.329160207745590405e-01 7.044822254033874520e-01 4.844803089671309015e-01
3.313728555183121927e-01 -3.419657563565413616e-01 3.967432572119267142e-01
-1.494060701069793995e-01 1.372406578552332890e-01 6.282855394613117150e-01
-1.161186857174523329e-01 9.600424682204146409e-02 5.813127952179583113e-01
-3.948496761169822955e-01 2.420422666381219223e-01 -5.176341800553428962e-01
-2.353295736291201035e-01 -8.206060534884702662e-01 -5.032736805998825336e-01
9.076490845559541665e-01 -4.352418362669620566e-01 9.555375944675659206e-02
-4.401893952847563685e-01 -1.116977707551694288e-01 1.622972238896165098e-01
-3.339708073753420159e-01 5.436729950068902584e-01 7.123439798325832406e-01
9.518672111090930033e-01 -2.556954033433539997e-01 2.226955383499613916e-01
-6.399121640030044356e-01 -1.360819077997299786e-01 -7.321148110256235908e-01
-4.308895024009853358e-01 -1.013934062112897133e-01 1.676169222812264881e-01
6.713838490563639461e-01 5.279936817088405343e-01 3.351181591241809699e-01
-2.680507668602027938e-01 -6.089850956285832728e-01 -8.592833238299404930e-02
9.589205543085904671e-02 -8.400547932828541509e-01 -5.774459052554354876e-01
3.496779746456193938e-01 -3.839032790277374096e-01 3.763366850941958219e-01
-1.647993534415678751e-01 2.500184232508791127e-02 -1.789084523660678105e-01
5.689066681581013418e-02 -8.089580628186977540e-01 -1.248449205021800734e-01
-7.525263912734657668e-01 6.449309023493114967e-01 -2.213334050508157166e-02
-2.929187436933315958e-01 -7.336600871194890461e-01 -2.061837687079534076e-01
-8.689718490317640542e-01 -3.160174731822797400e-01 -4.107683225126400606e-01
-7.169076932225173504e-01 6.937758182182159894e-01 9.618066394015109544e-02
-5.013734033342700513e-01 -6.787978115814466973e-01 -5.496301552885399788e-01
9.722317239814225465e-01 -9.038996656470245361e-02 2.324392659868477207e-01
-7.713900786567999823e-01 -4.295475801076962807e-01 -5.093024229503081424e-01
-2.540831535749424330e-01 3.816086502314170459e-01 -2.478355036633609620e-01
-1.977141844303845486e-01 8.723623192189861042e-01 3.142135189652296434e-01
6.065089255123143896e-01 -4.580527386851993704e-02 -3.413922472148293030e-01
1.035085427757087839e-01 -3.957525674763311824e-02 2.838333166033149557e-01
-2.175432407847001093e-01 4.025703726143503580e-01 -1.963133220148940428e-01
4.232507640306343993e-02 -7.265162737934621751e-02 -5.293795733090990163e-01
-2.733236448526721873e-01 -5.529425169148775021e-01 -6.047855090885964624e-02
1.256407451015375751e-02 1.104276733037346143e-02 4.740839349081178988e-01
-1.816740736027706304e-01 -5.032079342229769381e-01 -8.318351710219550332e-01
1.317413501123740338e-01 2.965477692554661648e-01 2.661101067365365808e-02
-8.863431729775920424e-04 -8.432038736831074521e-01 -5.733601214517716205e-01
-8.170235998232440178e-01 3.987634835985093273e-02 -5.786649548633598927e-01
-4.327551150068459918e-01 7.592438796727309924e-01 -1.747048935205652159e-02
1.589508111389782152e-01 -6.008628606209965445e-02 1.265067576597005972e-01
-5.742553551005802337e-01 -4.653290529860730773e-01 -7.795325358245487612e-02
9.293452905367015349e-02 -4.086284878266076559e-01 8.224600421787932325e-02
3.890289291901361524e-01 -1.213311171235738201e-01 -4.816889301157140091e-01
3.158778458418743385e-01 1.710211943365392839e-01 -4.910877664109719598e-02
-5.249812361127010885e-01 7.247657094964997659e-01 -6.312911154139859427e-02
1.393721808350687208e-01 -6.778290180673532395e-02 2.119006760605984530e-01
-2.751595442978355122e-01 4.786954414283033366e-01 -2.202743194728830345e-01
-4.326560941577760055e-01 -4.383322918273448443e-01 -3.016530465099676733e-02
-1.319881412830952450e-01 4.579558274172843557e-01 7.914175031866010901e-01
-7.317168161830880369e-01 -1.385636916340678704e-01 1.428324735265986967e-01
8.171022006337036458e-01 -3.082476606756568427e-01 -3.303587520083023366e-01
2.311680926692683546e-01 8.027280199791874127e-01 4.024390452190969025e-01
5.438160811470523770e-01 -7.367565272226302975e-01 -4.535389096627390204e-01
-2.534085379609204436e-01 4.419217272129143947e-01 -2.189986839515634665e-01
9.439078302056438385e-01 3.297086303985619082e-02 3.379227463578375334e-01
6.568737102091110058e-01 4.599820333528392147e-01 6.002832410120363393e-01
6.348558744604774207e-01 4.009598984079038725e-02 -2.511727884057807225e-01
-1.970318244913230599e-01 -9.074017157249361296e-03 -8.178424015173790806e-02
7.640906450682992679e-01 -3.095553294223963303e-01 -3.927733120381123322e-01
-8.643469142410564743e-02 -6.613220592072767134e-01 -5.335653119613670281e-02
-3.864310572956903833e-01 -1.525988678614471628e-01 9.302772973303474746e-02
6.519569552223496434e-01 -4.733121145142835662e-01 -5.118609936515620129e-01
-4.765724408956653613e-01 8.173146730821915229e-01 3.228762786139139918e-01
-5.341221266434710291e-01 5.493939454698585356e-01 -2.916985730411101319e-01
-2.013349084325513350e-01 6.690727954344512229e-02 4.375255863833619197e-01
2.134454487350077312e-01 -1.462023823563941283e-01 4.740011134003145332e-01
-2.467021149482048759e-02 3.640878027946207740e-01 -2.386809169192092780e-02
6.926515625478215643e-01 -1.468221238410666041e-01 -3.803660118151474534e-01
-3.082901590489914856e-01 -4.570515047908607631e-02 1.142929722315224605e-01
-1.772136867040028929e-01 2.375674571307358485e-01 7.119948939257747522e-01
2.519200546403984609e-01 -1.354735357634653248e-01 -5.452797040606744972e-01
-1.170526936052658645e-01 8.709463346881172185e-01 3.226575515760339852e-01
-4.999161557003384271e-01 5.370118801661739605e-01 -2.988956329459813710e-01
-3.754260856300094262e-02 2.600667396230637030e-01 1.656521413519005184e-02
-3.097393292426671163e-01 3.457842665599427656e-01 7.121236701246562717e-01
-1.270868904579006142e-01 9.372576640226505662e-02 1.676662616093004265e-01
-3.040709477446139619e-01 6.827072675639737076e-01 6.650584283263917262e-01
4.188516676509552172e-01 1.417323199422604874e-01 -1.281236192559699616e-01
-7.288009795395179735e-02 -3.639132714937414192e-01 -8.291336033426084384e-01
-3.915867358855278351e-04 -1.105857338021671160e-01 -2.063172193845437818e-01
1.394269218433876467e-01 -2.600769307242588591e-01 -7.298523266696167466e-01
-4.244188908511042357e-01 -5.634434967311031661e-01 -1.029735417722055374e-01
1.487215877790790952e-01 4.663865465535466104e-01 1.634202227940429256e-02
2.344999670436843930e-01 4.532142642436126634e-01 2.443714622441304357e-02
-3.330757503528131852e-02 5.520512651335556659e-02 5.612528642453755712e-01
-2.486499210213176936e-01 -3.139928252264365810e-02 -7.014254788196295776e-01
-3.889652161866027913e-01 -1.613187436335304925e-01 8.879097832078806929e-02
-1.159668710205531417e-01 7.682588576401249390e-03 -2.882822777794656344e-01
-2.160068583619336596e-02 -2.862587964906166960e-01 -3.684877845380303552e-02
1.532085747024405364e-01 -6.412796630497201722e-01 6.780270729108628380e-02
1.493236276417309882e-01 -1.201757240886172362e-01 -6.214392616144721881e-02
2.414996311437227483e-01 -6.005672013503153828e-01 1.429878949238191366e-01
-8.548661135528695665e-01 -1.164634268933187507e-02 -5.539557023748300502e-01
-8.448990758569692172e-01 5.514725154467644552e-01 1.647531309761950113e-01
4.690463910189923702e-01 -1.282094378497536102e-01 -4.686790077227581675e-01
-5.535078870906550152e-01 6.093830878687268582e-01 -2.250567340176851949e-01
-1.317744212876739429e-01 5.412360643385905751e-02 3.533616822829427351e-01
-4.486078400777736563e-01 -1.909479324975434933e-01 -7.995362659087691393e-01
-8.435388520892865838e-01 -2.693703960111147877e-01 -5.295819798713833348e-01
1.923320797930488379e-01 -2.399940118015323198e-01 2.533031653888357382e-01
3.700888325583784888e-01 1.715224853897795165e-01 -8.192083590485459144e-02
-2.852627699592423238e-01 -4.760244790621040445e-01 -3.668656489278585009e-02
-4.684705319342228891e-01 3.271534893727602866e-01 6.291232768461666458e-01
3.757644595465546300e-01 7.370419720177528999e-01 4.762203251734409282e-01
9.483474671784476451e-01 -1.716225941578539138e-01 2.996687467866357979e-01
-4.539816077287501805e-01 -2.444915818626390291e-01 6.849955796154535981e-02
7.036162923919798695e-01 -4.586833298005215664e-01 3.613470910188206209e-01
4.606498225950278469e-01 -4.423858162187856990e-01 3.901393133126350166e-01
4.976276406538084895e-01 5.080763855101676496e-01 7.111651283185418393e-01
1.578766949543057851e-01 1.262062933453017011e-01 7.549462082329126966e-01
6.731785775473172473e-01 7.874367942256010888e-02 -2.037978355315420986e-01
1.249466178726843651e-01 -6.819195261255455165e-01 2.795245622469073876e-02
6.293750688766729107e-02 -7.118292915382657959e-01 -2.192045459453810172e-02
-4.253849118547456398e-01 4.948513121934733916e-01 -3.116947054018761043e-01
3.044902577607705996e-01 -5.700117939542767020e-01 2.020997178150688300e-01
-5.299486051770784245e-01 3.298174844220557733e-01 -4.951693369324440819e-01
8.047049039008690174e-01 -5.927515729058642213e-01 3.671149928569299170e-02
7.365169168403488120e-01 3.364800751136732271e-01 5.961149036791431044e-01
-9.775094225670140080e-01 2.757122334369177530e-01 4.953198339671774884e-03
-1.958959165712421957e-01 -8.010606106078634880e-01 -2.501183362338392779e-01
-7.387857065455383232e-02 -6.441417692846479470e-02 -2.300656010074038915e-01
-8.510703640549351912e-01 4.942488373372145305e-01 2.398154344635700375e-01
3.128279282726879607e-01 4.159760285393120094e-02 -1.397204780306307292e-01
5.961338788618907314e-01 -2.190859296284594637e-01 5.871934756246682818e-01
-4.113329687801238199e-01 -6.390738529629791387e-01 -1.630666339611122062e-01
4.458579398413310413e-01 -2.543277202061394737e-01 -5.916794903578381781e-01
-4.269745967514076979e-01 2.674901866022265651e-01 -5.129293668464308675e-01
-5.882735355990489357e-01 -2.002352166350099549e-01 1.227027627177973701e-01
1.606980361871430119e-01 -1.336695966203384767e-01 1.124438420821068790e-01
-5.773316197298090646e-01 -1.029841751251340254e-01 -7.493157400347407737e-01
4.167471746555053702e-01 1.083755477012287305e-01 -1.554295289473391073e-01
-4.537143177346461553e-01 5.181578423747954520e-01 6.559049755662941239e-01
-2.655501185213725579e-01 1.602061816938167571e-01 -4.803064830148088826e-01
2.963940457502895476e-01 -2.205458954091577273e-01 -6.326593005118605895e-01
-9.141527906086055477e-01 2.066374206968122351e-01 -3.918004487072936914e-01
1.163479861507749208e-01 -9.748121686305497025e-02 -2.132927501294921702e-01
-5.284065357198881596e-01 5.523105185184525867e-01 5.995843177268407320e-01
7.441206785441532023e-01 3.442943772363017407e-01 5.804677633011382509e-01
4.082386184924483574e-01 -5.108208850636358073e-02 -3.703098811233199172e-01
8.118849742726380603e-01 -6.009201244851449797e-01 -9.993430252690306548e-02
-1.904055058912167142e-01 6.453653934585472374e-02 1.617482580116992863e-01
-7.170099725299335924e-01 6.781699429663756717e-01 8.545978976186589110e-03
-3.437687987129479095e-01 9.346967575265412859e-03 -7.026547131471586605e-01
-4.858458510265601937e-01 3.201890088245332167e-01 -4.918213605574976999e-01
3.204378269030286330e-01 -2.505620926796612302e-01 4.767120455944635071e-01
9.670988353958424877e-02 -1.249115057262951967e-01 -1.545332327473414313e-01
2.458804144341514564e-01 -2.027925173462230210e-02 -1.338110423174643238e-01
-1.719863314356993300e-01 1.135277058424893071e-01 5.793632090254897671e-01
2.021914292539489233e-01 -7.367674527069602297e-02 -3.753227785289627860e-01
-8.952802700338693409e-01 -2.686055803647174889e-01 -2.077682012990075822e-01
-1.040869662633643195e-01 8.784798380203122370e-02 2.004410845741023128e-01
1.847421819593571546e-01 2.341497955731257699e-02 5.468637669455785749e-02
5.132846056289976922e-01 3.409228256819737957e-02 -2.682198388909057263e-01
-2.294031559801205378e-01 3.775352207042638464e-02 1.342973444304352282e-01
-1.766495203816580151e-01 3.769302419579751429e-01 7.708008700412716241e-01
1.426524298957944185e-02 -3.395612992739547309e-01 5.563998564381317409e-03
-2.269633561385732134e-01 -5.123891845693540059e-01 -3.924925132579302339e-02
-2.147969160493414242e-01 -7.250505457703368406e-02 -5.174521203636257144e-02
-5.049160496322641078e-01 -4.488505735284737536e-02 -7.450380137629240007e-01
-6.555219416811347566e-01 5.119891807071441647e-01 5.072187699464589805e-01
-8.591680765825165933e-01 4.355880807268968091e-01 2.676118808533295979e-01
9.707686217912335491e-02 8.374637363112238386e-01 4.693587750225138300e-01
-1.378334763597834425e-02 2.740304588164876182e-02 4.957488834499449437e-01
1.112271784487889048e-01 -1.728068376724830046e-01 -4.100963506639794531e-02
-4.384966308585146882e-02 2.598295616865921587e-01 1.326493178453797168e-02
-6.568208728068426483e-01 -5.844579674297942784e-01 -4.034339098870793894e-01
-8.009669582614610261e-01 7.598432930162721255e-02 2.701540242019254134e-01
-5.506667778200220464e-01 5.006707369957590602e-03 3.259363602227893231e-01
5.204841561816929696e-01 -8.173364623873915491e-01 -2.330493049019005669e-01
-1.470324645698904142e-01 8.709088537910995020e-01 3.051126272915281601e-01
4.690221306988635180e-02 -2.335558691445024648e-01 -4.142154455951783248e-02
4.071748253042982713e-01 4.031051916431399595e-01 1.289483071863541802e-02
-1.187427649692837928e-01 7.224450098667827280e-01 6.921912405595721518e-01
7.948628574019089843e-01 -4.171279499814613545e-01 3.384382924233211298e-01
4.117331980570647088e-01 -5.804152338524444232e-01 2.466230351564647205e-01
-1.241102012550907852e-01 1.991152242608097422e-01 -1.222330310472856049e-02
3.206659500427640475e-01 6.936283310052131501e-01 2.001600486984571603e-01
-2.862309911198019918e-01 4.352092646027725352e-03 1.819381787519387395e-01
2.235008829630269755e-01 7.036305663221331663e-01 6.845430990318908115e-01
4.511236514955184185e-01 1.492338680728317601e-01 -1.363200432604747825e-01
-9.676953292311311072e-01 -6.711104391310931949e-02 -1.111764005621293239e-01
-2.556916503746966551e-01 -8.171098258937858905e-01 -3.734984331722780992e-01
-9.121554490491133871e-01 3.412396176159623318e-01 -2.786894769653742165e-01
8.135513543580054352e-02 6.329196584217052779e-01 4.549252692966804235e-02
1.588548663558152219e-01 -8.351112381313499644e-02 -2.079562000876365446e-01
4.688791322720574362e-02 -1.239055074595200867e-02 4.300603596208759649e-01
4.028058666655958686e-01 2.699564660188707999e-01 8.082771762368787805e-01
6.896704101319545144e-01 -5.623711940723195024e-01 2.496838499727948579e-01
7.470834462552063127e-02 6.927549145771791927e-01 8.095210837591966524e-02
1.394450754933045933e-01 -7.783273404171087151e-02 2.309786966022922272e-01
-6.984500629702226071e-01 -8.043771930493968936e-02 2.087391999214279481e-01
-5.831042619354012135e-01 5.176099602141605027e-01 -3.265839781960558352e-01
-1.220122562028213981e-01 -2.894411882001812764e-01 -8.193854363391657181e-01
2.964482490485554345e-01 -8.433983396979974345e-02 -4.269993629200221630e-01
3.980868438906527418e-01 -5.082768442900850725e-02 -3.685806141516339007e-01
1.914909545521400747e-01 6.129297180033515396e-02 7.191366340645081179e-01
-3.684626194535339794e-01 4.103577884977471085e-02 3.674648958749769934e-01
2.380254186505459113e-01 -4.269637196382307653e-01 2.324836967498532525e-01
9.130338121617752600e-01 -3.115176307496162478e-01 2.752387276157635121e-01
9.588539562184447140e-01 -2.705372858757353755e-02 6.406462359528750095e-02
-8.774837083377092783e-01 1.571377178965243648e-01 2.315526373741967070e-01
6.551975021748555061e-01 2.300670520046539658e-01 -7.701157018733666149e-02
6.964625184170790684e-01 -7.122333252364972944e-01 -1.773355201114358293e-01
1.132977020342635366e-01 -2.549640504118216300e-01 5.263512006616464373e-02
1.707711073923518230e-01 7.942440019763018499e-01 2.652518336443033808e-01
3.879252098777343227e-01 6.799078264866585952e-01 2.303189465331282326e-01
6.367176113364217960e-01 -5.120157805046479105e-01 3.317797804158765240e-01
5.211138855819822391e-01 -9.878327586345334033e-02 -4.208860336433210558e-01
2.661532969628840894e-01 2.025869300158151740e-02 7.130016874607365551e-01
-1.578896194637545991e-01 -6.284671898474847307e-01 -6.229582281244838010e-02
1.630575043798299095e-01 -9.797153216563420086e-02 -9.831772305639947807e-02
8.913120542860591966e-01 -3.453757700298926148e-01 2.840184827652822430e-01
8.288193876668334958e-01 3.235276352761001228e-01 2.182164097415338344e-01
3.507638847751748945e-01 3.048848489411463622e-02 7.377582050327524676e-01
9.696539417135447980e-01 -2.521433685757517029e-01 9.999340207524731738e-02
4.957901183377384502e-01 1.280742111063308541e-01 -1.685275585108657048e-01
-9.765614613233591923e-01 1.558726388783218675e-01 -2.871354962934484223e-01
-7.171914694702195836e-02 1.417372941157584165e-01 1.143271058022473918e-01
-1.232742913185144173e-01 3.610196145546986507e-02 -3.955786656609035501e-01
3.071120577274460417e-01 7.554844936386021503e-01 3.096737409888254966e-01
6.792400208027549180e-01 -6.072143183298769342e-01 -4.260811704042888337e-01
1.360563894132430507e-01 -4.506335593399290324e-02 1.920395605502789593e-01
8.586000668849805284e-02 -7.782523921565773772e-01 -7.372178928670140852e-02
-3.780870142412014190e-02 6.505538970187098036e-01 6.146656367587251778e-03
-3.925880611896292449e-01 -1.997730290283637467e-01 6.800903148683444532e-02
2.921322482040378254e-01 3.335812710454580943e-01 -1.811506633085526005e-04
6.802669233922915559e-01 -1.470147781506740692e-01 -3.887104172838570237e-01
1.766749227550478141e-01 4.963719070403521672e-01 2.598126264607998961e-02
9.680370290285560397e-01 -2.597721247340625261e-01 5.961144216162290316e-02
7.726247846316594003e-01 4.123275706208985314e-01 2.792327021946078291e-01
-2.079385676039554876e-01 -8.355326989241691482e-01 -4.599027671782604521e-01
-9.163576044728983794e-01 7.506780670516370602e-02 -4.516657044235712348e-01
-2.912941652950571877e-02 -6.905457522662317160e-02 -2.654273903093945508e-01
1.787329398752643961e-01 -6.482984791567484306e-01 -7.422179621113670356e-01
1.447369624770434016e-01 -6.563140173016690504e-02 1.866640342203697289e-01
-1.494147261072801269e-01 -1.738881245802373354e-01 -8.476162737270032110e-02
-2.210371641253324956e-02 2.923562848254832036e-01 5.565529539017285282e-03
6.436504731924979072e-01 -1.681311236188407221e-01 6.076852588266992150e-01
3.264955744344981703e-01 -3.781870167300411256e-01 3.604166386332200434e-01
7.417851709277832883e-01 -3.071832421675544933e-01 -4.150357349762686110e-01
-6.962012408311230027e-01 -3.029281457185201143e-01 1.279058255550103232e-02
3.115083685811921299e-01 -1.571591648834057553e-01 5.706759934211261820e-01
-3.770108975824833508e-01 1.007152167470193871e-01 4.780350163381225648e-01
-9.395386458922604378e-01 -5.022167389738059484e-02 -5.688862923883725858e-03
5.899646469817371175e-01 3.852893006272846144e-01 3.137048591714684809e-02
5.491634536312058890e-01 7.243899834185604791e-02 -2.299397178384120777e-01
7.213053584061878132e-01 -6.697035279442580258e-01 -2.648120809039300472e-01
-6.805076429593894805e-01 4.399304970420256922e-01 4.980275135151879251e-01
6.814041574243627775e-01 -4.277778029568432561e-01 4.015437922542744453e-01
-1.812294404867078879e-01 -1.967064468080337650e-02 -6.520402938060885223e-01
1.439384493931563647e-01 -8.301486826891359139e-02 -4.546216234340842433e-01
-3.932544927557901637e-01 -7.575183528746469719e-01 -3.767926036915620336e-01
-6.581400990866926870e-01 -2.976043292300096232e-01 3.272232656834820480e-02
1.147568078264039337e-01 -9.140397032062982929e-02 -2.383989533910769176e-01
4.515992518811780543e-01 -7.831050930873684202e-01 -7.437069561293222983e-03
4.966853464028352094e-02 3.392179763963881767e-02 2.418717374790235186e-01
7.220895230363871820e-02 -1.766713079189898006e-01 -8.513649377266706286e-02
-1.829179741217675237e-01 4.911247781069829621e-01 -1.384333364072273254e-01
1.925835525280670257e-01 -8.854815318531098489e-01 -4.168285513828465239e-01
1.664441510617847564e-01 -9.808398798945951180e-02 7.459978225165325716e-02
-4.512408626920218491e-01 -5.476485624501017946e-02 -7.532698576446401617e-01
-7.666223481934743289e-02 -8.605984139119565723e-01 -3.144769203153747750e-01
-7.292180788027262661e-01 -1.714794274334639768e-01 1.148345894305560916e-01
3.465830550108510710e-01 6.859821632881073217e-02 -1.440379339006515602e-01
4.481834213926217392e-01 -5.643959038015367025e-01 2.738455091331075675e-01
9.789860537470842505e-01 -1.402536124202624357e-01 1.340212533650008697e-01
3.398704739733336977e-01 -1.305283861287034053e-01 -5.080241969857623996e-01
-8.561219482342424802e-01 4.491700345930297877e-01 2.656650675556457286e-01
-3.449797619429937900e-01 -4.327795174732148031e-01 -8.258476629954900616e-01
-2.926038930423925932e-01 2.391341463612792484e-01 -4.172386522682810517e-01
6.506362409661097246e-01 -6.739620207484865455e-01 1.030359622467219155e-01
4.454563613841960867e-01 1.551639910677995830e-02 7.341057050354419244e-01
-7.957061740058057886e-03 -4.482658175800181000e-01 2.152228866462279830e-02
1.497611470672413903e-01 -3.774498945071617650e-01 1.397367223038783468e-01
1.089370555544147551e-01 -8.691173180514158991e-01 -2.241814147867232099e-01
8.209916004634641995e-01 3.222726388095762950e-01 1.899930607618152967e-01
-2.357618052877170078e-01 -3.704726390662398394e-01 -2.213372934597960390e-02
-1.820244743416895572e-01 1.158484051006236776e-01 -2.095546916127294934e-01
-1.343618060753329069e-01 -8.363424870266699118e-01 -5.464724330027438404e-01
-1.580019800853154910e-01 6.832753966542434720e-02 -2.910698810627371791e-01
-3.360392528306607174e-01 1.302823357728651876e-01 -5.901650290347929539e-01
1.228660599120099881e-02 -3.078385066206650866e-01 -1.059828342502877087e-02
-2.280287281011344758e-01 -8.255856205264854308e-01 -4.887584677405774625e-01
-1.155234360418971179e-01 -3.181357800653303314e-01 -3.654536020427355536e-02
3.972536812128886208e-01 3.490404896524916811e-01 -1.093316615650942111e-02
-1.884909603882746476e-01 -5.605268133001340969e-01 -4.471523585732107425e-02
7.688453967831416769e-01 -6.387193187107408354e-01 -1.026542598774081265e-02
-2.517125890690559142e-01 3.037641412756056369e-01 -2.873618265324672794e-01
6.630509122831966806e-01 3.958776622273140755e-01 6.444824205929120531e-01
8.034235179441584496e-01 1.678336445265096732e-01 -4.061756040267427287e-02
1.339544646539953254e-01 -7.611942386111647529e-01 -3.543154449865709016e-02
-2.375871318339538851e-01 2.528706104514411024e-01 -2.976528484596781543e-01
-4.478430534965847087e-01 7.742370898055986883e-01 1.308899140772113757e-02
3.915213890745155023e-01 -6.294685595705384884e-01 -6.600291127683532988e-01
-7.703687066144223605e-01 2.164789118881346730e-01 -5.288635091224020979e-01
8.750280442580407256e-03 1.173095337450435864e-02 3.838320939633652062e-01
3.191273744832297532e-01 -6.600893981999631172e-04 -2.203309683024952392e-01
-6.821823630543007999e-01 -3.563519282779842312e-01 -2.927323214993899150e-02
-2.256484599654632328e-01 1.686252716483318814e-01 6.303694671717671172e-01
-4.506399391580306890e-02 5.807822252626501647e-02 5.559710420761981853e-01
-5.355721733543523239e-02 8.879271772757166281e-02 2.075542946933342237e-01
-7.925630176492057810e-01 1.482531910196630554e-01 3.216327463011745547e-01
-2.978690759534052823e-01 3.056600130436180618e-01 7.014390897689306570e-01
1.736965488350975806e-01 -8.056457959428729720e-02 -1.696239228628756424e-01
-3.208085966489249152e-02 -1.961800743449208517e-01 -1.030104889177251570e-01
-1.490891747788615773e-01 7.819233676333642302e-02 5.141654877208560182e-01
6.893878643984262533e-01 -1.387739378164704052e-01 6.057890636535558926e-01
-9.791352445705058249e-01 2.150683943913828111e-01 2.713932356128235385e-02
-2.562644479751276516e-01 -8.356298696935736403e-02 3.496794332988285067e-03
2.318535685035580940e-01 7.421005393104865844e-01 6.291754081337062043e-01
-7.734532874479457254e-01 -4.529779146752150321e-01 -4.522630583626435219e-01
2.291901146329157479e-01 -2.136919376995228548e-01 3.907899249158140464e-01
2.536666510947195863e-01 -8.544976100625297777e-01 -4.942875022915983463e-01
2.932498403913238322e-02 -6.387116331571342231e-02 -3.367768254256530702e-01
3.239339170658169786e-01 5.612809407981350640e-01 7.642939367493899461e-01
-4.144150825681595096e-01 -4.079993390734483194e-01 -1.563232300110654546e-02
-9.285020203118006243e-01 3.227594504071269466e-01 1.632158078832770531e-01
-3.230103034883408664e-01 -1.912222420697472502e-01 2.986742042975493866e-02
3.536424230464468299e-01 -1.710959088668752293e-01 5.832102651888759759e-01
-4.688626237636336347e-01 5.024149603376629747e-01 -3.230333396140291358e-01
-3.000100806925018113e-02 3.237668303985962726e-01 -1.278062531978011590e-02
3.630585959596516199e-01 5.760198575478686633e-01 1.037615753513914524e-01
3.238445805074605666e-01 -6.008098772430737755e-01 1.894391395949941159e-01
6.994172754241071432e-01 4.381835382727893025e-02 -2.237869084954466903e-01
-2.651934151323531719e-03 2.598763572444975911e-01 3.124247410982382289e-02
-2.259835346930870181e-01 -1.307135254996538987e-01 -3.839480020112815556e-02
6.792054493717180064e-01 -2.682507503818009065e-01 5.321535908172769780e-01
8.646542235154253131e-01 -3.617614757071981740e-02 -1.477695920739169611e-01
-9.061763495892728448e-01 -1.692620589277523957e-01 -4.614212153188322341e-01
-2.262042587544378647e-01 4.371902771786590619e-02 2.212565791757589440e-01
-2.442725501422045586e-01 3.843905411862788557e-01 7.487041894975874357e-01
-7.659332079293499351e-01 -2.725170478396474194e-01 -1.628425906650044505e-03
-3.640587001098585882e-03 -6.451260094058622330e-02 -2.998455254627054312e-01
1.985478873017569035e-01 -2.244358705591818215e-01 -6.785320138238183363e-01
4.156142334318272402e-01 6.077572281192500370e-01 1.548751433156360935e-01
-2.435691469881198779e-01 8.150765026158512949e-02 4.720248110205642611e-01
2.254900575389151562e-01 -1.159398469377066893e-01 5.418427899102439271e-01
-4.454693410206394533e-01 6.040992817928282355e-01 -2.183334609739507048e-01
-6.706792431195831572e-01 4.179161781283685650e-02 3.292084144717662975e-01
1.140182670878494564e-01 1.720235614356023235e-01 7.706672370223233148e-01
3.096604604305725483e-01 2.875558608726950238e-01 -1.360724125412419994e-02
1.662814831535117666e-01 -3.164598365839191296e-01 1.656725675450299584e-01
5.296682331920968823e-01 -3.419914644275285354e-01 4.949969109458147165e-01
8.726749586898203681e-01 2.691637811172059025e-01 3.191814992864531186e-01
-1.644001265225370212e-01 1.828186381283994077e-01 -8.531555910258409314e-02
-2.389365291283517267e-01 3.495623652945005766e-01 7.418533791154738877e-01
-1.723993079704967679e-01 9.101819939828166561e-02 8.756644851920140915e-02
2.850463948370098866e-01 1.210154534154528616e-01 7.770200849988895264e-01
-8.931807991531479085e-02 -2.524967206165126821e-02 -2.753632100466151811e-01
6.100969526765467332e-01 5.738860576203782538e-01 3.077567010517607282e-01
2.083269768281908740e-01 -1.175402251379179946e-01 5.164625572950384269e-01
7.115381056692536565e-02 9.414742764480039938e-02 1.492760014066615848e-01
5.255661003874061432e-01 -2.680026588268680232e-01 5.545079648187986043e-01
4.586561565041398225e-01 6.071160295764190806e-01 1.807217105156122550e-01
-3.519561616904798851e-01 -3.116586652057568366e-02 1.982765280393372354e-01
-4.553858894189242168e-01 5.809633601098973532e-01 6.381495903395018043e-01
-5.012724643543333691e-01 -4.219574645541772362e-02 2.668155090096143156e-01
1.382323214452667315e-01 -9.239830709701592204e-02 2.917224507135262601e-01
-1.646537620692000436e-01 1.767151889862569603e-01 -8.021862457545447800e-02
5.367507472717978345e-01 -5.893120971443374101e-01 2.609655332410886208e-01
5.402093270931028757e-01 -4.904129646105042095e-01 3.630535952682837353e-01
-6.383299125004882058e-01 -1.872091234272726251e-02 2.852526971669264166e-01
1.535089008418521750e-01 -1.008442503714205990e-01 -1.264206524400358356e-01
5.698000836833301275e-01 -2.119964787567311659e-01 -4.988297435776328781e-01
-2.793296072329469193e-01 8.560177695555110100e-01 4.165471114072912262e-01
3.089080980873931126e-01 -1.350413778145488908e-01 5.921719042070929806e-01
-8.831874231698784161e-01 -2.850569886829930066e-01 -4.136729079438097867e-01
-8.041546134375443522e-02 -7.296199051098546384e-01 -9.790875700252782421e-02
-8.051345357364471100e-01 4.908545072191871084e-01 -2.489394154392522984e-01
-3.318852446250139532e-01 5.665548931717765413e-01 -2.031290805209139128e-01
-3.938655850451980300e-01 3.711877606032673027e-01 -3.976779079545320061e-01
4.715667858506784049e-01 6.279423063845558650e-02 -2.270772078678035821e-01
8.390442881417160548e-01 -3.655650924370747457e-01 -3.007180072538412907e-01
1.678034985929398593e-01 -9.900051470051175750e-02 -5.128589931430159454e-02
-1.903058175717538547e-01 7.362727444798645993e-02 -7.197030958285313695e-02
-5.895672136325088575e-01 -6.246023571557690612e-01 -5.154045027555930192e-01
-1.814601932420564501e-01 6.220275471232179776e-02 -1.399622202791838410e-01
-1.873663557892617237e-01 7.893919272283584920e-01 7.315396108854975432e-02
5.370376236269055470e-01 3.906190230407073638e-02 -2.642692075153886822e-01
-2.331677270464248830e-01 4.637585436326940869e-01 -1.905253210709252631e-01
6.516691288593073894e-01 -4.519757440458939124e-01 -5.141980731024877738e-01
5.752072168065899271e-01 -7.588882094430432490e-01 -3.694455845787541493e-01
-2.928097172301850071e-01 -1.079974036260296227e-01 3.731587300636472065e-02
4.417390066275168614e-01 6.652581358907232456e-01 5.844603784368116450e-01
-2.273724156524603024e-01 4.952803680667502290e-02 3.257688641951286823e-01
-6.128172052162086381e-01 1.773159306054820222e-02 -6.977376820168840199e-01
1.712149071419061808e-01 6.983770067264678527e-01 7.064451106128273317e-01
3.583205712462212422e-01 2.281460407430137838e-01 -4.924642429440678759e-02
-7.585870586190893716e-01 -2.193743979442670800e-01 -6.539602624976629253e-01
7.606669428042016623e-01 5.965344264493093601e-02 6.249767775001484615e-01
4.025448338040506502e-01 -7.088605698678862588e-01 1.091326207246013646e-01
4.995881287245299007e-01 -7.437355586757565806e-01 -4.918672893427336046e-01
4.403382492844055279e-02 -8.873740036946207166e-01 -4.069269038644630077e-01
9.357917530088645242e-01 1.196924582211698757e-01 1.979033805347578667e-01
2.466075775687936664e-02 -5.279595923935023055e-02 -4.468694576083220849e-01
-2.392255404520054196e-01 8.906608612204376663e-02 -5.533667611507717687e-01
8.779715762813582458e-01 -3.970357361896371673e-01 -2.201210373460107672e-01
-5.765658399232626019e-01 -6.487818438111566666e-01 -4.006299099698694133e-01
-6.687048513763350632e-01 1.035683533466379563e-01 3.814429663978037843e-01
-6.117450272741679212e-02 2.439934583918240973e-01 1.343970011596995993e-02
-5.006525513850337283e-01 -6.925495105556643827e-01 -3.504932299612702473e-01
8.506013486602385931e-02 -4.042085088293673883e-02 3.906570325080452322e-01
-5.405221171815576681e-02 1.172347219869491891e-01 1.574774719564214776e-01
-6.351522008168930533e-01 -3.862937256371248296e-01 -7.116721642988398377e-01
-2.449033936392502608e-01 -5.522789639580325538e-01 -5.447019305740918860e-02
-4.086136044665938383e-01 7.418287218439461039e-01 -4.580192521082320639e-02
9.044731289839295085e-01 -1.418864213159152232e-01 -1.499187463808617504e-01
-6.968954036340228031e-01 6.496107120208591823e-01 -9.947909820451301954e-02
-3.391257950560296885e-01 8.581322532139030734e-01 2.730863930066755318e-01
9.026132930619599204e-01 -2.537996237451170534e-01 3.460163090190930268e-01
3.165722777686697520e-01 7.564912185559983637e-04 -2.141780348149849300e-01
-6.390992291431752959e-01 -4.674455131739787550e-01 -1.145562533601362926e-01
3.540636079485646182e-01 -8.664761677153669517e-01 -3.530764786746533046e-01
-9.486583650419218028e-01 3.862245730285647771e-01 -6.603856877192607056e-02
3.165613481032277243e-01 4.336591092096814815e-01 8.142689213668808934e-01
4.179307526561496511e-01 6.076135903864253729e-01 1.559977555645563618e-01
-1.410996833605033807e-01 -3.966436365448406387e-01 -2.167879455194125088e-02
-1.337624603075657226e-01 3.803060964771682317e-01 7.846826116781144833e-01
3.578065768690603665e-01 -8.560215728825071313e-01 -1.749221503294535740e-01
-3.020658803299772766e-01 4.110403190041855837e-02 3.436828475139156458e-01
8.508206492084240402e-01 -2.811022492889997740e-02 -1.595747342650802036e-01
7.521454458183627345e-01 -6.291333332032201797e-01 6.750965887465371074e-02
-1.221253559157407520e-01 -2.837303235296894099e-01 -4.782106992591324268e-02
-6.937345908198495614e-01 -1.941504025898063146e-01 1.096218799437389535e-01
-1.845685338985694202e-01 -3.422780988993153195e-01 -2.833540323305035885e-02
-5.277581376984447070e-02 -1.114692771801533422e-01 -1.843160613255358238e-01
-8.652320185481788828e-01 -3.275189230651582295e-01 -3.995962071190261589e-01
4.143556765467012459e-01 -8.131256399651838607e-02 6.764645179306421063e-01
-4.450899861165379945e-01 6.826339977540529791e-01 5.874761191115611680e-01
1.914401588765054785e-01 6.491413141795079889e-02 4.469443083890115020e-02
1.467688131730494894e-01 -1.609695688450399897e-01 3.854232087175257088e-02
-5.550132174121606976e-01 7.490980120174539625e-02 -6.810400712416272428e-01
5.997122533177120518e-01 -6.448334026505668781e-01 -4.901993529336862720e-01
7.823706222127132515e-01 3.856403280697822678e-01 2.295886062321604582e-01
5.543060330278842818e-01 4.671038486150972946e-01 8.804403772531164962e-02
-1.911039887708604612e-01 1.669672711663045261e-01 6.443659836830915033e-01
1.570383193565326740e-01 -2.952724037359998333e-01 -7.435940978509008037e-01
-8.215879222533262194e-02 4.455671681328588624e-02 3.921807246839175698e-01
1.031893849441131161e-01 -4.995086779182909553e-01 8.791664165551646426e-02
5.773249784111574717e-02 -3.645577251483404502e-01 4.383358630929019839e-02
-5.587776506828288081e-01 3.843560787190202221e-01 -4.522098223656509375e-01
8.161320183659577510e-02 -3.636778786172663314e-02 4.350175534149494649e-01
1.418293304375588537e-01 -7.898041776438258221e-02 -4.310284825078011806e-01
1.258081310160899524e-01 6.202830708640205692e-01 5.493789766504508093e-02
-7.770351940368205867e-02 -6.224911059870656960e-01 -7.935018966198703616e-01
-4.889181471856769434e-01 5.910129112312544342e-01 -2.416875505180498818e-01
-2.896845187795579202e-01 3.027300362515850801e-03 1.851760594417271588e-01
-2.405753916236654799e-01 -1.700315759880577648e-01 -2.548396423799111771e-02
-5.800276358460559889e-02 -8.422272207794396781e-01 -2.420471317106956122e-01
-7.208747553952027376e-01 -3.093451367933795493e-01 -6.676140337246184719e-01
9.719857505601784409e-01 -2.369703987223489849e-01 1.016196643065818278e-01
3.333031616699034250e-01 -5.087828313365700544e-02 6.796168378978744151e-01
5.109941136716651400e-01 3.843159671264151367e-02 -2.630654561407618219e-01
-5.325448213441877909e-01 -4.740897494189300621e-01 -7.422166938846256334e-01
-8.128329038759991576e-01 4.547386814053481219e-01 -2.875745590018265463e-01
-9.938190863310657208e-02 -6.371496586601106682e-02 -2.032464011513434310e-01
-1.719878096669534562e-01 2.805790831120986289e-02 -1.591630043127817695e-01
1.923009820214509613e-01 -6.786650787105122373e-02 -2.765217484993624519e-01
3.387467401373048803e-01 -4.243213480076815647e-01 3.338634144591435815e-01
-1.943724892441727747e-01 1.562453533929088756e-01 -2.538640726302620609e-01
-7.333985374935723112e-01 -3.063424607863589055e-01 -6.566610813206343877e-01
1.416526254085346548e-01 1.520923351053373763e-02 1.313253442834102780e-01
2.900977164569286740e-02 1.230239733419236786e-02 3.236850979535841333e-01
-8.274602986334997912e-01 4.941784734235775134e-01 -2.152061782353344443e-01
-3.762518205569342217e-02 1.662136666004708774e-01 9.724769770230473620e-02
2.142721706168271290e-02 -9.628968347239633130e-02 -2.383373100556935298e-01
-3.651608720375371098e-01 3.139026461999657597e-02 3.453228012996663043e-01
4.327654741674949457e-01 -2.420338391185295618e-02 -3.315171324377153006e-01
2.337329176152719012e-01 -6.121943399242259221e-02 -3.183621316255239586e-01
7.386775976133168609e-01 -3.035079741116776253e-01 4.788195338114162869e-01
4.111772496239801677e-01 -4.781954808454392802e-01 -6.815793925510522655e-01
-5.750347963955585451e-01 -4.760957371791505466e-01 -8.772462388304501368e-02
-1.304930403308488147e-02 5.498362866239985686e-02 2.626502224959501031e-01
6.691477317335853270e-01 -6.941354482541773896e-01 3.872549983786559291e-02
8.777359112902188842e-01 -2.646040681875299616e-01 -2.345829098722490846e-01
1.649901163773908330e-01 -1.119557037974515390e-01 4.366431301401454967e-01
9.401345154195854814e-01 -8.724620191054577312e-02 3.547112781225453815e-01
3.888653569921011188e-01 -5.325732431691080349e-01 -6.896457536060326410e-01
1.176499905883568453e-01 -8.002241311477463759e-01 -8.826276877358861517e-02
8.038771551030854390e-01 -5.071778976949803397e-01 -3.075270407673098561e-01
4.884340171031307798e-01 2.190408276955070621e-01 7.835515515790254515e-01
1.703631730241293996e-01 -7.253949614043492256e-02 -3.165158128823676309e-01
2.537755306537257671e-01 8.699705552207392945e-02 -2.779095010861700257e-02
-4.084577628804940685e-01 -2.183931392664452964e-01 6.585775909021429619e-02
-5.960278335883375522e-01 5.499639347318426852e-01 -2.907328081376562290e-01
1.683085053746637139e-01 -2.282140399968921318e-01 1.773425651975600037e-01
5.988544322712725521e-01 -1.515928490814656415e-01 -4.387453716650586699e-01
2.635326616289491164e-01 1.630003978552319877e-01 -1.544170417210435735e-02
-6.013082219648706594e-01 -1.017772843420542556e-01 -7.411146929788273718e-01
6.511007348799776606e-01 -2.308874451022527308e-01 5.668418573146443151e-01
1.492848457475053903e-01 -5.763662871373604474e-02 1.611792585796212318e-01
-8.698298927533353320e-01 -2.626750984456233673e-01 -1.216913926143783214e-01
1.693966431651768301e-01 -3.176926032724017301e-01 1.711021208116518810e-01
9.558504372705242114e-01 -2.554801741198167719e-01 2.065977430964452966e-01
1.617679468778844276e-01 -1.170660419130624963e-01 1.294490315168579826e-02
