-1.962631082828845686e-01 7.325042764860056899e-01 -5.263403505808585958e-01
1.851772448472638610e-01 -7.332525234280424797e-01 4.907221901178679402e-01
3.256877890749796528e-02 7.951057139959284703e-03 9.102065677255448684e-01
-1.537494929964324519e-01 5.851176937940044676e-01 -7.032670491466785911e-01
-2.085878525253815341e-01 8.154071486400767954e-01 3.058935314869244415e-01
-1.438009959662723269e-01 5.585915997198855898e-01 6.730267336193271888e-01
-8.294618182451529709e-02 2.481124448441003327e-01 8.539974932842523403e-01
-2.803485491308824532e-02 1.074399549994695807e-01 -9.932825806497629362e-01
-2.252870898675743416e-01 7.841499904784391406e-01 4.121827540411062141e-01
-1.959361375710101105e-01 9.103933363206557772e-01 -1.422831830734987424e-01
-1.624508743623838125e-01 7.673433863495894292e-01 -5.573368253829933394e-01
2.223585183740627302e-01 -8.903273178342225869e-01 -4.891682540339165747e-02
1.990853992189504373e-01 -6.568067375262959251e-01 6.251790656238095378e-01
8.215224053480182920e-02 -2.050386001878203024e-01 9.062891537049543311e-01
-1.912544982992496756e-01 8.648692357782602480e-01 -3.833381616639797707e-01
-1.310783897843770598e-02 6.885211089077225566e-02 -9.969722230317722422e-01
2.193851005040586277e-01 -7.471629883431729624e-01 4.941452383590650421e-01
6.681838642195288280e-02 -2.676660962859933046e-01 9.077041066661964974e-01
2.026039144465166530e-01 -9.306408437630798725e-01 -1.213464902737370135e-02
1.303427485291310528e-01 -3.965888501054705695e-01 -8.720347810296996682e-01
5.341718861076017594e-02 -8.684814287255254728e-02 8.966850986067863571e-01
1.963384071082900084e-01 -9.043679345644206613e-01 -2.026061275615528290e-01
1.343186175579610675e-01 -5.831022681185904499e-01 -7.975865879997822150e-01
-1.499583206984147488e-01 7.330533288907282730e-01 5.412878986661616709e-01
2.444418150851462856e-01 -8.438322196867442671e-01 3.508826481624165994e-01
-5.482366234252347009e-02 2.380148988890737616e-01 8.485548080906399893e-01
-7.348491525681007108e-02 1.626440113719128389e-01 -9.569486067601307155e-01
2.150051224789855109e-01 -9.139067832138116909e-01 2.384566515274118836e-01
-6.139544110017119971e-02 3.509473309944538544e-01 -9.138193850992905043e-01
1.649777701442693978e-01 -7.428273621928042081e-01 5.018179356383533074e-01
-6.856714541215663816e-02 3.082518550466732399e-01 8.253549970433461391e-01
-1.163226924445527333e-01 4.371536455374779861e-01 8.291643335734477649e-01
3.289111966994237579e-02 -5.725352239233210024e-03 9.287771981534186372e-01
-5.076104566849670013e-02 1.193778810664760937e-01 8.840001230389087361e-01
3.832128851032709504e-02 -5.587611169364910951e-02 -9.489131408443348681e-01
-3.013537448980159461e-02 4.793209922928157868e-02 8.893848863370414914e-01
1.952289150041161270e-01 -9.007855101127899555e-01 -2.822653500416920092e-01
5.590912669081725406e-02 -1.974406537501977310e-01 8.620945542237345993e-01
1.736275353912504205e-01 -7.112957583106491732e-01 5.251833466983454324e-01
-7.154814639198302240e-02 1.565876854792064565e-01 -9.454402566998342250e-01
2.530118174286440924e-01 -8.968381255355364345e-01 -7.300738440320944656e-02
-7.691309614915886606e-02 1.965635081680254526e-01 8.993921617523189527e-01
-1.802160980928108613e-01 7.920803827135654007e-01 3.823077658275988999e-01
-1.593327127818080502e-01 7.394705103260106327e-01 -6.090640188269792477e-01
8.454125782084552509e-02 -4.636052093813836650e-01 -8.382129705587948454e-01
2.001219528064899777e-01 -8.323094480149135777e-01 3.073157276014406025e-01
9.490364181127577958e-02 -3.043786233502302485e-01 -8.903864354467144748e-01
-1.818315280146540758e-01 5.951221216292946758e-01 -7.252742251582745547e-01
6.748730679795918175e-02 -1.303141088995635466e-01 9.073850089402755170e-01
1.345772624662185668e-01 -5.525676813954435440e-01 -8.216278083820689471e-01
-2.084996990097180980e-01 8.686670031285520510e-01 -1.760649775940614503e-01
-1.291788208526308823e-01 5.086124867818687667e-01 7.129140276513830088e-01
2.409905915180577535e-02 -1.904941648002213272e-01 8.790565088477044764e-01
1.024623670541620069e-01 -3.065045413564341237e-01 8.835270027559213313e-01
-1.985709389704509997e-01 8.922077996318146242e-01 2.548272254345501087e-01
-2.178053724710393158e-01 8.651680815589007922e-01 -1.754526923760907353e-01
-1.720866975883201810e-01 7.931534603739269773e-01 -5.269672075397358046e-01
-1.544304426402271294e-02 2.228492289888085037e-02 9.426913168201347393e-01
3.988496875920120172e-02 -2.691239876228195826e-01 8.868445314061733642e-01
1.043960777197069090e-01 -3.303915594197320282e-01 -8.826378029990409324e-01
1.813163064334987473e-01 -8.334228031236432521e-01 3.600421725910045723e-01
-2.996632925956331864e-02 -9.368677896919400463e-03 -9.765408274091371688e-01
-2.008039685097125215e-02 1.146531351239752083e-01 8.759370853591302852e-01
2.144691657711655652e-01 -7.676672840638425477e-01 -4.980519582185424232e-01
1.674357872228562916e-01 -6.681192518303343819e-01 5.769349239798827744e-01
2.433385371153529708e-01 -8.381368042515832117e-01 3.608461963838280884e-01
3.687837911529730922e-02 -1.447471789045439751e-02 9.047618910224147770e-01
1.241690944296484390e-02 -1.163220647455819740e-01 -9.903514350259973176e-01
2.377854930169799874e-01 -8.854934543802263081e-01 6.345061502226673200e-02
-9.943802514046265473e-02 2.973435432860522809e-01 8.755864456511196492e-01
1.586942600537717685e-01 -6.363661885959674969e-01 -7.523762109414376953e-01
-1.839969376519667854e-01 8.603090376704300990e-01 2.629384784646677797e-01
-2.102006653501634903e-01 7.892985052454658534e-01 -5.415420452121230133e-01
-2.431946257360870223e-01 9.039175122983755806e-01 1.921332477073237621e-01
-1.605358384139384809e-01 6.574142905264006576e-01 5.751535326974097639e-01
-1.825065601914292457e-01 7.927719824533492332e-01 -4.341022738929811164e-01
7.869736854956796424e-02 -4.288331106738541010e-01 8.063817042544653146e-01
3.693430618626373368e-02 -2.468180659946241778e-02 8.990940228299680870e-01
-1.674376113231970942e-01 7.841978609320036098e-01 -5.341455133586223702e-01
1.208514703750417363e-01 -5.809410949801413482e-01 7.306014945712377973e-01
2.112235755306749174e-01 -7.553550292485993189e-01 -5.186006737668951150e-01
-1.334001940944090359e-01 4.009545588212340972e-01 -8.630046961028804420e-01
-1.469916183505222684e-01 4.845805574276063621e-01 7.809553453252963129e-01
-2.229645217125126588e-01 9.274374791759890657e-01 -1.743865632692755130e-01
-5.888367188521348439e-02 3.729410286422365495e-01 8.350433880337333470e-01
1.828097105781072707e-01 -8.347735737633896758e-01 -3.983080474953412109e-01
-2.064941501694068371e-01 8.624169995120924970e-01 -2.121150717051140944e-01
-1.383934900747432195e-01 5.623670493338451815e-01 -8.040292747865968037e-01
1.174570245251464473e-01 -5.092382847175171978e-01 7.947946442689064472e-01
1.382591347011593794e-02 3.168785172194596433e-02 -9.471761277789104705e-01
5.673253419600297713e-03 8.524692083466385573e-02 -9.506442559632971578e-01
2.170896527061821901e-01 -9.452265476055138338e-01 -1.012573455920852405e-01
-1.848055046301051163e-01 8.274084752725209269e-01 -3.693726309690170684e-01
-2.527719195163333765e-01 8.852854453066740792e-01 -1.519594434453779841e-01
1.529812215926456276e-01 -7.121563886635303708e-01 6.021058176199605150e-01
-1.715158729450800834e-01 8.058086836900640870e-01 4.460271576778990776e-01
2.201181268785954992e-01 -8.332315368924982923e-01 -4.880468069489713456e-01
1.995164833023954642e-02 -2.023823905835852588e-01 -9.373471872734967514e-01
2.558042856896853290e-01 -8.908333251794898766e-01 2.122260360395194223e-01
2.542896139544175149e-01 -9.140359515414697711e-01 1.744512860198590976e-01
2.309433814747917021e-02 -1.582991400786912944e-02 -9.453313348254523962e-01
-1.745305663243197913e-01 5.923710352814419711e-01 -7.076231430766101171e-01
-6.074923293064408286e-02 1.940932487813398222e-01 8.629250905421980145e-01
1.701540484579432688e-01 -6.324094656060199604e-01 6.149483132411368569e-01
2.400336200228041506e-01 -8.548458235172360364e-01 2.441590267554475391e-01
2.145705211892747766e-01 -8.196625103959033209e-01 3.264963326178323966e-01
-1.212663761955481978e-01 4.716182248129534016e-01 -7.930653513060660353e-01
-1.381183521632416422e-01 4.876772193300286662e-01 7.927174009444841740e-01
3.567178471548842350e-02 -2.532688499205225652e-01 -9.186993519303549016e-01
1.063550879384796838e-01 -5.531113003718960419e-01 -7.938192966746036028e-01
1.537190912288633610e-02 -1.522815957779421192e-01 8.849487531907034299e-01
5.953862476853577501e-02 -1.430866171945976151e-01 -9.381060342414833109e-01
2.537070716651743107e-01 -8.835951598810626306e-01 -2.434345398159318552e-01
1.321504084091154330e-01 -4.108423499271703916e-01 -8.566614988385636842e-01
2.315373681387808136e-01 -8.871905928241609063e-01 3.267792936497287276e-02
-1.398702244097890790e-01 6.482835334144785300e-01 -6.594658782230099492e-01
-1.354163635578261859e-01 5.680000962733040559e-01 6.667584705260988232e-01
8.415818156056985300e-02 -2.148325553912847352e-01 -9.366511897132325792e-01
-7.802498933792273265e-03 -7.327176580699547304e-02 -9.867407150790374892e-01
1.758157645128953506e-01 -6.827263280877331475e-01 6.504506188295293700e-01
1.016228385936502887e-01 -2.893581337033303003e-01 -9.319312055650862403e-01
-1.833418677594283175e-01 8.640514126332438094e-01 2.892827117245781454e-01
1.859034900817349290e-01 -8.615052659003653579e-01 3.177659870730651370e-01
2.346155406532411669e-01 -8.724636614433951554e-01 1.526035720417975305e-01
2.564069745278838575e-01 -8.929201150800195608e-01 1.298375082882805565e-01
1.433183418559764721e-01 -4.683205159094991910e-01 -8.166074485627846657e-01
2.509732730306257764e-01 -8.941312805441609113e-01 -9.317188508883939013e-02
2.213371520184770624e-01 -8.620761565090804268e-01 3.808250956532941434e-01
-1.679481809543998949e-01 6.858586564437409994e-01 -6.891884039492323089e-01
1.427548888972362262e-01 -4.978704039174542961e-01 7.965520787256583635e-01
2.172326754866051868e-01 -7.434168740946647258e-01 -5.870854522520293495e-01
2.095176842728867783e-01 -7.033853715203897128e-01 5.596458530150353328e-01
2.385649475462455205e-01 -8.818259623239187439e-01 9.888300700324964554e-02
1.755461263076861511e-01 -6.756771599870903255e-01 -6.217526251293907791e-01
-7.258260971378344140e-02 3.435076928316264655e-01 8.126147561617148574e-01
-2.201517303763679545e-01 7.494893673700766534e-01 -5.390141548973261809e-01
-2.228926464065497937e-01 7.732652110832093362e-01 -5.332431086306107515e-01
-7.332407082917739849e-02 3.662617446601847959e-01 8.641695129472254377e-01
2.307365950456707893e-01 -8.072055339422629094e-01 3.754256225340569797e-01
-1.095137918757985301e-01 5.008139582670259049e-01 7.248982295281934940e-01
-2.462721527172848784e-02 1.622778612968221457e-01 9.279938230085124085e-01
2.502488599440920725e-01 -8.928327413504177912e-01 -3.021991559532080651e-01
-4.135958958810728031e-02 8.068126171907577526e-02 -9.889858965973801208e-01
1.693943687494399442e-01 -7.678501632504443064e-01 5.352109886982979736e-01
1.588027314858540123e-02 -1.610315880542743106e-01 -9.353878033058974362e-01
-1.569513835875190888e-01 7.423266750157949678e-01 4.942954943275987278e-01
1.653875457021441453e-01 -6.701320581180562064e-01 -7.199673094632690340e-01
-1.329648200898028709e-01 4.759642734918987927e-01 8.020786214178389217e-01
2.089011858333686411e-01 -8.374289185835013249e-01 -4.896124747938230271e-01
-2.165728240916602321e-01 7.585678786241997207e-01 -4.979247814769786618e-01
1.645305219070942460e-01 -5.347604695954919496e-01 -7.995416525381494610e-01
-1.829043305110046314e-01 6.325829283569496253e-01 -7.240828010012628768e-01
1.235213090568496180e-01 -3.687931592143169346e-01 -8.890258287629021483e-01
-1.908044653159843562e-01 8.576886046958053234e-01 -2.843809948198002813e-01
2.241037306012914343e-01 -9.305678846926129788e-01 1.736548218178966818e-01
-9.494311220423445885e-02 2.835328738161218554e-01 -8.955942817630598851e-01
1.843649661669294060e-01 -8.404429441826480884e-01 -3.841992516558386805e-01
1.928256128204798026e-01 -8.430197977978580726e-01 4.166955906717501046e-01
2.051108346421533224e-01 -8.959850221174047169e-01 -1.321273378093441586e-01
-1.784097887095580925e-01 8.256399290180673756e-01 4.143096172799101140e-01
-2.093005551379616969e-01 7.844141721103208287e-01 -4.328156334657162763e-01
-1.721601050661435706e-01 8.186307504735357288e-01 4.063505188292142467e-01
1.977403811032053260e-01 -8.892071533430470076e-01 1.696122285389889128e-01
-2.167628932769522232e-01 8.592297233060276485e-01 -2.082856189901701738e-01
-1.438386738852192592e-01 4.940267823065822017e-01 -7.821537230417111575e-01
-1.348143208951627370e-01 6.397155213888107150e-01 6.742731955047626125e-01
1.390085715210604977e-01 -4.764140020558316202e-01 -8.603699915964685419e-01
-2.285904921443278892e-01 7.830151424484782519e-01 -4.900741950771106969e-01
1.590829032714992930e-01 -5.902209762150792960e-01 -7.119020322774843867e-01
8.059905425084563924e-02 -2.822369460800306373e-01 -9.553628691873549128e-01
1.916412284823841572e-01 -7.588552386071043543e-01 4.502614599875191526e-01
-9.666447495216985708e-02 4.981955233981427700e-01 -8.321861300999185973e-01
-1.578743695805208125e-01 7.549354152563766407e-01 4.834799503763879680e-01
-1.936952494451654183e-01 7.500017083277125129e-01 4.427933032822425341e-01
1.115689564015069357e-01 -3.444938044364295182e-01 -8.808655603729930172e-01
2.624894414875093007e-01 -9.227343007925314922e-01 1.207220619161640182e-02
-2.683239512044994016e-02 8.161818638085438504e-02 8.803747899013686373e-01
-3.357818546395570369e-02 2.719685904050556657e-01 8.757394848825313938e-01
-2.572644345324598403e-01 9.129732353676084378e-01 -5.027251294031079287e-02
-4.071819909731000386e-02 2.849374865896797671e-01 8.838753114520978560e-01
-5.050407817790025788e-02 2.466171798670557247e-01 9.097306904917963344e-01
-1.634192618012879072e-01 5.377107889796420848e-01 -7.981942164300985798e-01
1.908995675481296450e-01 -6.415636748795808808e-01 -6.844349718241956593e-01
-2.038678054923088179e-01 7.610455459965919101e-01 -4.782889396353802169e-01
1.800025588021165468e-01 -6.933950002242189603e-01 6.383385683842706104e-01
3.299250985790445900e-02 -2.632131827398739299e-01 -9.321663842276007861e-01
2.062954609629515934e-01 -8.837479513448504020e-01 3.285278847956807913e-01
-6.975032926958914248e-02 2.913801897853092737e-01 8.306842241661616111e-01
1.957562601436418637e-01 -6.564709948249812799e-01 -6.888594307233885106e-01
-1.842887546382824815e-01 6.177397761691495459e-01 -7.274615640283889073e-01
-1.158602080266776940e-01 3.666623098708945983e-01 8.488830961436535372e-01
-1.239057606206595830e-01 5.442803563856434268e-01 -7.457762355021386735e-01
-2.485960287537283542e-01 9.282108029902527147e-01 -7.344344934315476248e-02
-9.630039124127996036e-03 -4.664758902768611354e-02 8.938352510486655689e-01
1.070176357157204411e-01 -3.277835818096888065e-01 -8.873551764637882533e-01
-2.128925536034039223e-01 8.768969588869121035e-01 4.006415428223929209e-02
-1.745668206606965922e-01 5.841578482978436737e-01 6.982405878705747471e-01
-4.585900183172789829e-02 2.677266103854319956e-01 8.464087943474885023e-01
5.975538251537522438e-02 -3.528919869655004482e-01 -9.185828715516486387e-01
-2.147713086870247645e-01 9.305273348160922886e-01 -1.354874319344114286e-01
-9.934934108988935364e-02 2.869207721417942891e-01 -8.984581410992918959e-01
1.783397083473867162e-01 -8.382650067665565752e-01 -4.357472194670156673e-01
-1.440904200634071999e-02 5.408329669493112946e-02 -9.362242414345646191e-01
-1.765083378124136793e-01 6.794525112024555336e-01 6.379115089099669511e-01
-6.904247565575864776e-02 4.105978099625115507e-01 8.078178176695438584e-01
-2.262573513597243013e-01 8.760184674090508716e-01 -5.169491212438762084e-02
-2.537978675671753725e-01 8.920264874377428210e-01 -9.424010323978370199e-03
1.653016027005699828e-01 -5.757341791897035987e-01 7.380609179906153505e-01
2.137487848955667846e-01 -8.331746272807505349e-01 4.401764082012235013e-01
1.361604231675670740e-01 -6.570319510623258141e-01 6.519061777314010264e-01
-3.057702433048751015e-02 1.336726360900318544e-01 8.723112140816068338e-01
-2.427678476559615439e-01 9.242000865473688487e-01 -1.575183060919922995e-01
-2.128990905154105606e-01 8.444679167131556863e-01 -2.717399461091999924e-01
2.140210897275041380e-01 -9.180961276567261020e-01 2.200413039729550158e-01
-2.208307387725531312e-01 9.376059550044878455e-01 -5.352799464689394701e-03
7.004762302768847981e-02 -3.870912365723156445e-01 8.198779025353378769e-01
-1.191340861802121648e-01 3.729182975101857922e-01 -8.594829328766433463e-01
4.003069936220028310e-03 -1.268167393698736989e-01 8.987421593637969774e-01
-1.221282104598691437e-01 5.292736003904157105e-01 -7.563048917241719238e-01
-1.185757840553124942e-01 4.087173613751947654e-01 -8.951808433656147646e-01
-5.283787367024595644e-02 1.875882426442259665e-01 -9.789960409241289518e-01
7.818817703736072322e-02 -1.907202442477079485e-01 9.101828774567062297e-01
1.817908086815839264e-02 -1.888799567207791463e-01 -9.670639909792103639e-01
-7.493760111410217861e-02 4.301909180462527571e-01 7.933258383612404874e-01
3.479954298128221102e-02 -2.529234320743979914e-01 -9.527962880350968611e-01
-1.416491204433222573e-01 4.719513930256519219e-01 -8.001034053286294467e-01
-5.688130449407855123e-03 -1.053210901479634948e-01 -9.726378280008078914e-01
1.941463450034811578e-01 -8.740608201307971115e-01 2.305225275817010810e-01
1.188631570143421079e-01 -4.514678718375866873e-01 -8.144695708214895191e-01
1.073183656598094698e-01 -2.927313868965614185e-01 8.725139004886528493e-01
2.567958132327333720e-01 -8.926687657850899127e-01 1.424468464325503725e-01
5.559805091400691485e-02 -8.251457335892400935e-02 9.100863602225905957e-01
3.764738011366669523e-02 -7.551146587164934976e-02 8.846612922732748352e-01
-1.279641033937699290e-01 4.594402292263294330e-01 -8.020409563520783935e-01
2.490629072246437481e-01 -8.712172701749476555e-01 2.966431077800221749e-01
2.394504687905092688e-01 -8.804869759818497732e-01 -1.684895824292077515e-01
-2.433235007882323386e-01 8.718581142228100100e-01 -1.705797811190533086e-01
2.201291660720522958e-01 -9.480398868838595394e-01 -7.319449655740167815e-02
-1.811779113562526633e-01 7.627513134785149918e-01 -4.832491374230575842e-01
-1.887291980210341613e-01 8.639542329166286505e-01 -3.778202071279410101e-01
9.472716403345719793e-02 -2.565166433362249254e-01 -9.255027896642346041e-01
-2.092072086993441438e-01 9.309376627366774404e-01 -9.389238937449549682e-02
7.667245277592649871e-03 -1.505921817897535042e-01 -9.454507173941170128e-01
-2.339958979207089340e-01 8.632453793785460627e-01 1.423061866440643586e-01
-7.350492430821771450e-02 3.510807705215436836e-01 8.097467846464529995e-01
-1.590318284090369849e-01 7.113928916141235570e-01 6.023242442773655281e-01
2.121525240760373798e-01 -7.945067829712910701e-01 -5.534317569085734911e-01
1.355300053838481567e-01 -4.202567584110573073e-01 7.908681604876875992e-01
2.617725540647475313e-01 -9.273192111026328233e-01 -5.093777647528418412e-02
2.258471566292770405e-01 -9.493750002008938260e-01 -7.945915479731723019e-02
1.669631091821979774e-01 -7.885500463259597081e-01 -5.434945483072932682e-01
-8.930026203433492904e-02 4.778934458614273462e-01 -8.370110553738908665e-01
-1.971556537995871328e-01 9.105601346467122603e-01 -1.811170684136959863e-01
7.257306112664461961e-02 -2.894186788773558949e-01 8.359626068638930096e-01
-1.247999735798507037e-01 4.222928193341394243e-01 -8.858514384877544945e-01
7.359971510442393783e-02 -4.145149729203569389e-01 -8.604660197583348102e-01
-1.207487630759906672e-01 5.916323969740254762e-01 7.154071986592641652e-01
2.438510622858919563e-01 -8.708750893189955988e-01 1.830758044169512599e-01
-1.802192796333505764e-02 -5.000295697655186139e-02 -9.564037680674885022e-01
1.033566710245801684e-01 -3.930896106856705541e-01 8.599007622315486543e-01
1.956803125084041750e-01 -7.233161021270306801e-01 -5.612429448612464844e-01
-1.590794009084069982e-01 7.549829990999404883e-01 -5.743050304042707221e-01
6.578059128352685414e-02 -3.932331597228863052e-01 -8.819768320574458143e-01
2.006298967167863823e-01 -8.161910564065407714e-01 4.735369049844623257e-01
-2.296665041861458700e-01 8.686987134764601048e-01 -1.491754114628051631e-01
2.009208136398754618e-01 -8.835792348572111266e-01 3.210801187128796697e-01
1.613223750041889448e-01 -5.355788190220178713e-01 -8.098010593873884444e-01
-2.366018923992748713e-01 8.928787895414845854e-01 2.469225073736089626e-01
2.474716004766078781e-01 -9.431412668407336275e-01 -1.076951828184092991e-01
1.590145290744206588e-02 4.813840297451454919e-02 -9.553363470436149196e-01
-1.940493617172256435e-01 7.759719273318165245e-01 3.961900151624618838e-01
-1.199179853943542345e-01 3.668196527997061862e-01 8.194942242819333034e-01
-4.608600158507157596e-02 2.418549498059657243e-01 -9.629405409187359322e-01
1.891710912473140438e-01 -7.003183453098512645e-01 5.361215154724262577e-01
2.454044492585004400e-01 -9.470302014729612416e-01 -6.922201224519552998e-02
1.716996673189052358e-01 -7.299862408079249576e-01 5.049317584972008444e-01
-1.861392915878706256e-01 6.251043073648795412e-01 6.530321398499482344e-01
-1.532427425343875493e-01 5.116296162559551552e-01 -7.739562680065295019e-01
-1.803997247624011813e-01 5.888041703853637010e-01 -7.363144015460847402e-01
5.432011351906598090e-02 -3.327143729713830655e-01 8.539103594163949262e-01
1.355512241303501730e-01 -6.360153844008769042e-01 6.848836696612905506e-01
2.015597580579773507e-01 -9.125773244955801555e-01 -1.885522108859652782e-03
1.963180800405218418e-01 -9.079586029779355139e-01 -2.308449799765574517e-01
2.502189442182432555e-01 -9.443415475103593693e-01 -6.248094504587809600e-02
1.383569452421703483e-01 -6.375633547437040693e-01 6.306086822801367786e-01
2.774637602851129370e-02 -1.401288491693372107e-01 9.345996115792379877e-01
-4.822085682523399169e-02 2.451598968751783070e-01 8.487219489999543454e-01
-1.713978898112705762e-01 5.917698203427770309e-01 6.542922743827521703e-01
1.558241595268856361e-01 -5.120449413637186975e-01 -7.898667453669122596e-01
5.669402931715595423e-02 -1.532231998394159300e-01 9.294252882960013507e-01
-1.980318412728395427e-01 8.264972290929372134e-01 -4.860407401180338871e-01
2.964172477460411820e-02 -2.336647350747653729e-01 -9.573434967228221515e-01
1.751283760630159558e-01 -5.954514285910813554e-01 7.155917506577412768e-01
-2.146412861270503847e-01 8.652925263406922030e-01 1.247090806680115210e-01
-7.778142303969055871e-02 3.806194265566182344e-01 -9.102763573515223472e-01
-2.010840230659835248e-01 9.194668645216406144e-01 -1.473397146833867744e-01
-2.099809788075842898e-01 8.400748046612104281e-01 2.342261733218483077e-01
-1.119114451701192919e-01 3.149923301885872440e-01 -9.094941995481967689e-01
-1.742384057181167178e-01 6.393051383323345993e-01 6.732178191298558989e-01
1.558536012131119530e-01 -5.335261743766431808e-01 -7.662118031066070811e-01
1.116865796846247677e-01 -3.218624586145827915e-01 -9.097852829604970992e-01
-1.397590523213173008e-01 6.478480390857245252e-01 -6.599461113472451235e-01
1.985691395481129218e-01 -7.578437716632989707e-01 4.503209284812601521e-01
8.348514510344243189e-02 -2.227990996115746247e-01 -9.551254841377658789e-01
1.553335583857288205e-01 -5.890182261066744251e-01 6.567885016460340841e-01
1.897339836693182624e-01 -8.725638557035305665e-01 2.675284918594407757e-01
3.917485319370641976e-03 1.211811740853285246e-01 9.125227629497525417e-01
-1.994290638034643404e-01 9.112871895845537917e-01 -2.039844347878935760e-01
-1.288691883377464931e-01 5.934113574287264159e-01 -7.105829486903252334e-01
1.556588231718896986e-01 -7.428831544603696768e-01 -6.113825521398890128e-01
-1.457343913975585603e-01 7.035009513090307864e-01 5.528798972443524917e-01
7.003141293965406411e-02 -3.826653701925077922e-01 8.490054609550318210e-01
-1.049730809126674450e-02 3.297688262113016629e-03 -9.992514331034743069e-01
1.338890595219541235e-01 -6.285509881610500393e-01 6.438887718316977926e-01
-2.113866487205621481e-01 7.825887090458411022e-01 3.855949482560573349e-01
8.810861298853629731e-02 -2.285104259145762373e-01 -9.367434209225838915e-01
2.159697069671163983e-01 -8.932419388757070200e-01 -7.858952332073922825e-03
2.213271472218092673e-01 -8.402478094260109609e-01 -3.272187741729687960e-01
2.388167837257254011e-01 -8.899412777063351321e-01 -3.278327435412528579e-02
-2.413044105487164304e-01 8.413735284843475437e-01 -3.307661924623572780e-01
-1.519253278179828748e-01 4.891134729559225569e-01 7.637525565189342558e-01
1.532244024385911729e-01 -6.576604489094400874e-01 5.964580214754178211e-01
1.719633948850360083e-01 -5.487138727243504599e-01 7.203264151293450324e-01
-2.198347378775073468e-01 8.001127017936769947e-01 -4.038107332027364715e-01
-1.877500744482490658e-01 8.730852721367637903e-01 -2.813712944741887934e-01
-3.107452231552137317e-02 2.479145762545870713e-01 8.946945372084682546e-01
8.605678266248391328e-02 -2.260728966077814039e-01 -9.302163684957631684e-01
-2.107862796639599912e-01 8.629722954002263524e-01 3.537540389189979817e-01
-7.968005320943336023e-02 2.046930605568440531e-01 8.947333776875965317e-01
2.561480307038938031e-01 -8.906817000494867687e-01 1.487881442512694885e-01
-1.146252021166521279e-01 4.782360474137306028e-01 8.082547561238353495e-01
2.172302962626035394e-01 -9.412047636469499379e-01 -1.489946458028466036e-01
1.437118429743216297e-01 -6.909534331091693460e-01 6.081473989956289739e-01
2.086021987675986400e-01 -7.273881512466212618e-01 -6.264007800894915157e-01
9.552795637090251424e-02 -4.806429438810734256e-01 7.997446942073476173e-01
-7.546820537236374749e-02 4.303149913875991550e-01 7.916669202550561391e-01
2.533558816495210531e-01 -8.913878236782291076e-01 -1.618665452764880552e-01
-1.570054756445467270e-01 7.495785287936986840e-01 -5.774044385050162154e-01
2.016623222400857618e-01 -8.842613374844888741e-01 3.203759834373330895e-01
1.543990265627778191e-01 -7.218131393887653457e-01 5.456657295759426152e-01
8.987611825134167454e-02 -2.687401752110143982e-01 8.478597601836624920e-01
-1.406980527371144152e-01 6.720533247240650931e-01 -6.862897271030566904e-01
1.057964511867377222e-01 -4.905388201081521959e-01 -8.602043917415255203e-01
4.687864627965653702e-02 -2.559412311824684205e-01 -9.625778461440211986e-01
1.538438558482205787e-01 -7.180807960151863734e-01 -5.973767531191568336e-01
-2.516403065320335086e-01 9.220086019386225518e-01 -1.056672991651178700e-01
1.632553907573603136e-01 -6.219878180282858438e-01 7.085704123963533219e-01
-5.289455775427097948e-04 3.637649957800139638e-02 9.443938548202636118e-01
-1.202035096465587510e-01 6.023845182599667503e-01 -7.301258476699830080e-01
2.331006702801736719e-01 -8.719471224093244821e-01 -3.994640362042931048e-01
-2.201126392118334385e-01 8.682020699671394448e-01 -1.530614500729906013e-01
9.345207732656236888e-02 -3.601966322069088400e-01 8.746343698808027867e-01
1.711355888128300862e-01 -5.737806056457068760e-01 7.312516044321328845e-01
-1.759044443994211004e-01 6.153427149151866615e-01 -6.799581968012975430e-01
-1.936617152673394404e-01 8.719659201589277098e-01 1.715177056659925314e-01
-2.255052135178914063e-01 7.994706368595585477e-01 4.407511792272348905e-01
1.927129933086241531e-01 -8.815435453189592874e-01 2.988556583263825006e-01
-1.925572656259096904e-01 6.747883362786344374e-01 6.220849339457852345e-01
-2.215869627374490725e-01 8.453296446967462074e-01 -2.665374018186082439e-01
2.056022733792346735e-01 -6.831620197481907963e-01 5.943848589296267804e-01
-1.652256395735628158e-02 2.009040867821161036e-01 8.842804182603875018e-01
-2.577410704324838431e-01 9.067498636127701017e-01 -6.512265170330758246e-02
8.876910236206232707e-02 -4.515615949651525796e-01 8.173834545636607940e-01
2.427406797082133361e-01 -9.356440516611714830e-01 -1.827141328971995660e-01
1.705836637737639938e-01 -5.772969848207547550e-01 7.306822762173323937e-01
-2.539177108683869921e-01 8.922600095494511718e-01 -2.657155453745943877e-02
1.596735050261324229e-01 -7.642057705218966435e-01 -5.717303546982308582e-01
2.201360719868689364e-01 -9.474924901925824150e-01 2.775773119607417155e-02
-6.342578235926042696e-02 3.678200015117265576e-01 -9.018891087420762842e-01
-2.111301814868417059e-01 8.908060175641562273e-01 2.774683158143550488e-01
-4.028836428309909290e-02 1.965148237463924807e-01 9.228928016181338068e-01
1.047503074162247916e-01 -4.401604846893799050e-01 -8.920359426810994252e-01
2.248634364165971455e-01 -8.067374770367335968e-01 3.650409970670097093e-01
-1.732397884926203668e-01 6.285068889145384308e-01 6.098102442714585791e-01
2.197911087029497945e-01 -8.019743225671195352e-01 4.809536314244203803e-01
2.386360348553626110e-01 -9.301152715677978300e-01 1.663256950451598437e-01
1.498127968244530178e-02 -1.487210816010843262e-01 -9.352623264193152819e-01
1.106717770023021852e-01 -3.349590847290213058e-01 8.715266619293058348e-01
-2.470989404283732982e-01 8.654003475239983034e-01 -3.199159218352826684e-01
-9.732067239748000420e-02 5.171925530919896374e-01 7.634648924803143499e-01
-1.028927568099474582e-01 2.983534130698649034e-01 -9.307040799252579433e-01
1.497205579845079515e-01 -5.620184783601059886e-01 6.803457303195756811e-01
1.160126171890329544e-01 -4.210549277656844835e-01 7.770133401000720585e-01
2.554424963201488152e-01 -9.395604341522860725e-01 5.949043988578007862e-03
-2.162304835149268245e-01 7.330454041968564871e-01 -5.679001701448960215e-01
-1.957137691997178908e-01 7.074063928825052860e-01 -6.505366164222939895e-01
2.916315311516303257e-02 -2.338571664443134246e-01 -9.268992032653188273e-01
-1.561988830419730745e-01 7.430515143769630404e-01 -5.605286745242892277e-01
1.673078877756796479e-01 -6.283062612906468170e-01 -6.747397912607169257e-01
2.019675288103164046e-01 -8.386325856233440845e-01 -3.432501874144412435e-01
-1.517209265480739255e-01 6.256132145201800387e-01 6.107185444891771731e-01
-1.512698249839657949e-01 4.876121266551117217e-01 7.539940129392862511e-01
-2.501777072095936472e-01 8.785646875987670468e-01 2.076846816905373871e-01
-2.361749485677752947e-01 8.584986796658322650e-01 1.755965867529326596e-01
1.076731436732777242e-01 -4.718703353724264526e-01 -8.052589857170616705e-01
2.208073957354023675e-01 -8.906537456884082715e-01 -5.591360760150221321e-02
2.198643149756931980e-01 -8.705569941461144268e-01 -2.171719307069608362e-01
1.172854131283611739e-01 -5.968775603920982720e-01 -7.484650583161840398e-01
-7.226018315913194934e-02 4.048682466603680252e-01 7.982077437739759640e-01
-2.061743944377946933e-02 1.335801366355051940e-03 8.933198992968973684e-01
9.587433132840815497e-02 -2.786609469692287178e-01 8.475306586731448100e-01
-2.557996775387035293e-01 8.947069217323526669e-01 -1.466998185441028280e-01
1.905247859372644070e-01 -7.918171240498188546e-01 3.977745208265067722e-01
1.090404084552910324e-01 -4.947224556608979529e-01 -8.586567018688554542e-01
-2.246246841464355215e-01 7.772506915099749447e-01 4.553281745827172378e-01
-2.499665964000291618e-01 8.866111695252839597e-01 -6.983972158521160357e-03
1.715306150942939034e-01 -7.357822250623835547e-01 -6.450983973505387548e-01
-2.510862850473676855e-01 8.891738681989772575e-01 -2.492587497192671753e-01
-1.743951279419237166e-01 7.332950491867967768e-01 -5.317561816800049357e-01
1.423273675521200266e-01 -4.377454680125628106e-01 8.118471022841179385e-01
-2.334907921816663789e-01 8.316576448484891415e-01 3.765483645616990449e-01
1.816819407945917397e-01 -8.370599184310255625e-01 -4.008658790779761061e-01
1.006263242287235432e-01 -2.656486591329703106e-01 8.810837135543699850e-01
-1.018264777386199277e-01 5.178678195693545705e-01 7.261737842309138324e-01
2.043728863099681381e-01 -8.131573775934587411e-01 -5.326320817992648005e-01
-1.237117861985792405e-01 4.211644908719069935e-01 8.295673014984691340e-01
-1.314874466277185794e-01 6.407582354262614244e-01 -7.146379462857734843e-01
-2.429858320862436361e-01 9.317320535550498439e-01 -8.859771497833808518e-02
-2.539966705846418149e-01 8.895721576992685620e-01 1.215443361711465164e-01
1.128939809516168319e-01 -3.198423440470624102e-01 8.666758318258177551e-01
-1.297614954396133780e-01 4.204462043495272860e-01 -8.328688226172040743e-01
1.990737440949368053e-01 -7.616234506563770434e-01 -6.069120176291977753e-01
-8.804307246343336113e-02 4.459232860025560408e-01 -8.264625799419655916e-01
-2.245081004707524530e-01 7.823740953821296529e-01 4.138206850619570165e-01
2.659515401358441070e-02 -2.554082150140420115e-02 -9.921950957425851314e-01
1.366418229307964360e-01 -6.618607728736962681e-01 -7.101516826826307360e-01
1.381657607621634143e-01 -6.802360808263928638e-01 -6.718706864678820612e-01
2.215261551977883853e-02 -2.002826367978442212e-01 -9.324032588179874681e-01
-1.211241732563559520e-01 6.068104158614837651e-01 6.958911262012105192e-01
-1.725195689276151079e-01 7.861156614962351297e-01 4.931917871513585294e-01
1.414642641370714160e-01 -6.826620183817857512e-01 -6.872212289976217248e-01
-1.659141989386013760e-01 7.842715393819004177e-01 4.826293439597917900e-01
-2.081231406215403312e-01 9.218158798255582376e-01 1.309989050895953577e-01
-7.142719549917624089e-02 2.823450942255660845e-01 -8.882609957260836353e-01
1.944813671439404867e-01 -8.226867795581002119e-01 -3.894611337263514939e-01
-6.870790407413393530e-02 2.536723266023043211e-01 9.067220206248060022e-01
-2.343878544846839454e-02 2.266202327771389691e-01 8.951127881516969254e-01
-2.905810467857892695e-02 3.259996777052643832e-03 9.075923700171748543e-01
2.078568543437183946e-01 -6.935566415444247568e-01 5.772482540368301107e-01
1.180310113908486641e-01 -5.480715641198409260e-01 7.626446547482950145e-01
-2.359059859943089810e-01 8.756878388150605153e-01 -9.034433700539382106e-02
1.568279855959443803e-01 -6.178848517628294790e-01 6.301853324936996792e-01
-2.015955246467152073e-01 8.107846078718752292e-01 -5.145811463208876946e-01
2.181141851215212257e-01 -8.558935289377210820e-01 3.954807369815145357e-01
-2.596646757572304912e-02 2.030422183601132136e-01 9.140444424687972358e-01
-9.240543105401774482e-02 5.027547571958354000e-01 7.686605156572374753e-01
-1.507554869174577428e-01 5.694463325046514868e-01 7.399619318806620605e-01
-9.046825320498823320e-02 2.366972692148707480e-01 -9.219926703676661894e-01
-2.167842950493459320e-01 8.001202301035124087e-01 3.485287760306697291e-01
-2.138324149741779173e-02 1.001653172427929700e-01 8.771946981946676658e-01
-2.073585679138337245e-02 -2.314496081284114076e-02 9.026268715830557676e-01
1.015321100947877836e-01 -3.400251948391049273e-01 8.784964842181391953e-01
-2.052919593976104962e-01 9.295517198392789782e-01 -3.196494833543271977e-03
-2.363156159421708480e-01 8.650257104018533871e-01 -1.890280377661584521e-01
1.501745830361084499e-01 -4.888228429901143590e-01 -8.402201182849553529e-01
-1.533824462928803367e-01 6.905793450826848145e-01 -6.780070454846716110e-01
-1.644628664737086965e-01 5.573608113261105945e-01 -7.901208637586077943e-01
-2.409070076840036378e-01 8.789291162725725304e-01 1.609961986572689546e-02
9.138708318354002436e-02 -2.351171078191012787e-01 8.704390053851134290e-01
1.961710187367910196e-01 -6.458773300700327846e-01 6.426259744573507016e-01
-2.236550600248701226e-01 8.528774656049934455e-01 1.826876047641590450e-01
-4.628294503503690288e-02 2.570753615813559656e-01 8.476228996767311008e-01
2.357799792763528857e-01 -9.261845334434256616e-01 -2.424497015580066306e-01
2.177527985261198673e-01 -8.513142180978954254e-01 -2.923514611092707938e-01
1.644086609899188256e-01 -7.182486855829914862e-01 5.268421718818968591e-01
-1.813858102253432525e-01 8.493576373804507806e-01 2.935972920120261676e-01
1.197502728919531273e-01 -3.538908029421048984e-01 -8.966821533476507788e-01
-1.118181406080592105e-01 5.172415463005510805e-01 -7.715322909176571820e-01
-2.210525584755230200e-01 8.767088852945772448e-01 -9.501845546519357630e-03
-2.343974875319299322e-01 8.567547381024683828e-01 3.351226291777933963e-01
5.611795703565771593e-02 -1.620186746161163260e-01 9.293520471055557453e-01
1.767561658102968780e-01 -7.107545269976446312e-01 5.239862296735497971e-01
2.451439427773383917e-01 -8.616541137498033853e-01 -2.959074224481166304e-01
1.670322981367737825e-01 -7.154228203226012939e-01 5.264481482351272001e-01
1.078092486861196020e-01 -4.481327216333515495e-01 8.324308541452055676e-01
-2.220450082125937502e-02 1.176729096869183894e-01 -9.910845617167518551e-01
2.440567807378291598e-01 -9.410259297619956165e-01 -1.436545254358231327e-01
-1.646761032062745989e-01 5.764097858287166032e-01 6.649165264466961878e-01
-1.849994640171327143e-01 7.994656721209520978e-01 3.616400309504279043e-01
3.016517884437281208e-02 -2.338911258679157168e-01 -9.580575784316581744e-01
2.405077538722776020e-01 -9.499009081242982822e-01 -3.549698310046518063e-02
2.177373840428498131e-01 -7.932522535001265140e-01 -4.464151915055830089e-01
-2.066954814947748742e-01 8.543056368251029653e-01 3.744241584572698400e-01
4.780157074401869544e-02 -2.997845767440031617e-01 -9.403699762140654839e-01
-2.556204123011627249e-01 8.950653133187637112e-01 -7.785165809847775786e-02
-1.806986748881174998e-01 8.057579232872003061e-01 -4.172247466551927686e-01
-2.528203437588479319e-01 8.860545323717522459e-01 -1.420759522699133470e-01
-1.940747289928191066e-01 6.536774526561029974e-01 -6.532517627393652493e-01
-4.289031063143148442e-02 3.911645841607106627e-02 -9.653797037358486932e-01
2.081660910013676813e-01 -7.819701636698980218e-01 4.076916490304285934e-01
2.251492831052237797e-01 -9.333120333570636973e-01 -2.159476062281503184e-01
-1.035513847841180723e-01 5.327216527465630236e-01 -7.833061740163117515e-01
2.423128842945731221e-01 -8.858262227233786312e-01 2.972441296258572230e-01
-6.037378262197753975e-02 1.819272170237824782e-01 9.202295574951466772e-01
-1.271806894160025340e-02 1.848893867131749802e-01 8.870134422229953852e-01
4.873380256588805831e-02 -2.590754848214907868e-01 8.533461770422300363e-01
2.618168018679078446e-01 -9.122115533473558191e-01 -3.612661125256756331e-04
-1.196919433182905973e-01 4.862295086583311443e-01 -7.841006267011827457e-01
-1.953599229124638459e-01 7.650845820683088716e-01 4.159695979447491920e-01
-1.954834832323448512e-01 9.093406873340290630e-01 2.771982260451217456e-02
1.443944182861594816e-01 -7.027881846707156877e-01 -6.550570906134390858e-01
9.637968907507957206e-02 -5.020121775964128119e-01 -8.396808044482141353e-01
1.758391180387510466e-01 -8.140686319197792953e-01 4.466935676518733467e-01
-2.319605291091022259e-01 9.267171929422914900e-01 -1.733058099666504037e-01
1.398166264377994905e-01 -4.190287452940130719e-01 8.082256374577070357e-01
2.627507550679284987e-01 -9.208898289444598095e-01 -3.708888273246616074e-02
-1.207693825526550274e-01 4.477017499818740087e-01 7.551230344463929489e-01
1.538917724807504772e-01 -6.640842044030996760e-01 5.902184651033374196e-01
1.595772314445602080e-01 -6.954317376291053732e-01 6.347319388248566785e-01
-5.579478665204839344e-02 1.405874542699088181e-01 -9.813261037929160713e-01
-3.441153681004587711e-02 6.947137547556354875e-02 9.355434819859356210e-01
2.003363526036838205e-01 -8.099279538479596807e-01 -5.391424693892946651e-01
3.446726439873645104e-02 -2.172966260983886233e-01 8.683042373510051481e-01
4.994490275377923977e-02 -3.020420898187474723e-01 -9.002169348890670664e-01
2.409273809421104140e-01 -8.607186896776489737e-01 -3.994889889890146928e-01
1.643323743588452068e-01 -6.601406657503402498e-01 -7.297326631975170619e-01
-4.294893561822072520e-03 9.079045420328168969e-02 -9.891206984848630590e-01
-2.408857523747884831e-03 -2.808410588258931917e-02 -9.392265899994424183e-01
-1.286685281929483837e-01 5.347751027896884279e-01 6.939664236204812209e-01
1.971437522885708393e-01 -8.951218174256954097e-01 -2.071100770169233829e-01
-2.300647621358503647e-01 7.899637800635567197e-01 -4.667317090783721922e-01
2.493315373087659215e-01 -8.641077380134107866e-01 2.996133769899920196e-01
1.384317453490703509e-01 -6.805301650208516184e-01 -6.770756648503498676e-01
-2.218949055924465119e-01 7.799126535292767448e-01 -4.587475559423214722e-01
2.253691218437190169e-01 -8.579886681805432014e-01 2.121667127381635098e-01
3.391963330685113243e-02 -3.818167949879879008e-02 8.909251213517980217e-01
1.717892264497624666e-01 -8.018784811520726086e-01 4.611771829802518430e-01
-2.354820936012786466e-03 -1.129089777057135230e-01 -9.518221671305435727e-01
-6.862833132235837685e-02 3.782948005606429631e-01 8.069607835444168042e-01
-2.347316602722084866e-01 9.038304166193815714e-01 2.169132491101195548e-01
2.368681044313008799e-01 -8.173646651131556418e-01 4.159877956405205746e-01
4.785311074141597801e-03 9.984869204228701001e-02 -9.561685263330409468e-01
1.916088514407568444e-01 -8.881949049768024240e-01 -2.837775985645588084e-01
-1.701908560002124982e-01 8.125476933537790769e-01 4.012399275191920744e-01
2.295829921774842908e-01 -8.290819649095130250e-01 -3.689303707461593640e-01
1.799685069676999760e-01 -6.173563651221086745e-01 -7.473259779449122897e-01
6.512601592337222134e-02 -1.221875689740855170e-01 9.111876504342583116e-01
-7.434736826500483453e-02 1.808865029996649942e-01 -9.321845907026090616e-01
-2.313327544653637213e-01 8.554376681296371743e-01 3.454609811053875323e-01
-4.905672970912969971e-02 8.015505709804349177e-02 9.127198332049364371e-01
-9.661985824873478568e-02 4.731483440790806849e-01 -8.070488188641784522e-01
-2.438565792886919145e-02 1.537031144568087315e-01 8.712920076828279958e-01
1.289534568491066402e-01 -6.164495388092410266e-01 6.993270620432402440e-01
-1.272993299149893613e-02 1.774013144731148572e-01 8.834829395595049650e-01
2.345669416339647984e-01 -8.954057239537615009e-01 2.901023494280834947e-01
2.503794476396390412e-01 -9.191630238352382909e-01 -2.286393622013117854e-01
6.451985257688042097e-02 -2.870554499867171150e-01 8.390058949935119692e-01
-2.030900956006086167e-01 8.693408660802424137e-01 3.365883800554236860e-01
2.311756854037781139e-01 -8.353298209001176478e-01 -4.656238373914076134e-01
1.976601923455249266e-01 -8.845164496744378768e-01 -2.327253260421299486e-01
-1.922883109127855317e-01 6.417785606439877499e-01 -6.960099404797467360e-01
-1.026271820945484498e-01 2.954422297028180266e-01 8.662076885937229909e-01
1.037401017244350826e-01 -2.760399913309494191e-01 8.655360421072453292e-01
-1.763912760278203984e-01 6.498765966564093999e-01 5.848064784915045777e-01
5.846628037615224371e-02 -2.006561273890112296e-01 9.241694636285591180e-01
5.607211233371991316e-02 -2.574422627983926626e-01 8.489919918330016690e-01
2.356680239975073865e-01 -8.881508420773706058e-01 -7.714349785842258833e-02
-6.149658568941810538e-02 2.554716568258285081e-01 9.077223102425249213e-01
-1.196800343413469692e-01 4.406178205278457605e-01 8.259544706115207191e-01
-9.425111567929436718e-02 4.696136457437477540e-01 -8.114272721210952222e-01
2.231217869536607501e-01 -8.647856149747941146e-01 -2.405656057293678041e-01
1.627449432585214295e-01 -7.578913163690006449e-01 -5.442626076861165618e-01
-2.334111521744280937e-01 8.617314684143606573e-01 3.283467241421614280e-01
1.752237466346867334e-01 -6.932022409094680260e-01 -6.946514612937744193e-01
-3.981399683957046604e-02 2.756467219198101559e-01 8.528016664030366734e-01
-2.347803883074585651e-01 8.870201605885515983e-01 2.673814723024985351e-01
1.573739612825439116e-01 -7.187269493776562435e-01 5.996548144935722746e-01
-2.938606490986147082e-02 2.141924300887763088e-01 -9.622334906293796841e-01
-1.664737021619473178e-01 6.487451797773238216e-01 -6.377214026668940328e-01
-1.361406669552761017e-01 4.711531653132632336e-01 7.448878613654911218e-01
-1.009834706133828919e-01 2.726355071648175477e-01 -9.275291888724286338e-01
1.312614237585015553e-01 -5.127013481869450162e-01 -7.739409536638408582e-01
1.775542521552437442e-02 -1.458167112837576163e-01 -9.329553365133931297e-01
2.134058619482467611e-01 -8.919990312853747216e-01 4.434309156085147752e-02
-4.778444286952907710e-02 3.135834130678370468e-01 -9.137894942561358702e-01
-8.243947481752159079e-02 3.397444405590717698e-01 -8.660280428326279090e-01
5.137604915195524008e-03 6.136309560620550885e-02 9.384826077660396448e-01
-5.606765511591586815e-02 1.024659453670148102e-01 -9.489575001375200047e-01
-7.595260229327269186e-02 2.406884361426860630e-01 8.521152655315143987e-01
2.837321807583519442e-02 -1.152364856738150312e-01 8.770351524516530883e-01
1.244743749098719682e-01 -4.011422309414898746e-01 -8.523977735993868432e-01
-1.594370582630939281e-01 7.595551483463369724e-01 -5.416544174957980129e-01
-1.319891662265323395e-01 6.485180516952987473e-01 -7.005357556348394965e-01
2.190028107537007052e-01 -7.825417420522526868e-01 -5.564708930938555564e-01
1.547981795737947974e-01 -6.577836249704575033e-01 5.949135573996856552e-01
-2.342365787191092175e-01 8.109985074560501772e-01 -4.124085899042708170e-01
-2.247016781520944084e-01 8.242816237116449285e-01 4.119447580764196704e-01
-2.135737803609037144e-01 7.821913878329542769e-01 -4.405330514545207077e-01
7.647812154695403375e-02 -2.686974117980820420e-01 8.426867625468215106e-01
4.767800004115778367e-02 -2.550323173456851555e-01 8.545847988122027283e-01
1.312660557998831523e-01 -6.396962597272171092e-01 6.522016598766846585e-01
6.702184355561185969e-02 -2.953947359297993680e-01 -9.537475578244041241e-01
-4.208827666748017615e-02 1.197938113966979939e-01 -9.304560669960398878e-01
-1.385683955830930014e-01 4.902620930509407615e-01 7.912341217725958886e-01
-3.914175026590458600e-02 2.603518317704409113e-01 -9.133237702193284235e-01
1.612555220401837852e-01 -7.524367126127243788e-01 5.060374224237912388e-01
2.167865678053882139e-01 -7.484816083311117696e-01 4.830840453544461011e-01
7.062765054241572360e-02 -2.344491004138470336e-01 8.534540824991466712e-01
2.019028319218903467e-01 -8.349778525943623020e-01 -4.953398044011278478e-01
4.340555930107515420e-02 -1.195563162191633638e-01 9.366788644857746426e-01
-1.580681721122949301e-01 5.141382853337639336e-01 7.358995399412735505e-01
7.287676638605648793e-02 -1.731666397912786093e-01 9.152726089666839426e-01
2.436631721079542956e-01 -8.752601273819071714e-01 -2.168146839690705541e-01
2.419409119100646988e-01 -8.388621714837469767e-01 3.725003370560341920e-01
1.572413771123784554e-01 -6.836772375877882002e-01 -7.045764168229176061e-01
-2.075632358933894861e-01 7.091049020698063643e-01 5.428606185153687091e-01
-2.421285330305596450e-01 8.770367815535962119e-01 6.103040665479529669e-02
-7.223481247128812899e-02 2.283175038594021100e-01 -9.077606632176190571e-01
1.607152685858534436e-01 -6.483452121929316192e-01 -6.541952417108922724e-01
1.605165209915066504e-01 -7.682937891706870248e-01 -5.610007092724612621e-01
-1.429659755218759820e-01 6.916723733329858126e-01 -6.548468947925655259e-01
2.228088440757461097e-01 -8.415449676258898171e-01 -3.237658960147944964e-01
-6.265988579785547463e-02 3.278665695679841008e-01 8.795002884508956731e-01
4.198324956205057995e-02 -2.990896276127447129e-01 -9.219024664825153925e-01
1.953796092168926801e-01 -7.851834036445101139e-01 -4.590585041844154057e-01
-1.281699682119397110e-01 5.793677061880209145e-01 7.344295775349383160e-01
-7.756126357164240363e-03 1.053790125731116911e-01 9.353986540886454204e-01
-7.742222174479533592e-02 3.447670646660001004e-01 -9.296668530854255152e-01
1.080547601738341273e-01 -3.072764638659835623e-01 8.752985179210276412e-01
2.603580945934249602e-01 -9.079347119545324585e-01 -7.829908865965498968e-03
3.732126087198572167e-02 -3.556266028703835430e-02 -9.568758972513605743e-01
1.054145065305473195e-01 -2.977161023641997639e-01 -9.215156660934562538e-01
-3.173481972292965109e-02 9.772960532661348343e-02 9.380409037949583029e-01
1.690693854255953532e-01 -7.119903344032365577e-01 5.280707794798366050e-01
-2.160949475992373081e-01 9.305565140838814031e-01 -1.396718770508378338e-01
1.852013848990081146e-01 -8.252719725198141010e-01 3.535452084376587978e-01
-5.073586615114027837e-02 1.060496809845492550e-01 9.235790762127588094e-01
