-5.118220990083686139e-01 2.006690597219887295e-01 -8.574024167138606378e-01
-1.753607493054704786e-02 -3.847878587606208822e-01 6.657279724955051173e-03
1.609897141207108917e-01 8.193989199396328749e-02 -1.441975328068437201e-01
-5.122925628562812611e-02 -3.604455037815093577e-01 4.892544899201697883e-01
1.150810489969937706e-01 -6.598055712294949027e-01 -6.642197321244797115e-01
6.721785050651770677e-01 1.506333768121141670e-01 6.217035783941254889e-01
8.854080433343639589e-01 -3.358994293489837579e-01 -1.464853558187870775e-01
7.143589654616808171e-02 -5.946826667293291235e-01 7.124800048597231851e-03
5.565411761865873830e-02 9.084747214650955305e-02 9.060129968702004821e-02
3.867310158689821198e-02 -1.100315078817718367e-01 2.178113914963186043e-02
6.974873795807702281e-01 -2.488452433602469926e-01 6.852996561208948290e-01
-3.569261229573789107e-02 -4.210230064354650859e-01 -4.084095883988393683e-02
-4.023010703277272171e-01 -1.099641227127830523e-01 2.513871386267210739e-01
5.275655650658805929e-01 -2.680750485007697415e-01 -7.546945867907191019e-01
-1.511280799935800778e-01 7.452299639248570751e-01 2.301534362183701721e-01
2.702686245302251544e-01 -1.661985494102974359e-01 9.330085389950091290e-01
-5.103831288060243221e-01 -3.565816383353921926e-01 -4.892182558955435190e-01
7.300613635813276714e-01 -6.716060225185845889e-01 -4.812696290112141589e-02
1.031603653600389470e-01 5.286249303668696942e-02 -1.264983270137172711e-01
-8.964620220360691727e-01 1.923270469360837676e-01 -3.578090102465968925e-01
7.437085947904643890e-02 -2.690303325737930171e-02 4.910137967941856363e-02
1.494269774830799813e-01 2.643732229486543961e-01 -6.701387067607715853e-01
3.197011181691049586e-01 4.931305711735227137e-01 4.491489653779689450e-01
4.890311648012905521e-01 -7.331019408676353599e-01 -4.137227981372542662e-01
2.413372976814273374e-01 1.188068171854427812e-01 -7.977905649362267981e-01
2.708502666862998981e-02 -4.538496360842287358e-01 1.023160488486922620e-01
2.463677694687730138e-02 -3.388836503666665771e-03 1.011824165765370237e-01
-6.789202303450767584e-01 6.292446384942521065e-02 4.586577937387257276e-01
-2.162503131840337878e-01 -4.300186565990678500e-01 -2.295051592974420851e-01
-3.826942329500724466e-02 -1.314626381714098236e-01 -6.849639124126367939e-02
8.260578892678638319e-01 -3.045398015602114594e-02 4.261914931132445572e-01
-1.324618141350712430e-01 7.027149520280788764e-01 1.094020693613023537e-01
-5.099451673523432982e-01 5.448562067443216694e-01 7.107468283176708868e-01
1.424699071194928668e-01 -4.055273702992872042e-01 -9.126790602855366918e-01
1.776356452138553588e-01 7.540033067005258438e-02 -1.234104830545428161e-01
1.447563408633621984e-01 -5.042845819244397981e-02 -9.492940500803366266e-01
1.032492129318954427e-01 -5.931791292521196857e-01 9.744039488066563726e-02
2.864918937269522736e-01 1.739962270008918732e-01 6.099871716827293122e-02
1.665306576525878712e-01 1.807016076661051573e-01 9.414161789606985409e-02
4.370779633476098991e-01 1.244894461770480604e-01 -2.408425451033955889e-01
7.147306333849974269e-01 -6.834642739423233415e-01 -2.436687882658322007e-02
-1.984369847588929869e-01 -3.273039094766930224e-01 -1.534237280009909388e-01
7.495339346661077373e-01 -3.286385564955652261e-01 5.874423984103891438e-01
-6.679199483043271046e-01 -2.001712868916599442e-01 -5.474632741619293030e-01
-4.133652682399656664e-01 4.875850899814167944e-02 -9.303441665932954407e-01
-7.316642047431006768e-01 6.724744869128684854e-01 -1.961075506288296466e-01
-9.020021001609830336e-01 3.198300199026443136e-01 1.753442214520755660e-01
6.737396775364735690e-01 -7.107874957111705028e-01 -8.420878920569906112e-02
-1.760502533999102892e-01 -3.040409609115020118e-01 -1.335762666673452614e-01
6.580385762620833967e-01 -5.332625624298976685e-01 5.007687629888282199e-01
8.471462892480342566e-01 -7.763434069386582204e-02 4.009586187931026280e-01
3.322893220921356860e-01 2.083742494041368742e-01 8.888877698131970873e-02
4.285704985006003609e-01 3.605351831251488726e-01 7.460426640647331853e-01
-1.458696726467310911e-01 -2.332414724438252596e-01 -1.034379364818065888e-01
-6.886308315601219476e-01 6.570595707272322006e-01 -3.111425109391974253e-01
-6.390668008984523585e-01 3.994655592615932727e-01 -6.822670261639749434e-01
-1.825953544949964202e-01 5.034514359835079444e-02 -9.790197701356219140e-01
-1.833955182121755137e-02 1.862952778809185417e-01 -1.191208475064489125e-01
1.480875957470850768e-01 7.650608309577813793e-02 4.843585006714983682e-02
-5.145175433664122937e-03 3.970246245622341234e-03 1.114773892046234116e-01
-6.224879056580272935e-02 1.268717468405405335e-01 -1.954887944400798654e-03
-3.249207901911590340e-02 2.134254312066086734e-01 -4.973564647287882778e-02
-4.152521182662938237e-01 7.661394756493997704e-01 -1.295418655577119937e-01
4.893539788043067551e-01 3.514281110555455556e-01 3.736543874372168506e-01
-3.234022507570728511e-01 -1.693929365446021906e-01 -6.998996285412617535e-02
-6.051419033627246646e-01 5.875472350317908488e-01 5.946311751653852173e-01
-6.608102555456356331e-02 -6.141191380050489701e-02 1.512683022948080602e-01
7.686871519899369787e-01 9.812392292291791107e-02 3.145499455940594657e-01
-1.246254804177363840e-01 5.854219061234958721e-01 -1.707895525384881819e-01
-1.020152821428974427e-01 -7.889917104976346129e-02 1.714467298875701762e-01
1.594396314728735442e-01 8.515288808058829595e-02 -1.495825362278306037e-01
2.049331274590764640e-01 7.330928156242871863e-02 -4.681134371873576366e-02
4.789780193531709696e-01 -7.460379038638987881e-01 -3.837138834454955072e-01
8.823061884524521781e-02 4.487318827379614961e-01 8.922684611869631244e-01
-7.572801377156797020e-01 3.405578588179959398e-01 -6.057979584161630182e-01
-1.326477320398585236e-01 1.811283948340056821e-02 -1.135146105470057759e-02
-4.947664222623593955e-01 -2.566335756213754260e-02 6.197643920768922676e-01
-8.128137738613239183e-01 -1.433918871685730539e-02 -8.607120255111118390e-02
-1.873212499939022613e-02 -5.011673751043628222e-01 -8.460240685485134193e-01
-1.522641011974469882e-01 4.126718378010521895e-03 4.797485106189817994e-02
5.048768040366451854e-02 -4.854445393294502531e-01 1.622612263509383423e-01
-5.039182076702859447e-01 -2.960461451084103746e-01 -2.813304045297042033e-01
-4.062150660631572846e-02 4.383929591209493881e-01 -2.702467406395834271e-01
6.610916417085818675e-02 3.503823111570559257e-01 8.920516563364022655e-02
7.607750105315777556e-02 2.248119619115243051e-01 8.980373861643273226e-02
6.349061602612491306e-01 1.099500048905543981e-02 -3.897345558784983122e-01
-5.151197081616547546e-01 6.595640058140975759e-01 -4.295205513578455037e-01
-8.206073129589187831e-02 2.391579130777313211e-02 -9.824532858154561010e-01
8.641267733189321731e-01 -1.439594127701092630e-01 -9.176044729452190185e-02
1.926338056870978144e-01 2.211333760706298834e-01 -7.016433650508814290e-01
2.505501499105509122e-01 1.409656156176166131e-01 3.974384418782771211e-02
-3.265505757898791717e-01 5.979785590489620217e-01 -5.228315307966885372e-01
-7.754728160443065121e-01 7.981234296905370673e-02 -6.186871447989503725e-01
1.817605626902648805e-02 3.673445709688940436e-02 9.920072123124699104e-01
-1.363245045631685318e-02 -1.866531659034064983e-01 -2.544684135592456195e-02
4.734160377220183458e-01 -7.805205225334290731e-01 -1.097927465890691789e-01
1.966170403117519783e-01 -5.973284474276492340e-01 3.593352770066572388e-01
-7.758316333171294543e-01 6.477355790577262740e-01 -1.605296740509783715e-01
8.445952068340633126e-03 2.371024713285492871e-02 -9.685591631156461601e-01
4.517726887570266414e-01 1.099235814743995954e-01 -4.701017743841341967e-01
7.870354530609784405e-01 -2.279533337512942293e-01 -3.947112681043488114e-01
-8.511349549605766451e-02 8.238537559323640125e-02 2.333488032874039136e-02
-3.728227971014572151e-02 4.441091235894216172e-01 -3.641887916262009361e-01
2.504698755698844814e-01 3.924006038181410694e-01 2.245222109626350271e-01
5.171206246437991538e-01 2.634349187895692612e-01 2.164198916762246350e-01
-2.535254140579779047e-01 6.566306857168429101e-01 7.145796733393614542e-01
-8.558425971235443797e-01 2.665854555349041477e-01 3.009133507504872518e-01
-2.977935418666246004e-01 -9.622586219393700069e-02 1.821038818535070658e-01
-1.703763502888978876e-01 -2.530466601958278328e-01 -1.155348467772383814e-01
-6.845549862227610916e-02 1.163497673069457394e-01 -2.289418431322556846e-02
5.470069914200836880e-01 -7.028999825417747704e-01 2.595712855613220293e-01
-2.111330677157694652e-02 -1.179810234900221522e-01 -6.424802588896325051e-02
3.291188554545999012e-01 1.554673999800831041e-01 -6.189715637971295870e-01
7.112836813848428807e-01 -6.087549970706478408e-01 -3.573973517656577337e-01
-3.687657308762191111e-01 5.787858442669988612e-01 -5.717959460676330652e-01
1.801054238228441684e-01 8.406040498511695158e-02 2.711244546029727143e-02
2.994722767948744258e-01 1.173880304839848010e-01 -5.996814879640561397e-02
-7.951564194988045009e-02 -2.352052308549531026e-02 1.321739806175522280e-01
-4.863610350918670666e-01 -3.024445924545853259e-01 -2.757816969516980743e-01
-6.019650613803447792e-01 -2.585600512212374302e-01 -3.421335683471357081e-01
-8.435876125250979518e-02 5.581570079417668140e-01 -8.599311233643261443e-02
8.898197962607807751e-03 -5.387705542595874197e-01 -4.837973999795376623e-02
-6.975031311170589721e-01 -1.448975471244591876e-02 2.309579218916121834e-01
-3.277672702549833117e-01 -1.295423125175075574e-01 3.010330476162287883e-01
-1.159158692563764526e-01 -2.814828983584403699e-01 6.743800304312255189e-01
1.722574853543434037e-01 3.085054774361047358e-01 9.516239774414697594e-01
7.290024146309952435e-01 -2.049739164007730388e-02 -2.572917408009431917e-01
7.628120759657375238e-01 -5.914221026442643137e-01 2.453028890795677375e-01
1.685480976726378421e-01 4.952886036802090636e-02 -5.611595732881522608e-02
-1.841105561686610936e-02 -4.694982526972029668e-01 -3.738187077129374869e-02
-6.966884046178942191e-02 1.085572212258155422e-01 1.380460976444670626e-02
4.321792287394040089e-01 1.171778815581464156e-01 -4.945149520785073194e-01
2.070643818483244858e-02 -4.141515466364709686e-01 1.547707267358892635e-01
2.807994034267964900e-01 -6.512882122605170299e-01 3.328032093831047589e-01
-4.632331631482972667e-01 5.303102537654309501e-01 7.519197386480651613e-01
2.446073495902885420e-02 1.404634367539381139e-02 1.007003068942168011e-01
5.729833333011338237e-01 -2.686093739656909493e-02 -5.746855895904675604e-01
-4.622221902502189894e-01 3.055534895323371858e-01 -8.331094728273780170e-01
6.427128712134320097e-03 1.356353648528846878e-01 -1.438318683725484937e-01
5.240848503777031375e-01 2.921299875927353962e-01 7.034626831410386583e-01
-3.349057750735784378e-02 4.102979033544181808e-01 -1.990340692091156771e-01
8.570254628067911495e-01 -1.105760352159228799e-01 -5.798316079944864504e-02
8.993527951974901180e-01 -3.086890558214854807e-01 -7.468276432470634385e-02
-6.004029752202464376e-01 6.264980289288706317e-01 5.586413405284150757e-01
2.872842537503581539e-01 2.974371545502137448e-01 1.661533777194057482e-01
2.376137725892379926e-01 -4.013422494710666699e-01 -8.930846568230257354e-01
-3.226591722865288642e-02 2.628373826310303474e-01 9.868706533621032229e-01
-9.281856138076939600e-02 -3.250727683365028930e-01 5.048188001842615069e-01
2.782613032932859665e-01 2.011483054152216898e-01 -4.766808422497328945e-01
-4.647486809517331792e-03 9.834854067224674257e-02 -1.272996365210150027e-01
-7.624079431896185755e-01 1.678382724816114835e-01 4.341311380243221829e-01
-4.237904968175084525e-02 1.758743633986802335e-01 -5.154956671252274719e-02
3.227766583716967230e-01 -6.778356868117870748e-01 -6.245516636630501495e-01
-2.189723654783679030e-02 2.866234022821340655e-01 -7.922705277704210347e-02
-3.924512649479521831e-01 6.780928934587366896e-01 -3.827912299836289112e-01
-5.896768082518080017e-02 -1.690702784298887262e-01 -6.962991182233364829e-02
1.372727217294628967e-02 -1.484006143403745204e-01 -6.452168962352147069e-03
-1.769064741558682707e-01 -9.436408786572984819e-02 1.974788833686951517e-01
3.140826325562764282e-02 -4.518832192509756873e-01 1.312952059182889153e-01
-1.617359704816217769e-01 6.701849716157917136e-01 6.954032532029988944e-01
5.334245463498428208e-01 -6.996554093695387389e-01 2.767056005093203042e-01
-7.428441363980253093e-03 3.923862383024144251e-01 -3.090509685908349180e-01
-3.041560506225414184e-01 5.517081940002711571e-01 8.101853157501583969e-01
-2.550450429974522315e-01 -1.067681149250628014e-01 2.197548774396825555e-01
7.695526938814440943e-01 -1.030964905138700566e-01 -3.155743827978690907e-01
-7.439086171083241217e-01 -6.949980500217893542e-02 -5.240773525522678111e-02
-4.827567072561585459e-01 7.796207713774376824e-01 3.648681087187629624e-01
5.196145947204460804e-03 -5.567284123926788952e-01 -7.695257337143047993e-02
-9.050084422041113630e-01 2.674664377952656880e-01 1.394730647971748339e-01
-5.929575221432727833e-02 4.614882733590118802e-01 -4.783889711873119399e-01
6.455820396347090595e-01 -5.439859434466739102e-05 7.564946793029163619e-01
-2.167702587806278058e-01 6.370321447492429678e-01 -2.928057031487433237e-01
1.771678048091701319e-01 2.243445011911555376e-01 -7.174541767233991729e-01
-1.712679148716794719e-01 7.066711460151940682e-02 -9.743613107287599773e-01
7.949742108016720488e-02 3.270659691526451862e-01 -6.249015726666092840e-01
-3.089083805129325816e-02 1.127147490216006825e-01 6.450167048908421463e-02
7.256609278489458727e-03 -6.855040145239914562e-01 -4.234173593689329884e-01
-1.116391923630524405e-02 2.785112053504096852e-01 -1.043022283549237608e-02
-1.739408455304883652e-02 -2.663273969071699443e-01 1.781770168350849393e-01
-4.929242398454771745e-01 2.052315336348460861e-01 -8.649616499026462346e-01
4.976297095179224583e-01 -5.420337890210273901e-01 -6.833947219271846452e-01
-1.744345468368395102e-01 -5.678528955419003266e-01 -3.787167818498194394e-01
5.484315034149689350e-01 1.324969658147859101e-02 -5.513829320644813015e-01
1.054205284317998176e-01 -4.849778115661266820e-01 5.176365814972616608e-01
-5.908442201587715131e-02 -3.036423455742175981e-01 3.162494620032573756e-01
7.352650516678638226e-02 -6.650684889449798298e-01 -1.396403695118205168e-01
-5.596929305324301919e-03 1.290391586882680408e-01 -1.317556255530837883e-01
3.669530628869470124e-01 2.071802443276966610e-01 8.391862955044733507e-02
-2.495839907645755751e-01 -1.705861840884898284e-01 7.146840448662300505e-01
-3.787963345957199440e-02 4.202472742887615742e-01 -1.429871921702659532e-01
2.223839399794745042e-01 4.924937033466186831e-01 7.785782056797063699e-01
-7.626651301512700210e-01 2.432206134229454031e-01 4.854256812360815965e-01
-5.171238619872824127e-02 -3.083794900827030450e-01 3.063286525264890536e-01
1.242554464660879099e-01 4.660374906911649712e-02 -1.106378242885241447e-01
9.666707844189244281e-02 4.448666222822865723e-01 8.927686204137541548e-01
8.077137399278353502e-01 -5.914006319856536242e-01 -4.343547142912485698e-02
-7.633866183154074392e-01 2.869056847381756467e-02 -6.188941606652355043e-01
-7.464535967148101525e-01 -6.500192194699988546e-02 -4.399938090381791400e-02
3.756692427562153269e-01 1.476476634812968758e-01 -3.818507588955310506e-01
-2.189155864203028434e-01 7.543632578891957818e-01 1.048280320332194149e-01
4.417579019160111642e-02 -5.893732747152909124e-02 7.449303511898390517e-02
3.235075019702186028e-01 1.707678648762934182e-01 -4.077725473482639029e-01
-1.514269856779240642e-01 6.282667894424784349e-02 -9.763654579278362444e-01
2.149347300926943705e-01 -6.099259808451050757e-01 3.558108365196299694e-01
6.136937414988347106e-01 -5.784637084912646054e-01 4.743033580282753348e-01
5.489766237106848967e-01 1.843677557454271310e-01 7.771485385781913557e-02
-1.003508240404185625e-02 5.414647265663702358e-01 7.323215811067908254e-02
4.968260925625955782e-01 -3.870559603717575459e-01 7.488341455882583375e-01
8.207798994370710810e-01 -4.198406188233480552e-01 3.997937226848972125e-01
3.500501927823019832e-01 1.338439514751006698e-01 -2.404125498565387598e-01
-4.515213055914756302e-01 4.022615824434376819e-01 8.190232569091231429e-01
1.364902239911280207e-02 2.684919208812079350e-01 3.772327030210262389e-02
2.403590856313380930e-01 1.652679362244834915e-01 -7.395544269784489755e-01
6.667796165894445126e-01 -3.292632217492658664e-01 -6.076104417984226069e-01
-4.063492182955688037e-01 3.900102104480395737e-01 8.489916881189072395e-01
-7.307739197463515302e-01 5.497603834112287924e-01 4.703598819110228479e-01
-3.571342045198687420e-02 4.423378001883534506e-03 1.164469161858552315e-01
-4.424676589732082221e-01 -1.109137980195649270e-01 1.181435322724232184e-01
-6.103402228227147175e-01 -1.956726302811592419e-02 4.102858940441578284e-01
-6.901003381759455158e-01 7.171501688998492829e-01 -1.209347010784986437e-01
7.438356406647075314e-01 -3.881263424782957494e-01 5.550852182629587572e-01
2.446435424514407653e-01 2.291311635825167003e-01 1.138186741925536760e-01
1.580328931302877812e-02 -1.259593194699262786e-01 9.390177182022867164e-02
4.067071896002051323e-01 -1.215727835391819528e-01 -8.248773618372228222e-01
-2.185106183238757493e-01 -1.784689812591395697e-01 -9.749847397598476739e-01
6.399834891342414123e-01 -3.268090346758601439e-01 7.026273334770968271e-01
-3.690338739968116455e-01 -1.390548259373745876e-01 4.119863647783253979e-01
6.675721019830524461e-02 4.362243604848401457e-01 1.139379540358812087e-01
-4.207903584183814716e-01 -4.495811351269849571e-02 -9.259349036431282487e-01
-8.003561812406355669e-01 3.051345631764680877e-01 -5.641056936704352820e-01
8.752317152193174188e-01 -9.807467407187113462e-02 2.637153767317367281e-01
-4.400995735475669510e-03 -6.697585233116510883e-01 -3.347948031706117766e-01
-2.536758435574913706e-02 -3.238104391855013975e-01 2.580733034338366649e-01
9.109748086365453412e-01 -2.865236844835433172e-01 1.521417719192148799e-01
1.216257360273776816e-01 4.872607225685095522e-01 8.466998945705569435e-01
-1.308675202294222184e-01 -6.035109496414803321e-01 -6.035234152412254360e-01
4.485451527464608401e-01 1.270032862766175968e-02 9.101570873490799629e-01
-9.175164748375100876e-01 2.097107220921716197e-01 -2.559376914499632005e-01
-2.845401377452665137e-02 6.524400666320886444e-01 1.986779554988756524e-01
-5.199199979715325715e-02 5.150292142323545930e-01 8.662334251963650367e-01
6.738220310348184139e-01 2.092527131194685253e-01 4.266398602701978460e-01
-8.772296157622399004e-01 4.268153506671140685e-01 -3.242289150918013507e-01
-1.283677904914439782e-01 1.914145047618561607e-02 6.382604162299233830e-02
5.668797162922142169e-02 4.195203454714598046e-02 -1.242196765400350594e-01
-2.266291133501608344e-03 -3.086116661193311073e-01 7.362649965238368677e-02
1.865446665219117339e-01 -5.081081027044029863e-01 5.775821687790542169e-01
4.745916285618674846e-01 -7.794057026183933701e-01 -1.899183267337554437e-01
7.388668638695519708e-02 3.117248641357385774e-01 -3.677584385735460648e-01
2.813898104917665899e-01 2.401340741114148525e-01 1.215097444083156758e-01
-3.342824542886456696e-01 -1.165294994431739367e-01 6.961283503806267037e-01
8.669553553207882679e-01 -4.902417204060899869e-01 -3.722427807393347693e-02
2.685193786861128640e-02 8.759051824304026068e-02 -1.413223665579187160e-01
-1.086496095480476709e-01 4.405328846849074914e-02 -9.795367403965425934e-01
8.727750289697815134e-02 -5.075386701414739132e-01 3.472230474111577814e-01
-8.095471777255278667e-01 3.893964210403009218e-01 4.216184827962218828e-01
-5.296547118825368772e-01 -2.898428824117572633e-01 -2.984714743717092889e-01
-6.361239534357894243e-01 7.638561326504826887e-01 6.203783270398450372e-02
-4.067102105630540643e-02 -4.167543425504495191e-01 -4.707972485782106753e-02
-4.679601503716133704e-01 -3.046408387600551548e-01 -2.633885640435402742e-01
-8.103671879751073647e-04 -2.993825617323036536e-01 9.444053545097695623e-02
-2.569262667638588238e-01 6.903072373678000861e-01 -2.051266195339053189e-01
5.000464775963908703e-02 3.550745811283405606e-01 -4.220686582855797120e-01
-4.580349389268267291e-01 5.895127297567429592e-01 -5.598108842051883194e-01
-2.125070853347461874e-01 7.100261466161824631e-01 -4.776234812319379852e-02
-3.459614627735526082e-01 -3.150654052650291304e-01 -2.065374910885027226e-01
3.609267115783699742e-01 1.273198982463207563e-01 -1.072370495688618891e-01
-2.594856806563982099e-01 8.915620003695251539e-02 9.195834633123365354e-01
7.385246779278621387e-01 -6.219474295572487987e-01 -2.665966971341308112e-01
8.340446988528029681e-01 -2.533851587430413499e-01 4.789717996142250911e-01
-1.125520394911489960e-02 3.370821182824487727e-01 -2.744048341099306759e-02
2.818689063940245099e-01 2.002061945900308060e-01 -5.406354374261611584e-01
7.747090587733670430e-01 -2.862906594635959423e-01 -4.395234589527928226e-01
6.610310322855386111e-01 8.580040120972380613e-02 -8.633078560208512497e-02
-4.163902434130254959e-01 -3.394010978192999600e-02 -9.290344996029542557e-01
7.769274519307395321e-02 1.832163556503853818e-01 -2.230775369629645066e-01
3.223963254939780643e-01 1.708448103620221481e-01 9.469281152213855357e-01
-6.569259935854004570e-03 1.698391840498461591e-02 1.088047916535910542e-01
-3.467257565651272744e-01 -2.873139684777811786e-01 -1.806856712591937142e-01
4.292793612904849399e-01 1.257578420402945818e-01 -2.496150414512670057e-01
1.818837915220876678e-01 2.748666210298552626e-01 1.302173988246833336e-01
7.960358523028425448e-02 -5.270701199226118794e-01 1.928522595708331011e-01
1.173468260826174975e-02 -5.202922627262550614e-01 -2.192782968411843836e-02
5.762175047110564829e-01 -5.715160196347385257e-01 5.107419026279461649e-01
5.765749162666481548e-02 -4.950631779653933973e-01 1.770629458177142845e-01
3.036170677313532185e-01 4.904240152808910791e-01 6.859216169633423066e-01
5.293273645623786106e-01 -7.698439016542993896e-01 -1.471763456303084028e-01
-1.125013260029521789e-01 4.908854156618531750e-01 -5.296614774472702125e-01
-7.208162664340901360e-01 2.268217921510505830e-01 5.458596966399990036e-01
-1.936832025292161974e-01 7.708339673760977728e-01 3.549212156032442445e-01
-1.104011857396566820e-01 5.192254783672066720e-01 -4.062309556025031076e-01
5.161632985748639824e-01 -8.002075233629110662e-02 -7.020633910059310701e-01
4.761605227030307058e-02 9.954484243983705016e-02 9.076281236207582592e-02
-1.310612713276365360e-01 4.834199559782613453e-03 8.582855356294483151e-02
-2.657997341682302034e-02 1.206091973952215651e-01 -1.097820825547369816e-01
-8.280643748119477232e-01 2.054341822542292140e-01 -5.417788213986318713e-01
-2.041030683929367234e-02 3.769314665495537287e-01 -5.815835990460593852e-02
-2.690233391112415995e-01 6.612207840977483153e-01 -3.159976884131727726e-01
2.560540293083305441e-01 4.494845060635025980e-01 8.078373736953565754e-01
1.111069361697155505e-01 9.842881163063353644e-02 7.895325286145557508e-02
2.295052416045918198e-01 2.545050785463944809e-01 1.283711168099390398e-01
-5.453898879534349042e-01 6.508191870110908647e-03 -8.579205250546400041e-01
2.048555564711353541e-02 2.751047390074955468e-01 -2.208061597727970227e-01
1.207445141623515877e-01 9.241225815001744004e-02 7.324374424892235447e-02
-4.570905481559663364e-01 8.058522046463169053e-01 2.060325187838764338e-01
3.725443278439264927e-01 1.215437462534908752e-01 -6.269874442368372769e-01
-4.732746673642677093e-01 -3.020339248599712700e-01 -2.634780034705121454e-01
-4.346766486754957692e-01 -1.062666280259880053e-01 2.542038094931147185e-01
2.963892219348411849e-01 -8.364553485834966273e-02 9.555411422205920546e-01
6.137311360285501415e-03 9.806926602361580592e-02 8.719199558927925864e-02
2.698369232252460503e-01 -7.008462293598970438e-01 -5.943653485605125963e-01
-4.117272998619126989e-01 -4.149179407610382730e-01 -4.178524517380177716e-01
-1.431194876205580391e-01 -8.305621979694741142e-02 -9.958794645743128671e-01
7.206735825394507966e-01 -4.710526464364724331e-01 5.076473710244866488e-01
1.780674410830793419e-01 -7.046143325869186347e-01 -5.811262644763132146e-01
-6.435287546391256219e-01 -1.986164172273474082e-01 -6.223900637845192207e-01
1.375857657207189555e-01 2.856152185324973836e-01 -4.515700276041395567e-01
-2.372702741483738442e-02 -3.844982285787862386e-02 -9.145526265536668697e-02
5.178430280257976248e-01 2.509164250129839457e-01 7.615760624206083795e-01
-2.743467509773549473e-01 -9.080326688831584503e-02 1.753247107533154048e-01
-8.010579178433946401e-01 2.907956088187310661e-01 -5.687630448178814246e-01
7.956767838993551445e-01 -5.743039901824290583e-01 1.949689446604446763e-01
-6.915281135604122234e-03 3.761501841926794265e-01 -1.323138421397752375e-02
-2.435654724083227141e-01 -1.171283378917219037e-01 2.396357438363013181e-01
7.979160195092482866e-01 5.745835940930865693e-02 2.978388519519177824e-01
-7.055705634966698281e-02 -7.185778798231882807e-03 -8.541223650932978917e-02
-1.851077535962162013e-01 -5.266316151705978665e-01 -3.093763123819463501e-01
-6.076753215295617183e-01 7.301062312042289060e-01 -2.060976476745740305e-01
-4.473038640016819278e-01 7.930355508606535819e-01 3.335089334141297934e-01
3.664230005534596657e-01 1.838702474646647655e-01 9.223207039459609957e-01
-1.573399431293972528e-01 -8.289041985713877306e-03 -6.319266937058242231e-03
1.654538661236471322e-02 1.573147781415647484e-01 -9.043157675572517373e-01
1.724547762426182837e-02 2.744179905916341311e-01 4.084520392766428920e-02
-1.538385386529852739e-01 -1.037885480513954338e-04 4.091634117297161810e-03
7.194464633019792554e-01 8.068504301350171160e-02 1.732108856218695161e-02
-1.998511303884163148e-01 -5.624794623474326238e-01 -6.254510680606947259e-01
3.411690918759652247e-02 2.943887219633800623e-01 -2.637947978363428536e-01
-6.709729813721929670e-01 5.358589500576883546e-01 5.646242087373671836e-01
-3.055381016360868562e-01 -8.877510282052648860e-02 1.360616362618419228e-01
-8.618781787334126032e-02 -3.011039864462206617e-01 -7.853406509395026436e-02
-1.394562087814636975e-01 -2.887436589864758596e-01 5.232358770395733050e-01
-7.732040411047895745e-01 1.185787874863214186e-01 -6.311024589654244954e-01
-3.188530968077442074e-01 2.759353856332581456e-01 -8.809777534769006602e-01
-8.374037666303596472e-02 5.053262878703942279e-02 7.242497624536257950e-02
2.337647764710730491e-02 -7.674577421740481908e-02 -5.669106259050565866e-02
-6.268931130995584189e-01 -1.180747720175549659e-01 -7.374184142893678295e-01
-4.685499052577324353e-02 4.626754646436216367e-01 -1.069800333594283781e-01
8.749690820946518510e-01 -4.672580088717260827e-01 -4.963006938891768166e-02
-1.695286217591102443e-02 -2.027195281190906084e-01 -2.201595670439863636e-02
-3.923653560247278987e-02 -2.116655329886965031e-01 -4.517926008496127993e-02
4.062979491542325627e-01 4.422945931853182744e-01 5.712846808614305827e-01
7.266572511411504287e-01 -3.878679088299031297e-01 -5.160223249989014382e-01
-7.040676942865858878e-02 -8.290540771888030291e-02 -8.466620263228084864e-02
2.300267154002521436e-02 -1.158141360533392200e-01 -2.285372949040779048e-02
2.431855626558845074e-01 5.547037511478382088e-01 4.994441200329109987e-01
-8.346325749832953500e-01 2.414806033480481062e-01 -5.252533522859632598e-01
2.110517384396533649e-02 1.857160004165220313e-01 6.779653487082352992e-02
1.569469324353309492e-01 -7.435963132435672307e-01 -3.768808155459002496e-01
5.618953245871399771e-02 6.520622260246727864e-02 -1.384105634673771512e-01
5.844793439987145955e-01 7.800942316978642932e-02 7.975426147728901238e-01
-3.950939394619328027e-02 4.531195250237878835e-01 -8.323477440269196059e-02
1.102806908918873841e-01 2.676866753555837922e-04 -4.188359776488444208e-02
7.181060130744765235e-01 -6.679629978016222713e-01 -1.778933470591222421e-01
2.941194532455177479e-01 -5.777962508198967173e-01 -7.590866405319539600e-01
-3.432269566552476059e-02 8.960794927315737790e-02 7.604502668525446596e-02
-2.058597490554752163e-01 -2.686232383865357343e-01 -1.312097581850135419e-01
8.735294874165189238e-01 -8.439810888058921212e-02 1.957794370064589173e-01
7.838159102893155206e-01 -1.044273852095861654e-02 -8.405849238737561624e-02
-1.880320786392170318e-01 6.544887726776157377e-01 -1.630470950087770654e-01
-1.201982855722041194e-02 6.082305420811089103e-02 9.603400692103025715e-02
-5.805539673402485557e-01 7.187178015982534918e-01 -2.642086410748937242e-01
-5.381194122485254416e-01 -3.268645796577351881e-01 -5.826957148472542425e-01
-1.724867984500003948e-01 7.637261704661720829e-01 3.180227173796225104e-01
3.388836584621780501e-01 -7.107432863328844164e-01 2.153763924192311774e-01
-5.031477810197129141e-01 6.963137978479987389e-01 5.509758166680437386e-01
-7.032211154319420454e-02 -4.534952893395802764e-01 -1.059850829672173006e-01
-3.225062511837254453e-01 -9.180726175960772506e-02 1.092955425864489960e-01
-3.452179582770820154e-01 -2.603103667853173264e-01 -1.556151536037191641e-01
-8.495094654922795696e-01 9.732253905252608028e-02 1.065747419357425119e-01
-8.365537902507779178e-01 6.032242170388325553e-01 6.408325458336884550e-02
-1.599155719853018187e-01 9.901073911020671914e-02 -9.658733848148701728e-01
8.797641246242940971e-01 -4.478477808675782046e-01 -6.609166190487389403e-02
3.372813493406343066e-02 5.950608507920084750e-02 -1.315650113248231501e-01
1.111881359688500076e-01 6.152146365831521807e-04 9.913439386152581578e-01
-1.320646270457539150e-02 3.626100172835949875e-01 -3.332114599524405724e-02
-6.209455045509461035e-01 -2.580644264501414376e-01 -4.139354122770870226e-01
3.414243742210182342e-01 7.919783964187680769e-02 -7.427393790699501341e-01
4.954867376449140770e-01 2.266789944734471096e-01 8.067174372026192364e-01
8.808465241251264288e-01 -4.443941156713129836e-01 -6.586825205598297039e-02
8.095284841696134270e-01 -1.705394800993929594e-01 -3.008539249631372314e-01
-6.050009827465803181e-01 -1.170343115237307829e-01 2.279347485996149891e-02
-5.028710829532143101e-02 -3.460508508151796669e-01 -9.460754181387600603e-01
3.462255709682838800e-01 -7.201028821803657776e-01 1.904970858069755524e-01
-3.437906826285823114e-01 1.339855629638294320e-02 8.308094738894770126e-01
7.203869094365967785e-01 1.297637582544413359e-01 5.259414062543636970e-01
1.519257104033777395e-01 -6.787487447421647335e-01 -3.926204214482383222e-03
-1.393674898500544823e-01 7.518991579698817151e-01 4.092379419803970353e-01
-8.594278461876549979e-01 1.296666128258537887e-01 -4.540465273621268616e-01
3.675651946308833851e-01 4.218000582527393072e-01 3.533323294840635120e-01
-6.087138251081342794e-02 -2.538564332244336863e-01 2.587733174278485371e-01
6.842399776412637635e-01 1.027852180380552927e-01 6.503831094019845160e-01
2.308114912684193498e-01 1.157181172449549961e-01 2.117291919099949932e-02
-8.780953444220432336e-02 6.235714954407712840e-01 2.553367621900776152e-02
4.212656480048071472e-01 -4.121047373772293576e-01 -8.074454998243107973e-01
-3.198020076184160954e-01 -4.146695818647254117e-01 -2.984895951657960400e-01
-8.077696330048410589e-01 8.052385381317393731e-02 2.019534646641198139e-01
-6.520566466022008345e-02 -3.152917246294635878e-01 6.759458709175258928e-01
5.387815355069246886e-02 3.163167453553342168e-01 -7.013057584125315103e-01
3.917987970183950050e-03 -3.522348718645715859e-01 1.579388926060968090e-01
1.615377438930972187e-01 4.293475791904415306e-01 1.933372083728804591e-01
2.046012071284370598e-03 5.887425472690809292e-01 1.462147908545314290e-01
-6.396355005220178969e-01 1.832062387306942347e-02 4.489175060638017078e-01
-2.372605048460739441e-01 -1.060483165897597307e-01 2.180133370381795999e-01
-6.638303372871844354e-01 7.508065339692565621e-01 9.691118206589098560e-02
-1.001615029422169290e-01 -1.347560372498836090e-01 2.095180019523210369e-01
-2.791635335398175988e-01 7.832384009590942497e-01 1.329432945268370636e-01
-4.864049498250001824e-02 5.917472118856744734e-01 5.878913252844903542e-02
-1.719011776088059593e-02 3.550930058677551626e-01 -1.864913710523326273e-01
1.169851442515501133e-01 5.177399492817655879e-01 8.156904215197301466e-01
1.357249228216956538e-01 2.271930205133914152e-02 -1.313069025278274134e-02
-2.788979401166395977e-01 -1.892953452552403326e-01 -9.513714634245140633e-02
1.359104251242495842e-01 -4.938737241981957515e-01 5.483338320839424851e-01
-4.518180417564028328e-01 -2.920299816744547639e-01 -2.324024251545381559e-01
7.660626100557457567e-03 -2.015541272531075068e-01 4.993925568704524198e-02
3.276215771683625433e-01 1.498013363214596994e-01 -3.062311553479081239e-01
1.634514136778203175e-01 -6.002466281257216041e-01 2.680341884452208667e-01
-4.451219976914432830e-01 -1.281717983784583237e-01 4.309607751543696047e-02
-7.289664676660527753e-01 6.844511210957188174e-01 2.468417553659755515e-01
-4.019501541932938848e-01 8.044664243414533233e-01 1.096942888172706965e-01
-2.538856139370528342e-01 -2.015636605244405521e-01 4.574698739710576501e-01
-8.389296175097559205e-01 3.572710653816204424e-02 -2.103679374358664173e-02
-1.300183179163494906e-01 -4.423553496080513403e-01 -1.643792873509749564e-01
1.155135544404157083e-01 1.955307968193296941e-01 -2.624116483898127905e-01
4.735087568301961092e-01 1.937722312106110734e-01 6.602264671409263652e-02
-1.703098373388850506e-01 7.011029431370813247e-01 6.389885508487379573e-01
3.823841490931471632e-01 1.405492809868948145e-01 -3.293813975449459974e-01
7.534806638260926892e-02 -4.704918498057383131e-02 2.868158143536223264e-03
-3.735520916767519350e-02 -5.141456002775947852e-03 -9.668753926285868217e-02
-1.647722602228186284e-01 -3.523634510031140726e-02 1.207571426028046097e-01
-9.767878570535731830e-02 -6.542200215756338588e-02 -8.140148983077101497e-02
9.048792722792765864e-02 5.933268553197023065e-01 7.189558754327871615e-01
4.424886736162747525e-01 3.815659959191819994e-01 3.712152672816496080e-01
-1.267246501180595841e-01 -1.075493305486809742e-01 -8.180754540331958147e-02
-1.174675915931982645e-01 -4.834702697825847273e-01 -1.814196856963531113e-01
2.189226163245548695e-02 -3.815424382300268147e-01 6.529325415514005693e-01
-3.446391497426553041e-01 -1.013888551664750004e-01 1.799768017763957728e-01
-5.941182680229929458e-01 5.930390214748830768e-01 -5.083692007364661869e-01
1.420046851248476238e-01 -1.389516600727389029e-01 9.477210256900396868e-01
-6.053774339367951063e-01 -1.175776390672330501e-01 2.077646964933520246e-02
4.230932311038796412e-01 1.264072717772024290e-01 -2.041292926556090293e-01
6.181479829129937764e-01 2.640362647530440365e-01 4.325285636408066070e-01
8.490055525754456323e-01 -6.402287434183739911e-02 3.737015374276143609e-01
-2.330932471716355980e-01 -2.010103596149722671e-01 4.106156228271679587e-01
-1.916635487236361124e-01 4.993346333093980904e-01 -6.173443416265759209e-01
1.288295925760497562e-01 1.989885062830878612e-02 3.704755604317910931e-03
-1.278401088246297890e-01 -3.077010711002081331e-02 -5.960307582266052145e-02
2.032387762686382882e-01 -7.554396576159153609e-01 -3.743894528442205383e-01
-1.456898320926254264e-01 3.382587251066031531e-01 -8.153253218214723264e-01
-7.387735672710676882e-01 -1.398908071420732480e-01 -3.538403174258299422e-01
1.794501017295812781e-02 3.848815360564270538e-01 -4.041721352119323485e-01
4.965792363625718409e-01 3.720692762688526667e-01 5.404081688085965451e-01
6.906467350330711685e-01 -3.836312486153474199e-01 -5.686554519441091582e-01
1.443427919325353803e-01 2.452355784124943816e-01 1.124052351011764206e-01
-8.547301717175889713e-02 5.016131105805285602e-03 9.622013145130891010e-01
-8.930847968603454756e-01 1.151924007356957963e-01 -6.938977099714520314e-02
4.118249215746945247e-01 -4.445934650308920877e-01 -7.991935495917288357e-01
1.457496344274013256e-02 5.795501446618369634e-01 7.837143465148328492e-01
1.911393434979107298e-01 2.969024677416587932e-01 1.417205846162749028e-01
-7.138731301415790487e-01 -2.356167391109836948e-03 2.314460158662293709e-01
5.313274592274408459e-01 -5.272069741457399150e-01 5.944233514401422447e-01
-2.789396224693546644e-02 1.753808160335436350e-02 1.109513927296535557e-01
-2.754323904435359016e-01 -9.585871974275772534e-02 1.900318748781054945e-01
-5.273565016090149271e-01 2.652055386610050469e-01 -8.257112088094183955e-01
7.317951118730618987e-01 -3.202373515927789405e-02 6.510776653511050061e-01
4.091012388711642855e-02 -4.507737850398705892e-01 4.157260641609731300e-01
5.952162437413390794e-01 -5.221114802671865673e-01 5.652852782549322441e-01
4.042887287992649042e-02 1.059448567732407774e-02 -1.064357864408743276e-01
-1.852839307350698239e-02 3.369287379347807310e-01 -1.537715191179460372e-01
-1.718630120813291733e-03 -3.947699289304050785e-01 5.593217620728111461e-01
3.936732572072683123e-01 4.522774922681421228e-01 5.650025217255877363e-01
-4.807855257665146209e-01 -9.589793069956623062e-02 3.441283796637336634e-01
-4.254290791189629384e-01 -1.855830005164023633e-01 -7.738668155820244143e-02
1.393286371814287938e-01 -3.774696190219253289e-01 7.585901440659836847e-01
-9.128628396006939205e-01 3.298830115633776816e-01 1.289921807369119322e-01
-7.686758565271987198e-01 1.561368559763946229e-01 4.101654258509496720e-01
5.731837379804252119e-01 -6.987758319284527175e-01 -4.044026915710114967e-01
-8.933078186529855858e-01 1.431556292930901142e-01 -3.342326132091490987e-01
1.127928746425102130e-01 5.698207879927321695e-01 7.444878043324862915e-01
-4.088640162554303958e-01 -3.163855389639121940e-01 -2.394657999019368100e-01
-2.120441893362576546e-01 -1.456705330061647090e-02 -9.865873181958704219e-01
5.323081486925088646e-01 1.074325993226093040e-01 -2.063450049108130346e-01
-2.370880041259603166e-01 1.353913916507172299e-01 9.408905320141358608e-01
-5.122093637936258048e-01 -1.965180615969324696e-01 -1.120463394560638065e-01
1.319668579619749926e-01 5.323210770245553336e-01 7.887469127288385673e-01
-2.969781021563970280e-01 -5.136642094162063854e-01 -5.161086306097855125e-01
-4.160486037765103590e-02 -5.847278777582646386e-02 -8.743218146614711861e-02
3.048026226317937168e-02 7.421774056527394303e-02 9.396518452333249560e-02
2.877344364505931007e-01 1.953604027336411086e-01 -5.561113332602850567e-01
-2.716337320218830675e-01 7.468007860494342287e-01 5.445741019070482469e-01
-5.764238556989807749e-02 1.366878628673269813e-01 -3.832835443038518780e-02
1.738732328521926940e-01 2.688453877001311665e-01 -5.093965529152755245e-01
8.988582328858630843e-01 -1.704824970719289456e-01 1.882596775105344900e-01
8.901832609577031707e-02 1.194928213325101574e-01 -1.818566070779051858e-01
9.903076649014146485e-03 -1.890811628164907054e-01 7.095048655961108675e-02
-1.949425587199618837e-01 -5.781314772332577512e-01 -5.372774031187809163e-01
3.115871549439336863e-01 1.577002697844309409e-01 2.927142490676468492e-02
-4.953352025899634969e-01 -2.351980032330826254e-01 -1.704564698937013345e-01
-3.472677455293419202e-01 -1.544504465257182380e-01 4.902430042174281133e-01
-3.921188794532573518e-01 -3.526764424782952712e-01 -2.758109262841254572e-01
8.521465817591925007e-02 2.446874806567237437e-01 -2.862099577798324912e-01
-1.722547949126306543e-01 -1.205781335152360592e-02 3.961163298637280367e-02
4.687896815595107847e-01 -7.666547233790581561e-01 3.998291100855590197e-02
-3.854672129110914280e-02 4.757426228292913756e-02 9.700244231411515872e-02
-6.541004008885824561e-01 8.271088767244658135e-02 -7.735654156737303833e-01
-6.870852602199116754e-01 -3.339732945677769543e-02 -7.072029128783854368e-01
7.206497101030396868e-01 -6.733510950648388116e-01 5.586961877947307226e-02
-3.682077780455804694e-01 -1.542043909927574286e-01 -3.843455743568268551e-02
-1.706522706505460563e-01 5.395152533706352171e-01 -4.994893048321399354e-01
2.638604131568649258e-01 1.006833590847428656e-01 9.784351964247659517e-01
-6.370411644452950162e-01 -5.833199327396081796e-02 1.973429697597192944e-01
-9.352125499627504668e-02 -2.834539011678050002e-01 7.057611927804849916e-01
-8.919079257543133243e-01 1.107506555029575124e-01 -7.697813926025506848e-02
-7.175060648823946563e-01 -1.621148106475067963e-01 -4.422204722880228589e-01
1.023273880531920393e-01 1.007326207113666827e-01 -1.700425443066710951e-01
-3.042156116398888471e-02 -1.061861822759723045e-01 1.490714581144953477e-01
8.255238198121721965e-03 1.921354649605869769e-01 -1.607812279010074619e-01
5.349662548195566192e-01 -5.220436269203350133e-01 -6.687083623941106891e-01
3.858587890279631394e-03 2.450909459150096004e-01 3.203558796873251513e-02
-7.822233841974932655e-01 9.729001976793116846e-02 2.999406239017972653e-01
3.570639766447780139e-01 1.554462316371450215e-01 2.454190110445286788e-03
-3.810906739035970214e-01 -1.260508059650611856e-01 3.438559100489724241e-01
-6.185106778858504711e-03 -3.731789596640049389e-01 6.266871240850042657e-01
1.058508060133535322e-01 4.059080801735671096e-01 1.382179819341367299e-01
4.229562843839171360e-01 3.264157077051708655e-01 7.937900608359662602e-01
6.443378021992735016e-02 -6.661730342236203972e-01 -6.302763827415127640e-01
-1.958416302110661464e-02 -2.134295709507860461e-01 1.614675747722895127e-01
2.093962089023180262e-01 -6.267472832869166455e-01 2.932941117763047112e-01
1.465847547867799305e-01 7.245525397100266440e-02 -1.357002668206364615e-01
-8.405109655253770740e-01 3.276651798256990378e-01 -4.852237947056507461e-01
1.785617678559344168e-01 -3.318704293566790975e-01 -9.337673601618726726e-01
-1.168654263270787891e-01 -2.513025432257460709e-02 1.288360653292026092e-01
1.460285347253273067e-02 3.598326138363667770e-01 2.880408934567545501e-02
-6.413323260792493929e-01 -6.666536076832817181e-02 1.556083196190468365e-01
3.552212340578300709e-01 -6.658287455415485834e-01 3.571578901789421168e-01
-5.815419564722192902e-01 -2.350177443456136217e-01 -2.409145385328142763e-01
-2.933323586945419392e-01 6.236214542426660179e-01 7.468359857723608775e-01
7.786396280366945089e-01 -5.609413346045503609e-03 5.459169542687000165e-01
-5.804946866672185957e-01 -1.258083964622508932e-01 1.665793908850486671e-02
-1.982148380071033777e-01 -5.560058860647969503e-01 -6.512855283237883874e-01
-1.038908824936016773e-01 -1.096439568049579899e-01 1.936515113325233961e-01
-4.554860259892676982e-02 -2.953728711465237744e-01 2.735561617341082941e-01
-2.518363554897025125e-01 -6.547330883063798290e-02 9.559177806329957616e-02
3.825174676859338652e-01 1.463987505638972841e-01 -4.027984740696812782e-01
3.473212299369521361e-01 1.467331438365571672e-01 -6.061393675185067220e-01
-7.437648623447442597e-01 3.336748831739111409e-01 5.378477037004130157e-01
-7.100392467905515259e-01 5.283271751545436379e-01 5.190371340969938130e-01
-8.314738327738704360e-01 1.816861500637765095e-02 -4.825197012380123135e-02
6.193397268519519328e-01 -2.061297543663567766e-02 -4.872271869814907563e-01
5.953163555078590241e-02 2.845207015426958960e-02 -1.150244926328150979e-01
4.367003787019390071e-01 -4.784907549020906425e-01 -7.670098305921754234e-01
1.599366381586722063e-01 1.293377467071718245e-01 7.367754531173645316e-02
6.062228975250568697e-01 -7.442968187642393652e-01 -3.714413254967220690e-02
-2.045735804293640769e-01 6.417898912051723803e-01 -2.478673790064649940e-01
-3.561920286991556717e-01 -4.526145207750634225e-01 -6.657822948569509514e-01
-5.389894108901731595e-01 7.610739284079155453e-01 -1.481395524901419625e-01
-5.314573187321225411e-01 1.287109093155084649e-01 -8.636091300286079520e-01
-2.385139494682630978e-02 6.030090195192696310e-03 1.146092239401512863e-01
7.404756898296263046e-01 4.959960762270262252e-02 -2.959936815072599856e-02
-2.969161922258374831e-01 5.861130755269706727e-01 -5.292157196783739970e-01
5.884827040909311469e-02 5.863122987344913106e-01 7.529467445364187439e-01
-1.216559345864708236e-01 -3.027246826366823962e-01 5.338131836639364858e-01
-4.876890463798135844e-01 7.594601968288831051e-01 -1.710666119620339043e-01
-1.577113110549263342e-01 -1.726617956539526575e-03 1.235877975121644178e-02
-1.842193937826339112e-01 7.340259146397984935e-01 9.807021514940400531e-02
5.939371910659296816e-01 -6.912917961250182319e-01 -3.930450358033177882e-01
5.064423265757611592e-01 -4.419135974061300653e-01 6.977892168730288613e-01
5.382632823284666176e-03 -4.162208289297222308e-01 5.564237594342801713e-02
1.175395555173508050e-01 1.672248851388472013e-01 9.317047790213663083e-02
5.079894066893078097e-01 -1.006715930194025804e-01 -7.242840703166757432e-01
-7.657611133105136636e-01 5.509870028591763724e-02 2.567513616120494224e-01
7.070110610322982714e-01 1.223720209665657560e-01 1.242411519618280419e-01
1.460493313415366368e-01 4.700954733476343794e-02 2.041783779504808063e-02
-2.036132193424562697e-02 4.602258767666004835e-01 -1.285363818953824677e-02
-1.249337408021986007e-01 -1.726595170273503010e-01 2.574831499543164814e-01
-2.951084981986538680e-01 -2.476707998830450508e-01 -1.371690231016246819e-01
7.315757581165539536e-01 -4.761040157875607304e-01 -4.683921461943229003e-01
-4.070942874201539108e-01 1.479520024745051288e-01 8.481657314107574619e-01
3.727732898733684963e-02 -4.633084864687485593e-01 1.407039569267805601e-01
2.108077604791394888e-01 2.532010853599660494e-01 1.257279014518554727e-01
-8.465429686748325855e-01 5.242394215093045817e-01 -2.697000511315619797e-01
3.561738549155233496e-02 -4.753042595933614778e-01 1.045564278444134354e-01
-5.634169618085747011e-01 2.590335281453372551e-01 -8.088546845373575378e-01
9.880695450911740341e-02 -6.990373467832861065e-01 -5.583405264224007292e-01
-2.391201637179333483e-01 -1.819863657093338249e-01 3.679501344174397892e-01
1.459495267558316156e-01 4.917656618577067457e-02 -9.825618167750362064e-02
3.202799509248512727e-02 -5.755716554825318632e-01 -4.987761583251519582e-02
-7.933679492443776460e-02 -3.892812718223482692e-03 -8.084672427113893944e-02
-5.171928639429598240e-01 -2.777978698903223465e-01 -2.597960063125129282e-01
-4.816093528751295705e-01 7.313227148330535554e-01 -2.637247381977950167e-01
-3.416301436235705813e-01 -1.513914259665757045e-01 4.195149228518609830e-01
1.757018638002376398e-02 3.314115686306157160e-01 -2.726366701043071994e-01
2.718838780143189027e-01 -7.698038253852568236e-01 -1.653128020865360093e-01
-1.161119212478905205e-01 -4.391027462618731989e-03 1.083983637589796406e-01
2.462671672795544442e-01 1.218562791147340535e-01 -1.968411786247797612e-01
8.755879211365655834e-01 -3.292414921434900221e-01 -1.879960512773688197e-01
1.920025301398748108e-01 -6.243189751535368481e-01 2.625886084057367786e-01
-2.470129676721017076e-01 -4.386590861745431891e-01 -2.632405525757370301e-01
8.756526633150175931e-02 1.639712043659284635e-01 -2.149485909568709663e-01
1.283016018029793093e-01 3.541605701990512833e-01 1.353869384804750053e-01
6.631094386594883483e-01 2.146900352435371362e-01 4.985677158055752400e-01
-8.476365422328498156e-02 7.307277150009849898e-01 3.731493871252872241e-01
1.808130618971387216e-01 4.279905483369193520e-01 2.065331450414566450e-01
-6.224569830503048386e-03 1.490539896409955045e-01 -1.340723700691719145e-01
6.960061261292840307e-01 -5.978296750722696951e-01 -4.033285283926332232e-01
-1.745330327362235034e-01 -4.641078051600676657e-01 -8.275642605492554704e-01
-6.744850640659840434e-03 9.859421889091639357e-02 -1.258809537663572731e-01
-5.866771900463104705e-01 2.202102263162548645e-01 7.135855002872502073e-01
8.106944593506171248e-01 3.744902056881647262e-02 2.559696042013439032e-01
1.970533498589641386e-01 2.302153690546290821e-01 1.138483375711758783e-01
2.726714187505087095e-01 1.637658003208634361e-01 5.485930143875044490e-02
2.219616992096706543e-01 1.150887591613175415e-01 2.768949793228385470e-02
4.863974415388790801e-02 2.751566808821742094e-01 -2.686573312229728061e-01
-6.602692887325702087e-02 4.811353018309695861e-01 -2.492795380677397254e-01
-6.090334403372634625e-02 -4.047251227159798792e-01 -7.140642910422922984e-02
-3.965175291167561400e-01 -3.080377450033869313e-01 -2.224091817191287679e-01
2.631855144956792847e-01 -5.206619206195393090e-01 -8.169519397107904979e-01
-2.635730201030740960e-01 -4.038566528013333157e-01 -2.419831449877284935e-01
-1.912963448556678492e-01 -2.749898288392217324e-02 3.761776068003695739e-02
