-2.957173256148603116e-02 3.185372613244658035e-01 -3.251561000305919213e-01
2.129955922679689917e-01 -4.265451911753246894e-01 2.244839618291170624e-01
2.411830200623197862e-01 3.299954337820580896e-01 -6.159089276158277171e-01
-2.762394311985466588e-02 -8.782486563001221103e-03 -1.185131739717455862e-01
-4.637165070777730103e-01 -1.172105174520562537e-01 -3.139781582948624750e-01
4.318006008257339046e-01 3.578839629811118583e-01 4.984952243883952749e-01
6.632230394061657819e-01 -5.194939998262165792e-01 -6.654537401596548329e-02
3.236844856689409244e-01 -4.659276045025272373e-01 1.778699754477943706e-01
-5.268878673855113826e-02 9.653837737779361605e-01 5.031120918048583718e-02
1.142551017361825988e-01 -3.066835008010942998e-01 -7.701564562494258581e-01
-4.076275967267842804e-01 2.106058177221193511e-02 8.074351140934445947e-01
-7.637969563224146219e-01 -6.804623982512365554e-01 1.431912017454278208e-01
-4.997474559332860944e-02 -1.345774507102776851e-01 5.174367523532614754e-01
-1.788334847566616370e-01 -8.583086244342010840e-01 2.579006753669740859e-01
8.121084000492791999e-01 3.532750434991479005e-01 1.631837753484209341e-01
2.119896114008617827e-01 9.877378811603447772e-01 5.045254667358513995e-02
1.750374979503156736e-01 -3.387305690406174075e-02 1.194044660073098341e-01
-6.855926509428898752e-02 -3.318039727681993062e-04 -2.356042202132700158e-01
-2.399386316950934406e-01 -5.306884001109013482e-01 -6.277443299719426273e-01
6.815465140528406685e-02 -6.733306385518236237e-01 2.871426902276297266e-01
7.526245659720323111e-01 -4.928332752731159339e-01 -4.353224699682161081e-01
1.185850184389738993e-01 -2.205912778198588220e-01 -7.583528701045065823e-01
3.538479856849993666e-02 2.492224144095223429e-02 5.227659712783769841e-01
-1.848200780965629508e-01 -1.095651128379017125e-01 -4.361425312167615531e-01
-1.795477936521071294e-01 3.218086877937374468e-01 -1.882439343441232871e-01
-5.590005031596635421e-01 6.154807696445979692e-01 4.048149208874586569e-02
8.215372903450234299e-01 2.267732837509056354e-01 -5.527776055464257432e-01
-4.306682261898309855e-02 -1.956372024658607489e-01 -6.597817722149783570e-01
-9.898587602615978309e-02 1.848174779804100387e-01 -1.299217995812987358e-01
4.773502982187702304e-01 -1.044240905973317993e-02 2.397041095416751755e-01
1.149477017653539740e-01 -3.388432589064722250e-02 6.264469813061046555e-02
8.787909560018734023e-01 1.732517304522143697e-01 4.507962779707565260e-02
-3.714258877436733552e-01 4.508459146767328507e-01 -1.406267717126267192e-01
4.511026674985151030e-02 -1.816751622282713474e-01 2.081421955824135084e-01
-3.144221315037931674e-01 -4.684533600678758014e-01 -5.845716826941227406e-01
7.662752974611380941e-01 -4.764859986528630076e-01 -4.238647399352245548e-01
-4.600571588479974716e-01 2.748976938405334747e-01 -1.329394273677890759e-01
-1.599669564286765877e-01 8.437077039933721379e-01 5.801528195707458258e-01
-4.606110811527098191e-03 4.425142079829876007e-02 -4.911632524455491478e-01
6.855606524312152228e-02 2.506797803633161945e-02 4.435618254621967460e-01
8.272113224864924286e-01 -3.714571916897741466e-01 -4.118171432992539516e-01
2.527121101429601890e-01 1.541957355559410714e-01 -6.961772952559979188e-01
-2.647429022990144265e-01 4.141032590242250122e-01 -1.799065806330605310e-01
-7.355446509042374847e-01 -1.126591398323378707e-01 -1.823794780187306119e-01
2.137022569737092800e-02 -1.740795512343934828e-02 -4.524172093582292525e-02
5.312572434140289124e-01 4.645139150070742851e-01 4.524574192146620932e-01
6.900377394389383134e-01 -4.723009854507613792e-01 -5.826039413551016566e-02
-6.411734156567505671e-01 5.530480759959478521e-01 7.683305774958454348e-02
-9.211259155211641569e-02 5.484282806067093397e-01 -2.898124661670574698e-01
6.893312285956839647e-01 -5.016705160804649788e-01 -5.561369334426600197e-01
2.368880357221607447e-01 -9.083492053671741173e-01 -8.963343306327607729e-02
3.220224736529006537e-02 -8.687685665837331372e-01 1.548561297744137366e-01
8.957473306590674200e-02 3.635393704078521832e-02 4.141033182907262744e-01
-3.240372199653394070e-01 -1.288812419061671488e-01 -3.695510597384407681e-01
5.859795179059834602e-01 -4.827968560390848429e-01 3.661983212017615175e-02
1.856257489462928220e-02 -3.166160245048732502e-02 -3.370701211734460079e-02
2.562609436797355089e-01 -1.600378515803188850e-01 1.486954070451778631e-01
-1.418228854712278997e-01 -4.584542663193446471e-02 -3.247751408482418833e-01
6.049179658108138069e-01 -3.332969644013786259e-01 8.964906646486894837e-02
3.108608506129156845e-01 9.724557548109538097e-01 5.302493666835321473e-02
9.432043009101902520e-01 2.043463776225952211e-01 -2.917301394126510794e-01
3.591265411702228016e-01 -1.350835626498195774e-01 1.748469253254576194e-01
-3.043717450674714997e-01 -3.840488480559197670e-01 6.378643585468886101e-01
-7.962787290120085237e-02 3.482279318589147077e-01 -2.743743229362819447e-01
5.934460952921839505e-01 -3.181922054480656459e-01 1.008372951268835249e-01
-2.554026793198783118e-01 5.952348347822145058e-01 7.614203745148651059e-01
-4.998676602198379171e-01 -8.180824091313716462e-01 -2.914703400722838400e-01
4.722616184139492163e-02 -1.345661040627244842e-01 1.270271927895593178e-01
-4.374264381365435272e-01 -5.430140765421940241e-01 5.776330062940826515e-01
3.679645165879021351e-01 -1.244579493707279917e-02 2.317006836414440829e-01
-2.370694778102057712e-02 1.260098728598312845e-01 -1.710968469995470254e-01
9.167155378358676776e-01 3.690158144420379593e-01 -1.356483589483462315e-01
5.026905966386197022e-01 -2.483640371339832786e-01 1.507539240010662418e-01
2.968699947297615774e-03 -4.716484767287078550e-01 3.828097659621841342e-01
-3.398995121638210271e-01 -4.308398648726095015e-01 6.272246488035536638e-01
-7.484440949787750375e-02 -2.816022807928791200e-02 -4.974871335858819382e-02
-9.000914707482620125e-01 -4.324950396393926755e-01 1.056607615626015684e-01
-5.466923307290474932e-02 -2.352004430775951893e-01 -6.712721495864713006e-01
9.342405850136652479e-01 2.490814075401625860e-01 -1.112512984275381839e-01
1.977320661158270820e-01 -2.309487956458043389e-01 1.632286273930753095e-01
3.943684798423263138e-01 3.189438293914347855e-01 5.049848195799125916e-01
2.358586659329011959e-01 -9.315129394557420950e-01 -2.506877887263016524e-01
2.622146668799980040e-01 -4.536635894823566884e-01 -7.837246989745798587e-01
7.989908168874720884e-01 -5.867861431928935584e-02 7.055618149019077245e-02
8.301404457098353618e-01 5.570135301783851745e-01 1.164289046855697916e-03
-6.222322168348274340e-01 4.335517980155959017e-01 7.083841769115762910e-01
8.263900087381214066e-01 3.382060378384715293e-01 -4.897984005136773455e-01
2.070807328023521188e-01 -3.142681248780835879e-01 -7.934922097858633228e-01
-1.949736762639039667e-01 4.400018565694472916e-01 -2.170879844254759716e-01
-3.990615854279452174e-03 -3.241283709457287027e-02 -5.105942317768447092e-02
-3.035062140684101697e-02 -1.326328514679447554e-02 -1.132138932383031094e-01
-5.562122102475359764e-01 -6.422724005180423523e-01 4.790622156203165338e-01
-2.304082030309751727e-01 3.148102727387528943e-01 -1.674541333444096169e-01
-3.124842473428955311e-02 -8.375395830139430176e-03 8.398848202901058879e-02
-6.167556219074570301e-01 3.855482429063469829e-01 -4.674912589745103264e-02
4.724637055484735004e-01 2.784026210459160655e-01 4.362003930139847774e-01
1.357155456529750837e-01 -1.988423630404013154e-01 1.531672110226010297e-01
3.857957115103192169e-01 -8.441020267192242965e-01 -3.913018648448780001e-01
-3.666322354363719671e-01 5.678291081761019932e-01 -1.230790074000149559e-01
4.092979031130970780e-02 -5.321754992864802247e-02 6.630495905861608086e-03
-6.561012582939375060e-01 -4.421226320193624021e-02 -2.024631979699947626e-01
7.085291069577674961e-01 5.838435084324086199e-01 2.478639301564093678e-01
-3.747422044302969324e-01 -5.764773002320598971e-01 5.501841252036228092e-01
2.443136005821263390e-01 8.438850312907645312e-01 4.959493872180806839e-01
-8.148609088180671645e-01 3.324175922788256132e-01 1.260769723206770221e-01
4.165319228565096676e-02 2.257068589512493395e-01 -4.497318795953565984e-01
3.871638339541760149e-02 1.505429627453814256e-01 6.479789677961066419e-01
-5.733338309968024488e-02 -2.760959641574825280e-03 3.830075307654855904e-02
4.704467132998422368e-02 1.051112690677969558e-03 -1.912679563799587687e-02
2.152633152575266495e-01 7.653628010480922894e-02 3.390416047948169864e-01
4.754792354379911989e-01 2.046199781432397613e-01 -7.262089598442781346e-01
-4.023489821000608702e-02 -2.488730502093628588e-02 -9.528842099823037204e-02
-5.914895021537060898e-02 -4.390886114806673568e-01 -7.146194765046237629e-01
-4.570414266692386374e-01 -5.480135648651618396e-01 -4.907193361412657273e-01
4.226088525617644615e-02 -1.898491036840711105e-02 3.936820411162271771e-01
1.313921300045657048e-01 -2.109240903007603696e-01 -7.613162939282694941e-01
5.233139740234891146e-01 -7.216442510926326381e-01 -4.819520801958518952e-01
6.369685733897694213e-01 6.278914726332360807e-01 3.183446907729588493e-01
-1.196225391084320550e-01 -1.164384755179107347e-02 -8.475067236903874313e-02
2.123023648211383365e-03 2.331415521316172190e-01 -3.640950225132116858e-01
-8.292332339994076262e-01 8.092156965114095934e-02 6.234550168929277048e-01
5.741763594625577394e-01 2.217381659447264231e-01 -7.068455831530530142e-01
-4.764181526868505046e-02 -4.187679068102240221e-01 -7.187035851675983578e-01
-6.923009441688523502e-01 -4.946836215654673019e-01 5.354263439937532176e-01
6.578586201038773007e-01 7.888832082179225713e-01 2.515186588004601070e-02
4.139004923085544407e-02 2.626664198452376142e-02 -2.100473965265178128e-02
1.985141564635948819e-01 -3.435338612947241854e-01 2.098749597418204382e-01
7.627615574639137197e-01 6.166732522043111286e-01 -2.943086703089494716e-01
8.573440999154962050e-01 4.487553047555981750e-02 4.259441496032726621e-02
1.240744788495065087e-01 1.417697174010909035e-02 1.197554412031204413e-01
-2.625054833020938963e-02 5.764561043063000378e-02 -3.973612033023555257e-01
-6.681044417444219341e-02 1.624283436116009949e-02 2.499520211860643826e-02
-1.185314214852939557e-01 -3.995843322162584421e-02 -3.630187460523657261e-01
-4.168617943760778988e-01 -1.983299420275790870e-01 -3.981547517386345714e-01
3.668619173772197373e-01 -4.008732131520059694e-01 1.642938985478881730e-01
-1.411690694230483267e-01 -2.127982792830394876e-02 -1.522272390891867555e-01
3.476250315796566848e-01 -7.172930611812930457e-02 1.923351491744880459e-01
-5.255809315646502444e-01 -9.842001240147234264e-02 7.759474857501114098e-01
6.335406918995245551e-02 4.454683043666557429e-01 -4.337846833670954139e-01
1.496359324785257738e-01 2.171302940956748861e-01 6.040638501540386285e-01
8.153777410788583258e-02 -1.034571757505738238e-01 7.328138724440616536e-02
1.498912846368978813e-01 -6.600528509508658825e-03 1.173406530704610429e-01
3.224277896817501210e-01 8.123733502420760200e-01 -3.198734090206667990e-01
7.231260154541595542e-01 5.839100384596567217e-01 2.257819941641280581e-01
6.253288691623818396e-01 7.788982176964316384e-01 1.730842356766029155e-01
-7.294197764573491227e-01 -1.307796184623732094e-01 6.916295580501358176e-01
1.928396045208567444e-01 1.727219056665197650e-01 -6.528944762985300354e-01
9.369296316076430875e-02 5.700592164578375393e-02 4.638620209018070595e-01
-7.882539368829586390e-01 -5.802847077923530827e-01 -9.456587791264688125e-02
2.728146441481197892e-01 6.759384250075429756e-01 5.958643844912783205e-01
4.102522638461262861e-01 -8.075189424253366444e-02 2.009735702854862638e-01
2.652804937839952082e-01 -5.657767026262731230e-02 1.675660886724353316e-01
-2.377265811169673171e-01 -2.284428016547351142e-02 7.552368996815288504e-01
-5.966348549380764421e-01 5.972217197405886857e-01 6.098828957713108290e-01
-7.479251384782377166e-01 2.709207209686735340e-01 -3.373977586510592923e-03
4.818568602864124473e-01 7.052034866407064229e-01 4.353390200391357157e-01
-8.793719901107859283e-01 2.023744280265646900e-01 5.025072503192353768e-01
-3.160859291848682195e-01 6.480771724540048684e-01 -1.253490107843819312e-01
-4.048635193752814776e-01 1.165037818854134932e-01 -1.650047206954231571e-01
-6.120449995655397046e-01 -7.447441761499391522e-01 3.164202745629266511e-01
4.765482658748653594e-02 -9.529525957491243038e-03 -6.202577153249508868e-01
-5.237598985681116842e-02 -4.856213313393973330e-01 4.291488228902786140e-01
-2.443204571707946124e-02 1.497060522651005865e-02 8.147103064003621831e-02
5.826363604330667689e-01 6.672529321859532736e-01 3.584146251711003428e-01
6.262408030714375351e-02 8.373251751926303887e-01 -2.273436121704796031e-01
7.747741790584010413e-02 1.560120897329051459e-01 6.170342127963232004e-01
-3.509525966914005535e-01 -3.535763574460032421e-01 -5.335391427194178249e-01
2.278991813234354166e-02 1.123516345940090561e-01 -4.775454773558546751e-01
2.507030781180764056e-01 -2.928088725034646012e-01 1.787666061279422069e-01
9.382087909311610519e-01 1.898057024010103844e-02 -3.626341043359793126e-01
-5.824833399875278817e-01 -1.923378252253132858e-01 -3.136411952722774621e-01
2.770600049943793275e-01 -6.153677970008603060e-01 1.769282301593051443e-01
7.395683188767061822e-02 1.688992892787233649e-02 2.481615122535058837e-01
1.780293029530129467e-01 -3.816484408739648226e-01 2.319308534982333359e-01
7.987591954974789799e-01 2.744693092060124240e-01 -5.568760042667810772e-01
-1.440063060530709371e-01 1.115610400922648626e-01 -7.024743193616536652e-02
-3.115029024724376427e-02 -3.739142322085605569e-02 -5.316125707678473478e-02
-4.857431631858356857e-02 5.328448993061209171e-02 2.220984360663133192e-02
-2.915903051115484312e-01 -1.530100495723921705e-01 -4.168519128139434593e-01
3.993737824358900568e-01 7.295615124895866721e-01 -4.086037700708906040e-01
3.177907438000076579e-01 2.099600652634746600e-01 4.747360793102611276e-01
3.328600218746251005e-01 -2.221636000443411307e-01 1.641399007595563675e-01
-6.478903058732031484e-02 6.174414993522524264e-02 3.466666723491312625e-03
-1.271767621538440196e-01 6.774176891098523390e-01 -2.329548990356435645e-01
5.814727636917905312e-02 3.495010868261401449e-02 1.076508640435216713e-01
-2.299293547521882031e-01 -3.075711169089171207e-02 -2.226984731188122180e-01
-4.888240125818965054e-01 -1.470256453406115216e-01 7.657704115748676932e-01
1.106930406233526537e-01 -8.736924120945055439e-02 7.194400966515325513e-02
-5.908547699719502999e-01 -2.489751001799422048e-01 -3.359904756187933605e-01
-5.088353471400429706e-01 -2.474452856671249257e-01 7.298503855571790710e-01
3.273041720455693165e-02 -4.425413440095538609e-01 3.563186111004078560e-01
-6.957053790112778247e-01 5.697381810137250868e-01 1.880958452640190681e-01
4.072875949180375377e-02 -6.705548435625899306e-02 2.262183788965135139e-02
-1.332575268778890820e-01 -6.888718996090602287e-02 -4.224123269399954750e-01
3.873887771654638268e-02 -5.053701372569394668e-01 3.499246662857074530e-01
-4.399640714075732095e-01 8.374242153425773827e-01 2.976252277108755173e-01
-7.893254340555071191e-02 6.118555849832844895e-02 -5.831810498599318722e-03
2.401041279950996421e-01 3.862304715536195032e-01 -5.904901214483464500e-01
6.533837801681018354e-01 7.334214956351891024e-01 1.960932904791450881e-01
1.654305665888401167e-01 7.189341675185793867e-02 3.706109958665213533e-01
5.613484407637786555e-01 -2.390794428066846805e-02 -7.683306453585512230e-01
-9.769725988643733483e-02 -4.747430222326472909e-02 -4.413186988854282955e-01
5.594151155225083327e-01 -3.187051899448551939e-01 1.155801152216371364e-01
-2.033371069976868187e-02 1.426310731136735399e-01 -2.540552537542526412e-01
3.396110416060930254e-02 9.504714089186920845e-01 -4.485917867868031289e-02
5.924766955482378972e-01 3.057548245809059706e-01 3.720991260496062658e-01
5.093854984691874588e-01 -5.815810843264934693e-01 4.000939919143348816e-02
-9.343319136299561845e-02 6.082739574075479716e-01 -2.779720901225015695e-01
1.967253794339099762e-02 5.064070584250004448e-01 -3.830036324176215312e-01
-1.027035750170332273e-01 -9.528329327579124763e-01 -3.629741747235066263e-01
-2.223546350227947541e-02 2.010353916976529223e-02 7.957170087710790929e-02
1.876014942967347762e-02 5.645127901018864858e-02 -4.191202417423894183e-02
1.672600908037759349e-01 -2.123444519932305152e-01 1.567839722624190524e-01
3.983699424851777637e-01 -7.761369252344347824e-01 -3.194039952173735597e-02
1.777571582593968913e-02 -8.476370396255976658e-01 -5.505666203586139229e-01
-4.703414129815770561e-01 7.922608623623677016e-01 4.536281738371241712e-01
-6.975096722615782285e-01 2.502445423457592688e-01 -5.341198183756624973e-02
-1.230024410060657630e-01 1.107675094153501710e-01 -6.143599341791955437e-02
1.056654984970080285e-01 8.336561434078941513e-02 4.961452028817450177e-01
-2.156580344037953290e-01 -1.160713109718242847e-01 7.072016897803118374e-01
6.206655526331706918e-01 -3.504500754585166411e-01 -7.138164835117146723e-01
-8.685602787583863726e-01 -6.687357037880831134e-02 -2.587052688340412201e-02
4.480353412701205962e-02 -1.972209221902743170e-02 3.549856988207739095e-01
-4.811137179064896019e-01 -1.375793428980350841e-01 -3.240601948078062899e-01
3.677424674813249694e-02 -1.029029070651528571e-01 7.898384078034567657e-02
-6.522862924017668318e-01 3.853608319765722823e-01 -2.302950181435909835e-02
5.446848392278202944e-02 -1.356183140721089475e-01 1.213339984364158047e-01
6.669227925790583988e-01 -1.896992333370254025e-01 1.125622385029663858e-01
2.162656458885765520e-01 2.360464303163365418e-01 -6.412205807162008053e-01
-6.269878407172370383e-02 9.160311975350098335e-01 -5.678769215633811679e-02
-1.179895991461829899e-02 -4.098256823388773604e-03 -1.030732243532477554e-01
1.141221386886505790e-01 9.902383565182146796e-01 5.091026849932660248e-02
3.877145127311520945e-02 1.305047233562947563e-03 2.073287842989726404e-01
-2.847452342433882677e-01 -1.471923106983157592e-01 -4.135026010447584999e-01
2.850431448738759976e-01 -8.787879026889109380e-01 -7.723481858662425981e-02
2.934331581236429565e-01 -1.856904017074598456e-01 -7.999144005312336381e-01
7.638741800235258061e-01 1.559962491044787625e-01 1.872346904566621895e-01
-8.343338104621704499e-02 -3.694042485020902766e-02 -4.488035685963265298e-01
2.314826188877990853e-01 -7.518492356361643481e-01 1.368009042319527080e-01
-1.023186079128114573e-01 7.649055001178036717e-01 6.614735415418734332e-01
-6.310957172611567079e-02 1.273602366891730432e-02 -3.355843135131527100e-01
-9.535780055525465426e-02 4.025555811335360112e-01 7.882360417064450120e-01
-8.014892222831661028e-01 6.377758715156114921e-02 -5.418406302987593959e-02
-1.773012606239456751e-02 4.286777259072270252e-01 7.634145485969738854e-01
-4.528814124010425157e-01 -8.292104711468583078e-01 2.873030538499055098e-01
-5.667786597769636225e-01 -5.583148585055000002e-01 -4.005976676488741117e-01
-7.949234443929456898e-03 -1.146079016337586270e-01 4.223921850475820250e-01
2.884401481303914671e-03 1.380959198562890788e-02 -9.757052196681723077e-02
-3.945834114427037020e-01 5.134291663768545400e-01 7.755826026275081109e-01
-6.460637049737124604e-01 6.521617495646923057e-01 2.429576362769169107e-01
3.382198019477031803e-01 2.940647281241223210e-01 -6.730654311505913645e-01
-8.846648602516056503e-02 6.375922566712202144e-01 -2.727353582631345530e-01
-4.164051901140661260e-02 1.476335193525547262e-01 -1.452147732894215337e-01
-1.081731125524794251e-01 5.669254067969906608e-01 -2.761810408342543210e-01
-1.347466901751557811e-01 -2.116864688309691711e-01 5.965893085494635706e-01
-1.826715853427175185e-01 -4.312330532157784835e-02 7.176594667205939970e-01
6.258275418017333891e-02 -1.060061470145242379e-01 -6.897248492119277818e-01
2.593773814549675816e-01 -8.725243125194086513e-01 -4.622577826044463323e-01
-7.621967117012110396e-03 -9.658030169216005323e-01 -3.385049055070820656e-01
-1.835642509953571908e-02 7.842128270937002987e-02 -2.071357018032872199e-01
2.086276786282528772e-01 3.064279608585921966e-01 -6.058893529573583514e-01
7.798057311385884691e-03 1.933733688215993896e-02 -9.156336278916656080e-02
-8.058528394547597173e-01 -5.380727657043664625e-01 3.640434645069632325e-01
-1.222980808591845187e-01 -2.785937822797921251e-02 -2.315710550745757323e-01
3.457232734413223652e-01 -2.590460417456164621e-01 1.654137276508369503e-01
8.098726029118472614e-01 3.299974410788955592e-01 -5.154172402963353994e-01
8.130999148693637824e-02 -1.409238819853659286e-01 1.136264891839437047e-01
-6.164157492942684557e-01 4.538375180785850782e-01 -1.543478574633860498e-02
-5.844158728833536154e-01 -3.559705612302996314e-01 -3.784229433543370713e-01
6.192357477576990732e-01 -3.717205613998803559e-01 6.606905029966440857e-02
6.468381940660447027e-01 7.786574405697562762e-01 1.190827712969989433e-01
-1.609795769469765381e-01 1.150127106261935733e-01 -7.902682033358013336e-02
-8.755843693052217658e-01 -6.550206016018247923e-02 -1.467504403749667237e-02
8.853451771858389385e-01 -2.462293861523961458e-01 -2.366933397831340047e-01
2.626913678980279457e-02 -1.342403204708441655e-01 1.709151706037449481e-01
-5.215531356002239133e-02 -3.283840392257255519e-02 -7.026532083921889493e-02
-9.236180287921896825e-01 -2.772464695945323632e-01 3.754885000424124653e-01
-3.552186858238668976e-01 -9.570763172335355895e-01 -1.930895187158889262e-02
5.663691324240332364e-02 -3.953921397886237671e-02 6.997138534628653816e-03
7.743357686896316094e-01 6.526905439365489059e-01 1.313420853427304212e-02
-3.064097574190591255e-01 5.076349189155986430e-01 -1.646212112585697662e-01
-1.188913746868160565e-01 3.285013791258793725e-02 -3.639418954533708839e-02
-6.223463995568649931e-01 4.095820427378664141e-01 7.197034179772726636e-01
-2.345546990832420575e-01 -9.227252662511008507e-01 1.631217451601869317e-01
7.626012895777093403e-01 5.873147515904215687e-01 -3.408791462534493943e-01
-6.001520097121865183e-01 7.992210828044436430e-03 7.791720480592421172e-01
8.381030234606643425e-01 -1.547276612567413667e-01 -2.637312476199845865e-02
3.265979703421438562e-02 1.580945905856496417e-03 -4.132910021000704703e-02
-4.664074098884397612e-01 4.051921696631309855e-01 -1.113896552959347114e-01
-8.498988900705765903e-02 7.196094614797969857e-01 6.924980759611897296e-01
2.341759872757022409e-01 -5.183458138569213558e-01 -7.664031203106332901e-01
6.691071796015187756e-01 -1.387252428053099840e-01 -7.264814167727741134e-01
3.798056660516697658e-01 6.751656912629118434e-02 3.015956033418470961e-01
8.189073814233908122e-01 -4.047485556513774063e-01 -3.579158436066811055e-01
-3.481805398223503656e-01 3.470142136002057898e-01 -1.479622005110197147e-01
-8.703870906252020312e-01 -4.976124801366263450e-01 2.475169288631691444e-01
1.757559406444779426e-01 -3.481010477416582316e-02 1.194932779814601304e-01
4.520220403053770153e-01 1.248215152828334867e-01 3.392616849825963454e-01
5.107666022052157473e-01 6.993236177513607599e-01 4.123572689094255894e-01
-1.009038457895535951e-01 -1.493340016632239628e-02 -5.955370606869710842e-02
-6.781447903826884893e-01 4.343611614832352807e-01 2.587375952353086067e-02
1.762561988187056478e-02 3.167037284557577825e-01 -3.953686086414577860e-01
-4.117674833943533175e-01 -5.718157069436359263e-01 5.570956691557809037e-01
1.168551693803624031e-01 -1.736054981423090504e-01 -7.459593805296784730e-01
-8.397635104635926551e-01 3.513539829016209537e-01 2.094457459771431607e-01
-2.224104330056152212e-01 -1.173373085781018038e-01 -4.130157040026105619e-01
8.317373999111298266e-01 5.222967956712051274e-01 4.928931352090765855e-02
9.097795504407877321e-01 -3.409455941754048914e-03 -7.603335035570239764e-02
1.265244519296390181e-02 6.056050183652660346e-01 7.270366780122922146e-01
2.808336450892758018e-02 4.524718804812763451e-02 -3.252696139317859392e-02
5.013206115053502332e-01 -7.778538893321441661e-01 -2.323091530070119648e-01
-1.410918158797132629e-02 -1.625830168001908549e-02 -8.768502082537543707e-02
-1.536667339621873574e-02 3.009760709022905045e-01 -3.420607246809214685e-01
-5.913126225211663423e-01 -7.897501799574107029e-01 2.538109335896195917e-01
-2.564663099708909266e-01 5.417495932815802329e-01 7.829117266077858517e-01
7.673769768706915906e-02 9.168789553377314494e-01 4.708875540542599158e-01
-3.511768866182524707e-01 3.832468508717155053e-01 -1.488315597809297119e-01
-1.955005655400643694e-01 8.797109604926148796e-01 5.189420321210527209e-01
1.208583130757575654e-02 -6.331798682362027586e-01 -7.009763978508790627e-01
-4.600695728425437392e-01 -8.821766605414145257e-01 1.723647878624794960e-01
-5.001034985857270854e-02 3.985017997992847949e-01 -3.198069917328338341e-01
-6.133304981314113835e-01 -8.291525732145600402e-01 1.945280370470100703e-02
-9.270097829245523835e-01 2.832847345670194000e-02 4.508648195728432451e-01
5.540885591091665452e-01 5.863742012714696639e-01 4.215456668417565389e-01
-6.813816762129276672e-01 9.032439576640691192e-02 7.485844954463621859e-01
8.658213468080073749e-01 -1.582696513542039551e-01 -7.608225624998676828e-02
1.148123649842419311e-02 5.749887620187548593e-02 -5.096109654364708863e-01
-1.156804910976916428e-01 -8.069870863915865056e-02 -4.761690227204659620e-01
8.127429865835569256e-01 -4.055542617298010244e-01 -3.986634808491155146e-01
-4.881164047085086860e-02 7.993657912202475901e-02 6.781891153649459714e-01
4.981306345396347389e-03 7.242718962456522191e-02 -3.802263332827191672e-02
-5.940191058315152928e-02 -2.606563315311789808e-03 3.483200962432431852e-02
-3.502258571536301379e-01 -9.504427248482518742e-01 3.893493368497120966e-02
4.399123452501945697e-01 2.869359482577700793e-01 4.600930372076181274e-01
7.636270016017020212e-02 1.466759795986770712e-02 3.545165222233890856e-01
8.683222107778164611e-01 2.174286510765948144e-01 -4.932847118629221650e-01
-4.914071014614143640e-02 3.129670601651425577e-02 -3.260688143018285468e-01
-6.690022346785650109e-01 -1.266755796869614148e-01 7.263209356650348614e-01
-1.698030322274030612e-01 4.263714257743912439e-01 -2.290908433169721592e-01
7.454993037627736241e-01 2.026622355236749884e-01 -6.322431489274670247e-01
-4.265057057702202892e-01 5.828120590863010708e-01 -8.302111972847703303e-02
1.786328988901006998e-01 -2.617402166584759451e-02 1.274145347993689004e-01
-1.682050096779287018e-01 3.072254572244620743e-02 -8.815132183704574298e-02
-8.299953335776573404e-02 -7.738167955404656739e-02 -5.198007116850196230e-01
5.762333978366767084e-01 7.383011914637074291e-01 -3.356910098944481669e-01
-3.278881487445270415e-01 4.273054169930788904e-01 -1.574479137667820494e-01
6.189471420280897966e-03 6.196541863438115305e-01 -3.418142274068660669e-01
-2.270312295182942697e-02 1.118304274011584221e-01 -1.108191115623048395e-01
2.504737256738871851e-03 -9.328953856972754810e-02 4.057224846839484478e-01
-5.100347539763289140e-01 -3.248079729459898424e-01 -4.197900170458965796e-01
-6.030695077542853610e-01 -8.047218778295136543e-01 2.001593567463203771e-01
3.136743474734081660e-01 -3.626737969011260554e-01 1.782847666790737529e-01
7.651223206007443656e-01 7.149131140247879691e-03 1.302724624794592001e-01
-1.580429436757936068e-01 -8.920791879545084679e-01 -4.535688019767425971e-01
6.206591878602788631e-02 6.015594765587208848e-01 -3.858348648503646672e-01
-6.087726777320395799e-01 -3.561200111868981222e-01 6.626984811203777692e-01
2.010596524114062478e-01 -1.645348732247198520e-01 1.365172051009012344e-01
-3.607595104360327154e-01 4.978481300389078767e-01 7.882531012429950801e-01
6.040819611514550713e-01 -1.914610224886965917e-01 1.400705766837301858e-01
-2.026164941972498079e-01 1.944831067513570488e-01 -1.221209137908957770e-01
9.418364282151838740e-01 1.595705308481273552e-02 -1.826769803300853645e-01
-4.872549446815576529e-02 7.607718737467304704e-02 -4.375906116854904812e-03
2.380130835522406285e-01 -9.200463213194297607e-01 -1.354815212507442801e-01
-7.346953007810709257e-01 5.140998922234905066e-01 1.845029834386069101e-01
4.777984795742610258e-01 7.315051757517516962e-02 -7.649069613251154864e-01
1.644089232030083725e-01 8.178737290219163791e-02 4.007301500714246512e-01
-2.780563863389137400e-02 1.612534712088359024e-01 -2.285542788435740713e-01
6.636756360967965840e-01 -3.383645051064706338e-02 1.793605601223924595e-01
9.360799174348680696e-01 2.462002398784269575e-01 -2.966496752563073658e-01
3.871579445284288601e-02 -6.520312624818005998e-02 1.955907828550344438e-02
6.693759161439741256e-02 1.562209427189273706e-02 2.297710805645092336e-01
-8.859066486092483927e-01 -3.446767411242808721e-01 4.180298809292182227e-01
4.616119799550691405e-01 -5.597742451639633465e-01 -7.013861588102544564e-01
4.487271740665653152e-01 7.521660608746862930e-01 4.323047768864672347e-01
1.539217013683024660e-01 -1.695850005820951911e-01 1.320620981027442742e-01
-5.631676988596766992e-02 -2.536279147585079191e-02 -1.058601080823886736e-01
7.874899600224383178e-02 -5.184174855834488005e-01 3.180969227907023966e-01
-1.922482242074806946e-01 2.278723989115506374e-02 -1.163499254912051944e-01
-2.849572872250655808e-01 -6.449605386694532427e-01 4.841080691091543819e-01
-1.002126906556055908e-01 3.031101048616903215e-01 -2.307781019686298563e-01
8.913511644409556622e-02 -2.166167303091713625e-02 -6.665154525113063944e-01
2.002448480181115431e-01 -2.461451595390544422e-01 1.697221432264759688e-01
2.248158694517641762e-02 -1.386430398530532349e-01 1.991892617723730885e-01
1.503575029896539461e-01 -1.055751234403757705e-01 9.933638447181589171e-02
1.197043650849568749e-02 -8.647265131597886567e-02 3.476883553139689664e-01
1.978498668825384998e-01 5.682277575396049718e-01 -4.813944725515522660e-01
-7.785061119912616012e-02 8.580992244826500526e-02 7.045630716193630461e-01
3.473024870608556469e-01 2.207144590380475946e-01 4.671096719696599675e-01
1.904713924639379330e-01 6.861877512220729280e-02 3.340166384663519894e-01
7.692176433941126656e-02 1.660437657693543401e-02 2.668600325277130647e-01
7.955092225499940661e-02 -6.855873631813956537e-02 4.319899038435091182e-02
7.261113529202203876e-02 -1.732305661771967042e-01 1.582897762471035530e-01
-1.942213337672966667e-01 5.575868108867217121e-02 -9.777763329599674369e-02
4.305093238567011399e-02 -5.265241918486555095e-01 3.444248721064492869e-01
-5.440089717158191895e-01 -7.688086491321781679e-01 3.334932671938271032e-01
1.049350722129937658e-01 -3.460140354231563409e-01 2.668744937055585464e-01
-2.375637620915204209e-02 -9.118397068358133351e-02 4.977668898762222516e-01
-4.489789184275305191e-03 -3.728116329290294684e-01 3.913106205024702855e-01
1.118096718895199466e-02 5.731597514491906797e-02 3.031563403145182828e-02
-9.023127501702271624e-02 -1.399491257157993718e-01 5.796306048518028442e-01
-1.602641631591548432e-01 1.418146114128422952e-01 -9.057094075569496749e-02
3.234170212356977658e-01 -5.104681698459362371e-01 1.741268706714318992e-01
-1.027892233305798819e-01 -4.874689165798042900e-01 4.699877214816507998e-01
1.637392710623363223e-01 -5.852401597652159282e-01 -7.410846658197018932e-01
2.737003079107258041e-01 -1.323050483710987990e-01 1.530011108731663960e-01
6.871579561122855839e-01 -6.019787277697229433e-01 -3.545527214439322949e-01
-3.797459472227213140e-02 4.811662591104038517e-02 -3.455322368187314086e-01
7.439103335290689345e-02 3.525302763705709941e-01 -4.654709993162661208e-01
8.341985336032806120e-02 -1.959446432705174990e-01 1.754921634073235148e-01
-1.226916494036376683e-02 8.223483708471294173e-01 -2.051679774066365036e-01
1.609286966523870710e-02 -6.853192497937875272e-02 3.767489536059157040e-01
1.264132260861711675e-02 -8.088096355918658609e-03 -6.432991039321865612e-02
-4.298416953851110223e-01 3.711665698164226534e-01 -1.279685224457944026e-01
3.283582520778685621e-01 5.162751739420880920e-02 2.850386761973127681e-01
-7.068384896384305449e-01 -7.438646078045775267e-01 1.218337629009995510e-01
2.312753154616149220e-01 -8.502666503462816827e-01 3.475877394521306035e-02
-1.002792330305688900e-01 -4.124746597036499929e-01 -6.946303865697406321e-01
5.968757557373020189e-02 7.649126611076458859e-01 -2.914882220203389163e-01
2.285827309201700352e-01 5.794964791783271257e-02 2.920278943630535973e-01
-1.400380223451659911e-01 -7.101569821850382304e-03 -1.034258784122729508e-01
-2.392109107014306173e-03 -4.246713313021035358e-02 -3.197453443275431045e-02
-6.784399464520879386e-01 2.263164152054877032e-01 7.387709305453453723e-01
-4.633800615529924949e-01 -6.633765174722028313e-01 -4.544895340846385468e-01
7.806937943062604024e-01 -2.214164729683049809e-02 1.042662718803313987e-01
8.316623498661087632e-01 5.771284521478575735e-01 -9.052984299675323476e-02
-8.089768755413513646e-02 -1.486313397383419617e-02 -1.696592282215000566e-02
2.190262417541947171e-01 -5.297537499664618510e-01 2.265023520039245175e-01
-4.175558784799585643e-01 -9.370492135977562809e-01 -2.139668862934922602e-02
-7.433578619675268451e-01 5.395581704448229043e-01 2.737702879928535227e-01
2.427472434658381820e-02 -4.501115196416565628e-02 -1.325299174577098879e-02
-5.774682794369060401e-01 -7.428485088693446148e-01 3.491894431876107485e-01
7.066573899326169528e-01 -1.021570614674028460e-01 -7.043519639757003237e-01
9.519548312493934794e-02 1.315158448307160999e-01 -5.825996495255653107e-01
5.101765053654939708e-01 -2.037014925897318862e-01 1.605165288996750483e-01
1.756080022761690590e-02 -2.222882566104020588e-02 -4.493692945933884519e-02
-6.166064257752384287e-02 -1.793732882572754081e-02 -1.416462915625689434e-01
6.576381397641350990e-01 -2.044313291210113070e-01 1.115683771232860999e-01
-9.445879643964063543e-01 -2.598402535088178977e-01 1.572354597290250289e-01
5.547599927946129661e-01 5.079829047221932070e-01 4.336838990487137391e-01
-9.593813766105538932e-01 -6.762817732970920204e-02 2.436867076191456816e-01
-5.272086696973669051e-01 7.382868206189994176e-01 4.883962564659704575e-01
4.352877086798934703e-01 3.697897051204639962e-01 -6.564733324776931278e-01
-2.277149718636981568e-01 -7.542601551609411370e-01 3.817933142315045880e-01
-5.874935719228032704e-01 -5.787730690525442340e-02 7.721519376775886068e-01
-5.355016551384271795e-01 5.719232084602234867e-01 -1.255215016176942228e-02
8.002306802692275012e-01 1.003673987133704565e-01 1.326425709655868757e-01
-5.398322195096232068e-02 5.591508020900803899e-01 7.570197679652964640e-01
4.572517197705979752e-01 -7.779635669342759297e-01 -1.175801431910155209e-01
-2.207221531599755093e-01 -8.416220615892034962e-01 -4.867431445470117302e-01
-8.009184061980455516e-01 4.144396422324266305e-01 4.891776712021130846e-01
9.674267195783220474e-02 -3.063959172953511501e-01 2.539545305008478193e-01
-3.036859752274400082e-01 -3.106719019182409003e-01 -5.437703880863442585e-01
7.112899118553185351e-01 6.777530044018832411e-01 -2.793140847616091271e-01
-7.423628272105399495e-02 -2.731073872440725747e-02 -3.947709101924875424e-02
-8.715587429563853572e-02 5.641906125310781617e-01 -2.912419550402631230e-01
9.407601814355925907e-02 1.839773487832525034e-01 -5.521023057769114395e-01
-5.501560058328061054e-01 -3.787318067734459226e-01 -4.093764886779023837e-01
-8.049129157300992654e-01 -3.523595108600856007e-01 -1.628212910769831767e-01
1.320554859088489408e-01 -1.590245656538494257e-01 1.243285250041092915e-01
1.739862775277722096e-01 -8.774511316209691048e-01 -4.953497524004930042e-01
-3.944684649503806262e-01 -9.426233257616156713e-01 -1.186059842647160661e-01
8.005574244769788628e-01 -4.456638978853381949e-02 7.520651797759729529e-02
-6.463011713465370844e-01 -8.811243793857080620e-02 -2.282116615515641100e-01
-4.620729320964901410e-01 -9.146158968608067985e-01 3.621816377252305014e-02
3.406433433194792221e-02 -3.561151551817434702e-02 3.576134253460021006e-01
-7.778535306294404039e-01 -5.617351600713142989e-01 -1.342463259068006065e-01
1.645843754450323215e-01 -6.835743904254841796e-01 2.212831172054138540e-01
8.519313727992997576e-01 -1.036092888518392874e-01 -5.530210253039130608e-01
-3.592552373918072584e-01 -7.107200470738971321e-01 4.441209542393373955e-01
-6.572075539246163486e-03 7.670432734055013246e-02 -1.817998053242159823e-02
8.817536660100504520e-01 3.644881938211875783e-01 2.659895844346025703e-02
6.412611410075377653e-03 3.156161324949524616e-02 5.793004943959415565e-01
-5.386537887004851088e-02 5.534561634585652423e-02 1.654270042459663262e-02
1.386041794517888226e-01 -9.174854228697396641e-01 5.516207689702008364e-04
-8.197478705545843125e-01 1.056051495777072941e-01 -1.528862489586565662e-02
8.334397938100090997e-01 4.531128566368176624e-01 9.985939847518227053e-02
-7.362457113810297327e-02 -3.660071309500468207e-04 1.191577062275330987e-02
5.005559166626397660e-01 -5.963318357506169898e-01 3.787639661285912424e-02
2.575975868302188276e-02 -4.121279854219875860e-01 3.610797494267991015e-01
-7.197182049357047084e-01 -1.147357094569870506e-01 -1.949956562539552629e-01
-9.304132718512697631e-02 -2.295414334501151010e-01 5.377173275425043419e-01
6.669594172141183330e-01 -3.011877221540238455e-03 1.913821357473842466e-01
5.407947000235341362e-01 -6.283462148670774239e-01 -2.404953875222278978e-02
-2.740915679128135690e-02 3.851689468143480732e-02 5.449915864398537785e-02
-5.011768358805329671e-01 7.168362422723728589e-01 8.178527609788012465e-02
1.783872711800294497e-01 7.556415168354165823e-01 6.007455702210773296e-01
-4.471233605484013079e-02 -3.944255166459313677e-02 2.413500950864789357e-02
1.837855743906992301e-01 1.235214883464520325e-01 4.656060390583017794e-01
-6.413938360148378759e-02 8.644192135360593277e-01 5.616766042567299388e-01
8.844847063006134880e-01 1.048314734875774173e-01 1.871129088556182721e-02
7.417256355056144335e-01 2.800324695245944295e-01 2.420812625471959467e-01
2.731512645221332858e-01 -3.854189568004897648e-01 1.930217353577596273e-01
-1.052367093970555390e-01 -3.737102996877033623e-01 5.052927875984587480e-01
-1.943177874461067822e-01 2.259972522503452541e-01 -1.366608675195339906e-01
-4.128306180207948206e-02 2.359325681869167413e-01 7.438255201709140785e-01
9.822382050881038607e-02 2.863010030159987215e-02 3.170637476209635097e-01
3.767712167926664524e-01 2.512049203650009166e-01 4.742021556603931431e-01
1.378693319090859570e-01 -3.233160408561926991e-01 -7.782855669211616867e-01
-2.357050090193451575e-01 2.449727144703194026e-02 -1.475175555576035691e-01
-5.189901973063337781e-01 1.801617557085276322e-01 -1.460183204665599643e-01
-4.842825861986387870e-01 2.269706794126727101e-01 -1.383885909942929870e-01
-6.301313605749379702e-03 -8.230616562518333623e-01 2.271963529689492445e-01
-1.305332118166402100e-01 -5.090977951958014502e-02 6.751230032678271487e-01
4.685487464255338463e-01 -6.520209844830412993e-02 2.114624821530649013e-01
6.845234910423209432e-03 6.780348086188858758e-01 -3.169847982725527702e-01
6.291520411454035733e-01 -4.084874240727067729e-01 4.239610472491216892e-02
4.481488911930804342e-01 3.492906885210258494e-01 -6.668903164891843982e-01
6.215982452688155746e-01 -5.229224214797406622e-01 -2.080705114966071786e-02
9.945316093668428101e-03 -6.116020828726623920e-02 2.210068712844541483e-01
6.343056995126642450e-01 -2.049541143215248898e-02 1.985131611813687191e-01
-7.355352667858912064e-01 4.432679512518398757e-01 1.004360577912130903e-01
8.269989744928366582e-01 1.232592482246638727e-01 1.094498968345232331e-01
-4.756225130195579354e-03 5.790164444402895461e-01 -3.473831880629854596e-01
-3.508489510539981593e-01 -3.883961082834008205e-01 -5.459398182146534273e-01
-6.621445175824363094e-01 6.448196974878284138e-01 2.912811659183192070e-01
-3.064203102553608171e-01 -9.708580744393550122e-01 -4.306281389382247277e-02
2.193510975124519091e-01 -6.720139877893602787e-01 -6.967305809649498860e-01
6.184305645460901335e-01 -6.794830918616884263e-01 -3.267028816023209714e-01
-1.913508033351661456e-04 9.055031529712224969e-02 -4.396721198264479935e-01
9.050887209571353842e-02 -5.945507668903595583e-02 4.530157174703659112e-02
2.482865363134764691e-01 9.808144464232886051e-02 3.670122270440938084e-01
-8.918880076170095927e-01 2.668239915975056942e-01 3.655326327685958776e-01
-8.780077195669497292e-02 -1.974209698061231769e-02 -1.784605356170228807e-01
3.852265445222754353e-02 -6.525027599155970581e-02 1.954950778517432902e-02
-1.040477408310712948e-01 6.035599743320799876e-02 -2.459071627980339778e-02
-3.440926337079592418e-02 5.160618872217041103e-02 -3.644746969123544011e-01
7.075687381914468055e-02 3.002889941704266902e-02 1.481679214856716220e-01
-6.114986627353041770e-01 6.793862621756033837e-01 2.128240505885219680e-01
4.882380076724262552e-01 -3.108128696682895264e-01 -7.824548509805506757e-01
-4.089407336655085379e-01 -1.274939336020288472e-01 -3.387919469847873732e-01
-7.376646966499948999e-01 -1.402690904230175784e-01 -1.911228182133264952e-01
1.253989105866937237e-01 -2.964635857142979281e-01 2.256822035154015527e-01
9.369744298390926540e-02 -1.608371892361464550e-01 1.314033544916886065e-01
-3.595266062494592019e-01 -1.734828331092174436e-01 7.449015577769133589e-01
-3.004461637841484428e-02 1.631324432192385876e-01 -2.204603397135489751e-01
6.141841728057749750e-01 6.165092108315962660e-01 3.505411562517333213e-01
5.842582716523195829e-01 -2.343888786129911805e-01 1.324476590304427270e-01
-6.292074366125006701e-01 -5.382235900982597077e-01 -3.455428024942530096e-01
-1.435451464754137763e-01 1.464942657212906646e-02 -7.509360583044506765e-02
7.984650419916118347e-01 5.962730222456010809e-01 4.990665477059974542e-02
-6.807178530501506973e-03 1.965911095833313693e-01 -3.370929917747542137e-01
-5.506560851604423990e-01 -2.635894514014107126e-01 -3.674263497786905419e-01
-2.929196781404971306e-01 -5.204989859660132945e-01 -5.988999751986132658e-01
2.251598485689220164e-01 8.406520297855403223e-01 -2.762486616419536078e-01
6.314884449914428544e-01 -3.521976497905760506e-01 6.666415261289615479e-02
-2.281496685038081340e-01 -8.404146920089481387e-01 -4.842859168107734313e-01
3.408276565792629498e-01 -1.249009321468555998e-02 2.256197560951139491e-01
-5.378563654058401422e-01 -4.091880180110470389e-01 -4.249567195303359801e-01
-1.264920745357382137e-01 4.180909179609725856e-01 7.954567679567020599e-01
1.533654275291561064e-01 -8.392581705988551022e-01 1.113156791059055628e-01
1.241879101204583780e-01 9.606654772268650166e-01 3.700239229751147163e-01
-2.894523543452142550e-02 -5.200326028666039935e-04 8.511740520296985635e-02
6.285614006524465891e-01 -5.184855355885428230e-01 -2.469646987697573029e-02
-6.398821679723669664e-01 6.532238950007603906e-01 4.488239718914830978e-01
9.060113615000338350e-02 -3.487001949034074233e-02 3.790140586792063032e-02
-7.343985008618716948e-02 9.465183456206579735e-03 1.556245849122775936e-02
-5.021037595160712241e-01 2.728958310992434244e-01 8.099396018225313298e-01
-2.034169671326956086e-01 -3.287835317221505793e-01 -6.167786907421196618e-01
2.716283418558268492e-01 -4.848697463893768961e-02 -7.710974071596423673e-01
3.843644026106115552e-01 -2.779282933812188827e-01 1.628754275063943047e-01
-6.208226455816383549e-01 -5.071794495034117611e-01 5.661650397892062925e-01
-1.558532818049759502e-02 6.361143227809507028e-02 -4.300457336947035580e-01
-2.647810815926875949e-01 1.895912558037524467e-02 -1.696628059366473706e-01
-8.059889030374992602e-01 -1.344137065221455707e-01 -1.258601150558532333e-01
4.517496108125249599e-01 9.220425898668401787e-01 -2.747754093786977572e-03
-1.562951716134420785e-02 7.888768340959588510e-02 -3.993981265920444890e-01
-2.908686285565352247e-01 2.150562667184781063e-01 -1.366721704444811281e-01
-2.504026820166186384e-01 -2.357629284317437970e-02 -2.160747406762562606e-01
-2.316808967913029302e-02 1.510791110138093030e-01 -2.416018417364586834e-01
-3.447564254212108215e-01 -4.883830058866339002e-02 -2.657622967606561026e-01
1.566234205505826760e-01 -4.460213834826604051e-02 -7.226840982495755794e-01
1.524375066059223127e-01 -3.671221769318643302e-01 2.416561338959137828e-01
6.615039656694474690e-01 1.231242640625471729e-01 2.514950334612263694e-01
5.023531396030958551e-02 -1.877549135056478212e-03 4.232763691803547168e-01
9.214181089316765272e-01 -1.139276144531049945e-01 -3.647692578536001484e-01
-2.680257673271891836e-02 5.399049457373635702e-02 3.465286359243267139e-02
7.098452955525363928e-02 -5.615736771218742263e-01 -7.375261842366906961e-01
4.513943636045044672e-01 -7.487156423819218976e-01 -5.242292873027724065e-01
-9.040293225448643721e-02 -2.199010048930452599e-02 -1.635839066197255776e-01
7.984213902698098497e-01 3.410568411448248183e-01 -5.218904863521109938e-01
4.878521224294812830e-02 -2.328294179209736692e-01 2.586245015800812674e-01
4.330389187480329638e-01 -6.170139759767233611e-01 7.682206756107096135e-02
3.445469424814961990e-01 -7.953887849994293324e-01 -5.405623942117859793e-01
4.077807171199023806e-01 -1.879343428606362887e-01 1.704210563543179791e-01
-3.876062114696697258e-01 8.448913336558196985e-01 4.413009231305741742e-01
6.386247953899093499e-01 5.179959530696700565e-01 -5.266074439488310777e-01
4.957130696343675993e-03 -1.330280887344933161e-01 3.334880687016492096e-01
6.883529153377665466e-01 -6.026440178180957341e-01 -3.192372571987727170e-01
2.490818570623145808e-02 -3.010742728050457354e-02 2.400837459120906403e-01
5.817201200834209995e-02 -9.883676335014494885e-02 6.608563217015299418e-02
-3.718033422337163052e-01 -2.253710453431349015e-01 -4.437638553789579610e-01
7.893529350186100357e-01 -2.203948623891098871e-02 9.613913525495476620e-02
-1.354600846900384514e-01 2.012628024719149422e-01 -1.303533284446352358e-01
1.841590616169552219e-01 8.408924898841690920e-01 5.289583990177845196e-01
1.168948527335792326e-01 -5.866754390136557501e-02 6.524401799280020453e-02
-1.279980188612590830e-01 -2.540355259868053994e-01 5.706384010684103503e-01
2.171631017776445294e-01 5.823513670590815816e-02 2.942273036158091770e-01
6.286373704278449548e-01 -2.384288307776199212e-01 1.128308375013585690e-01
3.112895461967497557e-01 1.744133888988201597e-01 -7.124465184562625009e-01
9.656634881793796366e-02 -4.426318066051616595e-01 3.013064911354489950e-01
2.660599307473876518e-01 -3.678809735460411012e-01 1.924606771755952572e-01
-1.477337670107897460e-01 3.019861450346074047e-02 -6.814529998210279438e-02
-2.404860679828720593e-01 9.274916543792240953e-01 3.650190816288108042e-01
2.947428806140559021e-01 -1.126192057129110635e-02 -7.677452165672697948e-01
8.258174202871469971e-01 -3.569296056403193362e-01 -1.871826647136626276e-01
-2.579126895587662005e-02 -1.437301671998073016e-01 -6.427106151782270294e-01
1.898064422147886787e-01 -4.968301569119574213e-01 2.439201853773609041e-01
8.574008165259571213e-01 -3.220597594373638684e-01 -3.652163535416069751e-01
-5.336665393586776940e-01 -8.607584210767271760e-01 -1.498923070739645036e-01
-3.683627063883120056e-02 1.095964283137246392e-01 -6.695728502348344269e-02
-6.826114413856333440e-01 -7.426872474678803959e-01 2.151171979035564341e-01
9.102140720302530352e-02 -1.956925690656923789e-01 1.694218195825968054e-01
-1.047523975186211986e-01 1.488776682821118524e-01 7.486921880311343536e-01
2.891445572508171205e-02 1.371330315990590409e-01 -4.704513420504242704e-01
5.618006374865075481e-01 -2.914106597168665269e-01 1.227771787779339818e-01
5.741116138523549850e-01 -1.520333725943620318e-01 -7.706214447523866973e-01
-2.135279264399138066e-01 2.394220178543469413e-01 -1.412751044399080114e-01
7.001515509884367328e-01 1.858604068334271109e-01 2.510577281598890265e-01
7.125639825144330919e-02 -1.526681135072640583e-01 -7.153664516324956812e-01
3.393801902678135196e-01 9.599815607931605488e-01 1.803241891811004916e-01
-5.596588774184586834e-02 -3.595247869677606900e-01 4.540218353876781521e-01
9.356835877189662032e-02 -5.788531193600080504e-01 3.000822807378830115e-01
7.160482611695069555e-02 3.014185170059026364e-02 6.770093838631789651e-02
4.359719217683252768e-01 2.882918284391816979e-02 2.668446686033933979e-01
5.390946438256626339e-01 -7.310745600215374784e-01 -1.754067026023818088e-01
-5.837954885810608952e-01 -3.729952680367683553e-03 -2.106309806684318331e-01
-1.743000446689822736e-01 2.752932616349341721e-01 -1.671487236139595212e-01
