-7.716682539999807078e-02 4.198268078258937663e-01 -1.490889394007502422e-01
6.832968797243113568e-02 3.281845662256864249e-01 -1.302621521650404179e-01
-7.845995141783849158e-01 -3.079623843485431167e-01 -2.083675092144808005e-01
-3.385568279725974239e-02 3.239871318121593791e-01 -8.662894036771595641e-01
-1.575701349261686424e-02 -2.598631341039155940e-01 6.372817960019964978e-02
2.767303421039755684e-01 -5.560161208599294635e-01 1.051570765941301083e-01
-3.241510882408320526e-01 5.405882192207516201e-01 -9.304465771755722481e-02
-4.761043745946595684e-03 -9.454597506714378097e-02 6.953170558989797646e-04
5.437050129593781062e-02 4.626896669925806838e-01 5.573011255862815316e-01
-3.879323990750312423e-01 5.492602387164959854e-01 2.085411508857356599e-01
-3.335076673538682202e-01 5.384303625534404558e-01 3.079153086781791920e-02
-2.095147022110339374e-01 -3.500382874196842353e-01 -6.924999888920486957e-02
-2.868410384678801370e-02 2.199445126542785289e-01 9.391041134492910114e-01
2.627958201942421912e-01 3.440875334109758099e-01 -4.457901061467326592e-02
-1.102597562914940932e-01 4.845005524351453374e-01 -2.566216682010514227e-01
-5.277597829085178827e-02 -1.981400980842709658e-01 3.810667040754030233e-02
7.310201646591344415e-01 -5.123978103945030504e-01 -2.131655811741139939e-01
-2.982965415960414646e-02 -3.250286176512044434e-01 1.084925108101662955e-01
5.776933186307968704e-01 -3.838511897307125276e-01 -6.538808339288492144e-01
-6.874600847876338738e-02 3.043331858387885447e-01 -8.825016006323918027e-01
7.480535894600288949e-02 2.371215107347302009e-01 8.924087587069645666e-02
-9.584176101681863846e-01 1.242117025871161268e-01 -2.157042901072354635e-01
3.905574047536667370e-01 -2.016708035423144807e-01 -8.782420157323888033e-01
-2.124524156886812773e-02 -4.931836636865665757e-01 -3.800914161486230181e-01
4.046987894079792647e-01 3.951110754917816492e-01 -1.043440450493312716e-01
-2.875726439769714093e-01 -3.837060874815896860e-01 1.516004391052191633e-02
-3.587556424932566435e-01 -2.244446644257231949e-01 -8.450317023421387574e-01
8.833049257255273234e-01 -2.151724879685738556e-01 -4.036287204428528619e-01
2.667786573642818779e-02 1.508803526343811263e-01 4.612555846926220948e-02
1.748620696728100596e-02 4.670532502190598290e-02 3.941405706751510869e-03
-1.126293484052904997e-01 3.891761906253430880e-01 3.824613731244580483e-02
-5.321928287751630515e-01 4.006222017445250083e-01 6.430370852004220206e-01
2.169085855921653871e-01 -5.363413398201837268e-01 1.619584108062825656e-01
4.189415120099628242e-01 4.221048485913179160e-01 -3.755823448588471725e-01
-6.498136643365777232e-01 -3.846228525724965097e-01 3.331943078425529392e-01
-4.141314074927991973e-01 -1.971390575328036410e-01 -8.329907272814758290e-01
1.652172183205288802e-01 2.924235757814501180e-01 9.401021618975770322e-02
-6.587942764257284471e-03 -1.211187127646392442e-01 -4.328037270054472564e-03
-2.357858845577421036e-01 -4.846743799941842235e-01 5.611971206548429514e-01
-1.257138678329256798e-01 5.117532899099944688e-01 -3.512096206420865507e-01
-1.724239091940913959e-01 -3.323919668953993489e-01 -7.923091512408812764e-02
2.209335885621767359e-02 -2.748058640229101846e-01 3.078457809336744913e-02
-7.945187648569841388e-01 -3.224040437171352136e-01 -3.102598238850713674e-02
1.243039544760438653e-01 3.719763231215313382e-01 -7.917071778109738833e-01
-7.875885944001235206e-01 3.867611169042758368e-01 3.637348535842675479e-01
3.330836159450288880e-01 3.757244175393840702e-01 1.340544739672888952e-01
-1.159188087427397151e-01 4.894573103763095734e-01 3.732423126261082968e-01
-1.461656985795947716e-02 4.074952717909258171e-01 2.382601672637255641e-01
1.673487052682614273e-01 -4.991696148677987055e-01 1.255882253502972057e-01
4.864001916851535406e-03 2.791789003275153142e-02 1.393159784930863600e-02
8.827591521059822977e-03 6.172208269162674649e-02 1.629271837582863805e-03
-1.221160285375097604e-01 -4.290726757931617730e-01 7.765607834171153190e-01
2.093601444559460012e-01 -5.291241791545885365e-01 -5.470750933966048724e-01
-5.035253737102657334e-01 -1.861425330234640352e-01 8.139334361260066597e-01
-3.491571172966061454e-01 -1.647595053854245262e-01 9.088000393491778572e-01
-3.758106258335770083e-02 -1.714806566586191683e-01 -2.338145749220854261e-02
-6.017599747277982969e-01 4.889069733559990305e-01 -4.265868607199028162e-01
-8.063692803620835514e-01 -1.478488525851169022e-01 -4.783379352526574979e-01
7.515395000769506395e-02 2.913940510068745438e-01 -8.818143377025112750e-01
-8.543168342778301172e-01 -2.242568042403751682e-01 -2.475690817374798236e-01
5.494226852191209237e-02 -4.150235295455504403e-01 -7.826385204701959974e-01
-4.921195788486111278e-01 -4.369258201885998227e-01 1.918607963444993458e-01
5.288548573532185770e-01 3.909806330882370506e-01 5.022223172249141304e-02
-3.233532726282278280e-01 5.346052344542436829e-01 1.059545553164383119e-01
2.636650990736493783e-01 2.144684909623216507e-01 -8.856267880429710138e-01
2.933360298325395424e-02 -4.042881113144846106e-01 -7.942489378066199812e-01
-6.744179332377813960e-03 1.964113322387902316e-01 -1.020613769810353386e-02
-2.161172329731350650e-02 -1.061629998010908821e-01 1.652522582802434109e-02
-1.390319585585848006e-01 5.113721248965162891e-01 -3.274646280911955309e-01
3.698499473378825120e-01 3.971986844884772272e-01 -1.446211496955620013e-01
9.493755182152850969e-01 -2.897366142051434057e-01 -6.002020790844485310e-02
2.673377730666242139e-03 -1.335774703184773593e-02 4.827422108334459075e-03
4.837830257703239489e-01 3.953881172452758941e-01 2.484364180013505508e-01
3.107082444888922268e-01 2.441857679844029183e-01 8.455829094942793889e-01
1.721008421883567956e-04 -3.683608697090429152e-01 -1.349223037712619921e-01
3.574011972498059020e-01 4.112388417656385187e-01 -5.783322983020059427e-01
3.026237155968041631e-03 1.188159227576779248e-01 1.903078819717478332e-02
1.608927931843218695e-01 -5.197271104468035308e-01 -2.579166336766796075e-01
-7.690461410481248816e-02 -2.138481685845415592e-01 2.764015554051085094e-02
4.828872283037607405e-01 3.265957959791896958e-01 -6.467742055150316194e-01
-1.802785620634564032e-02 -8.544829742812616591e-02 7.769920788721549048e-04
-5.730457176642772543e-01 -3.985523446296362904e-01 -3.574162413497913304e-01
9.238184143411637406e-01 3.089674729066315892e-02 -2.997293405204618510e-01
-6.123810885382037217e-01 2.935675294926335388e-01 -6.867234637837041911e-01
8.239851435138653701e-02 -3.837002092508278728e-01 2.257913579497692128e-02
-6.856997174358817615e-01 3.893698421196293835e-01 -5.157556662995538277e-01
8.601715456656935377e-01 1.020383071769982442e-01 -4.005595659546740683e-01
-9.293377426911484385e-01 3.015796655438951479e-01 5.792200508584527310e-04
-5.415252231296761032e-01 -3.654267409979589654e-01 -5.310272571862557633e-01
-1.269954595536905706e-01 -2.716598426432270119e-01 -2.404204301834923091e-02
2.579525849278446192e-01 -5.390858173709517365e-01 -3.683527535187301749e-02
7.572146761761463507e-01 -1.916695272186937082e-01 -6.120070723452841754e-01
2.824105963825664367e-01 -5.617712699242498608e-01 -3.110987887805854446e-01
-9.865754232458870954e-01 4.677386205707394912e-02 3.487199888391843972e-02
4.800384417243397928e-01 -2.708663337423554140e-01 -8.042769178092753490e-01
-2.769624301257691545e-01 -3.852058829985370858e-01 6.180815832942154753e-02
-3.342898954893804286e-01 -4.261672396894885528e-01 -5.917737058923989713e-01
-3.884971743835798769e-02 -2.485758711062900916e-01 6.511167551611922455e-02
-2.304538463870088594e-01 -4.044573471445057633e-01 1.661116019795594034e-01
2.788742276413265775e-01 -5.599422878099211687e-01 1.345685373620977010e-01
2.941873149927795583e-01 -9.861260712860273059e-02 -9.379453769638265159e-01
1.815109286492091745e-01 3.934991137665186378e-01 -2.109488442725477308e-01
2.691998345087548983e-01 -5.254681345955565241e-01 -5.650563387958360551e-01
-2.991434560971654166e-01 5.304478551461556668e-01 2.375885625488815822e-01
3.012494769940669559e-01 4.399296074779053822e-01 -3.695334705500851191e-01
1.695899751682328899e-02 2.781692334612742568e-01 8.979391361573623165e-01
-1.192768390397045547e-01 4.489690206663358718e-01 -1.514599406115328117e-01
-1.350711330411528133e-01 -2.888684112889235434e-01 -4.595449853992887579e-02
-6.429520211914947596e-03 -3.500598680594485534e-02 9.290568056010735029e-03
8.778635738987568271e-02 2.419704380989144421e-01 -5.720758592902595169e-02
1.811101519968709161e-01 4.362349397505337345e-01 5.821953709510445663e-01
-2.718142679555274333e-02 -1.099679487789389509e-01 -6.702182309739210730e-04
8.411600198461351152e-02 4.594718445539054952e-01 5.322527847929516831e-01
2.258837702211358156e-02 -2.600399288329466874e-01 -4.281980283285819074e-04
-5.769845072204092817e-01 4.059304795482741590e-01 -6.040363581117781377e-01
8.222198685413099062e-01 -7.215182967293624905e-02 5.585406512165994597e-01
-8.719027124668151663e-01 -1.074949273887698155e-02 -4.444202032088917509e-01
4.863126704046822311e-03 6.842498332132436467e-02 1.381059202019952435e-02
-1.992708055783710408e-01 -3.516984439180433908e-01 -8.901074152846850940e-02
-4.365207734018524549e-02 3.076965401838961389e-01 7.451075902531908990e-02
-6.127885567413434709e-01 -3.920276170758442424e-02 7.840790348157200551e-01
9.725577346350324295e-03 1.891738657702771997e-01 -2.657113822453968655e-02
4.659597200688907481e-01 3.156736467973950133e-01 -6.787645779256606948e-01
2.813059492596213240e-01 -5.520736208754110086e-01 2.459865850972683954e-02
6.989467379654185075e-01 -5.511826286918841689e-01 -5.781035753299745145e-02
2.665212364771991638e-01 -5.510269666910838637e-01 1.007984097609202212e-01
1.671692824442682912e-01 -4.966829463909838149e-01 7.069436761750408360e-01
4.392016799975762692e-02 -3.061546669026439169e-02 -9.856916648588255336e-01
-1.978542485597552525e-01 -4.640636413331820642e-01 -3.725301406375154945e-01
-5.076225709645394435e-01 -4.209627412224170029e-01 -3.439344346770437100e-01
-6.313079613898272546e-01 -4.032692255158238925e-01 -1.016056026999018203e-01
-4.668147817524067600e-01 1.172634240494428853e-01 8.737791418446035907e-01
9.571531543183702251e-01 -2.710794688336151670e-01 -5.218681092510235597e-02
5.479055459276906820e-02 1.553131188070154822e-01 4.145130029123879345e-02
5.145245943544207723e-01 -5.865545146825460465e-01 2.823212291393768503e-01
3.646176409171137389e-01 3.909030645101199686e-01 1.937034769640683940e-01
7.478603163639684359e-01 -4.247421570833525561e-01 -4.132267783922604076e-01
-5.817389264959073325e-02 -1.731933856143311468e-01 -1.829710917603746042e-03
4.986231404974263981e-01 -2.397856626592771156e-01 8.327543956485279342e-01
-2.060506681609838020e-01 4.745942071094597092e-01 5.534541047621520035e-03
-5.451109426662231749e-01 5.424360146336114630e-01 -2.952986144488949360e-01
-5.313906612765521009e-01 3.561155186976804332e-01 -6.953613558172972997e-01
9.188709692919505567e-01 -2.723966443711552110e-02 3.584136259894080689e-01
6.649083370937660664e-01 1.773758052027412935e-01 6.366821212874514968e-01
2.596722881153448736e-01 3.505314540828627368e-01 -7.430124638058094311e-02
7.684984733424835568e-01 3.029398645565888892e-01 -1.513824570235989264e-01
1.416535567503469373e-01 2.640017894024254685e-01 -3.732028322129286174e-02
-3.685552602264671740e-02 4.226862183593366185e-01 2.486479012355662099e-01
-4.310052991484979168e-03 -2.630164346629003738e-02 5.978328167736665470e-03
8.228310548362344212e-01 1.644524721194568773e-01 -4.076105723590365826e-01
-3.951877698098592989e-02 -4.942972098711273521e-01 -5.739561880382446635e-01
-2.150061560004882383e-02 -3.937558805713348709e-01 1.651751993925180961e-01
1.337820050498465529e-01 4.149993514526649219e-01 -2.510974977745620285e-01
5.807337763954358856e-01 2.777108751980639223e-01 -6.208544274870563262e-01
2.431430057018224913e-02 1.516473232154009199e-01 -2.097025603329916166e-02
-5.731457310617144030e-01 -3.857545151629422908e-01 -4.197064335900373422e-01
-1.271812734690471736e-01 -2.702161899154387203e-01 -1.887335794436370562e-02
2.696512902750769491e-02 7.518894734693855331e-02 2.280559772151414567e-03
-2.717876959129791326e-01 -4.804400894318054394e-01 4.122257088687430460e-01
-2.078339006106406407e-03 -1.553281148169383813e-02 5.918846441607952640e-03
-8.117073808553948444e-02 -2.499964325482668948e-01 5.611049435780634392e-02
-8.429763812740254103e-01 5.607272676271849582e-02 5.279592951856435512e-01
1.041726985902315453e-02 -2.839479997657901045e-01 -5.412215082448768033e-02
-4.458479691169334735e-01 3.705343944664240552e-01 -7.328531407958087662e-01
-8.574506813673746231e-02 -4.334411828381790066e-01 -2.558686694315654431e-01
-2.715946289563808680e-01 -3.757321599423227854e-01 -2.255933862835771131e-02
1.428800991149546118e-01 3.990485530804822600e-01 2.814645960504779665e-01
2.287714767699677854e-01 -5.324180835149062707e-01 -5.374379798371026196e-01
8.015986771993510035e-03 6.696202653297893270e-02 1.852952920579143195e-02
-7.242862288502019963e-01 4.978410570238786526e-01 1.365353075001514149e-01
6.367952855999897688e-02 -5.013024007601899479e-01 -3.249711152421278504e-01
-3.675900683996433799e-02 2.796848038566949746e-01 -1.858671111424567424e-02
-4.375566789100004406e-01 5.632107846010681040e-01 -1.395384195511864267e-01
-3.203007941566902717e-01 4.088087278104540201e-01 7.350623681717135538e-01
2.719038202474738930e-01 -5.521914664047171684e-01 8.787235627841839813e-02
-6.708650929636241766e-01 -3.084020742598931886e-01 -4.744535246589740574e-01
-7.890889653103603241e-01 -2.380224981019623265e-01 4.326867385352773376e-01
5.853052910021306898e-01 3.498638311905453158e-01 4.241926662405624548e-01
-2.018628451460278972e-01 -4.004922532406580693e-01 1.721974510302256567e-01
-4.157100051492912951e-01 4.055956775361352351e-01 7.035808553335105575e-01
-5.943170664543173665e-01 -2.755966552512886247e-01 -6.262952360796660844e-01
1.510049236282302587e-01 -4.810986521560186580e-01 1.039790841081471573e-01
6.581531190808934673e-01 -4.425478537671003187e-01 -5.037104528399342085e-01
-7.266081057500996254e-02 -2.382543818105760658e-01 5.237829735500493245e-02
6.930208596901109297e-02 -4.207847775206326468e-01 -1.358203953123896524e-01
-2.813236918212188575e-01 -2.181292141315112343e-01 -8.821746093724679438e-01
1.274886877586446643e-02 -2.628787313282380800e-01 3.940574177794506361e-02
-1.193737013140193925e-01 2.190901238069757617e-01 9.369728110811524902e-01
2.588706099240377090e-01 3.502488117120636235e-01 1.239823503610374272e-01
3.526697805383166018e-01 -5.813382737282454249e-01 8.572415837135068106e-02
5.290713166630280073e-02 1.619279593401839190e-01 4.677035082869867438e-02
-3.474788183212719483e-02 2.655290370024044333e-01 -1.834880676644698059e-03
-6.788144643711777060e-02 -2.612300740066125226e-01 6.973795176590090461e-02
5.691160852033262385e-01 3.860465986036294012e-02 8.047303978223927512e-01
-6.043150265995793635e-01 5.490712734241266491e-01 -1.161709370115291684e-01
2.426897614147607574e-01 -5.321633969453017921e-01 2.903054259732120584e-02
-6.211645933184375412e-01 5.476834912852496240e-01 -1.677310252793465933e-02
-4.494924529280192038e-02 -4.659966740376140226e-01 -3.086156769580791215e-01
-2.833523869640310333e-01 5.190263448606499130e-01 8.391278994128855903e-03
-8.043632760167704343e-02 1.831445088534180976e-01 9.569110662356692387e-01
-5.411689871735518576e-02 3.379572886672692067e-01 9.751234858565671626e-02
5.717163687788288096e-01 3.180270797942730820e-01 -5.648772091831469888e-01
4.939434958451706104e-01 -5.777040136853579533e-01 -2.790803036092740497e-01
-2.378737161653282899e-03 3.491363519135859406e-01 1.652559250458255913e-01
-5.810505886185540064e-02 -2.518766956102361232e-01 6.614042130103230110e-02
7.508077349160375835e-01 2.389396337354789679e-01 4.236964419988207275e-01
7.945197770169022677e-02 -3.770813633830340517e-01 9.091576025254953161e-03
2.710093449623164896e-01 3.452451828228400021e-01 7.525448546872489652e-01
-6.586846629498542827e-01 3.916895199887202583e-01 5.439478475386941847e-01
-2.840633225208337720e-01 5.216865488780939586e-01 1.536716769102806635e-01
-5.842336712202851334e-01 5.556591140044206956e-01 -6.849806780566741748e-02
-1.063844225027906973e-02 -3.605603618496124319e-01 -1.334182537033861138e-01
-7.001147158812701665e-01 5.188240481329080556e-01 -1.125328440816763913e-02
-5.253171748433645982e-01 5.139908454606776367e-01 4.102851439844131254e-01
2.411505419589097046e-02 -3.736887487503855465e-01 1.161129316698998604e-01
6.406940166511340129e-01 3.189229111111005488e-01 4.323909078469093670e-01
-7.211985420205611896e-02 3.378850500514117838e-01 4.946765992390381866e-02
2.894343004551396259e-01 4.250049591737428134e-01 4.382423793745397478e-01
4.149003191722162587e-01 1.806643975678721148e-01 8.390771580919356154e-01
6.544836505001124793e-01 2.125885085270672048e-01 -6.164468028566832958e-01
6.773064106938749829e-01 3.504424118700060209e-01 -2.191150227541058260e-01
-6.476269206601381612e-01 -4.015620974776494267e-01 1.564944420837471595e-01
3.617841261093776573e-02 -3.017566958355794027e-01 2.248973458820336530e-02
-3.995684112704653290e-01 -4.252508953356556320e-01 -5.212563146769710887e-01
3.262874656506841720e-01 3.648114197152815819e-01 4.628714356811456277e-04
7.948756750370877810e-01 -4.928005631536335196e-01 -5.950562751439652381e-02
1.430355140939066627e-01 3.250437790460578569e-01 -1.175889633461778133e-01
-3.282904642606929158e-01 -4.065941288726413472e-01 7.543417564145293852e-02
8.558895278478969443e-03 -2.522072196549307588e-01 -3.448888798755344459e-02
-2.556081348469841363e-01 5.395117504704481926e-01 -3.604988787648099047e-01
-3.440936805878508919e-01 5.348633496790723418e-01 3.671806387192248500e-01
-8.824010854110879432e-02 4.068795366618107590e-01 -1.114966223064406542e-01
2.507367391988394312e-01 4.477302877703114303e-01 -5.441367014819823433e-01
-9.325727719791137016e-01 1.924552169580766858e-01 2.791003895583437089e-01
4.323655917992538233e-01 2.737425385211716966e-01 -7.548856552494019878e-01
-6.764224658596197648e-02 -3.810216584201251422e-01 -1.748788713303368048e-01
-3.141747400054115125e-01 -4.266487959308248867e-01 1.772268329412405030e-01
-6.625276673775580827e-01 -3.760769483645915456e-01 3.428823685837890656e-01
-1.691176106773668864e-01 -4.819993440573985821e-01 6.410029816759335031e-01
-3.611834918891225210e-01 5.536923805460395309e-01 -1.706937345152386987e-01
3.627698200284798502e-01 3.618792420722162784e-01 6.624617247425458322e-01
4.405314911418833218e-02 1.392231985400844974e-01 -1.410751105958046869e-02
9.823069499234777791e-01 -1.816098888099771935e-01 -8.647613306211483211e-04
1.232422794080976700e-02 2.316111016817222756e-01 7.720516897639463638e-02
3.780667197377387545e-01 3.839160040523562079e-01 -4.902712960207782078e-02
3.457165801313411557e-01 -5.335718227878440967e-01 -5.298359681746962480e-01
-1.898084681474894175e-01 -4.345618524398841553e-01 2.402197630932830785e-01
2.046416350504856319e-01 -5.335366604464832907e-01 -2.376064970044921842e-01
8.211369630114719043e-02 1.120570542006219111e-01 -9.680482589520847947e-01
-2.927184773944944141e-01 -3.918669067189454736e-01 -8.250789565200475351e-02
8.440271495094849863e-01 -2.470857077000132851e-01 -4.585589170898285993e-01
2.894741211654358604e-02 3.340455779622393262e-01 1.655526218679923001e-01
-9.442391873739224284e-01 -1.224633946852274058e-01 -8.208701294128967207e-02
2.507403624512289601e-03 1.142179238201541797e-01 1.498238212240345264e-02
-3.693800958524781075e-01 -4.177917103898914908e-01 -1.182753677360755956e-01
8.012864596081535618e-02 3.223047348059588924e-01 1.648027540321469753e-01
-7.770152075719799489e-01 4.452948239569766153e-01 -2.338656532353069195e-01
2.685071454007603720e-01 -1.116891624404048600e-01 9.619595143332067000e-01
-2.281930850980279923e-01 1.931671457717888396e-01 9.339861983421734459e-01
-3.951501486970161736e-02 -2.758787084038668014e-01 7.966762480665988411e-02
6.486503145907867030e-01 3.598656689034038791e-01 1.805395597654593787e-01
5.071629188680636807e-02 -3.280607114437731342e-01 1.011392732642862544e-02
-2.351048851728871625e-01 -4.895535386785049847e-01 4.566904474158588467e-01
1.491147788700886989e-01 3.420275043155364680e-01 1.813555845154078972e-01
9.422546096048194098e-02 2.386358566567118034e-01 -5.117853752602144479e-02
2.517986020389634608e-02 1.822126895699297255e-01 5.840136116309487674e-02
4.820158776330804584e-01 3.952004746141533631e-01 2.253102000727818799e-01
-2.854111017671609463e-01 -3.876848444957197715e-01 5.570335469780358928e-02
2.381618325255479562e-01 2.750082784343799852e-02 9.678987661819402621e-01
-4.972438064327271423e-01 5.601779041061188957e-01 1.274328509178906943e-01
-3.701949954381790198e-01 4.716888235136804108e-01 6.109382421262258278e-01
1.345911976217299133e-01 3.784567068382022059e-01 -1.903341435034118789e-01
8.620964913404202123e-01 1.670508157055111131e-01 -3.018731538104906797e-01
3.416174902547524095e-01 -4.289500833490507703e-01 -7.304017550639427814e-01
-5.839048354748617095e-03 -5.961695231252747001e-02 1.285491376683488632e-02
1.116565478751565532e-01 3.489947175268940938e-01 -8.220634492926486292e-01
-1.713439219590323359e-01 4.528762909145178650e-01 -3.845216540123890664e-02
4.773392324761879246e-01 3.925944281951448955e-01 2.219963274726847666e-02
4.225752975820552537e-01 -5.284065933709306551e-01 5.758029836591053163e-01
2.330807183074481634e-03 2.901061219945950693e-03 1.252847511059984945e-02
-1.860316274981530238e-01 -3.269117470780862900e-01 -4.154310551345694741e-02
8.837844075736198679e-01 1.940399301687643074e-01 1.071898214511761982e-01
-5.018634397821548632e-01 -4.230591244245984761e-01 -3.359310178380962020e-01
4.796949011937709506e-03 4.081250949415855117e-02 5.514412790259436668e-03
1.296320780481010904e-01 -5.089579088837402621e-01 2.220178121669282301e-01
-5.054301888437311430e-01 5.371585832500478386e-01 -3.655929114811672376e-01
4.424003608576201722e-03 3.812023610531361378e-02 1.325492856822945917e-02
3.024459536828237247e-02 1.820679769044737661e-01 -3.280405118290268679e-02
-3.755514127829044368e-01 5.190664686687560536e-01 4.688459780171969071e-01
-1.581893554410051250e-01 -4.792166609236759856e-01 3.454240035797900843e-01
1.809939426619375513e-01 2.788909690102175376e-01 -8.681800445016085721e-01
-9.591271001370843541e-01 5.197565949217223397e-03 -2.076698397886038716e-01
5.515532278202443794e-03 1.257775904657452704e-01 -2.657576085263548861e-03
-4.792751705626901136e-03 -7.367645331852154533e-02 1.247056362595917733e-02
8.484435499709546136e-01 -3.100358766735945570e-01 -3.945698243818449580e-01
1.038118679963680735e-01 -5.489711261661399666e-01 4.815996359792603099e-01
4.046687511163326589e-01 3.889692241891297142e-01 1.349063116218828517e-01
2.431071502002865245e-02 3.639656365098222213e-01 -1.537305407725698680e-01
-1.612576084677165913e-02 -9.066393568270193770e-02 -2.240920294742065801e-03
-4.217200953737560987e-01 -1.641263228968662669e-01 -8.464044742580574265e-01
-7.200303997021839653e-01 -3.687385962740143408e-01 -6.037480349293344178e-02
1.340393576326840974e-01 -4.621845609503589802e-01 -1.071760900664180949e-01
3.129651595081176518e-01 3.844416346672472895e-01 -1.323912780786952181e-01
-3.148807743789340530e-02 -4.926236758193781040e-01 -3.874556672395541579e-01
-4.072753510631502705e-01 -4.445766960544160762e-01 5.314093902652254897e-01
1.531812049200836912e-01 -5.319278428804066206e-01 -3.466139568207707855e-01
2.721437925998214727e-02 9.776953514833171266e-02 -5.651481957166674779e-03
-1.099978689334307896e-01 1.099514112385626963e-01 9.807037247399920110e-01
-4.965473071118388718e-03 3.132446744448927345e-01 -8.985482409672561344e-02
-2.487009536585681191e-01 5.371702592056306624e-01 -3.179416834185048724e-01
-3.012092304116124608e-01 -4.415723197325089888e-01 -2.889327633252808947e-01
-9.022141447273557616e-03 -2.695209395373132644e-01 6.479984926170018200e-02
1.927530029084055796e-01 3.069444898144754186e-01 -4.977061820999528763e-02
4.283883521847458575e-01 -4.226397702498178588e-01 -7.031970200474165766e-01
2.898746757321902373e-02 1.753761381626264271e-01 5.638183478596172499e-02
-1.573306941853425123e-01 4.436231213618706537e-01 -5.020887560162180796e-02
-5.621275541359967987e-01 4.813639116565405773e-01 -4.870230337671101473e-01
-4.505988009173932385e-01 -1.305309158537233671e-01 -8.450650105609225360e-01
2.745225877443950233e-02 1.983085616841673560e-01 6.650645633207567797e-02
-1.191288053969604410e-01 -4.466510387595610254e-01 2.614940865681554816e-01
-2.050347768024065459e-02 2.565811986899720343e-01 6.012972193125321746e-02
7.414195926666792280e-01 2.679362807675472191e-01 3.752583352746981515e-01
-7.863596132298210362e-02 -2.654964151561419738e-01 -6.660708491487704608e-02
-6.864066307160608948e-01 -3.870820941478796962e-01 3.269889517825399963e-03
2.672462954507858965e-02 7.494918496498599592e-02 1.892722730327844535e-02
-8.083275340907010165e-01 3.370206319222929792e-01 4.085203469584166025e-01
-2.838148952420279092e-01 -4.034338346449242718e-01 1.225952661049069248e-01
4.932029826024876273e-01 4.072756174743684121e-01 -2.881707806495529822e-01
4.573080879837515544e-02 1.729127967439643976e-01 5.526901823588113716e-02
-6.396994751349932562e-01 -3.233019455350802929e-01 -4.914672751036102127e-01
5.112073804278588485e-01 3.929977084902268047e-01 2.183768987197139133e-03
-2.191626926402170383e-01 4.863066538369990588e-01 -3.211762828023689842e-02
-2.031455932607521830e-01 3.896858732456179308e-01 7.846005237884970951e-01
5.993123706890327723e-02 -5.185828553560565268e-01 -4.381824890424212415e-01
-3.605329872478502118e-01 -4.215780410391785638e-01 -1.576606942630949526e-01
-6.631362466860142302e-01 -3.799970203151231685e-01 -2.325755577001246965e-01
2.534905337993791433e-02 6.251000337434368948e-02 1.099040769288415348e-02
7.289954028542176834e-02 4.461058172677977440e-01 3.838582171115186292e-01
-6.036802479096823326e-01 5.106201179602436468e-01 3.393029106781682569e-01
-8.151664014284995541e-02 -2.840121766327586839e-01 -8.083537621023491326e-02
-5.176991128304291312e-01 -4.250657452198867148e-01 -1.129453866930877209e-01
-1.144294889323814457e-01 4.084504354572433549e-01 -7.779288893125206883e-01
-6.912929901041174885e-01 -3.834310255762221065e-01 -4.449196249925976843e-02
5.477829196265256162e-02 -4.787293532465771717e-01 2.349820242699909856e-01
-6.082445397126053921e-01 5.024012642212858371e-01 3.630193636191761941e-01
6.041214691466678666e-01 -4.488866253040100784e-01 5.850051447283889372e-01
-1.467999473482672901e-02 2.760991625664562243e-01 -5.207350448705979490e-02
2.581110086291776851e-01 3.865456993018116516e-01 -7.138747955961884939e-01
-5.748405991383347402e-01 9.909798417123528991e-02 -7.955884597644237166e-01
-7.027944084993328344e-01 -3.752374605525355955e-01 -9.568368380497310755e-02
-7.407032559923565351e-01 3.393277113350948726e-01 -5.083315451820812347e-01
-6.649293070222098145e-02 1.326504060324573409e-01 9.768309680338741474e-01
3.235783731792801071e-02 8.653263452178350246e-02 3.008372852755643485e-03
-1.855467396359400389e-01 -3.418160233293920380e-01 7.654653131345211248e-02
4.383547875447977860e-01 3.896921937946457026e-01 3.090513498461714900e-02
-2.696857848937193099e-03 -8.299407779029328858e-02 8.014259370041854069e-03
-3.694225546175995967e-01 -4.628404281602701009e-01 3.607299423966180418e-01
-3.810649915420019629e-01 4.029216857450750866e-01 -7.281076016759809866e-01
-3.618990039505168843e-01 -4.412165717783056995e-01 -2.936933251376545040e-01
1.328454803828085957e-02 3.890675425278145028e-02 1.611537885640772910e-02
4.139071751715823200e-01 4.031092420621815164e-01 4.365070524098688676e-01
-5.972729621426188240e-01 -3.926701490365508973e-01 -3.359813319859072944e-01
8.410216239386437698e-01 -4.310162164211959190e-01 2.091908269880268789e-01
-8.962185372642304500e-04 -1.009092056292998363e-02 1.112635102246032140e-02
9.569078294058227518e-01 5.345944815268716122e-02 -1.122583190844437390e-01
8.677905097852144367e-01 2.067084352280467718e-01 -1.603285348764812990e-01
4.882944970266221707e-03 1.069175552438207666e-01 2.446251314292277081e-03
-4.858137771697890184e-02 -1.643922445646201214e-01 -1.156399471761130476e-02
-2.219828125893029136e-01 -4.847173031355363482e-01 5.797239361040523731e-01
-2.794091914755160722e-01 5.173155503590064486e-01 4.585477394193568541e-03
1.864325669060525048e-02 6.477456369071914188e-02 -1.865312753734659150e-06
-3.464128524922055474e-01 5.484965066016386226e-01 -1.214130947335382016e-01
4.779496183349487004e-01 1.723522679298793991e-01 -8.039979701402045764e-01
-9.035167455249022428e-01 -2.003588419965001699e-01 -7.510587475245333877e-02
1.402719097108917623e-01 4.734742810730728224e-01 -4.773472039083428986e-01
-6.769441867183050299e-01 4.445207527804417302e-01 4.282692023290805561e-01
2.735039840599371441e-01 3.424870698337099673e-01 1.953121643964132606e-03
-8.192035648462198116e-01 4.010037988026709521e-01 -2.512971074926798609e-01
-1.081967252810400182e-01 -3.166185083697360403e-01 1.004879733129474956e-01
-1.900120091046149651e-01 -3.826329255487811998e-01 8.147032984773161512e-01
2.735213553955866406e-01 4.245808508903283762e-01 -2.817875974889970103e-01
6.507897717495165768e-01 3.418329918400876410e-01 3.169547766273911327e-01
-1.424120632121872454e-01 -2.909049831007218256e-01 3.631827600014039814e-02
-5.561413765875083959e-01 5.013610579185663330e-01 -4.425836975077800384e-01
-8.713608792914118162e-02 4.217583392127168818e-01 1.926028877793581062e-01
-2.657159726119553977e-01 5.099437107301784122e-01 6.357516090071638204e-02
-4.903713728697872143e-01 -1.659618030619379181e-01 -8.042004437815463147e-01
-4.793313230127971836e-01 -4.428119723071038405e-01 2.753360386438660767e-01
5.182916470733588410e-01 -3.136504553612762813e-01 7.821932718065515155e-01
6.559758109009080629e-01 3.028261512496918662e-01 -4.740934076396919328e-01
1.086889612829455148e-02 -3.700544142021298111e-01 -1.292414499487885282e-01
9.014346146662193249e-01 1.638873041688993504e-01 1.343523491568296979e-01
3.690250878022659498e-01 3.820541723615874519e-01 -5.040525994870069526e-02
-3.514816697828501701e-02 -4.242595820217440750e-01 -2.231194157821495272e-01
9.885746371285072387e-01 -9.403361512635373398e-02 8.900487135293094765e-03
-6.242805583647538237e-01 -3.693887599432300606e-01 -3.874663999542425907e-01
-7.904528250471016815e-01 4.594692859773797933e-01 -9.917830717222970993e-02
8.309273960801301095e-01 -4.296923886535551351e-01 -2.194245577954297699e-01
3.573177397241378284e-01 -5.838014563654744249e-01 1.148144529322343704e-01
-2.121587988826793558e-01 3.036403481153738815e-01 8.699674999483781868e-01
-1.110469710426263412e-01 4.070437498370821916e-01 1.163135994468105089e-01
-2.450288467952540378e-02 -1.046754806746269667e-01 1.343610409050698291e-02
3.908774905251214543e-02 -3.947027529527123990e-01 1.245713452851969633e-01
-3.463735285186159696e-01 5.428709735261348923e-01 1.702904936373299261e-02
2.087333309799041248e-01 -3.700470002162808414e-01 8.612972945715127171e-01
5.732432828884211906e-01 3.793487467375639688e-01 -3.574240978788187917e-01
2.418179680450481261e-01 -5.307803145625477059e-01 -5.874533545553405761e-02
-5.591457878585194274e-01 5.604023130355743065e-01 -3.783572506985927869e-02
1.753476302262104436e-01 3.511324154075660120e-01 -1.412198373222234848e-01
2.581889105980129107e-01 3.506120450158573543e-01 -7.675912541621764396e-01
-2.176777930669187844e-01 -3.834712466627756000e-01 -1.447292771569234082e-01
-4.696798798420185328e-01 2.673298125614989584e-01 8.073677120528424123e-01
3.547490214845819834e-01 4.141857591754752876e-01 -2.353928615170048644e-01
-5.529459585787146331e-02 -3.376449052866214995e-01 1.240205815525604327e-01
-9.128215516615558744e-01 -1.271066984249788201e-01 -2.440437188663735213e-01
-7.926944015222948670e-01 1.264840676031367683e-01 5.918424540939949408e-01
-1.370821700179578329e-01 4.223260263110927282e-01 8.616080176969036220e-02
1.550151917824244552e-01 2.898632592226625393e-01 -6.318565901567303744e-02
3.653330664033078157e-01 -5.431480630001748189e-01 -4.933810710454273885e-01
-1.131985663415490256e-01 -2.522258194586781688e-01 -6.848193656223365393e-03
3.811042405216683582e-01 -5.289445106447409062e-01 5.940370153415643895e-01
9.723961948650033937e-02 -4.022112450683660301e-01 9.730072354358049180e-03
-4.166656725219778368e-01 4.662611047611145421e-01 6.034829940666968096e-01
-6.227481576950678610e-01 2.197440916376742492e-01 -7.224990877189418903e-01
3.183657984055900461e-03 1.085566473536408449e-01 1.565565843938948598e-02
1.572729295519309511e-01 4.648962832406071111e-01 -4.111103171738334505e-01
9.879036602336446760e-02 2.049397456179049282e-01 3.854699380399973646e-02
9.802504986824502886e-01 -9.306581890268246504e-02 -1.228314412760357355e-01
9.869276695970875535e-01 -1.413819766730163852e-01 2.817059993111689295e-02
2.680460385844818938e-01 -5.751072189718604566e-01 3.765743530229379576e-01
5.590759656713824993e-02 4.649871554893666437e-01 5.129935569529372463e-01
-6.869897446586340495e-01 4.639478494316922608e-01 3.659310719590160854e-01
-2.425391796655672616e-01 -1.721129372617674347e-01 9.445121822838881132e-01
9.058104365710200057e-01 -8.785624006322743929e-02 -3.924966440068604623e-01
-6.636593434246162125e-03 1.740109966319935975e-01 7.377736383637372060e-03
-5.699117647187774971e-02 4.581633502514930179e-01 -2.433043687833038038e-01
-6.648100711155140452e-01 5.334909454244950444e-01 6.666747825089528595e-03
-4.087701592680469398e-01 5.253877232417771825e-01 4.327920205835202316e-01
-2.934286611276034490e-03 -1.141791846904728763e-01 7.411996837111024285e-03
-1.463238992596397336e-01 -4.387750990268031170e-01 -2.782337406723310869e-01
4.889294262016521397e-01 -5.698052513084654880e-01 4.034328371115523115e-01
7.785490518686624117e-01 -3.598747894665205171e-01 -4.599289284875812678e-01
3.909516284017180293e-02 -1.202404918476977225e-01 -9.738460505472070761e-01
8.428169766791361595e-02 3.130374868531243249e-01 1.551260078475496240e-01
1.970543970623550578e-01 -5.593820330862526724e-01 5.023006209618845475e-01
-6.686944997554306047e-01 4.310689734309580134e-01 4.667334311454922613e-01
-6.693561184096143979e-01 -3.923753128422579062e-01 1.677002662484044504e-01
-4.504459315687698862e-01 -3.400345110598312903e-01 7.201357712778850839e-01
-1.728014806564309724e-01 -3.151428813665495543e-01 3.081155753575362533e-02
5.047086156289100067e-01 4.037561831940335022e-01 -2.200990209879946646e-01
2.080270498308227634e-01 -2.921027449459782654e-01 9.157145819358940564e-01
-4.614810289227100348e-01 -4.266254574580529146e-01 2.030270874677738910e-02
2.830292073786784823e-01 -5.765699816481610895e-01 3.097698540149791402e-01
9.365798631108229744e-02 -4.771618604018519894e-01 -2.186013022198373124e-01
-7.884531890774635343e-01 -2.162852238167168317e-01 -4.297181582090261465e-01
-5.622702405283209748e-01 7.257413403163745502e-02 8.242821990377288133e-01
1.087167455484256556e-02 4.518610282225860725e-02 1.973340078542992065e-03
-1.333735975157283871e-01 3.287283461626055447e-01 -8.602532546696292082e-01
4.918515568242208258e-01 1.179489019641192654e-01 -8.224631496328417279e-01
-4.332687243372537744e-01 -4.232275507485052657e-01 -1.377639510624506687e-02
2.271990689845963252e-01 -5.409463725464491723e-01 -2.280275033597859435e-01
3.196410659298974388e-01 4.086635355247773549e-01 3.119387254589428005e-01
3.836707438370746681e-01 3.723303802879570079e-01 -6.526327945676381193e-01
8.060450965284131630e-01 1.679818016056810193e-01 4.349627341993915208e-01
-2.279338464231441819e-01 -4.699520857169087740e-01 6.351796511069309759e-01
-4.594043540122622615e-01 -4.218663517029085375e-01 -4.458318490569668224e-01
-9.108747322212930042e-01 2.866377723193107574e-01 2.213801540825447167e-01
-5.368950343216271071e-01 -3.574097246483348700e-01 6.113317301533250925e-01
5.917362843177907950e-01 1.234886089510230274e-02 -7.840585634774382973e-01
6.351185199747725330e-01 3.732216790612356005e-01 -6.417126363564057412e-02
-5.736118206721293467e-01 -4.139804700399744575e-01 -2.027224009340123922e-01
3.688033446519355385e-01 3.831944876222427854e-01 1.322739388339187472e-01
3.707135979933008640e-02 2.246047905980413373e-01 8.274692297392111096e-02
5.631235866832275810e-02 3.419978517605922752e-01 -1.415439746691770917e-01
6.850484051344136738e-01 3.072514164236657130e-01 3.817275034509700071e-01
-7.095632964461964232e-01 -2.103635444689972711e-01 5.990308389548638646e-01
-5.647921691743044148e-01 -4.203917986527043182e-01 -4.861967188131785522e-02
-6.137692856140180009e-01 -4.129484617841515659e-01 7.815705730227420767e-02
9.037563509722668087e-01 -3.241129573005093190e-01 2.537756654030942083e-01
1.066797516078616948e-01 3.454000817192736106e-01 -1.490466746487160987e-01
-1.114129016544725403e-01 -3.903573877540531534e-01 8.301382547998132910e-01
-2.673687401532383046e-01 4.958870597078751663e-01 5.672300292717369352e-01
-5.851194797900851619e-01 -4.171575047698979910e-01 -3.536548265332412067e-02
-7.584522134018305550e-01 2.432479910303280424e-01 5.801333052477343211e-01
-2.015813465199982682e-02 2.230778444886903633e-01 1.926626120491535879e-02
2.025236189580331969e-01 -1.597890878661239744e-01 -9.471991128093734114e-01
-5.278838120727044059e-01 -1.259811521443495452e-01 8.244309805583257544e-01
5.679764231405056707e-01 1.201164572683828952e-01 -7.672365081108956097e-01
2.432670336521460495e-03 1.293707369890287895e-01 2.102472252109998004e-03
2.383124065840793171e-01 -5.604178005311203359e-01 5.149724496243242022e-01
8.281431863226088042e-02 -4.999541918323870404e-01 -6.194480827849176974e-01
8.180383347319766102e-03 8.653419182422412981e-02 3.594780465903616037e-04
-4.547834128252215002e-01 -4.420703699114864049e-01 4.588005212805273958e-01
7.474092296891850229e-02 2.358839444130892971e-01 -5.742845116890994001e-02
-9.094735355101207785e-02 -2.243455878054810004e-01 -6.110467162271264636e-03
-9.147533008501085305e-01 -1.894376636733251518e-01 3.254036511779162533e-02
3.794136352196942896e-01 -3.701069773211202590e-02 -9.117368997812596021e-01
4.721024763319622286e-01 4.049353637659715011e-01 -1.792816079775182703e-01
-4.538823072720753471e-01 5.434761856981060735e-01 3.163389876862313654e-01
-3.570935998378770293e-01 2.286856506990910531e-01 -8.726110803043545250e-01
6.957541221034232448e-01 3.380456676782808145e-01 1.925223035863115051e-01
4.006078504024675468e-01 -5.929023249862328537e-01 1.311612052040098952e-01
2.524259507497045307e-01 -5.696252685626614909e-01 3.034949227606575928e-01
1.967951797336662534e-01 -4.027136221723812137e-01 -7.941069883666894702e-01
-7.374779855764442837e-01 4.728237376392760427e-01 2.330319574465083698e-01
-3.579528457744286518e-01 5.451023584307411740e-01 8.602010466175151471e-02
-6.838461230965394710e-01 -3.685920090617996747e-01 3.183783866094960224e-01
5.496092651335229284e-01 1.491156019622403850e-01 7.688630915716255787e-01
-3.314563409340769984e-01 -4.564521621702012366e-01 5.813675260796111743e-01
-9.581642826383586498e-02 3.942926633719507912e-01 -7.401296735232086588e-02
-1.172710867538985235e-01 8.239074134933355165e-02 9.864793804917849629e-01
1.885280961725896431e-02 -5.012624588912316659e-01 3.140986336996109962e-01
3.683069750596807412e-01 -5.826493364637552741e-01 -9.789534210901185748e-04
-9.365879826594644131e-01 -1.310802529069053646e-01 1.477832400336532570e-01
8.067343331514332805e-01 -8.243179737686452679e-02 5.819490729506339166e-01
2.338058574124150801e-02 5.686031671426847178e-02 9.245832025648608940e-03
2.801561892623598560e-01 2.760119082601646956e-01 8.309660147963536803e-01
-1.488140180001741308e-01 -3.519507164780308894e-01 -1.292161711669506385e-01
5.474134980678602158e-02 1.518060321537892943e-01 -1.383632802882795755e-02
1.114193269671317488e-01 -2.145534980528659708e-01 -9.396735601943970728e-01
1.536404875833332351e-01 -4.973549852110514813e-01 1.494363591411036751e-01
4.238258868870168339e-01 4.032009071361757346e-01 3.109735448287671011e-01
-2.492846578299551807e-01 -1.970898989235498888e-01 9.325632429628297748e-01
-4.422830397403171993e-03 -3.939182785630692546e-02 1.189947151162299224e-02
3.496986284878781936e-01 4.248034431640126396e-01 -2.937871480313841155e-01
5.172234011432966794e-01 -5.983193497362028213e-01 9.459722116954683013e-02
4.828096020937543420e-01 2.465078606255741156e-01 7.397802360334942984e-01
-2.275277444596893531e-02 -9.268203199833813244e-02 6.401650451768124694e-03
7.218643718243368257e-01 2.748720480090238172e-01 -4.169532573692827371e-01
5.544725601317622432e-02 2.529070350535718714e-01 -7.102326293805660828e-02
-5.353642412094964387e-01 3.608147824056569253e-02 -8.267210229694876844e-01
4.557985031316878488e-01 -1.524808766150196615e-01 -8.632718332308334519e-01
1.797071207559156752e-02 -2.777466888907112463e-01 -3.881802959757047616e-02
3.335854766356091128e-01 3.845651057298489217e-01 1.825817704354058824e-01
-7.028333359410864345e-01 -3.270697652108208175e-01 4.242054905436705714e-01
7.065223036389586472e-03 6.032250249686961496e-04 6.231403662260473833e-03
-3.320181951946994392e-01 -4.016265080290756240e-01 2.285871363306662962e-02
2.934650212652670231e-01 -5.567359454802867091e-01 -8.134627845744234198e-02
7.397024354513696831e-02 2.996249498576265546e-01 -1.053546190627746848e-01
1.930507018650541584e-01 3.487837982629934941e-01 1.756463325929823460e-01
-1.966249648155641780e-02 -1.336885678461546823e-01 2.359607376215222194e-02
1.900748535493234498e-02 1.003861285241055695e-01 2.922783660322345739e-02
4.513120418037634418e-01 -1.131964995692271575e-01 8.906097583051385547e-01
4.484180588990747118e-01 3.932486059913320453e-01 -5.290731196100577627e-01
-1.778432585504290467e-02 -1.495073799526926706e-01 2.673791506115522076e-02
7.525149355533836681e-01 2.866796053245602716e-01 -3.076229566162332341e-01
1.276040536861343666e-01 -3.821311736882719856e-01 -8.222874379833022829e-01
1.886337625643871863e-01 -5.626109239305716603e-01 4.107095686292016601e-01
7.919100029953277664e-01 -2.280133244603570197e-01 -5.511342619167677315e-01
1.255071970092261693e-02 2.252770354525903893e-02 6.860277989776525191e-03
-7.720534170826240383e-02 -5.088922676321918637e-01 6.035735567629654241e-01
2.144833056778586433e-01 4.170350957722241403e-01 6.334831982233489756e-01
-6.784633566948422567e-02 3.777499008472641195e-01 -9.378696852207585311e-02
4.286771061130504878e-01 1.218758328955084763e-01 -8.580045811877929918e-01
-4.897388326464661296e-02 -1.372582340280746327e-01 -9.668655679682571780e-01
2.580075227987626008e-01 3.387916358504314829e-01 -3.018797474781546863e-02
-1.996072713679101704e-02 2.472055630829760042e-01 -2.191190922804363284e-02
-1.097978287585916167e-02 -1.715688759748259240e-01 2.858123901260296168e-02
-1.924870140835844845e-01 4.842148001672897384e-01 1.931975584626290654e-01
-2.431065740990663859e-01 -3.194321677847267171e-01 -8.202455822438634581e-01
7.084310458247650155e-01 3.429443211766379784e-01 -1.006737412349308358e-01
3.030996047701010609e-01 -5.520026918265008575e-01 -4.577550917866809455e-01
-2.993918901120104503e-01 -6.899678869747014054e-02 -9.310287375480270633e-01
-4.002357290283761193e-01 -4.546359145907460930e-01 3.084248234483276674e-01
1.651825885811309125e-01 -4.928369866093855745e-01 1.080053383707206549e-01
2.343784883542835221e-02 -2.773794449659268690e-01 -2.712969828913174009e-02
-1.168719530656050359e-01 -5.018645395827161515e-01 4.101848977150378550e-01
5.676603778280321366e-01 1.936874533210476146e-01 7.202684039109951142e-01
-1.165757649457844179e-02 -1.060308449795404756e-01 1.772296710009967427e-02
-6.842420371899159415e-01 -3.885244333394287097e-01 7.512369009194284908e-02
-6.486187884737989462e-01 -1.851823576118359627e-01 6.913367152398670612e-01
-4.967990016673561222e-03 1.941861500481200098e-01 9.518739768350373831e-01
-1.266024653218554286e-01 -4.025406902830855338e-01 -7.630365131244443155e-01
-2.374166990026859575e-02 3.085589260269486211e-01 -6.905557224362454671e-02
6.093634624894416207e-01 3.759264789450843525e-01 1.192847784162454211e-01
-8.273783525575488795e-01 9.596556052882923571e-02 5.487744566378480737e-01
4.360047700099842216e-02 2.244923419092524630e-01 -5.392164556565024608e-02
3.055176625445462646e-01 -1.143828293558348669e-01 -9.320080507684278537e-01
-4.641736694840012944e-01 -4.267562983044616565e-01 1.970992271610579050e-02
3.011155490721715774e-02 1.079797917077683495e-01 -7.854072659249099891e-03
8.108489823981902545e-01 -7.945528181670279133e-02 5.758971214357045953e-01
-2.810136281583330842e-01 -2.842486785655655712e-01 8.715787182173951875e-01
6.660956852877404355e-01 -4.612637792465243414e-01 -4.621322828341911659e-01
1.106558436295281174e-02 -3.804268422077590750e-01 -1.405144106118163538e-01
-2.166976138510471901e-03 -1.149848859489746231e-02 7.587301857979675442e-03
-1.294621830203654678e-01 -3.135720403675957280e-01 8.968149755529584155e-01
4.391273249303023207e-01 -5.476819374453919531e-01 5.162747940628854559e-01
-2.338787764444721085e-01 -4.465793121942451815e-01 6.931196990040099370e-01
7.636414073086863485e-01 3.029882210144824173e-01 1.502513111703408510e-01
-5.254390834177551373e-01 5.638277163545243331e-01 -6.804933170092337946e-02
-5.453812707239842350e-01 -1.206633533303267114e-01 -7.875515576396474593e-01
-4.481666701291165400e-01 4.817848899735163726e-02 -8.772012296302981182e-01
-4.016263027171165789e-01 -3.844989614217204088e-01 -6.360960608760732882e-01
7.671770871827236771e-02 4.840730083505255243e-01 -4.654752000659537203e-01
4.535016379459884672e-01 4.147857638737741381e-01 -3.048806826117693713e-01
-3.160547143390227687e-01 -4.752577768251053936e-01 4.384980174017958365e-01
4.695568008202935517e-01 2.172374431023864072e-01 -7.793446372219574592e-01
-1.775290141000493080e-02 2.839842872115659889e-01 -5.478356921571740645e-02
1.389975891178330848e-02 -4.391438697633238686e-01 -7.416200653765895323e-01
2.217440818456731938e-02 1.411108850728463593e-01 -1.735656819067269568e-02
-8.133222322360273981e-01 -2.144893243989932086e-01 -3.807890396879054506e-01
-7.011634855974161473e-01 5.177741781297363621e-01 2.921175538676026862e-02
-1.547423987944343826e-01 4.738281037062081480e-01 2.323188769988333569e-01
-2.930831409357361195e-01 -4.388077523307070682e-01 2.282504866078398642e-01
-9.123241330667840321e-02 -2.596790036193545870e-01 5.747066214930408867e-02
1.354666240318583847e-01 -4.812728939277682860e-01 1.386067412426370549e-01
4.223129054116169234e-01 -5.935375544877891096e-01 5.751625521422819211e-04
-3.155803964304932513e-02 2.435717398685107449e-01 -9.221041715306184106e-01
-6.698736015358264240e-01 -3.779427431906959289e-01 -2.244673253201344976e-01
7.090376244106488725e-04 -3.970275322546035560e-03 1.186522246549282997e-02
-1.915211581012079278e-01 4.356402176355236300e-01 7.167161246726330148e-01
-5.135515359590364648e-01 -4.238769231549308070e-01 -2.756651026715825625e-01
2.591040445499952650e-03 2.760010577671698773e-01 1.003444464314987850e-01
7.097056631266934756e-01 -4.940062986738154027e-01 -3.238187545249556210e-01
1.102462656543659880e-01 3.245356230642929551e-01 -1.257598086411829130e-01
-2.260768418893892018e-01 4.881311801839324227e-01 1.819938447339589094e-03
-3.739897570792051762e-01 -4.200405427939460923e-01 6.469183459101497391e-01
-6.994790221204196315e-03 4.697681203092375912e-01 5.790619545809276847e-01
6.237620683240259201e-01 3.692421996661317540e-01 1.699393691765975767e-01
-7.229705155260903425e-03 -3.756773304395646940e-02 8.230929102580912191e-03
-1.984941301589740470e-01 -4.244977213242159264e-01 2.187061392257087233e-01
-1.299592023038368960e-01 -2.952997505780891041e-01 6.248046576029696320e-02
5.459532432683986691e-01 -1.704527523324506355e-01 -8.066264592128866706e-01
8.408466063543500180e-02 3.986301727653052129e-01 -2.154733537924779507e-01
2.340143071141639886e-01 3.702351733185397786e-01 2.015658076827110123e-01
9.379243385642322961e-01 -1.988171215320628377e-02 -2.896743067364843660e-01
-6.010279264668041271e-03 -4.850480414015723163e-02 2.837464991035379674e-03
