-3.917706236834271882e-01 6.993148802891729909e-01 6.102401407464359551e-01
8.763182994899197942e-01 3.511429482314142314e-01 -4.525184995908830277e-01
-1.726602139986756768e-01 9.073364296303451093e-01 4.974946233431876141e-01
8.127362073121444652e-01 6.774007350543087558e-02 -4.861323905365827480e-01
8.215340120247294209e-01 3.780143658842711196e-01 -4.631587158775082869e-01
-4.781137998466605254e-01 -9.355040969814817364e-01 -5.605427981266236648e-02
6.753837510999072258e-01 6.253193900940688943e-01 -2.019915924710291300e-01
2.994947631656812437e-01 8.895325205989871309e-01 1.302513332355665354e-01
-6.179617104700801944e-01 -7.993316159295121848e-01 1.578484440292514390e-01
8.845501327423902493e-01 6.795043799140293439e-02 -5.537883216774569517e-01
7.831369315531953035e-01 5.337570552705271920e-01 -2.498226639126984727e-01
1.107771469909545475e-01 -8.362760602215549843e-01 -4.474838519360685440e-01
2.699711683764699846e-02 8.971531051772756449e-01 4.054904767558752399e-01
7.958308158865894100e-02 -9.123385886412613832e-01 -3.549754892454302646e-01
-2.337269468511841419e-01 8.293597426339460732e-01 4.376052112342944667e-01
3.588340714516201069e-01 9.663187151918447571e-01 1.004046730719244662e-01
-8.758230753402314051e-01 -3.320033632625931652e-01 3.927821800064343893e-01
-1.010792251545922227e-02 -8.982393322464675700e-01 -3.183452237138096330e-01
-8.836657541255298343e-01 -7.225545064422690678e-02 5.691876049044629626e-01
-1.865745338230297978e-01 8.752796826028499400e-01 4.120040321654707682e-01
6.248900136581669873e-01 -5.168348196651971760e-01 -6.560336058565333639e-01
1.166005954141916268e-01 8.962121768494986096e-01 3.286879673856625272e-01
-3.891418354780908917e-01 6.705044973115051876e-01 5.874837280815852214e-01
-1.257954224664818987e-01 -9.744876070768486720e-01 -2.397145786779387999e-01
5.771401810336462823e-01 -4.579144627367598974e-01 -6.276511809961855537e-01
4.485541447948376281e-01 -7.492970889035064364e-01 -5.696324815643876160e-01
7.806681714187621024e-01 6.491450756043174453e-01 -2.536215981116752838e-01
-7.200706155617199178e-01 -6.369290567325047725e-01 1.718297501293436502e-01
7.659591671105692168e-01 4.437847076350133757e-01 -3.961564912707649655e-01
2.582982289577532842e-01 -8.206706822972241744e-01 -4.460763142656773428e-01
7.840829175541794704e-01 -5.779953682274907578e-02 -5.259977756084214251e-01
8.222035115714142472e-01 2.852540784704215571e-01 -3.949467905664499345e-01
6.362377523341044006e-01 -5.501484812195769347e-01 -6.089333934938615522e-01
1.862190433791056227e-02 -9.188432419028994547e-01 -3.213519931151570530e-01
1.945096602845122480e-01 9.955255036256027701e-01 2.282906506535673785e-01
-1.905098011075451458e-01 -9.394472252635084342e-01 -3.130908637355802604e-01
-4.599159237885950269e-01 -8.280271260141389700e-01 -2.993147437142132383e-02
-8.910946570742686035e-01 -1.207229432930274626e-01 5.490422964939498662e-01
-3.635245662616264917e-01 -8.699558222453621648e-01 -9.300003138376682077e-02
-8.299258872247482488e-01 -5.639435785349933283e-01 3.104301560347598188e-01
2.270579714117958448e-01 -7.788085866037225413e-01 -5.024811199697442055e-01
2.354894357979533601e-02 -8.858826575020757321e-01 -4.350370608227374092e-01
-8.038413627779376069e-01 -3.048308128328545696e-01 4.833035297802522612e-01
-5.528011785188999827e-01 -8.311658727756864318e-01 -2.658026290545219272e-02
-6.045314740580163271e-01 -8.249582239745691936e-01 1.661164359372825985e-02
-7.486954072689621098e-01 3.787107606075157396e-01 6.031888304030849079e-01
-7.413855647033475993e-01 2.454663054152818602e-01 5.573583134169306508e-01
8.163328595038793489e-01 2.722137486014788443e-01 -5.071507078104544597e-01
9.531601333789574415e-02 -9.513682440790003358e-01 -3.972395907997928743e-01
-8.663842626567760385e-01 -3.880558050098151801e-01 4.506216748567810626e-01
-8.793779099450355075e-01 1.249810979329486760e-02 5.744971481794016732e-01
-2.094773255224755826e-01 -9.571620717864097738e-01 -3.001495558263381769e-01
4.144506084675081414e-01 8.785380211156046393e-01 1.361653670452220299e-01
7.678860973468668027e-02 -9.111464604174330795e-01 -3.534571232614648895e-01
-4.279795040761186775e-01 -9.538788299310847485e-01 -1.067512805017770960e-01
-2.452099145604361707e-01 -9.500435932698081398e-01 -1.486206064618268430e-01
7.225970545242088594e-01 5.499585535164244199e-01 -2.543077994717925505e-01
-7.526988278322961357e-01 9.922962552164826810e-02 5.920203581061311837e-01
-8.081299286422106709e-01 -1.966999033161763721e-01 4.570757577515838777e-01
-8.166121741540525170e-01 -5.844964095356145473e-01 3.181124851820123500e-01
-8.133969465045998160e-01 -1.012102349517612770e-01 4.842735701821664906e-01
-7.565848056353529083e-01 8.722051614821305088e-02 5.927444923443428992e-01
-8.378852815484255645e-01 -4.778739465146267795e-01 3.079807371630744472e-01
5.616360819057071296e-01 8.789146587560123791e-01 3.145425687051685380e-03
-7.567189635940064774e-01 1.031103582639206345e-01 6.104526577411465427e-01
7.130741520380841081e-01 6.762036582558254016e-01 -1.426772941232716529e-01
-1.247766647627773090e-01 -8.943240326125856399e-01 -2.833532328706106496e-01
7.051751923445149783e-01 7.566011897613506010e-01 -1.646257824537853687e-01
-4.546615962633400732e-01 7.438323065871780271e-01 5.497805974152967234e-01
-7.573010619022293444e-01 9.336525366232488465e-02 5.672151589206856359e-01
-6.458156325478742188e-01 3.527096708496353927e-01 6.075253679200095513e-01
-8.182518528848119477e-01 -5.672889158074186922e-01 3.399478339355599954e-01
2.221170554848950207e-01 9.325916221540010431e-01 2.905459186608366218e-01
-7.974991189625962873e-01 -4.069607954304453601e-02 5.862617240558701814e-01
-4.811811327007625150e-01 -8.576045797285679617e-01 -8.304482845188747298e-02
8.572845526658138260e-01 -9.532652218606066374e-02 -5.699022886309368374e-01
4.063233754216565297e-01 9.607491986450097388e-01 9.910847993549123935e-02
7.050788291392826035e-02 9.337463575580243758e-01 3.902009187384457012e-01
7.932293974363692213e-01 1.793463905919309986e-01 -4.782832512955274562e-01
5.937044420951361756e-01 -4.376519286945045328e-01 -6.342329924622364112e-01
5.207126926724328086e-01 9.085217058707543147e-01 -4.785659771783325775e-04
-6.735383989316888753e-01 3.161534690517553425e-01 5.879608331691023038e-01
5.810371542153340840e-01 -5.665681986953636784e-01 -5.534934475588957348e-01
-6.055395760139278272e-01 -8.341976316877002251e-01 1.217267641487533164e-01
6.963205106750138818e-01 -4.601970267334436482e-01 -5.991299270761920592e-01
7.880608655868526213e-01 5.020710316701665343e-01 -2.695916413049642690e-01
-3.545520227351932341e-02 -9.153405658966258240e-01 -2.942109241217200633e-01
-7.070307366116385106e-01 2.521955644205765013e-01 5.791732629389588771e-01
2.911188468592068590e-01 -7.384779738869090560e-01 -5.329406593777972212e-01
-4.103980922217806415e-01 -9.263106334311961287e-01 -1.530969194442352299e-01
-7.037412151375117553e-01 -6.764015433126646659e-01 1.399644055893833339e-01
-2.401493587114154546e-02 -8.945071852326561546e-01 -4.045255065449928078e-01
-1.181793820738154394e-01 -9.191276437696035417e-01 -3.538731024967523564e-01
-4.321331314378708544e-01 -9.551568071208319521e-01 -8.048626643045533879e-02
7.289252894265891847e-01 5.647350327918388979e-01 -2.297383563073177870e-01
-7.086666682136331108e-01 4.420173771757918701e-01 6.387833496116137599e-01
4.161638239590521871e-02 -8.612119863463065794e-01 -3.948879731792975800e-01
-8.515728098692074144e-02 9.405987027742978013e-01 4.545720299966419242e-01
6.699579223556704211e-01 7.924163435266851074e-01 -1.418195968821037434e-01
-2.287144229483139279e-01 8.724617381688770656e-01 4.367880902436535595e-01
-2.415518299849849782e-01 8.109705445222945563e-01 4.473147683779608030e-01
-5.490475764147423332e-01 -7.873051157883370621e-01 1.280898862141205234e-02
7.289030592243458395e-01 5.755710606377130167e-01 -2.186973743043914287e-01
-4.103674766472290569e-01 7.835900425669626301e-01 5.525286818095987984e-01
3.355346940832992786e-02 -9.623373985492396088e-01 -3.487371555261818412e-01
4.259300304151458078e-02 8.936398590211305226e-01 3.892395615457810432e-01
-4.713034667245024623e-01 6.698883105909155811e-01 6.346077772885235779e-01
-4.040921803685152414e-01 7.330540163589508440e-01 6.127307927484406669e-01
7.008183346423355609e-01 6.908183591578390681e-01 -1.286310281681882495e-01
1.850225636083748515e-01 9.939029907456207180e-01 2.806930926361848599e-01
8.472359419524349011e-01 4.107456158664472001e-01 -4.407550141098262042e-01
-5.000409146551320072e-01 -8.354905172078140874e-01 6.126376229898825715e-02
7.959702104355874663e-01 3.471952857301561224e-01 -4.617285550265159966e-01
3.675456650497354039e-01 8.960737686014175196e-01 1.759907303161232506e-01
8.368565996545952457e-01 -1.611414246298229491e-01 -5.758220429531176743e-01
-1.325093535788238186e-01 8.616169226973606765e-01 3.941156491084918945e-01
-2.383476995672475715e-03 -8.799457359499470721e-01 -3.457060570778835440e-01
7.721441725044124738e-01 6.953024304882040761e-04 -5.504540869569510830e-01
7.756817630432335520e-01 6.498821553582856403e-01 -2.185733912856104577e-01
8.183251435048090050e-01 -1.503650230966716295e-01 -5.441959277639886183e-01
-7.937574541985983334e-01 -5.383584897353435039e-01 2.539933451505426709e-01
7.818285032396404821e-01 4.858003911907440853e-02 -5.584005244957389591e-01
7.435668637370581591e-01 6.644598059533239898e-01 -2.780136375050480946e-01
6.760937603932677398e-01 -3.347418986088772641e-01 -5.690178605949388624e-01
3.504588000461292263e-01 -6.966610072350051253e-01 -5.655359440314491337e-01
4.454642569229496640e-01 -7.437230825365633846e-01 -5.895330760423620475e-01
6.608595919230049187e-01 -4.101271314159285475e-01 -6.656279278076936423e-01
5.760713653564792924e-01 -5.665231015432745654e-01 -6.529670619300537160e-01
-4.987519725188885311e-01 -8.545496436803832196e-01 5.988158862702391838e-02
-5.876182903488467169e-01 5.046335630047490417e-01 6.611732138257985225e-01
-1.501277432202101636e-01 -9.067076243574438976e-01 -3.189137846441036372e-01
7.540663502067376234e-01 -7.717886322929932985e-02 -5.841414863702114602e-01
-6.476022106024156288e-01 -7.229007645513526592e-01 8.975304172199360941e-02
8.646541934769619298e-01 1.607775616862269774e-01 -4.514872688282465241e-01
-8.048834213077414867e-01 -4.496599864138313418e-02 5.911197733665646270e-01
-9.404785903853547790e-02 -9.216534516950914968e-01 -3.718187010335260445e-01
6.218157272675032265e-01 -3.994238512032299293e-01 -6.408798900830524614e-01
-6.800798726433972263e-02 8.869429831182699120e-01 3.574205296115938180e-01
1.886931095438228734e-01 9.949202255200593203e-01 2.753025374674324399e-01
-6.900588896965518249e-01 -6.183458592201229731e-01 2.053664847233611923e-01
5.470006602206464175e-01 8.514086772221247656e-01 -8.944640748332977065e-02
-5.417387881013224771e-01 6.651506735227846745e-01 5.964804090992422703e-01
-1.593116527429412621e-01 8.560816444738008624e-01 5.151768734744293088e-01
4.436552527071684349e-01 8.440195245498097742e-01 8.352605941420510050e-02
-2.291800130045386352e-01 8.571698959972802179e-01 5.409625709983345576e-01
-8.956441905216609989e-01 -2.751483909492153934e-01 4.796459367037712584e-01
5.339385644430759692e-01 -5.673172071617995638e-01 -6.492662372764882450e-01
-3.981727283011895491e-01 6.589939289404627143e-01 5.819545842928574020e-01
-4.852584639194905125e-01 -9.282637230070875933e-01 -1.596230291982491528e-02
-2.657580075353681570e-01 -9.927910467148788332e-01 -1.823844947866222199e-01
-6.927693181089131791e-01 2.590967610539098298e-01 6.133921834364514103e-01
-5.029714732912591302e-01 5.526371908071943118e-01 6.047807614572032753e-01
8.675580794161070752e-01 7.694615711101855486e-03 -5.858760884911586864e-01
-4.055819555377975227e-01 -8.853514053844503406e-01 -1.442632231050866853e-01
-8.166756172602137598e-01 -3.873077002809212077e-01 3.449326142490070080e-01
-3.660345327419954886e-01 -9.751451646160754771e-01 -1.458275960916305680e-01
7.048472930742447629e-01 -4.201554463209850598e-01 -6.507514461776064962e-01
1.839046755237474240e-01 -8.418442960845131662e-01 -5.256070543340563006e-01
-3.875875212398498526e-01 -9.250486624077272069e-01 -4.207284474596009738e-02
-8.046386802801084315e-01 -2.228838952620417480e-01 5.137568257552139750e-01
-8.776986652114586729e-01 -3.386388780854323599e-01 4.714870149616746664e-01
8.338922723816981630e-01 3.152627787518224589e-01 -4.944948134067346790e-01
-7.517218701497238031e-01 -6.231870560037456874e-01 3.163287217726981071e-01
5.928075392099121238e-02 8.867056041746725903e-01 3.216408031432170245e-01
-6.539699434248397170e-01 3.363450252100376181e-01 6.156972421031041698e-01
2.277452613054830599e-01 9.928275515325026834e-01 2.032499126667861866e-01
-3.345109002860405800e-01 -9.563279783414389001e-01 -9.381639387682212672e-02
-5.343689704941622098e-01 -8.094079812617925862e-01 9.387396815239461290e-02
-7.208295847402017287e-02 9.555048382152048214e-01 4.304681442143535874e-01
7.090003094497403513e-01 -2.616644935951513151e-01 -5.655854995505954497e-01
4.135680680857096170e-01 -7.426236630362444968e-01 -5.091050669887641211e-01
-6.828965274769884797e-01 2.909771370445238259e-01 6.359646079466048096e-01
-1.594680631448679442e-01 -9.411687749751519450e-01 -3.339234496761908644e-01
-4.443432804380479939e-01 6.856966270830842092e-01 5.205273413665096882e-01
-8.597075522621310251e-01 7.689670581363516888e-02 5.487721282524945510e-01
-6.526953445515792929e-01 4.763270735783530219e-01 5.664260499510098690e-01
-2.567883362607966680e-01 8.784656868303593047e-01 4.690852490410631903e-01
-7.692553959858521306e-01 -6.609636663183020566e-01 2.015661824554879911e-01
3.972831689752682749e-01 9.337860665661315007e-01 1.609368408267218831e-01
-3.188717917490951903e-01 -9.610174177179581223e-01 -1.065479052755187173e-01
8.258442543132754610e-01 -5.801557325894041162e-02 -5.171045231886719495e-01
8.310419899906210661e-01 5.443501642807799801e-01 -3.273936952152827207e-01
-7.982172750084300938e-01 -4.998668613326631149e-01 2.764797308904520245e-01
2.551940273757855038e-01 -7.636816659707297283e-01 -4.988317210073274777e-01
6.188905732434764051e-01 8.200901581395599882e-01 -1.315908441204770019e-01
-7.900106306257482780e-01 -4.000824914447698721e-01 3.491875578701366667e-01
8.797326928161383064e-01 1.687548191995200814e-02 -5.612120675749184828e-01
-6.717411337671531646e-01 -6.397896900643849083e-01 2.313380609464269766e-01
8.682781070912481969e-01 6.091180280719105805e-02 -4.935399174813799861e-01
-6.701899545883097664e-01 3.203328575629540986e-01 6.415149266748060297e-01
-7.704928996045452561e-01 -4.113970765104769667e-01 3.820303692320525246e-01
6.032513168521741465e-01 8.480994155343969387e-01 -9.018937876738473969e-02
7.765955092678408223e-01 -3.098165437792654298e-01 -6.273824320647214403e-01
-7.106216469627306687e-01 -7.205575412570172089e-01 1.281236586041709924e-01
8.656877638694016053e-01 1.575050442465238953e-01 -4.533005910283618989e-01
1.934688752200648398e-01 -8.309374608603573575e-01 -4.258703888009625071e-01
-7.553153084014915253e-01 1.408558144469732043e-01 6.314644808983973512e-01
6.208241568336810845e-01 -4.228862477089980754e-01 -6.537128252117232474e-01
-4.578791495620141427e-01 7.112472700105290091e-01 6.189678464948283887e-01
4.118103690665101402e-01 -7.784683161238437066e-01 -5.622623420069390310e-01
4.846019686282260763e-01 -6.014967982500039057e-01 -5.460932685639265927e-01
-6.328915632702355465e-01 3.764642518425209139e-01 6.041622809227941149e-01
8.625098129578506745e-02 -9.479421307784978712e-01 -4.429374945843942424e-01
4.597971355263838489e-01 8.540702325755736846e-01 -2.528251227015100924e-02
-7.111457682115734924e-01 -6.615375160241482311e-01 2.804188182442842736e-01
-6.306708354803567396e-01 -7.017863911551838196e-01 1.893297779013096149e-01
8.476559472472265933e-01 -1.303742481632919337e-01 -5.883505825850194881e-01
7.753754905921860230e-01 -2.356933460997775454e-01 -5.522839604731181185e-01
5.650054238321098321e-01 -4.819138361568451323e-01 -5.817314795873431699e-01
-8.350432505910272418e-01 1.240854005854210573e-01 5.457384991915588124e-01
-7.555339442062752875e-01 3.147430238746692366e-01 6.579574032734760713e-01
-8.960282394988475785e-01 -9.868054308431481458e-02 5.185095890446792533e-01
3.816010397351101702e-01 -7.144607153133690769e-01 -5.038875359482763994e-01
-3.544253662490643580e-02 -8.858743217862254937e-01 -3.816856495388548653e-01
6.151019524514881320e-01 -4.889307775394225453e-01 -5.574159415695504327e-01
-3.025345757654790413e-01 -9.883918298310649941e-01 -1.609644873852495717e-01
-1.802605129307796039e-01 8.710477488961613224e-01 5.227763059056229622e-01
-4.199857195828459178e-01 7.750002178138070130e-01 5.457895075514035410e-01
1.466231513954953554e-02 9.749160706159217815e-01 3.252668417219218289e-01
3.973314566892562905e-01 9.043331636971855270e-01 2.885298796108650907e-02
7.940405581999038231e-01 -1.830807411648738003e-01 -6.444826719889112931e-01
-4.770916629720018953e-01 -8.301987448990121310e-01 2.890815223923120028e-02
7.139061167045205325e-01 -3.858235205758124287e-01 -5.684323448833243919e-01
7.334214620560141062e-01 6.988279466849758315e-01 -2.440511871534177535e-01
-8.191678083038042013e-01 -2.115340945062122446e-01 4.397793913332614379e-01
-8.446830105839647773e-01 -4.968439000180852605e-01 3.130171737726621939e-01
4.236376592359547000e-01 8.427703883538232299e-01 4.068128267789088842e-02
-8.429548543853002673e-01 1.284676721813784173e-01 5.557538415191781711e-01
-6.341740609708258480e-01 4.420451427636351016e-01 6.664777782107245141e-01
-7.486716033588500796e-01 -5.762764539509819262e-01 3.407159879119719403e-01
6.644921527845697451e-01 6.387993682522971062e-01 -1.965834855179641460e-01
4.234537282932026581e-01 -7.469838998416422626e-01 -5.172112162309322470e-01
-1.688492112770513809e-01 -9.130080095803830842e-01 -3.131024650921246377e-01
4.869990224403892287e-01 8.251351231555038579e-01 -4.476075145075847361e-02
-5.714797735734553630e-01 -8.002978940921237072e-01 1.306887353683996722e-01
6.600771486946271915e-01 -3.206881132763641507e-01 -6.262911527177443816e-01
-6.149401197825163923e-01 -7.229087459278016325e-01 9.488718835292868359e-02
-1.415917595296141973e-01 8.842166554422059566e-01 5.052437722668904341e-01
-7.501893090113217477e-01 -5.608118714686107786e-01 2.329873033606831567e-01
4.379072256572826283e-01 9.283501813707329964e-01 2.199592641125005729e-02
-3.935785218205878344e-01 -9.456190932414734185e-01 -1.605668139133853700e-01
-7.986870121780085263e-01 -4.195324408013650364e-01 3.290321380643858595e-01
2.878519936043770766e-01 -8.090152397726833033e-01 -5.693295548454869737e-01
-2.649086649893523937e-01 -8.899611896997500216e-01 -2.020868321315289207e-01
-3.784053559461804661e-01 -8.634087173250318825e-01 -8.890727585832552959e-02
-6.787997000214880394e-01 -6.299636221492277421e-01 2.032065174406402497e-01
-3.132355823435341580e-01 7.460488149477131348e-01 5.759729489165613669e-01
8.873263313997412638e-01 2.401166392625084245e-01 -5.010729311660951923e-01
-7.910437253201174634e-01 -3.417295512020224191e-01 3.964328866134614882e-01
-2.516583514695478266e-02 8.707221924430335047e-01 3.668872591472469025e-01
8.065881647182686631e-01 3.715129562258330798e-01 -4.607097565655002280e-01
-8.509152078163241262e-01 -4.956252764244903908e-01 3.745081597028454001e-01
-8.964965294392259754e-01 -1.665738199524559593e-01 4.822022166185291892e-01
1.799674818288498623e-01 9.857152638685189316e-01 2.992117899311912410e-01
8.888876100199954999e-01 3.100625201530777808e-01 -4.507767392700907649e-01
-3.404131606781891639e-01 -9.825995893486638710e-01 -1.524806729301859676e-01
7.282521021889464263e-01 -4.055975376831203461e-01 -5.969109113043296055e-01
7.898219862111877099e-01 -1.911610706501786772e-01 -5.450706016454383018e-01
-2.572509546774654487e-01 8.771816158064709157e-01 4.674593112125468020e-01
7.882513816898079062e-01 -6.368222286790267694e-02 -6.215403994147147282e-01
7.929156545017846947e-01 6.271263823990353981e-01 -2.534819644602879785e-01
4.407084613495806380e-01 -7.012129854103165139e-01 -6.217955681239107912e-01
3.715586209316085881e-02 8.957184270503646406e-01 3.961189943838725469e-01
-5.547682310868502498e-01 6.408554464733549061e-01 5.685421500193695854e-01
-2.546998112741778383e-02 8.822006007420722939e-01 4.343007661183531654e-01
2.461185589762885928e-01 8.999502739775681048e-01 2.472572751045431505e-01
5.104112052573819280e-01 -6.410580106109277088e-01 -5.369108295670509401e-01
-4.552883311866401383e-01 -8.819421736292947234e-01 -1.126103842192250210e-01
-5.915212391719269769e-02 9.640907445865101177e-01 3.850064052624019295e-01
2.590868722494905074e-01 9.931567521380297858e-01 2.163213345664578846e-01
-5.724773788348739290e-01 6.047189425858767731e-01 6.417685497809597628e-01
2.594262216251770892e-01 9.922258413279325673e-01 1.911706580670112787e-01
-8.191344195942948936e-01 4.242021820150587014e-02 5.165593552690207479e-01
1.513275130618884357e-01 -9.325640574866965737e-01 -4.351782723765971195e-01
8.119985798520157338e-01 5.226411400291536280e-01 -3.777125035641979434e-01
-8.037783156412734442e-01 -2.137037302531115679e-01 5.158711841483372140e-01
-7.609006791591272911e-01 1.107566363109991764e-01 6.216957768296800246e-01
-5.337407653768703186e-01 -7.920929951014057391e-01 8.765413507290232067e-03
-8.441113510151361521e-02 -9.265794098938499035e-01 -2.613084028322501529e-01
8.736694785812053610e-01 2.490002434654854935e-01 -5.131496071032281003e-01
2.805710583655096069e-01 -7.943154394435677501e-01 -5.688316951380975039e-01
7.376548227615465914e-01 -2.306015274795077674e-01 -6.525140148266516116e-01
-7.462562584423374501e-01 3.385345186381429894e-01 6.579685575791696106e-01
-8.110501900977529210e-01 -1.305904263093370377e-01 4.776956631659030061e-01
-1.655846621466805155e-02 9.299595980694487229e-01 4.387301094281446101e-01
-2.033486366117684963e-01 7.939668835669048130e-01 4.983881577299831833e-01
7.309587985466303728e-01 -3.875619513703792984e-01 -6.424299195667676488e-01
8.473658749451643546e-01 5.265805207086263207e-02 -5.922755774908583515e-01
-7.406728932840950241e-01 -6.195935954820442904e-01 3.156831862730849481e-01
5.196919571202971433e-01 -5.967498923503961050e-01 -6.468933042096342012e-01
8.126786525079938706e-01 3.395089189787307005e-01 -4.774316375474395580e-01
4.653820271245498463e-02 8.853130176788436279e-01 3.271992983528581589e-01
7.932278286631369024e-01 2.250840132408292449e-01 -4.575972366392268009e-01
-6.607767391302594717e-01 5.201692022069942523e-01 6.016081694192970675e-01
4.813890490671077216e-02 8.925687489359181992e-01 3.103592390515148569e-01
-4.543711066577112989e-01 7.198556512483822445e-01 5.276442373419329979e-01
-8.770818794714432265e-01 -2.157467074991347572e-02 5.193885053856680534e-01
-8.019833163702139167e-01 -3.166434547055584359e-01 4.769618590817421011e-01
7.907426480807043800e-01 2.599317500196403063e-01 -4.771980112874454338e-01
8.136556634940227406e-01 5.539234964765866742e-01 -3.485331707289696102e-01
6.090636445778075947e-01 8.383876713499311961e-01 -3.232854648633386174e-02
-5.028429912391709777e-01 -8.293481550785749556e-01 -4.792085654410760398e-02
-5.685061536630563461e-01 4.987868549181808664e-01 6.493250045773698576e-01
-4.215337138130235139e-01 -8.772345821322349302e-01 -9.753975250259094495e-03
-8.865706723257054112e-01 -4.134998361837332465e-02 5.651686457570809230e-01
-5.249241700211721984e-01 5.476983057080304640e-01 5.676257352102855869e-01
8.229849820195009880e-01 2.967721073864917902e-01 -3.887242674868539027e-01
7.437279484462971935e-01 -3.723585605257922482e-01 -5.898125116295502846e-01
-8.636025863632833532e-01 -1.109335798125957173e-01 4.725210987696852882e-01
-7.937541620261134856e-01 -1.291925994647439568e-01 5.210379731408173454e-01
7.108777721909970149e-01 5.720522084102145355e-01 -2.990517640685979583e-01
5.148893674082395400e-01 -6.862530418741151772e-01 -5.683685350982142781e-01
-3.470455745254619750e-01 8.266859458412272321e-01 5.449955072997815231e-01
-4.441542678840231240e-01 7.475140843993459683e-01 5.380253645425631115e-01
8.659559664806621981e-01 -3.605555038733852802e-02 -5.383536881679307218e-01
7.846839905661224801e-01 3.240929183885504217e-01 -4.479131755424824446e-01
7.666730508815784439e-01 -2.455856673113064603e-01 -5.523345605872743702e-01
8.515280879726142560e-01 3.310641840967353811e-01 -4.849046542717710406e-01
-3.990418878526157953e-01 -9.153726551032969061e-01 -3.042294120577187719e-02
-8.414325594961860055e-01 -1.758829461690640805e-01 4.454896555411590464e-01
-2.477455278481305867e-01 -9.895514245778510576e-01 -2.466131208259104424e-01
7.902350171705824211e-01 -8.159986706906069420e-02 -6.277757871098778031e-01
4.048654334197516746e-01 8.533955410379379103e-01 1.003853004183500736e-01
7.975715304385825322e-01 4.458079284738524217e-01 -4.235936827683154382e-01
-7.034992880284997308e-02 -8.918460878409039116e-01 -3.590878902519378246e-01
1.271690090757527369e-01 9.355653395284772023e-01 2.310682760352010812e-01
6.762297768564699829e-02 -8.687044668220902377e-01 -3.725544658233801987e-01
4.742432845808325914e-01 8.672596584074973025e-01 9.452577618727658892e-02
-5.081906347354466780e-01 6.697426752545748707e-01 6.293255419489720559e-01
1.201675076049173695e-02 -8.881842272060780363e-01 -4.277759669684130794e-01
-5.061949587952505603e-01 6.731377002591460990e-01 5.438787292545542718e-01
-8.111478425752736143e-01 -3.778130763499857880e-01 4.619990483176841245e-01
-8.624919183858411609e-01 -4.378795493876012634e-01 4.162036551646350335e-01
2.976756816398407612e-01 -7.465760553912446085e-01 -5.619952137091368538e-01
-1.247158559894618879e-01 9.245689745005465365e-01 4.768976594343528608e-01
-7.255037004039076587e-01 -6.495913331643676791e-01 1.647890861729610912e-01
-3.782693483300660353e-01 -8.913953236726359641e-01 -4.754972796171534621e-02
3.067485507626466212e-01 -8.306951129593310723e-01 -5.584907273931486449e-01
5.825550332943135734e-01 7.378961876544641862e-01 -1.271729838768292375e-01
5.495311969792818774e-01 -4.985834521828720889e-01 -5.840684189661482506e-01
-7.713578017473207149e-01 3.842161629248137117e-02 5.900230037958386076e-01
-8.592993587449042625e-01 -3.397869599672685981e-01 3.766176980354513093e-01
2.247279963857052587e-01 -8.272829686022782347e-01 -5.448599446603455965e-01
-7.577997480785892970e-01 -4.564489013496468295e-01 3.590810844382263944e-01
-6.295581625000714610e-01 5.027535208996911642e-01 5.630006535385767563e-01
7.072216096887763426e-01 5.653952520341691823e-01 -2.674613830468651754e-01
7.341907738186067567e-01 -1.427489902498713936e-01 -5.861053514417348120e-01
7.888235123070079791e-01 5.861355894766587804e-01 -3.345912533357304208e-01
-7.667113927040097865e-01 7.865543924550874588e-02 5.528498111528289405e-01
7.345852400284346162e-01 5.626292289661564139e-01 -2.291069638167560485e-01
-1.753599121604089983e-01 -9.490521152966989726e-01 -3.238172582907787311e-01
8.621513440215186064e-01 9.505476849187124988e-02 -5.748677984845402822e-01
-6.510857168596045907e-01 3.444983209633181720e-01 6.045997358820981438e-01
-6.548091784733861553e-01 -6.899806455988314324e-01 2.244730134377358188e-01
1.129310657490967540e-01 9.473229720255176289e-01 3.636514150016961766e-01
6.626809837759211064e-01 6.527125174229830851e-01 -2.323956371691157929e-01
2.179327974093650255e-01 9.506350866670286726e-01 2.951998387873266960e-01
7.352743907259653433e-01 7.120779042260915181e-01 -1.700712742055814908e-01
-5.921878533537930922e-01 -8.147147578606447338e-01 1.371998045276585088e-01
-8.577223897724816082e-01 -7.682227004724434538e-02 4.832478525494638411e-01
-6.430488645976781825e-01 -8.034641940127321691e-01 5.675408380642044115e-02
-8.797855763029347465e-01 -7.221991388280358474e-04 5.364818814237299893e-01
6.861837950732668778e-02 8.925438702040019434e-01 3.643686239328506882e-01
-2.252196930248197282e-01 8.948472141031228455e-01 5.025365951889424476e-01
-6.964422678823820601e-01 4.702235765884545393e-01 6.166438642082420207e-01
7.878359689026651624e-01 4.362385293886503201e-02 -5.748004896778474704e-01
8.084144775916682901e-01 -1.299592520959267639e-01 -6.363698793880587790e-01
1.886994598108925614e-01 -8.898525246079290740e-01 -4.160336129888899670e-01
7.586969907451628359e-01 6.853139606741618373e-01 -2.145680427973177262e-01
-3.773085429058805618e-01 -9.411346786700814926e-01 -5.807523248091793489e-02
-6.741781950783474198e-01 -6.660541978272235264e-01 2.485038177144413274e-01
-5.280038956057417909e-01 -8.236445262531647549e-01 8.869260799059830447e-02
6.145803337754189855e-01 7.806731084585436520e-01 -1.664762368670402726e-01
6.218526582656764834e-01 7.819058967223947443e-01 -1.688229023223671299e-01
8.782866246350186090e-01 3.796254938661459688e-01 -4.195474741161892562e-01
4.454033839628792624e-01 9.452297510594885877e-01 8.463668667053904360e-02
-2.201678970411638236e-01 -9.278946980731559435e-01 -2.892531718217908332e-01
7.384984291545330093e-01 -3.262876004977284805e-01 -6.584296054912455176e-01
-4.421248066141100219e-01 -8.544686226640588744e-01 -9.507525445961949317e-02
8.657205518261545940e-01 6.597616071108577951e-02 -5.795051762003484708e-01
8.432280752286163139e-01 4.041534297472661463e-01 -3.390701084973049562e-01
4.394156460746170834e-01 -7.552988800549117476e-01 -5.740032883337515823e-01
3.678195088947910918e-01 -7.714594880682873468e-01 -5.932805995536427623e-01
-1.445506965617615047e-01 -9.007203045754170745e-01 -3.127369335983460896e-01
-6.704520200425208021e-01 -7.981631451413455647e-01 1.436103179367339278e-01
6.627408555386999911e-01 -3.947205393176954624e-01 -5.623101780222391488e-01
-8.456186996938864775e-01 -3.277824403545948617e-01 4.932244796737046411e-01
-8.568286261641240298e-01 -4.234931527452160949e-01 3.433778224017317582e-01
-4.173246956760602866e-01 6.450084647722051923e-01 5.957675543561807840e-01
-8.808353639073878139e-01 -2.825767642101601473e-01 4.999625243720519641e-01
6.393593822506606905e-01 -5.247455664602995729e-01 -6.433764014726596203e-01
-7.593315416863551937e-01 1.195095121727250409e-01 5.555587835117364870e-01
2.284120726304428306e-01 9.656719907872447495e-01 1.669924151990077321e-01
-8.522927270515572307e-01 -1.411537873498402429e-01 5.698543770691117949e-01
6.957479989797327180e-01 -4.129519309478664746e-01 -6.593898120095007531e-01
-8.198067848443764127e-01 -5.615706174121474215e-01 2.715595253768807726e-01
-5.964915096498449865e-01 -7.589823293059186904e-01 1.582713968682283590e-01
5.357752062700475992e-01 -5.975146134783079210e-01 -5.429055227317511889e-01
-2.229704341014105973e-01 -9.002084753635262171e-01 -1.947623961707489471e-01
-7.004708566335866582e-01 2.516733904733614580e-01 5.904523678851761881e-01
8.079494249411985907e-01 -2.327712803471279276e-02 -6.148740166615382918e-01
-6.710483247668653783e-01 -7.662833577024338316e-01 8.426987992077217271e-02
2.921041663383703788e-02 8.985979987126432311e-01 4.049684584225884953e-01
-5.984387957303403255e-02 -9.588299311979925355e-01 -2.762105439889506187e-01
-8.775889077541468852e-01 -4.122042048040394646e-01 4.063853230545200201e-01
5.339372611638345534e-01 8.187265246139946440e-01 3.065442258190240535e-02
1.959316985127373262e-02 9.783885165513852566e-01 3.273077507326714319e-01
-7.502745610080954197e-01 -6.761909284351651506e-01 1.753451980516272934e-01
6.010294511698316411e-01 -5.730478501868937480e-01 -5.679628529579993090e-01
1.776784771396305515e-02 -9.759987862128173264e-01 -3.803658725714744171e-01
-3.415294254922393580e-01 8.074974945395022585e-01 5.754845333918566785e-01
6.371121199669569357e-01 8.214544050863199498e-01 -6.819381818715276877e-02
5.221662394977691912e-01 8.002442591848966114e-01 -7.801148070987341809e-02
-3.910819660186219959e-01 6.659342133470198544e-01 5.539109875223122703e-01
-2.064960886951150432e-01 8.236747650339499849e-01 5.355809047731374672e-01
-6.501623596570323960e-01 -7.859985652942429457e-01 6.230147012496588255e-02
6.111438163617985975e-01 -4.069042730858029588e-01 -6.298843803477561787e-01
8.246969916039311732e-01 -1.575949440177241145e-01 -5.523317215465683994e-01
5.669851471786175878e-01 -5.058650035530934952e-01 -6.505177869731395557e-01
-5.120591643074766663e-01 6.891069651452608191e-01 5.630146996033340567e-01
-3.036223903151518896e-02 9.373926500000441253e-01 3.294143926916551224e-01
3.061991752664474653e-01 -7.289018904864429382e-01 -5.449534759634826475e-01
-8.685689034871632019e-01 -2.049778109272968052e-01 4.374410609844063824e-01
-3.497327338901259908e-01 -9.648069423582783521e-01 -9.578267653327023068e-02
-5.624371810892859758e-01 5.074475740466164453e-01 6.487650706182322979e-01
6.671466397244086854e-01 -3.170655692465367825e-01 -6.372204276336517204e-01
-3.830275919728060030e-01 7.725092385850352850e-01 5.945908588463970634e-01
8.082521765620072074e-01 5.134007254845225354e-01 -2.717897875552918174e-01
1.783230572246905787e-01 9.936906733762281840e-01 2.856626111774048238e-01
-1.938640919568594342e-02 9.120587178333416922e-01 4.424244565682018404e-01
5.985767375213406627e-01 -5.901953335721463745e-01 -5.798856803150133077e-01
8.666508696547944313e-01 2.982795182632607123e-01 -4.944523729582550042e-01
2.465345923214365687e-01 -8.426388584847687158e-01 -4.394126722104700344e-01
-8.261054505582875462e-01 -2.473575059251590103e-01 5.240000232850480222e-01
2.537418158856463157e-01 9.674225888178749067e-01 1.521542316978756748e-01
7.729522149601650849e-01 5.371949105188313922e-01 -2.452732642414069686e-01
6.909750265558097793e-01 6.762274494484674658e-01 -2.608597511038139305e-01
4.383052581344275000e-01 8.538162130154168805e-01 9.984060302927323660e-02
8.527272073907340433e-01 4.750236462090565714e-01 -3.783855274570026572e-01
7.975793634553444145e-01 -1.973616297857585244e-01 -6.425561824282817192e-01
-8.787500358948685530e-01 -4.608678367200011450e-03 5.315927289397369693e-01
8.036491040422549803e-01 6.037935934105626012e-01 -2.622718172978678042e-01
3.668683393760383549e-01 -8.033900071061789161e-01 -5.659853207612492998e-01
1.876263738892581245e-01 9.605962837482320271e-01 1.915979838580616490e-01
-5.339910219438683825e-01 -8.417424074286641300e-01 8.996307978458735477e-02
-8.248162156744831552e-01 1.080612127172650705e-01 5.345426671499897697e-01
6.914796924790114208e-01 7.644521966496085064e-01 -1.768728767473158603e-01
1.659595425835312943e-01 9.000222951034726471e-01 2.365919720387005265e-01
5.974785674517946871e-02 -9.587290854803746099e-01 -4.244162913587753438e-01
4.112963071545560068e-01 -7.800937670427183779e-01 -5.457664459067494978e-01
-4.751358825174825107e-01 -8.231814075503333106e-01 1.357512526870098025e-02
-1.955092243636332994e-01 8.860525235909979536e-01 5.183279898047991052e-01
8.531629968704709244e-01 1.328217771911373857e-01 -4.583824711626346415e-01
7.516535635312252550e-01 -1.098700839497840365e-01 -6.111095408044334709e-01
1.813296810902162715e-01 -8.058296664814875720e-01 -4.623300676888461580e-01
-7.495874575393981498e-01 1.604583226549767816e-01 6.356798290359511050e-01
-8.234378902922493415e-01 -4.207102228102209129e-01 4.457436114126053783e-01
7.861561100270083591e-01 2.914487486009090245e-01 -4.519641983004022423e-01
5.457042335650477138e-01 -6.273263609060507617e-01 -6.355651406804073700e-01
-9.461070765134645122e-02 -9.350529333921858699e-01 -3.749141351882417372e-01
8.128212377451926596e-01 -2.233917784613304036e-01 -5.791684458674186686e-01
3.306902321175942405e-01 8.803984920275261805e-01 1.718584547973937005e-01
-8.690975495792951921e-01 -1.997001802214004862e-01 5.440708151994947395e-01
-5.611580780108780253e-01 -8.724866912224208404e-01 7.347926979207659859e-02
2.509814036689841932e-02 -9.686831841039837965e-01 -4.051623691050448839e-01
1.366434751546859606e-03 8.996865581402024858e-01 3.208017351782797566e-01
8.081471669711676187e-01 -1.940565952888666235e-01 -6.353829470765455234e-01
-6.616643555161140222e-01 3.965858222742137951e-01 5.670360413524836440e-01
-7.734882450891626959e-01 -5.727160783980297376e-01 3.522477835123186130e-01
-5.230098965455557414e-01 6.804727056179679101e-01 6.045548162846834384e-01
2.158691125728455784e-01 -9.033470179947068468e-01 -4.803439020357797018e-01
6.710411596438758952e-02 8.857313280975455116e-01 3.289449879540857213e-01
6.732047964636228565e-01 7.535416256159883641e-01 -2.017255949555875338e-01
1.139083595064993154e-01 9.018464517976739758e-01 2.652432164097819345e-01
-7.098526029641446522e-01 2.219028530596398319e-01 6.164766627351909722e-01
1.190316831778070600e-01 -9.112083675602373756e-01 -3.779564648361560808e-01
1.296172593427080966e-01 -9.343085409863629565e-01 -4.610660421186975610e-01
-8.799226103025736823e-01 -2.664880500760077320e-01 4.204685313795292201e-01
1.978282298393776450e-01 9.072756300342394997e-01 2.004347901741390103e-01
4.118389769590404259e-01 8.897840358768741575e-01 1.564453886598194884e-02
7.580219835743968737e-01 -1.999314148968136806e-01 -6.503292430945079028e-01
4.175982800871219092e-01 8.664278017721429581e-01 1.227158019846092268e-01
9.729239777310015602e-02 -9.531138600644685210e-01 -4.181624241081026150e-01
-2.217567632143350453e-01 -8.938182557194649380e-01 -2.260895557437318515e-01
-8.744315661192409994e-01 9.357451457856954743e-03 5.872938048931904964e-01
-4.919408432880273963e-01 -8.206357090047537994e-01 -3.537340389029065141e-02
-7.799244007977791382e-01 -3.831043688380030843e-01 3.815767123093535274e-01
-5.407014099603683066e-01 -8.216525857270903233e-01 -2.735205957060741697e-02
7.460937442159208954e-01 5.331454450510177967e-01 -2.522925569337637342e-01
6.796151175503021280e-01 -4.842277616355847303e-01 -6.290790438013141861e-01
6.960338973358147774e-01 7.624474265468209611e-01 -1.740351025917154237e-01
-8.247781930492692481e-01 7.072720153112120600e-02 5.237960317455343517e-01
3.228171057109627262e-01 8.864598790787422411e-01 1.869555031665378342e-01
8.072105292224138751e-01 5.784300247195957034e-01 -2.572415191343287444e-01
-8.086722642248724835e-01 -2.239357572973726604e-02 6.023319413168541914e-01
8.638268263641506461e-01 4.372178340770483951e-01 -3.974001177583938449e-01
7.877569479516288720e-01 6.246970868323405979e-01 -2.320061669957175499e-01
5.968734935202764103e-01 -4.697276963647425418e-01 -5.650434230087468812e-01
7.293649942668726238e-01 -2.110865594390121114e-01 -6.420368276824623965e-01
2.128957601626021989e-02 -9.492433395257001694e-01 -4.299236343728496390e-01
4.352541792334326254e-01 -7.527771282008152154e-01 -5.856209695973553231e-01
4.434831916763469217e-01 8.903697138023821678e-01 1.244019127978674005e-01
4.233827118943138679e-01 8.599594111247076400e-01 1.124612652722294659e-01
-5.974224759383762740e-01 5.874065926081575295e-01 5.734393803358827091e-01
-8.298541022716152682e-01 -1.764201209117671476e-01 5.540009812729479455e-01
1.304634007847038646e-01 9.900195526592242556e-01 3.209144833473967506e-01
-6.881159536491636419e-02 9.564081674041634562e-01 3.755980151577826276e-01
-8.649727912405196228e-01 -6.646051507430389416e-02 4.899966410120920046e-01
7.043571529985128699e-01 6.098093021053535567e-01 -1.931102244633241816e-01
6.524024141772092333e-01 -3.904028398560269175e-01 -6.605777796490939213e-01
-1.663494433426744301e-01 -9.580655483566790087e-01 -2.046568738571353518e-01
-8.053508241829746561e-01 -4.920088116967050867e-02 5.897222420372492113e-01
2.996016581859514694e-01 -8.227766499141895284e-01 -5.649532184334156160e-01
5.730981040658676973e-01 -5.307550301377869095e-01 -6.571961533505613628e-01
-5.619733082366541455e-01 -7.657606343425457096e-01 1.075536613278086778e-01
6.852430580762943757e-01 7.335214238961110800e-01 -2.206277714212911134e-01
4.011056659027292803e-01 8.964065585744305231e-01 1.555398368229617412e-01
7.839500816126361293e-01 5.971512765077322538e-01 -3.267603856388254235e-01
-5.376976542161681083e-01 5.173318147771073239e-01 5.868876152002587832e-01
1.223619817622758621e-01 9.308246574798668682e-01 3.567749037993240835e-01
-7.627249194340993688e-01 2.469366760930297722e-01 6.601144173906408064e-01
-5.848166281281017564e-01 -7.604869074344720037e-01 1.436829742581356706e-01
6.313075815165718474e-01 -4.987095008073041402e-01 -6.595958556417905738e-01
1.734077660544164068e-01 -9.221675775460322910e-01 -4.657723030735901881e-01
-5.750551076779304438e-01 -8.454342575899297385e-01 -1.157063417935493867e-02
-1.003154916217420950e-01 -9.462106139140578076e-01 -2.472861904522264953e-01
8.878098023526158622e-01 2.912682643443682551e-01 -4.289548105396759903e-01
6.593794026648555073e-01 7.269163247853168697e-01 -2.185989780118025028e-01
8.894860532143025189e-01 2.919576662107455367e-01 -4.344345079939613830e-01
6.265354295108217508e-01 7.607305353303805973e-01 -1.835349767155673439e-01
2.827777482747047544e-01 9.207692932850343182e-01 2.448982331747821817e-01
8.058257570935793979e-01 1.213642115041884822e-01 -4.761227145175318531e-01
3.714180934246733012e-01 9.605508859045958081e-01 8.674148300914137633e-02
-3.934157725189542654e-01 -9.271063043149803118e-01 -1.671154219250185202e-01
-5.329452700977815871e-01 -8.640907131849395739e-01 7.678109845121076915e-02
7.284393769947812292e-01 6.201659954992448931e-01 -1.815865360606354340e-01
-7.619360626963816996e-01 -4.488609723668595675e-01 3.448356764427886745e-01
-8.185982313232206264e-01 -5.472293018675921106e-01 2.705186935971239937e-01
5.527659568797744782e-01 8.258217626948409773e-01 -1.081494069984743484e-01
4.174558503846874657e-01 -6.552611986039248437e-01 -6.083682424114410514e-01
2.323621676397336425e-02 -9.213939318363408848e-01 -3.234515955994498038e-01
6.552815472927000506e-01 7.364032052659839067e-01 -2.113476561390857100e-01
7.909063856977008866e-01 1.921853902107998335e-01 -4.858179513846416220e-01
-7.869107370545018743e-01 -3.005562955652393148e-02 5.302837699051868858e-01
5.850059199572085200e-01 7.599439027884042908e-01 -4.112801798883906207e-02
5.775379322070905985e-01 -5.024457603309974152e-01 -5.601684335465433318e-01
1.106072685110094378e-01 -9.483331659945741787e-01 -4.270252326935490284e-01
8.131171953650485618e-01 5.368538408978647952e-02 -4.896215707284526375e-01
-4.112910648502848265e-01 6.592829885412958557e-01 6.047214446077102679e-01
-3.452049379853617261e-01 -9.014568593063781998e-01 -7.492358623822430175e-02
3.505589586980357719e-01 -8.154728368523898041e-01 -5.590780688301191237e-01
-5.289199278493794676e-01 6.719396794876691947e-01 5.669730120413287722e-01
2.167012753796177527e-01 9.902105805883654188e-01 2.662390792147724117e-01
8.166475104023440679e-01 -2.225730410729903908e-01 -6.051912818793155902e-01
-2.632620028740267903e-02 -8.953125176610547964e-01 -3.150612463189151891e-01
-6.219299293516167282e-01 -8.377308948933775978e-01 1.092822186704340143e-01
-8.133463908408553739e-03 9.768912883904198319e-01 3.560845835026379413e-01
-8.895526932090283001e-01 -2.203611395723472643e-01 4.485754466923301265e-01
8.660822507314263063e-01 -5.777806370626427379e-02 -5.587436269268061251e-01
3.820868197445172025e-03 9.514201248592244475e-01 4.193648250624951723e-01
-5.543059991702280476e-01 5.938684896751112996e-01 6.523001040976642573e-01
1.606605277968336243e-01 9.679571615030172493e-01 2.131083469192102120e-01
3.234200015621604418e-01 9.770621437925885999e-01 1.311749606523152922e-01
2.580474687811517565e-01 -7.831176433527127223e-01 -4.658352985287614323e-01
-8.705625181784427680e-01 -2.536555868886172793e-01 5.210809399478751880e-01
7.627266128217423669e-01 6.412653824624960919e-01 -1.946328943988790416e-01
8.074334266043770025e-01 2.950533957824170717e-01 -4.917864786924707743e-01
4.661982076830190058e-01 8.242227472448858672e-01 -8.355769106143240768e-03
1.352222933823886974e-01 -9.391815794597616618e-01 -4.293585944018503686e-01
-8.444202283594498537e-01 -8.665328510785183513e-02 5.884123374387489891e-01
3.076982309499751156e-01 -8.515085376151251273e-01 -4.999350921320538932e-01
6.057475301783148414e-01 7.351648608353528180e-01 -7.103732827403441696e-02
-5.910855737700009271e-01 4.818047708875486945e-01 6.576338301601397651e-01
-7.850206154624809196e-01 -2.317249142599639433e-02 5.763823899541584694e-01
6.218191801328846191e-01 -4.369670579862839355e-01 -6.589623113779361496e-01
-6.881985550067433455e-02 -9.152994055433426590e-01 -3.861294252017211659e-01
-2.177077083187241857e-01 -9.706363708661874812e-01 -1.758451183777709481e-01
-8.405366908367276624e-01 -1.541239798464409672e-01 5.652180859219915199e-01
-2.754566710120960882e-01 -9.740088272410200032e-01 -1.433039670662876464e-01
8.646309718237461528e-01 2.580541379383513578e-01 -4.121002260497925729e-01
-6.000240919989270338e-01 -8.082543017668225582e-01 1.464328382957361119e-02
-6.378345747980782576e-01 4.096935120119845619e-01 6.604608911411848915e-01
-4.409804159620043795e-01 7.141234989687430534e-01 6.201241586971694142e-01
-5.819028663813676783e-01 -8.456188559993793596e-01 -4.468442215919130218e-03
3.405958193345776097e-01 8.986986180003632141e-01 7.835526388822067201e-02
-6.851094340385590620e-01 -7.293122713721451600e-01 1.034050859526442212e-01
3.468065480998961392e-01 -7.889317650785092617e-01 -5.844666067393827769e-01
7.982068750831191606e-01 4.289181081134186280e-01 -4.316001067738216568e-01
3.727566229618918259e-01 -8.015497803061371052e-01 -5.119802977718039827e-01
-6.991565189971687966e-01 3.030155409709269776e-01 5.696018578508103003e-01
-6.840592092230259880e-01 2.968789422000245870e-01 5.857097470363848979e-01
-5.031082486679683274e-01 -9.221745323880518042e-01 -1.219743014845023690e-02
-8.550204507780633234e-01 -4.661004218275087152e-01 4.004440975768906452e-01
1.517094993589652441e-01 -9.290175467812533672e-01 -4.635973222155140849e-01
6.965388833139631863e-01 -4.527213791756303785e-01 -6.369176087080699045e-01
-1.343834414373817621e-01 8.825060178893273655e-01 3.862921326717386750e-01
8.433114425660959146e-01 2.836575148242558853e-01 -5.090853880802774789e-01
-7.684774421443341108e-01 2.465371296171930127e-01 5.558705935815937416e-01
8.156871815973021356e-01 5.799751237880718113e-01 -2.820834816029119674e-01
7.959289494553337674e-01 3.533729874989182673e-01 -3.692703627219671159e-01
8.333612446762302950e-01 1.540566449744617816e-01 -4.501020151599438024e-01
7.904332411600089037e-01 -2.199330912246140191e-01 -5.536882082680083528e-01
3.309165145591123069e-01 8.853200366094593488e-01 9.976306166024920263e-02
-4.488034367979905070e-01 6.451261044866728467e-01 5.355565215222478637e-01
5.537815800869100302e-01 -6.404303302791731767e-01 -5.689195039850952762e-01
7.334368651363110114e-01 5.345465635294562867e-01 -3.364540204585326211e-01
4.352027699699721475e-01 8.362820440682642298e-01 3.633834228208335931e-02
-5.784357669243300748e-01 5.751659443935186466e-01 5.557546198662215442e-01
8.213869285336850012e-01 -1.230428059156405546e-01 -5.359678426808026641e-01
2.168977788593236602e-02 -8.919095211006423662e-01 -3.361988149682070826e-01
5.881991874325470659e-02 -8.552229027511796255e-01 -4.118366160996591585e-01
-7.870371312003013875e-01 1.398218270141559361e-01 5.393167572635332307e-01
-6.318178645644928482e-01 -7.788874256880944369e-01 1.774591597545491783e-01
6.551637598023898890e-02 -9.527454543448496960e-01 -3.654018130126646668e-01
-1.407866788446776318e-01 8.610345473750862233e-01 5.055478871019865039e-01
2.323002749906102060e-01 9.958702263473839800e-01 2.329986900550035100e-01
7.196866880151683299e-01 -2.042206012827855466e-01 -6.282731913106487376e-01
6.135143477827550429e-01 8.464522384713177861e-01 -7.196509209839409282e-02
-2.280954917441319341e-01 -9.004665612795351715e-01 -1.895358878309342798e-01
-2.072313998528220180e-01 8.821335931877182235e-01 4.261559733234006053e-01
7.452496448651687588e-01 4.769923175018289663e-01 -3.440687015748883359e-01
-8.602611898364384002e-01 -6.643657216491838380e-02 5.900440965587511188e-01
-8.033438661904700462e-01 -3.836265670905810166e-01 3.518137829646751369e-01
-4.617211941946386400e-02 9.619373036171574576e-01 4.192256547391975952e-01
7.793295077344808419e-01 6.493658316653951879e-01 -2.599301934291221028e-01
5.465154053518317401e-01 8.199085762529677579e-01 2.558723240065112828e-02
1.487830610735560166e-01 -8.194987009114043097e-01 -4.599338199401750704e-01
