1.663740603405951812e-01 2.951466377698808707e-01 2.357517708749657173e-02
3.150564967126575078e-01 -2.651984460847887082e-01 -6.497518864090251478e-01
6.758388684698930504e-01 -3.793481951367359550e-01 -5.407050190931326217e-01
3.104142010180764855e-01 -5.699376372898862231e-01 4.598568922764534328e-02
-2.811231663334389785e-01 -1.756895299223823481e-01 -6.325791946077736760e-01
-6.170230564146912400e-01 -4.928232294665704227e-01 3.262313175934317133e-02
1.097456137535986614e-01 -1.708544792183500083e-01 -1.484799481250508035e-01
-2.831467254896741781e-01 1.704264608632881928e-01 5.633363297280371551e-01
3.077995654158409700e-01 -3.785655557562199180e-01 -6.985661448306317300e-01
2.982464409252281179e-01 -2.443477344040174415e-01 1.302344407905400847e-01
3.277869745203516594e-01 6.483898653497509601e-01 4.556475837865808093e-02
-1.493019892470151266e-01 1.352878141909968079e-01 1.837854376797436740e-01
8.657888634740725786e-01 4.172013293059592676e-01 1.631543732042814443e-01
1.622795642504597513e-01 7.255544199356548374e-01 9.164553515608299394e-02
2.322336041092440129e-01 -6.581934237774803020e-02 -8.993685350124967781e-02
2.793829686802504764e-01 -7.252347818314435202e-01 -6.223035349865971844e-01
4.156778791836507891e-01 7.192581766046137748e-01 5.625866102378184186e-01
1.376154482800802381e-01 2.591243993414714675e-01 6.773913484362279469e-01
-4.756733276883998718e-01 4.472565344991719094e-01 -1.653431093173995114e-01
1.353293359713788890e-01 1.074550154853116529e-01 2.467578466764890066e-01
6.289191553769920562e-01 -5.059866159234331917e-01 1.126243554093646765e-01
-2.490625887537760708e-01 -2.124340844116508198e-01 1.530055197046544663e-02
-3.952193438571292572e-01 5.932515884481714963e-01 -5.415093858364639773e-02
-9.843896725082032506e-02 4.646004348264000106e-01 -1.057694940609062682e-02
1.304299429098371987e-01 1.413834323385834424e-01 1.770378791918172656e-01
-1.824867989119268175e-01 -1.384687860595925080e-01 -1.053930458054871677e-01
-1.123095949097333429e-01 -1.987241849476213407e-01 -1.149735367533724489e-01
-6.617027336203766819e-01 5.598786774804439537e-01 4.903527860433720131e-01
-3.042903267337470075e-01 3.362816299798299796e-02 -3.493797747988888758e-01
6.720109134702009247e-03 -8.611383521732918211e-01 -4.605573304746273799e-01
-4.070183664906145693e-01 7.443714757718976616e-01 1.001095808166761053e-01
-6.247961278941593921e-01 2.154212558662699784e-01 -3.611369431989575052e-01
8.683133452951070641e-01 -4.499448359993047375e-01 -1.840507351938270864e-01
-4.540484381739557374e-01 -5.070219169213463495e-01 -6.818748522900054398e-01
9.570813536729350091e-01 -2.714683056822144169e-01 -9.733881163125128466e-02
7.274273280765285454e-01 -6.025993198809982410e-01 -3.120268465491348731e-01
4.376854964673060344e-01 -3.028315982746997426e-01 2.302423925031024665e-01
-5.837507273521101020e-02 1.450908877689214560e-01 2.553165103464843932e-01
-8.326505215399049309e-01 -2.059470425956034800e-01 1.802741075284097216e-01
-9.931140504600149618e-03 7.880640107835030772e-01 6.213026493529273386e-01
1.511811716233751879e-01 -5.674603907923803092e-01 -7.352787032248874199e-01
-7.416941566356621829e-01 5.181454974880544961e-01 -4.551417269671342858e-02
6.152046537340785104e-01 -2.650267628138981979e-01 3.152783195694220386e-01
2.119968808366474999e-01 -7.648072416683261432e-01 -1.129932396084080970e-01
1.162362026726019987e-01 8.198627881930451444e-01 1.979683724436327730e-01
-6.412447369610211334e-01 1.147107188148769052e-01 4.867175964365298979e-01
9.836520787923280773e-02 2.047391861451580142e-01 1.217928532307600009e-01
-3.629906985819341680e-01 4.100693130863589109e-01 -1.382092368035425234e-01
2.301423354197343688e-02 -1.721386535542973883e-01 -5.709266064063343027e-01
4.758280979379718723e-01 -3.469291923091279428e-01 2.222345239342491674e-01
3.052745835386385664e-01 1.813761623407626200e-01 -8.657947649232844434e-02
-3.984725882786862017e-01 -7.682635733652769527e-01 -2.429166134248910147e-01
8.537160518437439949e-01 4.320674886965516492e-01 2.693380547738930542e-01
9.310355656246248612e-01 -3.328158317259244936e-01 -1.457005809305084998e-01
-2.909528296614942722e-01 -8.212393827807288327e-01 -3.238527682690103826e-01
1.880653292000480092e-01 6.630586348302418276e-02 3.684146507158185813e-01
2.082376787346551794e-01 3.205297807038224311e-01 7.139773790051368030e-01
2.127793272304606131e-01 5.556586544296767682e-01 2.837314058321244170e-03
2.530651665860625399e-01 1.191778884377168723e-01 -6.658488308905926613e-03
5.998033904559397778e-01 -1.172302807699707738e-01 4.266489588574330361e-01
-5.184926847259190286e-01 5.360273275647754465e-01 6.150919991046837065e-01
2.924181241818318844e-01 -4.201804635084708806e-01 9.255992983021998910e-02
-4.123709667074295093e-01 2.965211128231906024e-01 -2.231227144412443464e-01
8.576469268254848233e-01 8.974229055206082994e-02 4.111607485616414759e-01
2.527913236305404654e-01 2.145526508344757499e-01 -2.206356318117395909e-02
-5.897978840268027767e-01 7.107476663356554480e-01 3.755731019752385214e-01
1.278989771359044236e-01 -4.093303801917420048e-01 1.287053503588216248e-02
-7.735863593406129279e-01 -4.568954458856450129e-01 -3.390614310155271038e-02
-3.050000484381867327e-01 1.357956924392964525e-02 -3.902115625462427295e-01
-4.909817174068461521e-01 -2.115670951016019319e-01 2.241364341167843000e-01
-2.459384887554367516e-01 -2.117205571273228504e-01 1.188671041631909030e-02
-4.429968845570814717e-01 -7.685581199459512458e-01 -3.687240853424155196e-01
-5.257400756287898824e-01 -2.573400107803676118e-01 -6.523632904091128948e-01
-7.373025193399198596e-01 2.642472851470888395e-01 4.878612306984100311e-01
9.989779129117114520e-01 -5.778898641501129668e-02 1.435596033350917955e-02
-1.795683939862872114e-01 5.220549694327286661e-01 -3.035360512745364711e-02
-5.094881194715361605e-01 3.404310179101104339e-01 6.258550920840041387e-01
-9.592321195258636524e-02 4.458269625669534220e-01 7.434137133061281544e-01
5.702429167885856298e-01 -3.264984344608529154e-01 -6.005213349942198908e-01
-2.963452861162660379e-01 -1.643243138379806012e-01 7.291544821396951648e-02
-7.068086352751317136e-01 6.274005557000169597e-01 1.285709290697843177e-01
-8.314290145349082506e-01 5.127926152334749688e-01 1.630989668129592951e-01
-2.598229210856033977e-01 9.183555564642821578e-02 -8.516655473720033398e-02
-5.630604295847012608e-01 4.937071099793121087e-01 5.998372385470087664e-01
-1.694219079629900315e-01 -1.916921635000582436e-01 -7.521380850596706691e-02
-4.466913676211489159e-01 -7.288913648133056311e-01 -5.111045235973831202e-01
-1.971852657829899214e-01 -5.247174467113074198e-02 -3.579966600158117629e-01
5.770525182798238450e-01 5.902465943062452924e-02 -3.817392460464673620e-01
-3.612039065207283128e-01 -6.948712508387066000e-01 -1.011681341275084689e-01
-3.153178491767063552e-01 2.346505435269151396e-01 -1.574766506198303218e-01
6.951812920160782561e-01 -1.664554207248845896e-01 -4.921533491030883334e-01
1.313543874169663950e-01 -3.151575698227074285e-01 -1.159439870533729433e-02
-2.713370575503799009e-01 6.846640037402639267e-01 2.489188209842108437e-02
1.449485595898058164e-02 -3.967565029187938297e-01 -1.831241484778308934e-02
5.503915733148450062e-01 -1.191325648213099886e-02 -4.394705849605484715e-01
-2.159693043712661020e-01 -5.139909390947219187e-02 -4.068444755565830961e-01
-9.275227027776393740e-01 -1.211604252004338383e-01 -3.232069287973277083e-01
-5.513822487293870145e-01 8.779616294175292268e-02 -4.533344720851134046e-01
-1.286351748574091625e-01 4.745968203969672672e-01 7.429148223249271155e-01
2.204022422929577119e-01 -8.483963522339729169e-01 -2.964306190802253327e-01
-5.129414545330324149e-01 6.497734120319038631e-01 5.569721030131553619e-01
-9.537903964725124029e-01 -2.492919184710698792e-04 -2.520871743263771725e-01
2.537763167247429341e-01 -6.714392070508998778e-01 -6.716253412304926673e-01
1.111533965607557767e-01 -1.128688735049180186e-01 -3.311951926340757080e-01
3.521057822717210684e-01 -2.773661701024470738e-01 -6.507173410861768481e-01
6.297052883527456957e-02 -3.517372881725135958e-01 -2.427283034618775079e-02
9.023933038723110922e-01 2.230381396783271408e-01 -8.924243353879320051e-02
-1.226157907362784502e-02 1.414561438730092269e-01 2.784619257340723020e-01
-3.655803451044496721e-02 1.333082135108646649e-01 4.401988786145803467e-01
-1.786885925634215666e-01 -1.420883554494636325e-01 -1.070903576604643886e-01
3.735422467556080428e-01 -1.325494764156318617e-01 3.017912108861754428e-01
-9.523824949523730377e-01 1.789465316284813701e-01 2.053964206362376976e-01
-1.758876659426871214e-01 7.045746843785960500e-01 6.739830050813212514e-01
-5.849181773895275605e-01 7.317557433673230194e-02 -4.666616411317223712e-01
-1.582321205630341510e-01 8.647186294259930905e-01 3.029450408190865196e-01
5.441144203563403475e-02 4.405999068756997761e-01 1.056119491301313502e-02
-2.150562662263102442e-01 -1.193690337952118680e-01 -6.911681122785369447e-02
6.492092304282269799e-01 -4.152260808543754567e-01 -5.565954338940609647e-01
9.606232115209647482e-01 1.720209134003901907e-01 -9.342701311562793057e-03
-1.306272388499377102e-01 3.536573860525867863e-01 -1.310021477546488653e-03
9.797808815799410320e-01 3.201176575305910571e-02 1.834830271912681054e-01
3.727083192896533115e-01 1.603392459085708349e-02 4.824654360107635820e-01
1.151719204949134268e-01 -3.182351111407610844e-01 -7.037425228512691477e-01
-5.411757079264739589e-01 -3.435116030960367328e-01 -6.609716865983455980e-01
8.568656332898154371e-02 -5.345512217552628176e-01 2.787399345558147067e-03
-9.327063640361173968e-01 2.448355020676782345e-01 -1.250416853801135098e-01
-7.144931726819774287e-01 -5.876261110482016159e-01 -2.299317331475402015e-01
-3.418670538670132708e-01 1.014798355359447790e-01 -3.032779410589203084e-01
-1.766402740346822431e-01 1.149556029381729461e-01 1.845552622409946941e-01
-1.904485406671506181e-03 -8.128136777876154850e-01 -1.831700468359412082e-01
-5.793107917294791909e-01 1.945945400408587850e-02 -5.048869047202814153e-01
-9.443523268614357757e-01 -2.007155688180873865e-01 1.575257271498877246e-02
-2.836788232441059265e-01 -3.692253328064825646e-01 4.395810490195887349e-02
2.685838352335726542e-01 -5.043287339879241188e-02 -3.513727461238707606e-01
1.257658779559636397e-01 -3.170063359928526614e-01 -7.020491212310198126e-01
-1.521258018420068581e-01 1.451900437080498596e-01 5.028629368900692231e-01
6.984663530816757893e-02 4.382797715573838460e-01 1.013521757741814126e-02
-7.109673055103810091e-02 7.296327797198592924e-01 7.540274896982371300e-02
-4.723655532256846867e-01 1.744676163414746461e-01 -3.537796553389942478e-01
3.018499621532119148e-01 1.160217996246507566e-01 -1.052695085479960907e-01
6.917470421312148232e-02 1.614679922740542006e-01 1.978835175262559642e-01
7.622548883684422405e-01 -5.824621826724039053e-01 -2.022363514589843592e-01
1.342402163356058373e-02 1.990933876796867064e-01 1.584075123911214966e-01
-4.329167521706577815e-01 7.093487884212461292e-02 4.726795914713204372e-01
2.634097009581020110e-01 6.575931529540768317e-01 6.882030237946005213e-01
1.170633153178998187e-01 -1.595521016875126319e-01 -5.450684238195477871e-01
-1.215937574982811492e-01 -2.265213908687320754e-01 -8.539939831154083616e-02
2.435330430923297040e-01 -8.672671536671099080e-02 1.223912330366471422e-02
3.912189903073924890e-01 3.350698734430304082e-01 -1.110208334678842584e-01
1.532146132232787769e-02 -6.759442584404543597e-01 -5.181883586709740835e-02
-5.592927408972946379e-01 1.513580402282586890e-02 4.337947990819211452e-01
1.745913903677297208e-01 1.528942531015038964e-01 1.051960494706529609e-01
5.199633362048226154e-02 2.404884290819583603e-01 6.541823854415277362e-01
-7.871553362326280667e-02 2.012798487797877178e-01 1.354876569574979817e-01
3.584387352151197775e-02 3.587677627839725991e-01 3.355882683541909495e-02
-2.929152022337137562e-01 -7.406482053100629237e-01 -1.378961310548988961e-01
-1.647674288907531592e-01 8.644280688341129393e-01 3.049329592715146475e-01
1.706668603725147171e-01 7.341548088637839253e-01 6.566116612230380456e-01
2.516956141247475021e-01 3.834975001740247857e-01 7.314293950345084339e-01
-5.297513467246430796e-01 -1.566217434587135748e-01 2.821398169586413762e-01
7.375155080347308711e-01 4.954115474870121050e-01 4.635316899103678057e-01
4.814741242102105190e-02 2.759447842355855496e-01 6.830273964745570137e-01
-5.323281191100627252e-01 -1.197733022128227437e-01 -5.956624606153511081e-01
-1.780812963383038017e-01 6.170042576637344567e-01 -2.014785970601039485e-03
-7.323193372996555928e-02 1.634231799423991605e-01 2.007234702303102025e-01
-7.290339203215100428e-01 -2.108742025167630041e-01 -5.478452252506963438e-01
-6.589259659404836933e-01 -3.779158388410406612e-03 -5.060021390341735703e-01
-8.770099500838447470e-01 4.035633791445876195e-01 2.707619671299227870e-01
-9.234587174074990745e-01 -3.123770474684972598e-01 -1.631059753810344959e-01
-3.369931501991421108e-01 -4.306469037720756510e-01 -7.273553350974311105e-01
-5.420038160590648912e-01 2.405213223606173789e-01 -3.300159926890181006e-01
-1.446295336336110293e-01 -8.392790867299352309e-01 -2.702119257784452167e-01
4.246073771535929242e-01 -6.147498142071645688e-01 3.205771711388393647e-02
2.449971553182941630e-01 4.264566425426485614e-04 1.364759375249177120e-01
-2.243096066843006803e-02 -2.352303634958739509e-01 -1.110951840308866123e-01
-3.548295034005785609e-01 -3.440989884816982314e-01 -7.130491845021603714e-01
-3.796300720509510063e-01 3.248094662300740620e-01 -1.842764617124018900e-01
2.765646470980121507e-01 3.448021854968904565e-01 -4.585658026907233481e-02
-6.360663329254875320e-01 -2.407714831324651861e-01 2.329532990435714546e-01
-1.923974239290196786e-01 7.019786966127352645e-01 4.452370199358666319e-02
4.655045339324658249e-01 1.003420130564394441e-01 -3.120860858787778969e-01
-4.415148224147143474e-01 -7.625490542788674331e-01 -4.236847725514970020e-01
-3.889772955381124442e-01 1.379965784849465915e-01 5.363108716891756833e-01
5.339481655390302395e-01 -4.496395025030307524e-01 1.678210439692047196e-01
-2.780645328865248289e-01 5.351773750741136565e-03 1.871970181290424085e-01
-5.189252510924856621e-01 2.034277711551866347e-02 -5.024305397894091030e-01
1.051051116381130912e-01 -7.598934137575978909e-01 -6.377733911486258567e-01
2.181914229301451166e-02 1.915878198115233133e-01 1.677454413969582392e-01
5.310750022370708257e-01 4.592259400889029536e-02 -3.875715809776563159e-01
-1.152840562908887499e-02 -1.190164786837075439e-01 -3.653470390728940087e-01
3.671381903332400776e-01 -4.848380065250605941e-01 1.033436007406716289e-01
2.154511539039577483e-01 4.965447121520770446e-02 3.689470929144541556e-01
2.090219728771958718e-01 6.096678760845458678e-01 2.250198937267465504e-02
-9.501281105146616723e-02 6.187807644128789919e-01 1.219760447874590308e-02
-1.859726493040932405e-01 -2.079894805505874966e-01 -4.933577695982514777e-02
-3.436192346920058927e-01 9.235570981397472901e-02 -3.181738781500340618e-01
-2.813435101392040005e-01 3.562728542077222421e-02 -2.903747017339072256e-01
4.552788159077918867e-02 -1.710165434892907677e-01 -5.667929002472429367e-01
-2.711546836236421454e-01 -3.318798834633597261e-01 -7.200953859382119848e-01
-3.609787608542660564e-01 6.117567355721522521e-02 4.370930216558002179e-01
-2.522427853590454919e-02 1.287857468339565215e-01 4.035378836912639211e-01
2.145278408389216795e-01 -6.835653858496663904e-02 -2.594906356029359484e-01
-2.332266358003583229e-01 5.172171756727230729e-01 7.254222315172726976e-01
-7.037991287824185010e-03 1.423710215036585736e-01 2.748323298266289738e-01
1.845722771970486342e-01 6.854840002325010562e-02 3.702257096667268543e-01
-2.338674591094525856e-01 -5.843450999253808203e-02 -7.576268273918174145e-02
-8.587381598463363908e-01 4.613082392507030227e-01 5.956721354570819471e-02
2.548045965176747307e-01 7.364166393345392692e-01 6.301517767113978818e-01
-9.835401402546788407e-01 -2.820965438320816726e-02 6.585361833705978551e-02
9.764599400172555566e-01 -5.297357872085288466e-02 1.645718988419830608e-01
2.919498449443932442e-01 -1.264981442228277631e-01 -5.207185487155642223e-01
3.241146800322963206e-01 -7.281966391203238409e-01 -5.994408916947824295e-01
-3.658790530517317535e-02 -5.885835840664556118e-01 -2.069263662691732050e-02
1.590748712095851891e-01 -1.055854692003573431e-01 -2.412780072856185731e-01
-1.230258065403296019e-01 -1.018253574670785061e-01 -2.712479248720190417e-01
-5.107741717478826438e-01 -3.409157318206892384e-01 1.476471791824506552e-01
-4.058838863498761551e-01 4.277758212908439606e-01 6.767010564743706214e-01
9.523048022960795000e-01 1.743354196311903970e-01 2.520620020381484916e-01
4.704727050245276487e-01 -6.685113439603056484e-01 -2.597897503574146671e-02
2.574308127094949647e-02 1.513970565007212721e-01 2.407621076992239595e-01
-1.702837473087846498e-01 1.203031493831669685e-01 4.422490118194471465e-01
-3.648898611474103437e-01 -3.714755185103753021e-01 8.057906401181727518e-02
-8.864424528836974959e-01 3.871061771139456265e-01 -2.920127583157249018e-02
1.849464009569979639e-01 5.475971762352687122e-01 3.483241072141692995e-03
5.356136213700861681e-01 -6.949174313154291571e-01 -4.784449835779176485e-01
-6.547890322761555915e-01 -5.950038039679089730e-01 -1.230488004355344278e-01
5.888263617161069163e-01 6.271211424656211175e-01 5.158511838480226430e-01
-5.343182892236660042e-02 7.597596974679579063e-01 6.490015084136530055e-01
6.861347303277127718e-01 4.810829923490054782e-01 -2.280896995747430309e-02
2.321075285533700239e-01 -7.442977829238638099e-02 -6.517319496400195145e-02
-3.818646312991340330e-02 2.992280816477576599e-01 5.917260852734371190e-02
5.233523685986929408e-01 7.340264465270263106e-01 3.631231661967723734e-01
5.206372669853608359e-01 6.939804415821464456e-01 1.631110336409771489e-01
1.741025465519661641e-01 3.411779718222109348e-01 6.046455303823032763e-03
7.802363526086118772e-02 -1.299305279586885353e-01 -2.711584176321809037e-01
2.950971579605045636e-01 -3.650281431790677322e-01 1.054894358763549256e-01
4.197060256298764114e-01 7.600840612584363054e-01 4.869403363434812171e-01
-4.532651904599216408e-01 1.308762221514870039e-01 -3.817919560195764395e-01
-1.407056949475873897e-02 -8.682761406376018343e-01 -4.059313032284448397e-01
-6.681292378149498168e-01 6.370777437681289790e-01 8.335701136963713509e-02
6.403829103201412742e-01 5.070708220277306832e-01 -1.853280500597759284e-02
1.357442159053650343e-01 2.014754218731548696e-01 9.923583352623940868e-02
2.718563132950262973e-01 -1.021050999363616457e-01 -4.758072278348559614e-01
-5.958297492519171179e-01 1.055686799692664435e-01 4.946623081986295523e-01
-2.996897052498669889e-01 8.044864999260081806e-01 1.732537540856490810e-01
-5.414818132570009546e-01 3.525612130086815399e-01 -2.469090902162952572e-01
-9.413627676218834228e-01 7.690005316624490272e-02 -2.424905118955829053e-01
8.654210698451966222e-01 4.212072702559055970e-01 2.126948600324239380e-01
-7.292340092899043391e-01 -3.994578530254621063e-01 7.417727456156598953e-02
-2.114408503145491225e-01 2.888654361324052289e-01 -3.715386315311326737e-02
4.397086417594423535e-01 1.060222963679850472e-01 -2.899748522902693693e-01
9.737556360815563528e-01 -2.136740671607617881e-01 -8.423140002799413273e-02
2.819960742337127568e-01 -1.413976515465603379e-01 -5.390103460450733630e-01
3.814426086645487102e-01 -7.744696051918500412e-01 -1.606589020750508467e-01
6.152961095560329774e-01 2.793539547790267474e-01 6.181973605086307222e-01
-8.160180160108465586e-02 -1.407446397911923941e-01 -2.179264320405509270e-01
1.383670126010959900e-01 -7.889290139053202200e-01 -5.978074022851121994e-01
-7.189883723920578174e-01 -4.639453357688909096e-01 1.047077397482069211e-02
8.362875933153761654e-01 -6.289414552173980266e-02 3.708624240367424107e-01
-5.464114563740198882e-01 -3.626703260549347663e-01 -6.594675321201172169e-01
4.063330541095723225e-01 5.404367974937939190e-01 -2.384513783169319584e-02
-9.990144071403024295e-01 -2.667764678484702695e-02 -4.625076680647246391e-02
-3.556991550012167380e-01 -3.205225250153722616e-01 -7.069420745838178588e-01
2.121949733145188713e-02 -6.431257376340405729e-01 -3.518776878087079285e-02
2.725175225171052040e-01 3.672514817075311910e-02 -8.885717981143397004e-02
-9.677106103018970895e-01 2.027476665020986613e-01 -7.374129060891350396e-02
-8.884570847864620147e-01 -9.130443808003339823e-02 2.107943489007591542e-01
8.142550396285853642e-01 -2.360794894302305491e-01 -4.191289189855623709e-01
-4.573576843178336904e-01 6.673548077907455189e-01 5.824186480703934521e-01
3.480760005367644627e-01 6.340060978947266446e-02 -2.419833178961432740e-01
-6.704147367774002664e-01 -2.265565051980303335e-01 2.405383262057468052e-01
-3.005100260031055015e-01 -7.332813859861414540e-01 -6.094236987886120227e-01
-1.639296330429174664e-01 7.659655922431414243e-01 6.251031380311613539e-01
3.743255600348844303e-01 7.492675952943801398e-01 5.506825119131665280e-01
1.825207932840673675e-01 -4.073778160969966367e-01 3.607096510577354614e-02
4.440473968657013271e-01 -2.779478990543979983e-02 4.689548224415452937e-01
-4.405995031640504989e-01 -7.652196243492137562e-01 -2.961093043849165607e-01
7.600890159387214268e-03 2.287162818819119259e-01 6.378138799092558653e-01
1.818618515669689628e-01 -2.052066097485242546e-01 -3.137554148597633541e-02
2.096182865454407351e-01 6.680696183834988755e-02 4.226299090492957045e-01
2.580596053175091553e-01 -6.832846204261944223e-02 8.762648191723085289e-02
6.216497024691355344e-01 -5.415301911643056743e-01 7.774949179158596735e-02
-5.271624302439207321e-01 8.726392725807595452e-02 -4.496707383830723104e-01
-9.326381079210117608e-01 2.109221241236791319e-02 2.129791731248041053e-01
2.127132403877207145e-01 4.308172445345816448e-01 -1.658589323851379638e-02
7.649004255741509439e-01 -3.803871952326153827e-01 1.780061574084714493e-01
-1.545129208570759916e-01 -7.331669217981721109e-01 -1.062002300026288204e-01
-2.585325710776832930e-01 -3.489956441671787646e-01 3.298717387973345433e-02
-4.878219787089905363e-02 5.021523691037418358e-01 7.518737387784288906e-01
-2.322801436728069713e-01 4.900415986213540465e-01 -5.404813100565677292e-02
-1.548670988537161064e-01 -5.550228096391096599e-01 -1.185225055151783308e-02
2.507013599155757944e-01 -8.253305911121224803e-01 -2.255952014798357219e-01
4.457954774509996776e-01 7.542204715756639644e-01 4.673029436293286154e-01
-1.263229566102355983e-01 1.970448027590080697e-01 5.901458634410500226e-01
1.810474831256531358e-01 -1.141018921614677245e-01 -1.535117744209665569e-01
-3.061657460742217007e-01 -1.306468563088023505e-01 9.797500226297400916e-02
4.378758463952707736e-01 9.615381879385750952e-02 -2.985970424822479985e-01
5.774681295730371700e-01 -6.142242536929091168e-01 -5.272601598454734750e-01
6.872611436855091682e-01 5.301441634093249089e-01 3.821412452435887092e-02
1.182732748394781930e-01 -8.258109573664924596e-01 -2.021551965135263418e-01
1.474373634458563675e-01 3.954735252054055739e-01 4.362662564964713691e-03
9.345862621076767018e-01 -1.119543931487858857e-01 -2.412750712460416391e-01
5.457704650091464993e-01 5.892503332490013346e-01 3.074620054726418666e-02
3.711053010914154848e-01 -4.886383012830232686e-01 1.029131214912085979e-01
-6.701525602921943880e-01 4.828703640390931140e-01 5.234575122754473453e-01
5.824583887184001975e-03 -5.548125197688236199e-01 -1.077095498109520433e-02
-3.343897336623183891e-01 2.645222784005158909e-02 -4.051856588924410696e-01
-2.778863135667890560e-01 -7.449657716052516809e-01 -6.061664546227949479e-01
-7.342935405728869824e-01 2.352419854366048085e-03 3.849772933776812733e-01
5.497482496535437413e-01 2.008888587253666314e-01 -2.617319174783447888e-01
-4.466649137581511775e-02 -1.155208754109011415e-01 -3.467625195936717142e-01
5.778286851916556444e-01 5.169612142969437496e-01 -3.015900281131887045e-02
6.911209889093505865e-01 3.336850814378222729e-01 5.755605481909351617e-01
1.837319644790950945e-01 6.508450062077837661e-02 3.138364923437395038e-01
-3.765103940654634385e-01 -2.549812413743658412e-01 1.267195384790525958e-01
2.678725847041364405e-01 3.051081041154864448e-01 -4.157328864580319555e-02
-2.548483533361126652e-01 -3.224019859167074342e-01 -7.180271751119539081e-01
-2.044284783476200407e-01 -1.756919579688001609e-01 -4.795358399994496812e-02
-6.426085210646018675e-01 -3.652227933018069028e-01 1.363880741255568685e-01
-9.388526108723221908e-02 -1.328585872640005161e-01 -2.236799904373979742e-01
-4.569285256818778618e-01 1.801120268288904924e-01 -3.396708693947909086e-01
-8.026675120134396657e-01 -3.226830482939874178e-01 -4.760761966203698736e-01
-6.922943035720605653e-01 2.528108105035299369e-01 5.164651197690917073e-01
6.833206442994350649e-01 -5.048879854355394770e-01 -4.989303710878481568e-01
-7.936692521535729794e-01 -2.530200554542904601e-01 1.704613598644829364e-01
-2.456533303387857248e-01 -1.266620154708576751e-01 -8.770913589869578503e-03
1.467617254426169249e-01 -7.624468339897727542e-01 -6.272123368331268267e-01
-4.640574057290381416e-01 -1.023463841958224818e-01 -5.902584288191755624e-01
8.265484511942284840e-01 -2.301280560118344476e-01 -4.057062043623652081e-01
-2.562237910759968540e-01 8.276544744018061728e-01 2.115990585253824385e-01
1.774940370978641546e-01 -2.012357901363117652e-01 -3.985207836357184535e-02
8.872481575723042413e-01 2.794743115971612957e-01 -5.182331373020104825e-02
-5.232523487682891883e-01 -7.647734022398654241e-02 -5.714779025769670673e-01
-1.414247779681914730e-01 -2.414136399118546883e-01 -6.721269031817235229e-01
-1.739712768792298359e-01 -4.415319232885228651e-01 -7.509001664412774391e-01
8.447056735545509509e-01 -3.307416309561079237e-01 -3.743287288982120598e-01
-4.663113351528336836e-01 -1.772944161102874283e-01 2.362773326786448969e-01
1.042395488316018998e-01 2.877101201283199794e-01 6.947475209125306694e-01
-9.202993418816352023e-01 2.128844635098860738e-01 2.725757956037597185e-01
-7.974494902752241599e-01 1.928783051599930465e-01 4.256031277480408215e-01
9.055588976322799244e-01 -3.721957389366538638e-01 -2.300109802762980230e-02
1.020314454659577985e-01 5.427286374949032988e-01 7.513612923601473703e-01
-6.303130459803163443e-01 -8.346345540836978827e-02 3.538309910485143428e-01
-2.154655885552283490e-01 -3.876733611533059731e-01 1.471019439095603946e-02
-9.500184057035671037e-01 -6.111293570626155636e-02 -2.741723913632990173e-01
3.813481995174625716e-01 7.878935420960502256e-01 2.626366117833295322e-01
-1.168714321843823817e-01 -8.342692547319567886e-01 -2.456849874992745320e-01
6.774257210400134177e-01 -5.385623072808353173e-01 -4.843081314954680305e-01
-6.987564032721987894e-01 2.637102529527247108e-01 -3.154727168908498802e-01
-4.220411396029148388e-01 -3.252011316635083915e-01 1.243093705697867757e-01
-2.432247160998950719e-01 -1.161911474740383032e-01 -1.675164750655170828e-02
-7.173351459664755181e-01 -4.873978521508749995e-01 -1.757051789543134790e-02
-6.526915116632520109e-01 6.832426122723146422e-01 2.770402253175205942e-01
-2.073274716205220913e-01 9.272760181251457623e-02 1.597983575781936894e-01
2.514013199630705797e-01 1.485907987516856855e-02 1.605167245094258482e-02
-1.202376288883890837e-01 -1.409123981516511026e-01 -1.809389112961508339e-01
-5.658052703935382288e-01 -6.915459509823507211e-01 -2.361562254257897342e-01
5.984759056693812473e-01 6.890686954138985909e-01 3.147706957745902145e-01
-2.647004739122905126e-01 8.268738824201544713e-01 2.126822876553486619e-01
3.365814395886944643e-01 -8.232418566472056165e-01 -2.832915728804499822e-01
-1.621178374261288690e-01 -5.298793218609728628e-01 -5.941895360227203958e-03
-2.163854479446189194e-01 -1.569672129873103117e-01 -6.030772832637849579e-01
9.875129690680076733e-01 -1.309042309388342984e-01 5.221055131744412742e-02
-6.810226369771175126e-01 -5.919843677586101860e-01 -1.539796350730141816e-01
1.437830553794840760e-01 3.705447311785027842e-01 1.026009969944487871e-02
-8.675532486745519967e-02 -6.139858352944878028e-01 -3.029509148321447506e-02
-7.422898259229268048e-01 -1.886581510291155533e-02 3.682410535462130041e-01
5.067379344172873168e-01 3.909241368119360516e-01 6.732633896095708836e-01
6.445255492663800601e-01 -5.110324752236695689e-01 -5.327338953739951810e-01
-1.176184176358820999e-01 1.757652149511148842e-01 1.437404711841414884e-01
9.611783019714960075e-01 -7.901145225171991859e-02 1.912660962965691547e-01
8.004068899602720943e-01 -3.258894439699365764e-01 2.056088726718512949e-01
6.540621079127704185e-01 -3.963464645119505469e-01 -5.552153437686336845e-01
2.151691672354957841e-01 1.151224089575581117e-01 7.371001202126253871e-02
8.297868651047028976e-01 -5.044835758029952988e-01 -2.014295680325369209e-01
-4.815675265893796797e-01 -2.649455448865410401e-01 1.842546148193475453e-01
8.944714688200964270e-01 2.768700078870304782e-01 3.490224550385725988e-01
-1.266344734568908281e-01 -1.203694671130950272e-01 -2.120567381997876810e-01
2.575667515024310794e-01 2.632142768559763563e-02 -2.365225194692932575e-02
8.059759480271448950e-01 -9.838400708836084196e-02 -3.928497529339414762e-01
6.996700176797562287e-01 5.049907299490148382e-01 1.491672451495557224e-02
-2.441004369512618510e-01 6.207323273631877303e-01 7.004529246903656858e-01
-5.767918307940638201e-01 5.191611992228949424e-01 -1.196231725767263332e-01
2.354591489409383342e-01 1.611629548165780315e-02 2.389646924622051694e-01
-4.134366384534552408e-01 -1.652409781736871863e-01 -6.316461694649971870e-01
5.630912754640660101e-01 7.012089548850333198e-01 2.396572561495191600e-01
8.375807813685904879e-01 3.311672371759279421e-01 4.245861397144314320e-01
-9.949350661691667153e-01 1.246318554371900478e-01 6.556596036450737866e-03
3.409850849661871242e-01 -4.484802046985129215e-02 -4.145015756684690134e-01
3.201630672557748691e-01 -8.201788610063025509e-01 -4.397081366471355945e-01
5.294170773989612666e-01 -7.250852912852265852e-01 -1.526717657045877918e-01
-7.310368195147715076e-01 -5.565605213905813198e-01 -3.801499152950897353e-01
-2.120771629866244901e-01 -1.673361306089579947e-01 -4.300841512163443986e-02
-5.701336297556106603e-01 6.269946075635550731e-01 5.280607099128143966e-01
-7.720048834906121371e-01 -2.434777075042970362e-01 -5.172695892273801999e-01
-2.906175486439056543e-01 9.195185025808935708e-02 -2.040592547385884359e-01
2.538991045936791480e-01 -3.235870318695359404e-02 -2.242624906164151777e-01
-5.792833230874451234e-01 -6.688679898373762756e-01 -1.891134832543391875e-01
7.060138803373764427e-01 4.763738537400020734e-01 5.182591040028597940e-01
-4.439800582144944330e-01 -6.086027176578086006e-01 -6.426674502198389538e-01
5.998690313594718521e-02 -7.981723712606949572e-01 -5.984703256699914764e-01
4.637576370821711591e-01 6.660107943319785173e-01 8.798187545716619484e-02
8.991567639816662183e-01 6.382712907849796835e-02 3.547694688194542589e-01
9.422687304040278100e-01 -4.143242023520900263e-02 2.506363178059425878e-01
4.227392576919425382e-01 -7.910056365042408277e-01 -4.015891691845177580e-01
2.830701728522322380e-01 -4.356575994463656940e-03 -2.340996839490341874e-01
-4.029189966002735823e-01 1.333718203228033417e-01 5.325681593435726002e-01
3.510318325092069702e-02 -2.029494857801011909e-01 -1.426149649900120553e-01
-4.118449904012472240e-01 -2.217089049577338211e-01 1.693184018976947869e-01
-2.159074776538844054e-01 -7.392065132765130997e-01 -6.357261923359434075e-01
2.385622821695042028e-01 7.532697189107721014e-01 6.181565626517376844e-01
-1.715504709724279819e-01 1.352663308067726944e-01 1.424848143422261515e-01
-7.321656228330274407e-01 6.036808011168797172e-01 1.132415456880614402e-01
-5.965092036042327767e-02 2.853352069438745975e-01 6.813902506682631977e-01
5.735987910523121514e-01 6.867833626740380559e-01 4.317905388558166968e-01
1.722992467476279488e-02 -3.033134739956181991e-01 -5.785545078685522258e-02
7.239111310529579013e-01 3.911664448284350448e-01 5.382137464563071516e-01
6.071572898673410768e-01 1.516299860565672175e-01 5.867754856413781583e-01
6.140533484596616409e-01 2.415506829424697577e-01 6.119557611495298755e-01
-4.508497585598323920e-01 -1.815448427975097437e-02 3.800200641252258760e-01
-1.416644369156936090e-01 5.368940636085273166e-01 7.403075767470244095e-01
3.900819518194747482e-01 -8.092893883516395492e-01 -3.675878310381361924e-01
4.474949498780074753e-01 -2.815646274381187752e-01 -6.318394349093927609e-01
-6.378695844694306505e-01 -1.786379470799091540e-01 2.802818744990455690e-01
2.096095859837162068e-01 -3.772195034756097298e-01 -7.165682685953541631e-01
-8.147971337372966749e-01 5.278627240874743665e-01 1.190657082843507852e-01
3.643980521276347639e-01 1.932098903476321961e-01 6.427641748487599171e-01
-7.984431123874702330e-03 -1.818533789004503909e-01 -1.754760770237735745e-01
5.430217642930614819e-01 -5.719792033826297528e-01 6.498955579465093280e-02
-8.003004507792776945e-01 4.096146791911747242e-01 4.102003396165227467e-01
6.365132306823174657e-01 9.210552894643328492e-02 5.516960831645784102e-01
-3.334126232287571434e-01 -2.169245808911383910e-01 -6.643005955747119939e-01
-5.978116269516742243e-01 -1.178388139070629670e-01 -5.809692298074204952e-01
-4.070899260588788926e-01 4.110318785995830670e-01 -1.602871690813161276e-01
-1.193744484611790474e-01 3.722153574218505234e-01 -1.862427821549104620e-03
5.093934011298266729e-01 -7.572501229352165408e-01 -3.589134019330697534e-01
4.328036083808077250e-01 -7.953890197269035678e-01 -3.140819188634048076e-01
5.535633971422828647e-01 -8.967560398485252549e-02 4.442047574805852439e-01
7.539031273848545434e-01 1.950906759803599372e-02 4.679490004804247594e-01
3.785422821105083879e-01 4.638091789167393952e-01 -5.744062350910490722e-02
4.743346202786433707e-01 2.475958918548565313e-01 -1.994323226505773650e-01
2.220024035129648521e-01 -7.251347366118428006e-01 -7.049634606899411737e-02
-2.541590469139899389e-01 3.140426717913535198e-02 1.396923239376722525e-01
7.758586751778424606e-01 -5.001244042180921223e-01 -3.799256372384043901e-01
-1.474524428162779233e-01 -5.112598137023269818e-01 -4.501640647317237467e-03
9.151167006961152817e-01 3.184865816233050095e-01 8.511370517589757212e-02
1.095772959702404625e-01 -6.861027491958346936e-01 -4.888510776900464178e-02
1.216711883953069603e-02 -1.629166652546458760e-01 -2.078990448673006808e-01
3.012488848669137576e-01 1.387643373354698062e-01 5.933872604290933994e-01
3.610270350709397086e-02 -5.449722515158610392e-01 -6.151063687550723837e-03
-8.449227562527262814e-01 4.345684423261075846e-01 -3.603899619071483651e-02
6.766367254573685264e-01 3.517643550131888119e-01 -1.480348646356491882e-01
-2.161837534218954970e-01 -4.794437929560196876e-01 -7.479203264226008674e-01
-6.115007852555107842e-02 -7.882226044166783518e-01 -1.544834964171578895e-01
-4.824939935654691259e-01 3.872380098593038861e-02 4.487979629774375145e-01
1.535674843512021270e-01 -8.109770143751791061e-01 -1.766846251731782891e-01
-7.908763805981988693e-01 1.895708120646078243e-01 4.304528977510017618e-01
-1.004343439437089119e-01 1.219601487242176485e-01 3.498805007920142152e-01
2.271794396072221445e-01 5.492413685959299796e-01 -6.013817777294455224e-04
-5.376271161891506001e-01 1.074071336176894431e-01 5.065564059592203572e-01
-3.622212064718440261e-01 -6.588119689526326928e-02 2.455671908585763674e-01
5.051728665326081780e-01 7.439051946436872065e-01 3.675079797732670461e-01
-4.255816899866022851e-01 1.735880127710597298e-01 -3.226130457182157518e-01
8.822126897993749495e-01 -4.173348806914302656e-01 -2.144059101366744546e-01
-3.894720160158314237e-01 6.845287516983151847e-03 -4.750472704070352603e-01
4.181511179216841345e-01 5.546227259369921336e-01 -1.565723161104166927e-02
1.492678992095855528e-01 3.512963411211136866e-01 1.322209609470107600e-02
4.499504508185581120e-01 2.237979984151528268e-01 6.526007848526322874e-01
4.636137292618938699e-01 2.482328034449987342e-01 -1.935649983534720731e-01
1.209019855814911643e-01 -1.527489186206391347e-01 -1.688081311092288761e-01
1.460928175930638687e-02 -3.868162489648482860e-01 -2.116317548073436833e-02
-5.255406325709909288e-01 -6.114580683030056418e-01 -5.769286400192407543e-02
-3.100727657614484323e-01 -3.778606901208566571e-01 -7.269570481204969958e-01
1.718579372580136266e-01 9.487974435780884008e-02 2.002019047252654449e-01
1.432434625584925458e-01 9.050751957042439677e-02 3.824167946806003582e-01
-4.839084583440779463e-02 2.606558896650759127e-01 8.515325838051095164e-02
-2.876540562656596522e-01 -4.707711940627841152e-01 2.775254654919396755e-02
2.699718636298281682e-01 3.917383286920654850e-01 7.310746833365531216e-01
-3.706779990937159042e-01 -7.111189173170658906e-01 -5.971353516316327825e-01
3.927001997463392402e-01 5.962684698771970604e-01 1.173091492108650595e-02
1.925018755341081911e-01 3.920978830966819761e-01 -9.086500260884016605e-03
-1.129979540683418993e-01 -2.616941434574092118e-01 -6.564147422464673698e-02
2.919047833044818505e-02 5.925663144345504341e-01 1.716839954754044786e-02
-6.190922431891686673e-01 -8.141017010098910989e-02 3.560359104138071662e-01
8.921627383423789137e-01 -3.753290994463507890e-01 -2.498460204762225911e-01
3.226413382153658360e-01 -1.604029718829707088e-02 3.953822690897628722e-01
2.676032778331248196e-01 -1.133385762864923263e-01 1.055799974832742349e-01
4.285960707555162008e-01 -3.089736000026406249e-01 2.209316906278294967e-01
-6.289482420913763416e-01 5.315600324293632273e-01 -9.655712355057666230e-02
-9.253285078952656895e-02 -3.212689661010274533e-01 -7.192333156656857129e-01
1.756923112239044127e-01 -2.274854814755973842e-01 -2.320993920927760454e-02
-6.324023464693342422e-01 -1.558899407231630341e-01 2.979367298201329173e-01
9.998188780094626749e-01 -2.625127455992437922e-02 2.269419771492242957e-02
-8.402894252496272420e-01 -1.522251922105258837e-01 -4.459451476310823392e-01
3.057527026197856199e-02 -8.063496548942807873e-01 -1.705516231185808529e-01
7.512151276266462174e-01 -5.840961648879441359e-01 -2.868030257589408438e-01
-1.833806526348973343e-01 9.636016565812957624e-02 2.634619757503982029e-01
2.088547996644934956e-01 4.375620079676636465e-01 -1.526158852755730468e-02
-6.790644026566536873e-01 -8.209593484433205801e-02 3.476194577797577234e-01
8.882093799626542552e-01 1.615531433635425118e-01 -1.653788996120551247e-01
9.946634538911504064e-01 3.315304926087226517e-02 -4.801424730521392827e-03
-3.262171785965378157e-01 -7.046793163744088373e-01 -1.039555040369357225e-01
7.690522307275629021e-01 -5.745177809167963945e-01 -2.293390195344062188e-01
6.396938996194331817e-02 7.724993961572447221e-01 6.360663859467338144e-01
8.416067606540580393e-01 3.795462768189285518e-01 5.263442174018440403e-03
5.798254305958989718e-01 -2.446681854404514078e-01 -5.744788169129377842e-01
2.558154696956991270e-01 6.586296275796168498e-01 4.893196947364220062e-02
6.204116517542989095e-01 -1.368561561633461487e-01 -5.116691297435039809e-01
-7.145742820857491351e-01 2.036575828031757796e-01 -3.562000093193370964e-01
1.790151243396611441e-02 6.953976521653006948e-01 5.921346481413105461e-02
8.509940291169142412e-01 1.889725893701193482e-01 -1.846507619990478133e-01
9.767423924072217156e-01 -6.073679601048316556e-02 1.593763624902435894e-01
2.562356999808688696e-01 -1.646240118859591539e-01 7.195240757609157323e-02
6.386015643306389711e-01 -2.951313562117924838e-01 2.918224405399180155e-01
4.512988043012738371e-01 -3.104634842180360454e-01 2.333987887453567445e-01
-5.472415514360503552e-01 -4.126518476655656742e-01 1.063846185573961017e-01
-2.108944425954645818e-01 1.661924569126645990e-01 2.233002408918753623e-02
9.438512087769895809e-01 -1.257951319463836981e-01 -2.249550946262047213e-01
6.404186192289938739e-02 -8.625831541176225414e-01 -3.064373314217348487e-01
-5.729009859847952746e-02 1.686095997917486655e-01 1.983352337622481532e-01
-5.034100365968016133e-01 5.362559086836167221e-01 -1.070165249848441941e-01
-3.342815086143816755e-02 6.524053288589701793e-01 3.267646771604177519e-02
1.438531638857971917e-01 -5.668756547726734318e-01 7.888253643215959246e-03
3.664292460343900881e-01 -7.306259327524611269e-02 3.630130144949565429e-01
-4.678713228908866761e-01 -1.413736371496338538e-02 -5.228856320144539271e-01
-6.731723744598291370e-01 -7.843157926786642475e-02 -5.385449942639948251e-01
-2.486870525593831427e-01 -9.475861270808023928e-03 -5.044934259704576818e-02
4.139961079882021888e-01 1.610886896175850735e-01 6.220826687777658570e-01
-2.671971155637291595e-01 -4.900073671355185262e-02 4.356062165929341923e-02
6.300822146350636421e-01 6.538485001282181575e-01 2.128493215477721689e-01
-1.142203325882538111e-02 -1.196328154971256219e-01 -4.109669075664701410e-01
-6.337648640430525449e-01 6.944584560184581257e-01 2.120090464941411512e-01
-2.508071485840566717e-01 5.205590416503322326e-02 2.778019147215634033e-01
-2.401311370835722547e-01 5.302379578554668876e-02 1.943036526025369026e-01
-5.248231198767165928e-01 2.480646236375731728e-01 5.905437731492169107e-01
5.837452105517061396e-01 -2.146013163842139249e-01 -5.614139933977073671e-01
8.874478257626966515e-01 -7.609200364687061791e-02 3.130356825723930592e-01
5.477867400814131482e-01 -6.972981921180100295e-01 -1.053247426757292632e-01
-9.957551716089472205e-01 -6.150169773081271690e-02 -7.650671818969932703e-02
-9.007156106202878210e-01 1.074606003627602974e-01 -2.868711893230583287e-01
-6.049687083802758325e-01 1.665352996938724850e-01 -3.976248031722662279e-01
2.299011059419794611e-01 -6.505726337287150163e-02 -3.252055919920224247e-01
-4.117066449767343150e-01 8.079333038689000546e-01 3.730176238600369509e-01
5.434284011368037959e-01 1.236075784067206806e-01 5.895323874161502165e-01
1.246926863600927859e-01 8.622647608405689112e-01 4.378427274984708073e-01
-1.185691300717032909e-01 2.593644405331284597e-01 5.336375817844303537e-02
-3.160618290712296496e-01 -8.624416007667412565e-02 1.445600227648082547e-01
8.985928003884313675e-01 3.660496368695538849e-01 1.795797185591822276e-01
3.346520799554636993e-01 3.905971497011481164e-01 -6.708932257290797785e-02
2.735666511181731875e-01 1.415720383916818995e-02 -1.368715065190394264e-01
-2.979109286458759831e-01 -3.765412553721168565e-01 4.951351008699268752e-02
5.651041488418809822e-01 7.060074240155611580e-01 2.687679470250406988e-01
-2.200839206672494108e-01 1.585768965828097121e-01 5.406942734071511492e-01
-2.013247469126174805e-01 2.612529681777683854e-01 -1.839220091262215237e-02
4.939780058944157615e-01 4.288936331519472289e-01 -9.822313814632588347e-02
6.262337682940848360e-01 5.936329082717892724e-01 5.110557510989276464e-01
1.332246315662994340e-01 7.060544220705835539e-01 7.415213180688366712e-02
-4.441469027874760944e-01 5.071743570983259231e-01 -1.194940800491377242e-01
-4.745440856561601306e-01 -7.477097914375655519e-01 -4.137875458681651852e-01
2.377197073990516274e-01 4.850161814744423650e-01 7.425386787438638114e-01
-6.022339671982398501e-01 -4.108113647703774407e-01 1.058808045037730877e-01
8.351381487573769080e-01 -1.053644373348375241e-01 3.477945013938293362e-01
7.071525186127310958e-01 5.018172826685630694e-01 1.687385363905653107e-02
-5.881265406351101621e-01 -5.519676715804463507e-01 -1.648769839104729379e-02
-6.081949266029506029e-01 -6.436518726134281554e-01 -1.669293859181883721e-01
4.539153265987069252e-01 4.440686725396050111e-02 -3.635751741013300564e-01
-5.030986018845895469e-01 3.724224726670158359e-02 4.500412919355203378e-01
1.621081052971089925e-02 -3.740171195753192457e-01 -2.510596749376857451e-02
-2.853735096640314661e-01 7.720597584703199623e-02 4.171242058604158198e-01
2.634602578415746743e-01 3.086132884019369624e-02 4.079248564149003942e-01
-2.319700875556432174e-01 -8.391889789397344313e-01 -4.030833546235074727e-01
-2.613546839778532055e-02 -1.598620975826581525e-01 -2.094950984535287331e-01
5.283892457321207048e-02 2.308313237144392349e-01 6.449892861310710934e-01
-3.974419921193058647e-01 2.444652871168591923e-01 6.184945585043740701e-01
-4.725135887027528264e-02 -4.447454281160161393e-01 -1.152079098870349011e-02
5.306418284318339396e-01 5.971488394227968399e-01 3.399227578077092943e-02
7.888979368821378291e-01 -3.172046762184796420e-01 -4.457192411785232955e-01
2.145512330407909896e-01 1.527311571862953465e-01 5.870072631116035611e-01
-4.259356267763909631e-01 -7.672711749353149091e-02 2.992035161909354923e-01
-6.887665801541980048e-01 -6.051976294157926928e-01 -2.130867794167075058e-01
2.879100747926462978e-01 -1.977514413943003424e-01 1.261821177445208719e-01
3.905288224114761841e-01 2.295510845043768899e-01 -1.557255486651689946e-01
-2.885876887740729813e-01 -1.977465487796704544e-02 -4.337535074644557342e-01
6.441194719334248919e-01 5.870480294131066312e-01 8.444869531221316228e-02
6.349030644837667936e-02 5.178282143754971978e-01 6.786043884017818432e-03
-8.615468273742453720e-01 3.358608613206994775e-01 -1.444085227875039623e-01
-3.904297409345574010e-01 -1.016529479510318579e-01 2.396105308188117289e-01
-6.342568645361077451e-01 4.982999559330358180e-02 -4.789403872351248315e-01
9.362480254078945352e-01 2.458145109780457069e-02 -1.882029208893678529e-01
-6.261916873054387267e-01 4.275532819879492852e-01 5.705182310328080764e-01
2.918928231969189491e-01 -2.162564803260409382e-02 -3.089920613716740649e-01
-6.062523128054136956e-01 5.280605437596839202e-01 -1.063109702562802239e-01
-1.367972802338742189e-01 -8.510622889040914130e-02 -3.568207804938764993e-01
-4.184130091155169318e-01 1.287281582880647757e-01 -3.592738107380074042e-01
4.579423180431051454e-01 -1.566051501078531416e-01 3.528209580403672274e-01
-2.692182684172261808e-01 1.032084192596697814e-01 -1.180757279693091383e-01
2.796848554029093825e-01 -3.626313782059160939e-02 2.653305648163330477e-01
-2.827573607914069531e-01 3.356980311043895188e-02 2.983953106497834185e-01
-3.212629711175551961e-01 5.391322899399829671e-01 -6.905612746436885774e-02
-5.668024262411543862e-02 -1.369833993966832197e-01 -5.155017023590512393e-01
3.284912387959697533e-01 5.487686171647472300e-01 -1.267092516903882936e-02
-7.010709200768138194e-01 2.082513698377328193e-01 -3.566537729690373859e-01
-2.216899232959607391e-01 -2.364359481612167413e-01 -5.490605520371437745e-03
6.109298940138373907e-02 5.228075770418475487e-01 7.545977830650644202e-01
4.122580384809305665e-01 -1.056813865688019521e-01 3.690558675955118439e-01
1.933836340766900419e-01 4.257026368219298806e-01 -1.104282541450757327e-02
6.846494362565519465e-01 5.066067798801077160e-01 5.839789314692158360e-03
-8.416515192516499377e-01 -6.013994850506106452e-03 3.097727735771855784e-01
-4.844564931549649178e-01 -8.860083151356745734e-02 -5.808897721990807783e-01
-5.255121167704872309e-02 3.592880516798574453e-01 2.476588266485238096e-02
2.652838171984616134e-01 -4.205954113890968127e-02 -3.164529221901530298e-01
-7.127808867167371165e-01 -4.586069838265745546e-01 -5.206844903704511696e-01
-2.102353345644744978e-02 -6.525041292972050266e-01 -7.219736193708174987e-01
3.329236805145979194e-01 6.179242978656007690e-02 -2.189186035329424851e-01
-8.745792561956288180e-01 1.387533109892661598e-01 -2.980166322034775161e-01
9.423530202056808192e-02 8.437303252039827228e-01 2.424271598411091300e-01
3.408351818590149018e-01 4.143366493825159091e-01 -6.323195663353164964e-02
-2.347217326201967713e-01 -8.258292402028495349e-01 -4.771026425392435599e-01
6.320650471534351444e-01 3.776768520799867468e-01 -1.361163167375196992e-01
-2.903553102470465275e-01 6.472471473622560811e-01 6.750743766863005479e-01
-4.044900483783032685e-01 1.959328053939460579e-01 5.853934632235405777e-01
1.428686786619305926e-01 -6.286290232659783594e-01 -1.415568009666402782e-02
-3.296153927566620734e-01 -2.694465669241236094e-01 -6.914985747567424790e-01
1.711450620231069752e-01 1.391694223654871831e-01 1.253430897810294820e-01
-1.499872306855113413e-01 4.453037111445387053e-01 -2.573375095417993613e-02
2.657682719073207189e-01 -1.652886125022701158e-01 9.146350385584192666e-02
-8.074939762109317742e-01 -2.088456045349569579e-01 -4.836819777112130181e-01
