8.079657949024222630e-01 2.118802267523262409e-02 1.808439099134492578e-01
-8.773520349915776562e-01 -4.937353670080130846e-02 -1.082752152332571022e-01
2.056695012642875131e-01 -5.846961976251507931e-01 -4.769970711209298719e-01
3.997334060721733362e-01 4.865232156774670913e-02 -6.974275528137020841e-02
7.098912476301720564e-02 1.974303975216932516e-01 3.109724329186596692e-01
6.719725201247848945e-02 6.169834274460623824e-01 7.662281303717867198e-01
-6.469255508243711983e-01 -6.606129567813847636e-01 -4.175888070452919987e-01
-8.554374949567321307e-02 1.230588552776703259e-01 3.443750339993275067e-01
7.277693710700518237e-02 -6.593070045453006678e-01 -7.344068557615391901e-01
4.179381161492967123e-01 -3.987478613358536039e-01 -3.459271867022551961e-01
-2.466555629153380225e-01 -1.218460631660506083e-01 -4.092007510195240227e-01
6.861117495795784893e-02 2.798610963499322327e-02 6.303500165363861152e-01
4.302918316554044664e-01 9.865306078465148343e-03 -3.780242711005105810e-02
-4.694350081871505043e-01 -7.160888229084590995e-01 -4.860148068996410498e-01
-4.752578230196062292e-01 -4.395584492616091965e-02 -1.879597871877570769e-01
7.565141646713908763e-01 5.091873359377917518e-01 -1.535633119330452323e-01
4.491723526422828905e-01 -1.774970299563476683e-01 -9.019806912774465113e-01
-2.951406331637255742e-01 -6.497658533817428639e-01 -2.645367634233078968e-01
7.704036548237115645e-02 2.994145116627418002e-01 2.636458416414229067e-01
3.097406838717755018e-01 -5.731464999490445411e-01 -5.301502548842585982e-01
-7.549585237580196395e-01 -2.243925060256040382e-01 -4.674611212388302683e-01
1.499373975664844705e-01 -3.825975603275497128e-01 -9.544676488274673742e-01
5.316801748710081599e-01 5.759605570419841225e-01 6.416750306392169367e-01
7.614294641799957963e-01 -8.167675169851685776e-03 -7.004900528207225197e-01
1.414490258130432776e-01 7.347782128702559645e-02 4.550558655873614966e-01
9.199069480293516898e-01 -7.381046067214531992e-02 -1.645580582896301047e-01
8.219285449597428794e-01 4.207758528421751132e-01 -2.739586597940114054e-01
8.349051026002711762e-01 -1.714677927783812839e-01 -1.961594774796154295e-01
-3.778469249365369320e-01 1.177170191741679361e-01 1.722249333193610898e-01
-3.603163417586646156e-01 -4.156552592537217095e-01 1.010433088795422048e-02
1.568394639451065964e-03 7.441993321831694153e-02 4.163680717290894617e-01
-3.619814879777530359e-01 5.484560275915244254e-02 1.618711424832794676e-01
-1.169012531282120904e-01 5.555370860146355838e-01 8.101446322581543624e-01
3.965727764298002667e-01 4.864159846364163320e-01 5.863775558930590937e-03
-1.334288466269066276e-01 -6.597624213079750222e-01 -3.861118454753954543e-01
-1.223952172897117829e-01 -5.020309194699544564e-02 6.080402146750977233e-01
-4.018834109284836198e-01 -5.566604669248910175e-01 -7.845532872829282800e-01
1.052314999202880186e-01 -3.169888709108868441e-01 -9.596702612499227181e-01
2.968060526751846173e-01 -5.750975016940563789e-01 -5.226441521883623542e-01
3.360038338461363572e-01 7.016486645610119366e-01 5.137573655575781162e-01
-1.735490922607933056e-02 5.419025973028952781e-02 4.345943819227401361e-01
2.179752042419482172e-01 6.128761034691702081e-01 2.823438308797344698e-01
8.956264267923866873e-01 2.041969853161939574e-01 -4.540536178286455060e-01
-6.473778169165078644e-01 -6.717412520693943900e-01 -3.469054891491458181e-01
3.924125127707417948e-01 -4.343051047431518152e-01 -8.658037590895651947e-01
8.709408891518166662e-01 4.911778981263783539e-01 -2.305503218755099518e-02
2.848988682179797727e-01 6.296134553027369352e-01 2.596015309828152984e-01
6.380936968793318176e-01 5.668286157050475005e-01 5.499414560017299447e-01
-1.827468015877710128e-01 -1.329829458352020655e-01 -7.713236389687001537e-01
-3.844125787509649061e-01 2.596714514828976084e-01 8.854456925632112618e-01
8.824048964863193678e-01 -1.541030560752980616e-01 -4.524756379592618227e-01
9.160515058521031539e-01 -8.337567318718984433e-02 -1.767656655045185543e-01
3.922418374123445295e-01 6.848742108204948220e-01 3.174096958981322825e-01
-7.613546009108288493e-01 -6.745668485501236933e-02 6.396245714682599059e-01
8.632106396126522085e-01 6.448366432783596280e-02 -5.727422980808376529e-01
8.736214569238766325e-02 3.333903715237556131e-01 2.522048858479881139e-01
3.078849811565484984e-01 8.879852208212736520e-02 -3.402534267965602877e-01
-7.826583871261791892e-01 -4.435183733688816687e-01 2.690741511711816081e-01
-2.566588083096116302e-01 -1.088632007380622019e-01 -4.481830954568351566e-01
-4.735053804899134189e-01 4.138824054446448020e-02 1.466295400032184559e-02
6.709040941896180499e-01 -2.218981580412753840e-01 -1.628980453057919664e-01
-1.607530775911920340e-01 8.278437303820254667e-02 3.305055143543232377e-01
3.010698720827883479e-01 6.032157203527641620e-01 2.127826031112761695e-01
-4.582233326778630822e-01 -1.499034562864936804e-01 -6.203061078594916955e-01
6.024425107573145449e-02 -6.137695543165846285e-02 -4.804620284140837527e-01
-4.197448469656226422e-01 2.038937937585401927e-01 8.769279581833067105e-01
-1.747037383849614836e-02 6.358553667572209855e-01 7.125219641071381949e-01
-3.776523626152016866e-01 -1.019255652295904258e-01 -5.272850377327826799e-01
-4.450492460416683449e-01 -7.229049408982175517e-01 -4.115400722616818219e-01
8.757578662135448999e-01 4.697441500429928585e-01 -8.503049602191166401e-02
-3.135732052496691402e-01 -9.905181359349884973e-02 -4.824603068644014447e-01
-1.705595799789174360e-01 5.639915866259482408e-02 3.381353793853895673e-01
3.268353873372912832e-01 6.247317162981392835e-01 2.234913825905401885e-01
-9.657582460724094542e-01 -6.550991460207344907e-02 1.729144617096313452e-01
4.781780348854344220e-01 4.559662093291755314e-02 3.112296712670288290e-01
-4.884450834337926706e-01 3.410914135235743605e-01 2.922027954597118393e-01
-3.676018733507471770e-02 -1.765867125061056087e-01 -3.817427613824931898e-01
4.173401301544731878e-01 6.421258476981842045e-02 2.260325369968166909e-01
-6.295923341946226826e-01 2.761871345761647278e-01 2.425371179167805369e-01
-1.750343130775966205e-01 -5.774308486237955673e-02 6.885179881624876597e-01
3.076552767832794189e-01 -5.851722879453210568e-01 -5.638336826632750487e-01
-1.127349799584084489e-01 -3.461487915502077517e-02 5.155752803859118272e-01
-3.447847614755275014e-01 -2.089105392491825419e-01 2.522371773856302291e-01
-1.333379224119456696e-01 -5.578017088697810599e-02 5.702787526541158725e-01
-3.494747678472683305e-01 2.806751392621377739e-01 2.570224371348088233e-01
-2.243045999411325819e-01 3.093461081313312877e-01 2.885123347351464806e-01
-9.437433181969436813e-01 -3.904405141610796659e-01 -1.034056609502497226e-01
5.011582607931700517e-01 4.157539154029352146e-01 -2.298347912079811428e-01
9.989854595074389998e-01 1.700147639606394145e-01 -1.727892510865993991e-01
2.652313856371636414e-01 2.389752393204014058e-01 8.276277063467271100e-01
4.899811557615013080e-01 -1.874981626666155365e-01 -1.667008092001618924e-01
2.189214717094177254e-01 4.478109079058939165e-03 -4.083298125163561942e-01
-8.616227217912612035e-01 8.275035535647339013e-02 1.040980818915095835e-01
9.810869572637029648e-03 -5.981907514932711667e-01 -8.507082762589779357e-01
7.422168562415869530e-01 2.348361684015554951e-01 -5.666865723416405487e-01
8.180485960710260906e-01 -6.325726215258611895e-02 3.049338838393941473e-02
8.369420148151999195e-01 4.116686248905038203e-01 -2.741359944172423457e-01
6.183248842052215671e-02 4.082882207162565891e-01 9.056483551994038983e-01
5.997606624372944228e-01 2.188220286973616702e-01 -6.222824977575845962e-01
1.875355955535990826e-01 -5.796393488981019804e-01 -4.601771444117104815e-01
-6.458894382368617348e-01 -8.732453058770621446e-02 -3.851410489762313594e-01
-3.348507845410597650e-01 -4.914866525360980787e-01 -7.717699215267063984e-02
-2.691562667857326785e-01 -5.737363348133921459e-01 -2.015347818967921090e-01
9.438699510175508900e-01 1.300180049248320924e-01 -4.144962119043552051e-01
-9.692932128784885470e-02 4.007537215040441470e-01 3.054570515954956877e-01
2.430135742976319013e-01 5.618741646578490068e-02 -4.419606190482105457e-01
5.359838425073428780e-01 -4.591885426171742335e-01 -4.872429239666390965e-01
-4.887559454575057249e-01 -6.931886458242920712e-01 -5.569887484473585726e-01
-3.259680668776705481e-01 -2.786397121166078739e-01 -3.652155590110452849e-02
2.107296575913910619e-01 -1.256298293030185809e-01 -9.092973447000343157e-01
-1.631238715765399305e-01 -4.307959967558546155e-01 -2.282422564143623545e-01
5.330096784539343213e-01 7.704721258696976827e-02 4.506049092037232029e-01
-3.857534782449060229e-01 4.138136360502782662e-01 3.499846288113901971e-01
-4.724698593671394775e-01 4.372289385106911119e-01 7.253694826812046026e-01
-2.737035537907606675e-01 5.289230758017513523e-01 4.480376566206920042e-01
7.727037234473335126e-01 5.485898767476817817e-01 3.708051231939669679e-01
-3.030668607536835535e-01 5.544075043246771833e-02 2.244237312123978645e-01
-2.497066745330304427e-01 -4.608687230931756695e-01 -1.583141593584583562e-01
6.600337361860662000e-01 5.477800165980004632e-01 -9.858444526637677452e-02
3.956900588700779653e-01 7.807483506728871148e-02 -2.986487928262637759e-02
-6.775319748530093944e-02 -1.737211393394802461e-01 -3.823287493350082111e-01
-2.751714965218691189e-01 -1.527590163197869999e-01 -3.072278944839009207e-01
3.212453213346717074e-01 -2.453305309999758155e-01 -9.399427516919759418e-01
-5.201467430800675862e-01 3.445169508677495274e-01 7.789459572899628537e-01
-7.616932568403482484e-02 2.475318159291827746e-01 3.000220339965496419e-01
-5.392885137991023647e-01 1.195724619118574278e-01 8.243657752069226685e-01
8.590392595970754996e-01 4.647798330281885035e-03 9.797479520296695221e-02
-5.070644403683685075e-01 2.947017385041867388e-01 2.449452197321522751e-01
-8.378470624421168189e-01 -4.468580469033000546e-01 2.076809814903150808e-01
-5.149946212003288920e-02 -2.821138777825040744e-01 -9.336454916998473408e-01
3.034947224682840727e-01 1.013836736736295902e-01 -6.703771748134536024e-01
-6.833379378931027093e-01 1.750319752945524998e-01 1.067571465092501393e-01
5.377407453297171624e-01 -1.405217858872909453e-01 -9.104064227634714457e-02
9.245894839920878461e-01 5.038164017600425815e-02 -4.756481561209602860e-01
-1.171766979304012524e-01 -5.781153500970593884e-01 -8.652227651530883801e-01
-4.709002472230436886e-01 -9.648712060140285374e-02 -4.743231529166253013e-01
1.850190255397204664e-01 6.856859262753129958e-01 6.200786541853782197e-01
-8.868547873935127557e-01 -3.445220957512317161e-01 -3.230429148216091839e-01
1.805926309932702756e-01 -2.076780481421860447e-01 -3.300111263156277897e-01
4.910907312681900838e-01 -3.361129615164056839e-01 -8.638070293759096963e-01
-7.709946894906025694e-01 -1.412545151689006684e-01 5.972845559632180557e-01
-1.147076562197491684e-02 6.195793027572230605e-01 4.341638599869599435e-01
2.230957998498813988e-01 6.502594689022921093e-02 -6.554950951125166903e-01
-9.631140431659058754e-01 -1.279760883511704139e-01 -1.502514358588836075e-03
2.281635104812786974e-01 6.038586756786026855e-02 -6.835784488733197550e-01
-3.692636606808123445e-01 2.450306961584248211e-01 8.916983198014263312e-01
6.429575668526160692e-01 1.391062083039112107e-01 4.939642709490076333e-01
-1.091269243693612917e-01 -3.268679464130559431e-01 -2.759905986380069565e-01
2.903229610304552399e-01 6.147235818185513567e-01 7.370767976009381384e-01
-1.437459526796854570e-01 -8.769504969710206765e-02 -5.348697628807187465e-01
8.099848004637320020e-01 -2.403901712727176398e-01 -5.363802838885666224e-01
-6.543210655837025103e-01 -6.485952716449809863e-01 -4.433788982877839846e-01
-3.215968249017007174e-01 3.032854328720303583e-01 2.729643312025162305e-01
-5.434480748097092473e-01 -5.598645043776551838e-02 -3.268513728935455442e-01
-2.369037676836870665e-01 -6.864527668253707082e-01 -3.644464253826220079e-01
-6.674173955741387054e-01 4.136223844990766230e-02 -1.159245113842832242e-01
-4.336566671800017314e-01 -4.442029746427075265e-01 1.137553166881793282e-01
-3.630973948991868538e-01 -1.275850922633972317e-01 6.071909716799613055e-02
-9.571526736692325121e-01 -3.707530500915284105e-02 2.198465821868438030e-01
-8.856118275330967515e-01 6.550428961263325689e-02 1.210703892127351772e-01
4.742876518347519110e-01 5.026611925647312962e-01 -6.573967374502164007e-02
1.444799359732294730e-01 5.725027421251797921e-02 5.065374461954129659e-01
-7.556578075336048972e-01 2.618551379370556154e-01 3.648768687484262863e-01
-4.388613998704694041e-01 -3.637107572006128414e-02 -5.783003609897606478e-02
3.706159075322757457e-01 7.226249942300179419e-02 3.603533695252180147e-01
-2.376319892096159514e-01 -2.022066599249211227e-01 -2.688207000431321880e-01
4.986175798599005726e-01 5.341070254410557744e-02 -7.905654780506849999e-01
2.501709976428082571e-01 5.972987817753597772e-01 2.424322917421745660e-01
9.042842056641674509e-01 3.792218905796032047e-01 2.671015848172869078e-01
2.311370272580207941e-01 5.953407150360068983e-02 -4.767914596052131304e-01
-8.734512945133703077e-02 2.454879605998663561e-01 2.998353135627728761e-01
5.088208171685061343e-01 4.550038330305459788e-01 -1.755684839379846873e-01
-3.272378322067512335e-02 4.605542514122765163e-01 8.934185711612296910e-01
-5.871898840940239506e-01 -6.843305769827043861e-01 -2.401491532124990780e-01
3.195018730773778182e-01 -5.362606147160785541e-01 -4.672989669985665451e-01
8.306909144030409919e-01 5.315106632196631153e-01 1.500577983901606009e-02
-4.317346207970427785e-01 3.677179481468958455e-01 3.123666998493738189e-01
6.225201687327757138e-01 -2.829206526367624916e-02 1.571683195502969477e-01
2.689957819981089182e-01 -3.271732272809091402e-01 -3.154636825884528095e-01
-3.765968974557436511e-01 -7.986928943095711331e-02 5.883996101415688018e-02
-4.026079398642856688e-01 -7.233411283082183951e-01 -3.971644374905238251e-01
-2.130581218970777069e-01 -6.279742575461781939e-01 -2.941734365578382859e-01
7.498291800214601510e-01 5.311940366703868932e-01 -1.076071835678604621e-01
-3.164030685259545117e-01 -2.669480399775616686e-01 -6.945872955751383748e-02
5.515066595462502219e-01 6.489850483527125347e-01 5.148902052483562697e-01
-9.204619491366458073e-01 -4.671717711826360586e-02 -1.622814197085337487e-02
7.577455502477031812e-01 -3.101066976148070253e-01 -4.923383605707679078e-01
-3.762176825844012473e-01 5.211374061324842710e-01 5.266648139202526613e-01
-7.159489733999168104e-01 2.769860618370188488e-01 3.189066669793183539e-01
8.668320756090330814e-01 4.070624092797137661e-01 3.361231495923254209e-01
-6.963985704784690922e-01 -6.300826618046601046e-01 -1.055507361835671259e-01
5.331201505232013860e-02 3.966943426241003462e-02 7.088589330390000498e-01
3.777828531692019320e-02 -2.244823958762987015e-02 -6.333002218686080154e-01
5.808964653644797804e-02 -2.702152926769834165e-02 -7.287679927944333835e-01
-8.046183085925641132e-01 -5.565144950616699449e-01 -9.309614260300363639e-03
-3.474317292588626205e-01 -2.302633744452299014e-01 3.338873460922890668e-02
-1.069485263625216120e-01 -7.090066653690653420e-02 -5.972362265845618801e-01
6.222445975336102775e-01 -2.423209990758175628e-02 1.665636069874807113e-01
2.188345844138058494e-01 2.077579104862663506e-01 8.303218883750820289e-01
1.333593120555762457e-01 -6.530600092143034052e-01 -6.993527180052894199e-01
9.896982652809561687e-01 9.618097860190027992e-02 -2.520462141620690155e-01
-5.937368277259270632e-01 -3.161347471143573507e-01 4.985503230623804516e-01
7.090335311733505508e-01 -3.074442967765756429e-01 -3.286306940956510991e-01
-4.397539789483242978e-01 4.682198700770192623e-01 7.112208099177672604e-01
-8.066072024621422365e-01 1.151574747192083831e-01 8.456646642780286938e-02
-2.959514042237272879e-01 -5.726176641197556760e-01 -8.234746514542513607e-01
-7.939307834689107723e-02 -6.936058231158022114e-01 -4.930032314486204603e-01
2.567779141058323944e-01 5.913855222248701887e-02 -7.207559465399046017e-01
-5.415365597782348939e-01 -3.334594611053628976e-01 -7.220638693735357272e-01
3.922384307787450397e-01 2.865753223309563946e-01 -1.820010015384464219e-01
-2.741949755283526469e-01 2.825551458565768170e-01 2.738027741768206402e-01
2.342688083035485702e-01 5.082404604667722925e-02 -4.500030936313658692e-01
-4.737710448967681343e-01 4.113592038270946771e-01 3.756560917349750506e-01
7.146784564307983034e-01 -2.747568136089552013e-02 -7.424670447290798725e-01
-5.776957974034289123e-01 -2.147974954741555809e-01 -6.210292154024574796e-01
-1.920018082116025926e-01 -7.102994990065308878e-01 -6.648274823719979576e-01
-9.452052858645667577e-01 -3.846052908026890149e-01 -1.072593610744326104e-01
-5.247854702175275277e-01 -3.620968349275501819e-01 -7.417504132211497625e-01
9.257336213819400417e-02 6.601894338189457923e-01 4.447071935911353080e-01
-4.181954257681892995e-01 -1.896131052341062939e-02 8.075007417097900264e-01
2.021110813761147762e-01 3.260302867979882890e-01 8.778547257484706767e-01
4.089949377358939597e-01 6.292940536790598838e-01 6.652344154006232246e-01
-2.900352400141320910e-02 -1.796349065036711434e-01 -3.794107772759356401e-01
-7.278578468958591952e-01 1.581009399458574785e-02 -1.493950598154645260e-01
7.314098778821025437e-01 4.974434906810765167e-01 -1.906562564020383710e-01
-8.473312101609711822e-02 -5.022971055075070579e-01 -9.130258854637257615e-01
-3.507085955415381595e-01 -1.695738913983573515e-01 -7.429138649469768652e-02
-2.777948427750347449e-01 -1.139750792480726943e-01 -6.582317277048309601e-01
1.037753549679677340e-01 6.031249219264814831e-01 3.424096926076503067e-01
-3.672609294203252328e-01 5.327535393522258023e-01 6.295497395562714704e-01
-5.646272607463860282e-01 -3.239225853815642653e-01 4.801769482553525648e-01
5.237456022605990746e-02 6.661205813172637047e-01 5.003396479027621968e-01
-7.001801773298951259e-01 -2.971398556095723453e-01 5.086653961032907567e-01
6.750320999519557885e-01 4.233461607239479285e-01 -3.319463057411255469e-01
4.897011061985488412e-01 -4.916551182779587137e-01 -5.182546303571048396e-01
7.574007206822976068e-02 -6.753635096991894571e-01 -6.155706668299150142e-01
6.033150141523190291e-01 -3.435770961780170718e-01 -3.187528374534757680e-01
-1.043965639962862180e-01 -2.375341261055199660e-01 -3.220215107747596561e-01
-2.732982709040618352e-01 5.039199809975946076e-01 4.128259973844654040e-01
3.555362486373039865e-01 3.019342282791409038e-01 -4.036605265295717393e-02
-8.521125238928312084e-01 -4.789832417570072942e-01 -3.300942788863250876e-01
-8.996119426445660094e-01 -4.368350833008766698e-01 1.085519860152376753e-01
2.757996291207627237e-01 -4.065998505968966281e-01 -3.455571844553179672e-01
1.777616492150573269e-01 4.795787595024293970e-01 2.120340373360116992e-01
4.021522097882049840e-01 7.834620567041318540e-02 2.697015886621531924e-02
-4.756833394643221191e-01 -1.643833126432381331e-01 6.781717770730631978e-01
-2.095679590530143410e-01 -6.391817394332133251e-01 -7.922196456342333049e-01
1.955061075394041448e-01 5.841452116002691930e-02 5.502147327903625929e-01
-5.007997110121509277e-01 -2.505901503637733563e-03 8.027879001921990332e-01
-3.810061195041140047e-01 -2.566358095844306075e-01 -7.883275721041389517e-01
-2.076670287941779214e-01 6.013325294929038334e-01 6.015270560298192626e-01
-3.237372855766703084e-01 -4.216239159191781383e-01 -5.429587392500820342e-02
2.413284330223810781e-01 6.950774441493835498e-01 5.790213823064568333e-01
5.150654336279958390e-01 -2.113897057674270219e-02 7.768213847954942575e-02
-6.634099162259664284e-02 6.092489676019092748e-01 4.521930382688088557e-01
4.270696473781462332e-01 4.888846495046015317e-01 -2.852683497056071257e-02
3.586907226529674753e-01 -4.248480480491801936e-01 -8.887589599787300010e-01
6.971818409615205825e-01 4.802921359927776468e-01 -2.316024851064318046e-01
9.873244521131122609e-01 6.317596659914520574e-02 -2.165870989386119994e-01
-7.335278272044064574e-01 -2.800595602228018732e-01 5.120768531604651397e-01
-2.235881051785207629e-01 4.140034946365669932e-02 3.025643908557482664e-01
-5.425935439498842383e-01 -4.936458979988051499e-01 1.730859758646161872e-01
-3.937726040678619643e-01 1.761168821759968584e-01 1.895387702537648100e-01
1.766184709798823138e-01 -9.007532828875050579e-03 -4.456342026597870931e-01
-5.315272186331236881e-01 -6.519573408262431258e-01 -6.009773367366416652e-01
-9.493612461451205187e-01 -3.115166418685575422e-01 -1.570146323629956209e-01
-3.041850302290615149e-01 -1.918814799802720517e-01 -1.863275111817970786e-01
3.589292139469263954e-01 -1.236992624672781788e-01 -2.260393562367125353e-01
1.984539745725859838e-01 -6.058201130982900917e-01 -7.780755081507225723e-01
2.855171711974123783e-01 8.666357829359425113e-02 6.317808158277414821e-01
-7.607261882016812526e-01 1.944350776343766463e-01 1.897911610496233192e-01
2.172243664929617291e-01 -6.234596780235085456e-01 -5.770410329199481270e-01
-2.028065185270155890e-01 -9.325454478185767060e-02 -6.443451146660018614e-01
-3.927923976264215966e-01 3.711106365961833187e-01 3.118382240829025709e-01
-5.946458751594458914e-01 6.928756700017300874e-02 -4.776952906987760872e-02
-2.934453543731807001e-01 -9.594262380238706422e-02 7.079318607125371088e-01
-4.171688395879030731e-01 -7.964995154309072178e-02 -1.554178578307537639e-01
1.352667614829220766e-01 -2.680068893117877327e-01 -9.554858096665549416e-01
3.368953780588918034e-01 2.725437248501664245e-01 8.824178664530455199e-03
-3.138903845270630266e-01 -3.639096273440590168e-01 -5.538650681438516549e-02
-1.269024865549548894e-02 6.265372359739714847e-01 7.351963957871009425e-01
-9.843235378449534112e-01 -1.925311031711546272e-01 7.417235677627016799e-02
3.880226192164031862e-01 1.752257358999580461e-01 -5.914822209700698608e-01
-6.819786676480265042e-01 2.887204386909697496e-01 3.014247774448042261e-01
-2.610321555215860401e-01 -1.476554768686390573e-01 -7.455387833029315514e-01
-9.773995266524687642e-01 -1.332594496634230130e-01 1.965764733308443812e-01
6.518364111232222147e-01 -3.882129299197818045e-02 1.403926061592133123e-01
4.031695185175634411e-01 -2.919158060031421531e-01 -2.724226980300236689e-01
-1.376076623795759180e-01 6.169915047260913221e-01 5.361229542712879770e-01
8.632020583219585097e-02 2.251030518205082431e-01 2.907134325845684986e-01
4.569785552169569609e-01 4.060204013445969928e-01 -1.757982622143073881e-01
2.820867356666469372e-01 4.684146758108254094e-01 8.377612599079646838e-01
2.971801206375365156e-01 -5.840362169591991476e-02 -2.813000483251353878e-01
-4.968960736503113540e-01 4.323590942151843142e-01 4.284979804135455872e-01
5.978114114737626689e-02 -6.543777151422259797e-01 -5.054143779585962282e-01
-5.689509697093794172e-01 -2.031381188290446449e-01 6.380903774675737994e-01
7.923477017891868979e-01 5.754057393481195604e-01 1.850737044113962004e-01
4.360493344065019539e-02 -5.677674519163057321e-01 -3.846367827112302518e-01
4.369327699206328464e-01 2.734887652186833162e-01 -4.050493929023185613e-01
2.809799274514669376e-01 -1.384883600091736319e-02 -8.349701215139351262e-01
-6.398801039918570188e-01 3.264133242887550801e-01 6.593905002682487471e-01
-3.376600179663711843e-01 -2.077493913793098390e-01 3.463097830819908962e-01
9.925756003890521262e-01 1.082438264142519813e-01 -1.076692572120833691e-01
8.524032277885656983e-01 5.175855893601531976e-01 2.943417663771783280e-02
-4.971334705488877348e-01 3.780646844076788748e-01 3.385893549926491386e-01
3.743979455014124769e-01 8.235362091423281683e-02 2.693042071538773174e-01
-8.245104285724458304e-02 2.575334196984529478e-01 9.231099073267051702e-01
1.732082701532889346e-01 3.701929092875145266e-01 1.989140437339633471e-01
4.006299077266254338e-01 -3.944232882295734544e-01 -3.411914252863521013e-01
-6.893707903754576760e-01 -2.939529078473177015e-01 -5.799804610780741054e-01
4.315596050510769888e-01 4.014967985069473055e-01 7.821841577146821933e-01
-4.635611565905923270e-01 -3.181972065926526039e-01 4.110529827916360457e-01
-9.779266477832445625e-01 -1.526280395354996100e-01 5.056285030121682178e-02
-2.887520699684347769e-01 -1.126172718931978539e-01 -4.088201393135590389e-01
-5.313646570287545723e-01 3.535651340684771715e-01 3.175370804593055096e-01
-3.838849689434054580e-01 -1.028859181409708667e-01 -1.944399366066080007e-02
-5.041652866574541925e-01 2.542790157778545002e-01 2.057726565324830004e-01
3.010384029969919717e-01 6.765878148803529113e-01 3.406163010842453431e-01
4.549025153976131164e-01 5.238402373614081675e-02 3.254857225744314797e-01
4.079627958459199344e-01 -3.799228087119543851e-01 -3.300095850204570191e-01
7.690423056129853663e-01 3.315216519845563536e-01 -4.432785141255521921e-01
-2.363105853991576411e-01 -7.464057956669348237e-02 7.076152046371471105e-01
1.722809591361729731e-01 -1.153889213229064431e-01 -8.978929742971065719e-01
2.547599307684504377e-01 2.532706900733809330e-01 1.615298908162154379e-01
5.823044160493484611e-01 -1.164613077047779582e-01 -3.143853092205012995e-02
2.118305062782764314e-01 3.630267753636960970e-01 1.689518022326636781e-01
-5.518169066624759589e-01 -6.615613066381401675e-01 -5.625387767885466905e-01
5.893053054171393246e-01 -2.132377443476672074e-01 -1.537001530987710807e-01
5.586346948151361680e-01 1.484159400814335783e-01 5.692828159336328353e-01
7.906073879276208638e-01 -2.774356856945199845e-01 -4.717223233807028571e-01
-5.917972904928157085e-01 3.897200154847350051e-01 6.260118521725318574e-01
-1.060210466511460059e-01 3.943363236610289979e-01 9.142878487089302064e-01
-3.412285921430923130e-01 1.187925267275116020e-01 8.822831808163171807e-01
-3.346216119609821127e-01 -6.274922451336217843e-01 -2.054609788276119675e-01
-4.974764258028511188e-01 4.388957090393217908e-01 6.885999591666782660e-01
-7.238351051818318060e-01 -5.433810496033256859e-03 6.891652011139556278e-01
-2.364122479586487288e-02 -5.391757193654536096e-01 -3.364780639741394852e-01
-5.600383261455613715e-01 -2.823958533647706881e-01 -6.856783971046979120e-01
2.903110886535369417e-01 -3.539690799229201490e-01 -3.218947186044519571e-01
6.703765867885466134e-01 -1.753285584360368687e-01 -9.445899399776845617e-02
3.262918094709206795e-01 1.575272664610466999e-01 1.507097034321832341e-01
7.563784546831892053e-01 3.548879406950587456e-01 5.143948243883890159e-01
-2.240333388125712588e-01 -1.507925544479339908e-01 -7.732096012741177526e-01
8.871307680521590688e-01 2.423326562373263882e-01 3.026823176031743223e-01
3.541271213890314490e-02 -9.796435166591711818e-02 -4.455919635776212084e-01
1.329425375759276107e-01 -4.086687438470006269e-03 -7.481944586946932541e-01
7.882443074403600036e-01 -1.352302250095444580e-01 -7.164591870885517189e-02
6.417708734923335268e-01 6.208077112703981326e-01 8.385985462270541257e-02
2.037155049358606862e-01 6.759408318733972632e-01 6.530650475053202397e-01
1.298859724475938116e-01 -2.827155957826681942e-01 -9.574600078090210742e-01
-4.002840161436128641e-01 -9.488510035660209507e-02 -1.854873267988884633e-01
-8.378094388049299734e-01 -5.352289753048254939e-01 -2.685810907828777294e-01
9.142748900246143728e-01 4.339898174814937892e-01 1.669797579800743059e-01
5.322724467504637014e-01 -1.463156067682132577e-01 -1.012248001287441718e-01
-1.077785878628594735e-01 3.823105763229425191e-01 3.027661274400457736e-01
-7.369490765237095287e-02 -4.397779634948091876e-01 -2.823271731778562721e-01
9.880776947369388497e-01 6.607900826537549399e-02 -1.898532756561810420e-01
-2.563886719882311205e-01 -2.431510908390251136e-01 -8.447069110685033744e-01
-1.572333819328466942e-01 1.997875358916581801e-01 2.960239409465751925e-01
-6.265338486399309181e-02 6.293940338420254133e-01 4.938972012342049966e-01
4.800371183450389267e-01 3.204276337459159296e-01 -3.797522684552561700e-01
-7.950447388733754631e-03 2.890129452194058549e-02 7.374956490329627190e-01
3.803971842345365562e-01 1.101226983726012743e-01 8.157798851771962123e-02
3.939203068275454744e-01 1.399965026462659523e-01 6.681127552027469330e-01
-3.966319475869686251e-01 -2.355275758331052960e-01 5.081984127771929094e-01
-5.037262714889373383e-01 -5.249334761279951245e-01 8.623830204763663354e-02
-9.732622955627855399e-01 -9.612591689198947409e-02 1.547506430664939148e-01
-1.701639851479063714e-01 5.616894552284014130e-01 4.390865601959380582e-01
1.794430638941505451e-01 8.899953358500763134e-02 4.189468095544758852e-01
3.856553641073566796e-01 2.461419518567937170e-01 -2.376344167645346173e-01
4.082793150769544743e-01 3.561217983779287333e-01 -1.410739194087823056e-01
6.301868391742423414e-01 6.210190585014908615e-01 4.764287468974843232e-01
-1.118878354162170519e-01 -8.962219413640502841e-02 -5.147815403870253936e-01
5.365859862381577861e-01 4.609273630697995339e-01 -1.958374863009010314e-01
2.441121513853947433e-01 -3.306624199251413376e-01 -9.513562260444452523e-01
-6.354439763874958347e-01 -5.770999323163116257e-01 6.102431160071442040e-02
2.377788740074779361e-01 3.654427089149540619e-01 1.446092892566454013e-01
-9.956218435294218738e-02 6.222383992909226169e-01 6.990297600978864212e-01
-3.116065684915856893e-01 -5.255373848813227333e-01 -1.264669122463633888e-01
2.195731665960539980e-01 1.305960071748493434e-01 3.255260689454991807e-01
-3.059711302897422658e-01 4.637902822508723766e-01 3.799532955344313567e-01
-8.027842645235978569e-01 2.045726325776736632e-01 2.925448315872594685e-01
-3.518364230077606902e-01 -2.297660298193399120e-01 7.866722101057006811e-02
1.961763836733569910e-01 1.917352127418746333e-01 2.647866709770171911e-01
-3.621527063892639453e-01 -1.202389095524417084e-01 -2.309664539470468181e-01
4.366410400481028908e-01 5.623417988527082412e-02 3.133671609125480151e-01
-1.917564297765214990e-02 -5.593943301978808735e-01 -3.505531606506799847e-01
-8.146529531658019962e-01 1.212743019398770938e-02 -9.258806227360059926e-02
-7.768537876671528508e-01 2.410052488485105449e-01 3.507214831298833269e-01
-6.450258886434152572e-01 -1.641031806810298865e-01 -5.100987338453051301e-01
9.086767086322710130e-01 -1.217320348438785671e-01 -2.811142246234171749e-01
3.208931143864505731e-01 3.619895328135882551e-01 4.004427327824087307e-02
-1.721921307480371033e-01 -1.098675766597204673e-01 -4.672443324077015236e-01
-1.577299172151615247e-01 -8.438368019597793090e-02 -6.574931623193680519e-01
-6.160826832704708877e-01 -8.617231193353692975e-02 -3.977032091203988595e-01
2.200703771830387831e-02 -5.203643758604040714e-01 -3.461175959811991776e-01
-2.673421538566452815e-01 -8.158257310956329444e-02 7.161795787884736031e-01
2.947522782915574235e-01 -1.198557673771329518e-01 -2.784563793180983571e-01
3.525867720678568240e-01 6.588123554557179240e-01 6.479221984703713577e-01
-3.117382667743421876e-01 -1.312876297402682246e-01 6.561359477927686257e-01
-3.892703558943994557e-01 2.804119065563008273e-01 2.482559645100391454e-01
7.093198061314782699e-01 5.153009844185165722e-01 5.142605443969994194e-01
-2.864596454655038982e-01 -1.378131374101576601e-01 6.091262385697585602e-01
-6.399794878320587410e-02 1.165204001202462258e-01 8.649063626906872138e-01
4.395654753824314587e-01 6.487290147715558675e-01 1.959164219479679059e-01
2.656704494312595588e-01 -7.737548232417801319e-02 -3.086866614188734093e-01
-3.042593043367494143e-01 -2.560173515857283588e-01 -1.072602678022312461e-01
-6.787605950455276593e-01 -1.946305840869921588e-01 6.175615371372463747e-01
3.979149510869514073e-01 8.578207923722666606e-02 1.089413246531518858e-01
1.976222533428038594e-02 -5.600253927185244729e-01 -3.685823556952285696e-01
2.232564209021414281e-01 7.005893683692368534e-02 -6.256299686995443476e-01
-3.823000576784503224e-01 5.259120779144684787e-01 6.223945403147199684e-01
7.701888254628209696e-01 -1.833280309798329677e-02 1.457232856101589591e-01
2.611266530526561436e-01 5.755480940353625563e-01 2.123199510400020362e-01
-2.480558107160774906e-01 5.844382886764807328e-01 6.419531449468198758e-01
8.671226507598013278e-01 -1.588433950731426014e-01 -5.042019226992610070e-01
1.046411500225891272e-01 8.205317724842958738e-02 4.317721153232261799e-01
4.444726938605796790e-02 6.648608951656934662e-01 6.526892184927474139e-01
-4.707189450349963389e-01 7.749779921186228382e-02 6.028966364355574370e-02
7.519635697457063284e-01 -3.030041443007746582e-01 -5.712373197002392766e-01
1.215439787930646109e-01 5.583892319856424979e-01 8.273948461665718845e-01
3.836443081448008829e-01 4.117862929024416196e-01 8.065253386827749837e-01
-3.394231158812119897e-01 -1.388382591487944961e-01 1.751921769922548389e-01
9.187117304244721283e-02 3.464698666776141467e-01 2.483570191467977251e-01
-4.013844464482861918e-01 -3.545385226308991194e-02 4.083810211577126176e-02
3.953617315054033243e-01 4.053588149700533272e-01 -6.535558908976567272e-02
9.115270252402684070e-01 4.564963258288606829e-01 4.893856694708903499e-02
-4.574236453300187244e-01 -5.708540300640057019e-01 -7.430234201941775529e-01
-1.910520729754870972e-01 -3.247934835613536936e-02 3.926173738393480273e-01
-3.339767084972999900e-01 -1.084118621586558778e-01 1.845241492569588138e-01
-5.871928974821654101e-01 -6.911611130102967016e-01 -2.872142721446972469e-01
6.876539514734612002e-01 5.645768068534020578e-01 -5.693430197934994802e-02
-4.368856820657477380e-01 -7.245723771567775806e-01 -4.398697010172374355e-01
-5.771409464891406049e-01 2.678633392737896357e-01 2.180084574793903218e-01
-5.433247463342030237e-01 4.353138819897696687e-01 5.840140634821444632e-01
-4.803204847722263859e-01 -3.161773803951671569e-02 -1.500376120126893642e-01
6.654632469071324330e-01 -1.535823823431276824e-01 -6.168261602348410616e-02
3.910151958165806740e-01 -2.908161265748258617e-01 -2.749976999163216140e-01
6.576178398119592039e-01 -1.780971233212337024e-01 -9.848068500376083723e-02
-7.232624248323050731e-01 2.412332807050585060e-01 6.275746738624108367e-01
-9.530462203746571381e-01 -2.775153395570648107e-01 2.293008468974116476e-01
-2.347612970069248850e-01 6.852579772076921412e-04 8.086493762924379380e-01
7.449309702105160191e-01 5.652145921850940669e-01 -2.060945725652746016e-02
-2.167556678487119470e-01 -3.769992729632810069e-01 -9.032420386643799093e-01
3.590220084990892180e-01 8.897969964636895379e-02 2.742518982837530706e-01
-3.673710266828777438e-01 -2.894304728071226407e-01 -8.142787432416591642e-01
-4.428541397452891437e-01 -6.410784517302170471e-01 -1.485472269222425368e-01
5.860274314813113117e-01 4.256642107327512914e-01 6.762712574926794673e-01
-1.928836912807231629e-01 1.496847649374185019e-01 9.000891764581646637e-01
3.006780668694836178e-01 3.727881456307882702e-01 7.125113553294218360e-02
-5.167323815632803852e-01 1.249254268257764117e-01 7.487004707354594224e-02
-8.107002826935683082e-01 -4.611192317943561547e-01 2.136763266852224064e-01
-9.254445839523989248e-01 -4.068815769011719513e-02 3.996955954568830460e-01
5.044533440620524445e-01 1.502792120095217676e-01 6.096658827401834069e-01
-2.607120536335201244e-01 5.342782456140188208e-01 4.489127834631226888e-01
3.142864027845386765e-01 5.744819221280317301e-01 7.676853279969230170e-01
-3.289917295545131126e-01 -2.199099581718646501e-01 -7.464456188409310244e-02
6.185795377265179695e-01 4.409884073802961546e-01 -2.886794533777124472e-01
-1.578070145680322556e-01 -7.139021901425743888e-01 -4.984831573985367137e-01
-6.150090762649675913e-01 -4.563800531631054258e-02 7.421974259991565015e-01
6.544859982528754561e-01 -3.859824700389153374e-01 -4.589581785662930069e-01
2.320154920578408608e-01 -2.469890943379183246e-01 -3.110312407003652524e-01
-5.207826113305890070e-01 -2.294805152483485877e-01 6.048610699526288936e-01
3.727705429943659610e-01 -1.199558649905704544e-01 -9.042778118158792955e-01
6.366440789267020506e-01 2.040847924506815070e-01 5.679051452859198434e-01
-8.892994499204984749e-01 -4.589094560402065537e-01 -2.457105792430314684e-01
-8.260831898770020221e-01 -3.967264753456160586e-01 3.031084375243382478e-01
-1.426641248746598686e-02 -4.850112747486097498e-02 -5.790258668917219742e-01
1.833864623498178414e-01 5.662298272445107639e-01 2.583772762665884626e-01
-2.590117476200791136e-01 1.974842599099549956e-01 2.614674210129322995e-01
-4.569222774486179639e-01 -6.591319636074698396e-01 -6.533182255517048231e-01
-1.464739310963053820e-01 1.429831405880171991e-01 8.941631752373364606e-01
1.091511443790802449e-01 6.770909532367488382e-01 6.352352386069449741e-01
3.597027534223535827e-01 1.099347541387400151e-01 1.851401761017017200e-01
-6.274498771953836984e-01 1.525483272592978168e-01 6.888825121227076798e-02
7.569391351706367121e-02 -5.632664470876789231e-01 -8.758204670240089529e-01
3.661069058639477847e-01 1.788491253097298228e-01 -1.869402766286490380e-01
-8.242149310993436284e-01 1.758709701120537428e-01 4.827650825847272786e-01
2.058986924860916889e-01 1.550845191823198299e-01 2.987953835984554773e-01
-2.904323029262634998e-02 4.653171322374197866e-02 7.820478115354658755e-01
-6.723128856417026622e-01 -6.208532344607877937e-03 7.261422161164753364e-01
-3.497729471171071580e-01 -2.149181373444545295e-01 4.241482687405447732e-02
7.888992012753305305e-01 7.756365698512702848e-03 -6.714894497028297549e-01
-7.112427457141728970e-01 3.090654976338803039e-01 4.336544865375659974e-01
-6.622479196793783496e-01 -3.242710363001495844e-01 4.863323544295312661e-01
8.269512830720284757e-01 5.391629053441581165e-01 4.085014314648596073e-02
-3.469588945809903846e-01 -5.001206631035139960e-01 -8.369206534173185830e-01
-6.680751437298347861e-01 -1.755588978184755011e-01 6.375856216494910633e-01
4.109426488363692176e-01 -4.019337255320701852e-01 -8.762610592656955300e-01
-4.901172219406298991e-01 -6.452096297648296508e-01 -1.293706223561953694e-01
5.464499273147434000e-01 5.352465700512777369e-01 6.630115409000608695e-01
2.046722236482156065e-01 4.189720500504362510e-01 8.745769830501334274e-01
-2.278848927486312459e-01 -3.498145586699830667e-01 -8.963540743335366434e-01
-4.314056799610372361e-01 4.449657060277578680e-01 4.051259451247082866e-01
-9.074669531760009011e-01 -5.755253422013301146e-02 -6.408418494425427436e-02
7.378492012106880882e-01 -2.182902277640007549e-01 -1.833256160686288216e-01
-3.536286303887815063e-01 -2.244391944160025187e-01 1.671383280939046923e-01
-2.716338581675212804e-01 -3.270923804561677063e-03 8.126572967236238565e-01
-5.601545749811482899e-01 -2.023746106210688456e-01 6.394669827751670033e-01
-4.476190922883894197e-01 -7.566392680296460393e-02 -3.352011533844062030e-01
1.925672884229139292e-01 -5.462370322215192447e-02 -3.848352086779336934e-01
-3.625093073276948186e-01 -7.290907669439083971e-01 -4.512912675115283156e-01
-5.248779073341766077e-01 1.142428571012960303e-01 5.759410787581172725e-02
-8.958673936368144464e-01 -4.778193421613135539e-01 -1.634536566953987968e-01
-4.172492845789330662e-01 5.051638059199441422e-01 5.414263349651041723e-01
2.768279152134854246e-02 -3.676229144531800164e-01 -3.161217995807037440e-01
-1.127805470452150766e-01 9.527495295391856522e-02 8.612440492114248336e-01
2.685859196583084141e-01 7.120297588392161814e-02 -7.050713446027891962e-01
-3.216954334175736729e-01 -5.730912403309319503e-01 -1.557568114754078470e-01
6.057540445802931384e-01 5.154042725749034826e-03 2.362082773563884686e-01
-4.950445125029350191e-01 -3.941796790042300658e-01 -7.667640530335487759e-01
4.113083071936334822e-01 -3.057390589382653068e-01 -2.787286442504482986e-01
1.727844418654258737e-02 -5.389793616869430481e-01 -3.541502573720450298e-01
3.970759649601808550e-02 -1.750801767143775611e-01 -9.085567405702004162e-01
3.787129054946444251e-01 2.369402859192994426e-01 -1.970187457437647949e-01
-5.135134530940332898e-01 -3.813661781922839666e-01 3.451562856105388488e-01
4.609593209671715708e-01 2.927105595793634829e-01 -4.089450394617995532e-01
3.839658161205513065e-01 1.047863022959216600e-01 -3.726259103208728884e-02
-5.528591830827199460e-02 -6.046310340156061391e-01 -3.675777508671667082e-01
9.210549596408895701e-01 9.601228176765733147e-02 -4.732616238588113200e-01
6.044066338012952233e-01 2.270780018210497714e-02 2.835057766141017566e-01
2.119824947323255548e-01 -3.335140122408634111e-01 -9.552750531637699272e-01
-6.834994428767858787e-01 3.348524502916144785e-01 4.807776142344066250e-01
9.628159667435808727e-03 -4.689877827177231784e-01 -9.340011518684810943e-01
-9.051991861827347885e-02 -4.867982182348077336e-01 -9.182621054337311017e-01
-4.041058301471608383e-01 -3.744534840722160696e-01 1.487690168132291546e-01
7.483304104795923672e-02 1.593765282661527283e-01 3.384231573891341438e-01
-5.619987619193894668e-01 -6.964103105798862270e-01 -2.896298033219179557e-01
-7.772213894074082863e-02 -2.157924781391458713e-01 -3.455482865319723929e-01
-2.038284501361133372e-01 4.817702140334211292e-01 3.676554264934578375e-01
5.122971944090819463e-01 -1.168354342559579373e-01 -8.261737184523561262e-02
1.543201330422632744e-01 -3.438712650098488810e-01 -9.590024099167402394e-01
8.092716713314517252e-01 -1.475860414593245518e-01 -1.131462778525821611e-01
-5.066708848467154080e-01 4.302161792621495007e-01 6.922018866859189767e-01
-1.719488302276967195e-01 -8.880398746235668161e-02 -5.451920458686656534e-01
-1.936411434191500913e-01 5.875971225047859070e-01 5.057034295413339597e-01
-2.877007427240188542e-01 -2.033450004979397638e-02 2.523662178631579378e-01
-5.475699651825866043e-01 -3.954048827339314287e-01 -7.297939974391041140e-01
7.540445804191345802e-01 1.644362410533808938e-01 -6.207206025324295551e-01
1.666733316097047113e-01 2.912965643979505970e-01 2.209918402123568770e-01
2.620838649797229136e-01 3.960528499658467760e-01 1.206060865255233205e-01
-2.618651043754928812e-02 4.434535459069058327e-01 3.001873585986466475e-01
6.672477474838358624e-01 -4.370852535427241503e-02 1.315039709069771301e-01
2.758856087849549388e-01 1.155574633028999681e-01 3.113690125827218158e-01
1.209351312928349936e-01 1.959333458715465381e-01 2.986211218629239439e-01
-6.155576174397400235e-01 -5.886793420917040276e-01 -5.969657556657383957e-01
-5.696903706890027452e-01 -5.855329015142680671e-01 2.690009050776265287e-02
9.972382301068352661e-02 2.392078084608941502e-01 2.788100186895823840e-01
-1.035707623106363884e-01 2.781050173133227110e-01 2.950828489998952864e-01
1.418870795047440236e-01 -5.620400257837442348e-01 -4.201843685619466306e-01
1.243684398823990817e-01 1.091750938734613596e-01 7.858668931110659450e-01
-5.725066727224426000e-01 -6.985316744402956246e-01 -3.454499815411625208e-01
5.928556064929823011e-01 -3.267557645138068900e-01 -2.916070857217645251e-01
1.882518853673443293e-01 2.674451985909406249e-01 2.163689111698794965e-01
-9.512263721266827066e-01 -1.930461758908935399e-01 -1.133421562352440876e-01
-2.503368224366853134e-02 6.837923275911846066e-02 4.127993061485418780e-01
-7.483147951905545492e-01 -5.017260371147432702e-02 -2.542159300682969580e-01
7.584217308605902819e-01 5.486346780472867168e-01 3.997644896812066473e-01
-7.199460283658779547e-01 1.251715596467583014e-01 3.829098684951734444e-02
7.912193420228839091e-01 5.335187488031964964e-01 -6.017414877603752960e-02
-8.608624497338075443e-01 8.357139842873596847e-02 4.993218070363033001e-01
2.064117667051056371e-01 6.184014402652191628e-02 -5.906150488386709974e-01
6.715023210494216466e-01 -1.210444824236529132e-01 -7.866915840665567039e-01
6.816806420064340788e-01 -1.527509592594735732e-01 -7.779008223142723777e-01
4.531771401479348094e-01 2.933972902698739893e-01 7.538595953590929710e-01
-9.153044072441369750e-01 -2.312934549631592840e-01 3.636618725816372910e-01
-3.022607934811442632e-01 -6.120208889183004208e-02 2.428749947041342616e-01
-2.041778205973412974e-01 -9.346445418688992257e-02 -5.332400437127919890e-01
4.599657111629730233e-01 4.983757587027350944e-01 7.426383172128100396e-01
-2.480529279963686884e-01 3.398532120240673748e-01 2.957477928282774005e-01
4.102553600042629922e-01 5.795673973115904598e-01 7.191095092767026964e-01
-8.306586813248200141e-01 -5.440412000122517577e-01 -2.696312566321709681e-01
-8.961553364438260560e-01 -1.560343700282446622e-01 4.439130489574659166e-01
9.622530954267866088e-02 1.120646189087325245e-01 3.860124352380709389e-01
-1.785603777260321989e-01 3.391757615678667737e-01 2.979340637458360863e-01
-1.794889277594054200e-01 -9.806780831608413740e-02 -5.042740983781682784e-01
-8.376947487184018826e-01 1.736535726853441763e-01 4.248909617743734657e-01
6.492593596220670449e-01 5.802764101802334595e-01 -2.563185426874464018e-02
-3.806448990355366657e-01 -6.355138635282452375e-01 -1.823462203190599762e-01
5.996740075052383601e-01 -2.879042621818849179e-01 -2.427411220720832041e-01
2.234081947012439562e-01 6.807716024321144865e-02 -5.321564378100762660e-01
-8.113057328626210873e-01 -5.319412804188229371e-01 5.573850978916752852e-02
3.694575389158448186e-01 1.198065633809867470e-01 1.075934648992078330e-01
-8.335238402779849842e-01 -1.525889700456234399e-01 5.309515651132079572e-01
8.782532219409894259e-01 9.362301975956742461e-02 -5.423584868075099763e-01
9.978461789028116868e-01 2.179102368956881697e-01 -6.515867252792820197e-02
-4.154207667486113920e-01 -7.204226526287722532e-01 -5.296175506193028237e-01
-5.072672502055488586e-01 -6.546840670053682976e-01 -6.191891088910306262e-01
-7.634800385491233299e-02 4.565784118209563203e-01 8.930045495173238868e-01
5.181188423375708840e-01 -1.326195711493293183e-01 -9.579035322882881176e-02
-3.392003343648687941e-01 -2.072239971841464690e-01 4.425334702005638277e-01
-2.808066873969309873e-01 -1.488308547709559504e-01 5.463748283154119534e-01
3.146186195823316711e-01 9.063753726928931720e-02 -3.240168860472681933e-01
2.511015500164008249e-02 -1.826133254802105310e-01 -9.094233242834076636e-01
3.329785167470847296e-01 7.713114964683169539e-02 5.495505765607574533e-01
-3.364173588551883261e-03 5.866433301578867221e-01 7.987830051137674303e-01
-5.652994970565158317e-01 -6.803465830923508539e-01 -4.990650837822997454e-01
1.392930174193445225e-01 1.426818517874484972e-02 -5.501878260092432082e-01
3.071987103832380384e-01 1.274240640956003090e-01 7.042584340916110408e-01
-3.317069056449850062e-01 -1.332367351961057378e-01 6.680787900079988573e-01
9.335109709808855905e-02 3.914039574542158700e-02 6.558395969168340223e-01
6.317782924893141638e-01 4.799534751818620992e-01 -2.246317736885979632e-01
-6.603204550037330423e-01 3.349643175223298575e-01 3.886015859254819960e-01
3.700356075671384359e-01 1.511599266169824096e-01 -7.215150103156543759e-02
-7.613469719993429807e-01 4.692984384993163088e-02 6.607417756646190021e-01
-2.867272093498508534e-01 -1.465425609421724951e-01 3.895645211593388169e-01
-6.530111879912642303e-01 -3.951180147680342647e-01 -6.411429749629224961e-01
1.503570429622373972e-01 6.734168703917949861e-01 6.592162441689216612e-01
3.064606654733970093e-01 1.031958367853753750e-01 -6.693797401728585061e-01
-4.202610212890774966e-01 -7.260727226081593599e-01 -4.670174055361354104e-01
4.919265622811724303e-01 5.290790402058144215e-01 -4.536541717541009433e-02
4.355465824156377619e-01 -5.199022146393400545e-01 -7.158508506148153483e-01
3.994204200462572185e-01 6.181269899723774719e-01 6.850695672618415388e-01
1.312932162767491695e-01 5.356980318304889188e-01 8.428850050195949573e-01
-3.702721494761063159e-01 -1.411252072591849260e-01 6.776467656277300744e-01
5.307581016355864545e-01 1.846722428266485416e-01 6.313911617345350225e-01
6.985537476289980230e-01 6.286152270016808208e-01 2.892879363011435223e-01
6.833088817967065687e-01 5.499300910352032945e-01 5.142777156990273602e-01
-9.481651780192889012e-01 -4.410857389319821492e-02 8.413105558268965667e-02
-1.816616928813060694e-01 6.095584315518274288e-01 6.367900405045020529e-01
-3.682967162929000615e-01 -2.419182177291484270e-01 3.972457023538955023e-01
1.581163726450771634e-01 -5.013280920001398494e-02 -4.184182782463202188e-01
-7.539006267622703206e-01 9.543018068045808211e-02 6.646367952244573996e-01
-3.551118191616051134e-01 -2.310810700973229825e-01 1.743520177243209901e-01
-1.551690913729905641e-01 9.853260432150877379e-02 3.262386704392715719e-01
9.843274184953066941e-01 1.322367546182698639e-01 -1.841333184528760533e-02
1.901242980050671105e-01 -4.223212010296613361e-02 -3.966114953833387302e-01
