1.101089518266838985e-01 6.617739325503577685e-01 -3.906057406929792919e-02
-3.741004215421097068e-01 -7.987251678613337402e-01 -4.722669446425906692e-01
-8.699631603290006732e-01 3.444926159909729724e-01 2.946150266769613779e-01
1.474487674288856298e-01 6.506490173255825675e-03 -1.853980160970051250e-01
-3.206250753399478293e-01 7.297397606096675537e-02 -5.970512358611653747e-01
-4.477810024517989151e-01 -1.449830555072496863e-01 2.980823421159435327e-01
-3.438011089887535454e-02 5.663936481119762056e-02 9.757620681163754750e-02
-9.342957911612989053e-01 -2.429646779668499790e-01 -8.857288236065111175e-02
8.039276437207252268e-01 1.871588042209450520e-01 -2.049001319534410337e-01
-3.209460926764107214e-01 -9.948855008740603578e-02 2.814914837477796028e-01
1.248557454088410623e-01 4.503695170736758679e-02 -2.218951759045642222e-02
-7.276987024925758718e-02 2.227531482620497341e-02 4.731895398166188760e-01
-2.052943516616570208e-01 -3.178918935370290688e-01 -8.097540478415523602e-01
2.296723959108643021e-02 -1.836263880686447580e-01 -1.430810314127245724e-03
-1.247389921362215305e-02 -8.206709672562551017e-01 -1.099041418400675263e-01
9.101241872319286441e-02 -4.249124364999968817e-01 1.243041819527240105e-01
-8.299446104587064610e-02 -4.199053280736053662e-01 7.004359803975047927e-02
3.363143734563045495e-01 9.421224822044124703e-02 6.975064470382359438e-01
-3.216925322177063284e-01 -3.809831013074989337e-02 -6.892753415556152063e-01
9.869402678378175198e-01 -2.589432569472056855e-02 1.903154767323394225e-01
2.094935844297269589e-01 2.659367402035415218e-01 -1.214920243680581435e-01
7.265735231925773974e-01 4.911547618110718716e-01 5.319105517923670284e-02
-1.937045318681628603e-01 -5.541210596503231417e-02 1.801289168034579669e-01
4.716447816724144149e-01 5.287220853923241259e-01 6.796027269061980514e-01
-2.011233417299390092e-01 -5.275877095395175020e-01 5.405740236168128654e-02
-1.536256312305719907e-01 -1.449332405808270675e-03 3.744448487919403434e-01
3.478694685513830653e-02 -5.641884153645655708e-02 -1.643459213333217650e-01
9.085265475400073898e-01 1.390103568160251657e-01 -1.152787711402818993e-01
-1.787349268862335472e-01 -8.631211444669234512e-01 -2.800302277448800670e-01
-4.557540142533291622e-02 8.469266128907420033e-01 5.057557722493540853e-01
-1.596531068980200883e-03 -4.920714594131213489e-03 2.479000662354234885e-01
-6.724909830868056604e-01 -3.039554395016708099e-01 1.655568580565035808e-01
-1.058333442600471325e-01 3.446484775823625002e-01 -1.670997070576935306e-01
-3.397315407791649533e-01 7.461543531745409297e-01 -4.864928039595863701e-02
8.088421096631510931e-02 -4.898705044616071674e-02 2.218768686227145515e-01
6.551333523316112961e-01 2.284169546740008883e-01 6.473548539062166096e-01
3.919652929910449196e-02 3.663431544137333851e-01 7.775668702256722797e-01
-8.871594264041064715e-02 2.377418056708668626e-01 -1.301740872297268703e-01
-1.170966228778783647e-01 1.186971842699787415e-02 9.555357447264183068e-02
-7.298483248624756392e-01 -5.663640318770287729e-01 -2.383690625240261485e-01
-1.208967611669285597e-01 5.336321039670692545e-02 5.285631765299313445e-01
-9.167099942392165079e-01 2.182950265073860530e-01 2.357584818207769661e-01
-9.310798209593307284e-02 4.308313140436588473e-02 -2.571124634985144652e-01
3.562945368981221828e-01 3.722365180767658321e-01 -1.502351085587948221e-01
9.195999097037654835e-01 5.290518837807723501e-02 -1.644260782531072329e-01
6.007908174819502900e-01 6.193808532374546205e-01 4.839268139493830279e-01
-8.188044503669037466e-01 4.269440842705654604e-01 3.421606651776114560e-01
-1.243629437939339222e-01 1.981278485347535978e-03 1.191580588286365178e-01
-2.167555000219623940e-01 1.447359801487576314e-01 -4.215042273630703606e-01
1.296244158794108703e-01 6.004491092387065354e-01 7.440515372117001425e-01
1.891607869604500780e-01 -6.538781310055078455e-01 9.087783772361357482e-02
6.605945799664268980e-01 -5.888796299520397959e-01 -4.902029139749570219e-01
2.927454084626757852e-02 -2.448428827465105526e-02 2.973316544774180503e-01
2.270074794272404772e-01 4.062524422538887903e-01 -1.149067618481138947e-01
-3.939199541874403576e-01 -2.557113855379217551e-02 4.151365677657633535e-01
-2.626207277568393672e-01 1.006102154601137139e-01 5.710901727918487047e-01
-3.208646376260186339e-01 6.387342550541854624e-01 6.558280465098744738e-01
5.825887236236387129e-02 -5.273925296483074343e-02 -1.606412595181851144e-01
-2.484062753101710652e-01 2.189141361265740382e-01 -3.781678878712624314e-01
-6.712848686584613755e-01 -2.766750694781368036e-01 1.881308781534075103e-01
7.980106660847160471e-01 -5.202227222478290614e-01 -3.488955276053044008e-01
8.729878324572105663e-01 3.587629678174398262e-01 1.249880044637033810e-01
-1.711565540501300553e-01 -8.627899229060231878e-01 -4.786874740634064485e-01
1.411530640343711673e-01 8.158665426848577158e-04 -2.063696480232486696e-01
-3.297053355035357847e-02 -4.583663061247417181e-01 7.879319465979775505e-02
1.212819775543936135e-01 1.862260865583543687e-02 -1.057531080419328758e-02
-1.861486561738213974e-01 -7.913873654321214035e-01 -1.235975892883594135e-01
-8.195890244456327522e-02 -4.660602162418178707e-01 7.066488430695014311e-02
-3.769545084445744543e-01 -6.829695831780632220e-01 -6.692783546356639857e-01
-4.293766109716849050e-02 -1.677990897827763908e-02 -2.100711578064140272e-01
-2.604855617514428845e-01 2.816435243680610045e-01 6.979844790491306350e-01
-9.661158755530059594e-02 7.645187121508304623e-03 1.839975526983819998e-01
-8.548121082300310647e-01 1.644707661080636318e-01 -4.237503498426742343e-01
9.517500717125934040e-01 1.469224230699534561e-01 -1.632639229088230989e-03
-7.012403138592702978e-02 1.781103440059355059e-01 -7.847897239397461089e-02
5.518824022478197033e-01 -5.772877632950559335e-01 -5.976982265455695886e-01
-3.531308745453546893e-01 -3.487343579012165962e-01 -7.991958933996931025e-01
-8.742813265390535216e-02 2.645244057956632200e-01 7.311699618370950393e-01
6.051118954676564660e-02 4.546805814555051617e-01 -1.099487585811076418e-01
5.023788716184224984e-02 -3.635687201131890950e-02 3.332819979617248629e-01
-6.302590618970835834e-01 7.019493092774452547e-01 1.821100681438981433e-02
-3.397778930588868374e-01 7.041852072241392424e-01 -9.967620184853022425e-02
-7.594189324101566219e-02 1.790507963557282436e-02 -2.306317182235678720e-01
9.812065917356709299e-01 -2.386272849618309155e-01 2.550035313138035789e-02
-2.524825482671889942e-02 -1.575249739933191340e-01 -3.498803701320394449e-02
3.415505751199122697e-01 -4.202682598247410861e-01 2.914615141785324437e-01
5.419197094131216197e-01 -1.211493568776460944e-01 -5.500419150190404283e-01
-2.079391095154649316e-01 4.975294451121789474e-01 7.387167159744144618e-01
3.191199091654204345e-01 -4.730386065554265107e-01 -7.442715880992863964e-01
-7.345783383912258824e-01 2.525263251087039307e-01 4.616368306759619511e-01
-4.698591770175216537e-02 -6.236115713814573830e-05 3.990403316815462342e-01
6.071431953341979160e-01 3.364352218327449906e-01 -1.826392786426025427e-01
2.086679584483364380e-01 -1.239819221683759604e-01 4.340891761887460953e-01
-2.060874784956921169e-01 7.411954695260334347e-01 -4.527891502669119383e-02
1.964594917930462259e-01 -7.691653992574668842e-03 -4.137831681832271902e-01
-8.587755093729178280e-02 1.854535542065667217e-02 1.535626018631267853e-01
9.411895091081898257e-02 3.152645976758116642e-01 -9.395627510815372785e-02
2.728817684437246927e-01 1.672357462338850687e-01 -1.925051170024186797e-01
1.251847937317420723e-01 -3.550023807048134639e-02 4.965816229715230290e-01
-9.599056251246014249e-01 2.795348555265990687e-01 9.068779318422612312e-02
-9.707791143946169488e-01 -9.552888806694731505e-02 -1.091173593158990644e-02
3.666304442843125178e-01 -4.137836438776343329e-01 -7.261486023132016632e-01
1.301624576026423619e-01 3.768971772800268072e-01 -1.048894133442705295e-01
1.039842470013225550e-01 -6.227300399692194816e-02 1.325722445737431143e-01
-6.128253994845425101e-01 -5.613115399526431570e-01 -4.990845981013234539e-02
-9.045715896704465964e-01 4.250225852962408735e-01 -4.146657415788767426e-02
6.580309851991061887e-01 5.570646472261416848e-01 4.931757535218745936e-01
-1.177716848383267151e-01 2.103651369366151269e-01 -1.596847810828604108e-01
7.451592388400588574e-01 -4.831788583386794622e-01 2.217481633695441712e-01
-1.687701309947414741e-02 5.077691692995349101e-03 2.219956728230177700e-01
-1.251679931868290296e-01 -6.434170625668942343e-03 3.161243523612999873e-01
-9.458540624403570518e-02 -7.510801063575966649e-03 -1.270054237878741887e-01
-4.375285478863085720e-01 -2.418099963499095728e-02 4.215325293706798648e-01
-3.660688291264495020e-01 -6.882024020421870780e-01 -6.700470912921407951e-01
-7.509272202370858018e-01 2.945825578371086273e-01 4.514645594422977970e-01
5.517738172063278990e-01 1.884469511935717989e-01 6.933130256657237256e-01
1.213173714547452486e-01 2.900513656804130092e-01 7.680325810218864291e-01
-6.562192137357932831e-01 -4.537128543748884524e-01 4.066165565744955107e-02
2.296850537851487239e-01 1.908383110516522971e-02 -3.602616202079282348e-01
8.014056491010443928e-01 -9.370195279940253530e-02 4.768453096099252164e-01
5.166473130970138106e-02 -3.172165070627575717e-02 -2.252219754407720487e-01
-6.209208923577407280e-01 2.663914111843083132e-01 5.456284723570262729e-01
1.570204065016726214e-01 -3.398790302957533926e-01 -7.743851526348144443e-01
2.883001506663858682e-01 2.414614229372803456e-01 -1.706669149426392751e-01
-3.625546980492090898e-01 -7.113243396874663338e-02 3.468632248679155983e-01
-5.178582741422787378e-02 -4.226427570519695337e-03 3.453228157322265068e-01
1.665015012805360628e-01 3.753490892046242033e-02 -1.448363337572510789e-01
-7.057991100928856509e-02 2.884776905327692820e-01 7.438162686201289509e-01
7.944233765810659875e-01 -5.822555828577198334e-01 -1.797811163806348200e-02
-9.262392535927332915e-02 -8.896237439005567627e-01 -3.581969656515670009e-01
-6.227830449541389701e-02 -4.475252556854484309e-01 7.345959617413125309e-02
-9.007350557941062874e-02 1.287016720807475645e-01 -6.807405805492318385e-02
-2.712221962304883216e-01 -6.204794027317545035e-01 8.256828325297227433e-03
4.321747435285033245e-01 -3.636513149621681262e-01 -6.936781736370059015e-01
3.357958771318746843e-02 -6.455617602635414787e-02 -5.863098609176978782e-01
7.626525775444882582e-02 -8.230315245078321240e-01 -9.387138040106991765e-02
-5.246285714483493040e-03 -1.490158931216831184e-01 -4.193685239696100936e-02
-6.984425221869609013e-01 5.891030676327941862e-01 3.947573271127017835e-01
-6.506259782615664289e-02 -7.595558378888156437e-01 -5.070012837124162480e-02
2.484860562835052716e-02 -1.346152339094066827e-02 -4.472861879985725042e-01
3.674136577123766623e-01 5.309803475775984882e-01 -7.681835936192621395e-02
-2.085010080588878267e-01 1.637886141663606465e-01 -3.799498418802203514e-01
1.750108842203134119e-01 -4.956354111074837698e-01 1.582798521698637051e-01
3.038406048868518838e-01 7.857816118733698119e-01 1.687407227893922002e-01
2.569522021557946179e-01 -1.754824473423061415e-01 4.209686212813318895e-01
2.182906840955380068e-02 1.599885194113665476e-01 -1.673341665473213058e-02
6.644979149772332061e-01 -6.675008890201495904e-01 1.735251380577924885e-02
-6.666180093877438484e-01 -3.023187515478919507e-01 -6.757172266135500482e-01
-8.213820440126595734e-02 2.626077863702079573e-02 -4.499536920638343984e-01
-5.695830708598837999e-01 6.594157507820838093e-01 4.768168674978121579e-01
-5.586417986644321571e-02 6.599644017335465351e-01 7.122752107005162481e-01
-1.862602859034811209e-01 -7.308750430988609770e-01 -5.499009987019211343e-02
1.093024267250198717e-01 -1.922928782944424708e-01 -7.117399771812239484e-01
9.423195915048878657e-01 1.196591018354835889e-01 3.186719530011307144e-01
4.441801640124428130e-01 -5.541527305373925572e-01 -6.753033317194540031e-01
7.838832316875564699e-01 4.915918780183156644e-01 1.995848581483810058e-01
1.336914859193067406e-01 2.165542209440873833e-01 7.431404754821425707e-01
8.470768187536492633e-02 3.833093662999503826e-01 -1.050096268577946079e-01
6.068049283449030717e-01 3.839512833293228788e-01 6.569848269554405817e-01
7.152829123016428425e-02 -1.634054405485356187e-01 -6.970572031527049184e-01
-2.263205470981160539e-01 4.181288291646989563e-03 4.199459654642371254e-01
4.530620831493498146e-01 -4.918076896802302256e-02 6.180715525442135316e-01
-3.307196012512420569e-01 1.527337997118663748e-01 -5.244682462309023796e-01
-6.559910840744331839e-01 -6.386083021114820069e-01 -3.736081173820016699e-01
-1.115556287732234891e-01 1.049472826207133586e-01 -1.109281383251960879e-01
-3.020736714228432485e-01 -8.180613127025111453e-01 -2.457454808594189410e-01
8.842192223269829121e-01 3.167799368864297471e-01 6.191686455194893302e-02
9.366405943213962360e-01 -6.601316408979108043e-04 3.378226035914216330e-01
-1.203148514598094583e-02 3.107033194113875130e-01 -1.069544513697732457e-01
-7.879970093480848092e-01 -5.014802046684900816e-01 -3.649072440380933258e-01
3.075705847125714820e-01 -6.587502279422788876e-01 1.170612324118498748e-01
4.910522147430748663e-01 -7.308770178992793354e-02 -5.301290112618421979e-01
-8.369957803099113691e-02 -1.563865568795297020e-02 -1.415907178973399017e-01
-6.854269324205435332e-01 1.849328787414374897e-01 -5.271590931954071024e-01
4.034147504792702232e-01 6.505750034314966568e-01 6.315596026975843769e-01
-3.560082150089396436e-01 -1.906100322995121221e-01 2.130454236974280990e-01
2.876071473530278366e-01 7.951068457493628561e-01 1.778156697277781251e-01
6.089727324112892415e-02 1.770753570146666733e-01 7.118595727628441727e-01
4.133056834016706205e-01 -8.478031985781837587e-01 -2.671416501775338848e-01
-6.711816144874953594e-01 5.459785771908225449e-01 4.647314033455708371e-01
-8.053749812775445882e-01 -6.443479068032192947e-03 -5.446198187538695556e-01
6.831131242140684456e-01 1.665489506973050760e-01 -2.943839205541296522e-01
1.061229219014973579e-01 -3.405071565688882473e-01 1.313360330044774649e-01
-4.878482737851554951e-01 9.530129636768834567e-02 5.236260740440727979e-01
1.471296003340388237e-01 -8.097012855855369867e-03 -3.786182114827236211e-01
2.031797710565939052e-01 -1.339335400956551403e-01 -6.377368616788756661e-01
-5.714856961584205974e-01 1.273380334954475890e-01 5.159346843400290927e-01
-2.702872274678854159e-01 6.100553449298967701e-01 -1.692222156824149115e-01
-8.914469954433091869e-01 2.455457958711235178e-01 -3.230756624433417379e-01
-4.469717442125543672e-01 5.038241593776265903e-01 -2.948286973041413517e-01
8.403847177253328526e-01 -5.414204013495319545e-01 -6.099106375854882606e-02
7.616572539244230444e-02 -1.180419145762613281e-01 -1.786623403841995639e-02
-7.678583112874952377e-02 -4.297059517411622731e-01 7.112793746854860488e-02
1.148631642743214026e-01 -9.007928315879438763e-01 -3.191279673508006232e-01
6.524619162341649403e-01 -2.253830244574219210e-01 4.842414844164295573e-01
3.642538758470342253e-01 -6.128293693448226831e-01 -6.929298163027720614e-01
-2.966624850084637610e-01 -4.968856401096548581e-01 6.453168725665753280e-02
-3.416947474902870541e-01 4.814671984386424408e-01 -2.779089522251864119e-01
4.292258142444443925e-01 -2.814557058088764663e-01 -6.733453833602472960e-01
7.769702497509378691e-01 -6.158814335512353688e-01 -9.049994410663786404e-02
-8.736338967791582033e-02 1.356154479826839326e-03 2.391992928440624666e-01
7.124215316954451982e-02 -2.798895564315369566e-01 8.961405124965800273e-02
-6.982839984131258282e-01 5.774447451638276690e-02 4.161531328473700442e-01
4.853174383955574100e-01 -7.727668929483829663e-01 -4.628720697252335925e-01
-1.760298141222268464e-01 1.991372983423107257e-01 -2.746542471017370812e-01
7.338325342168265653e-02 -8.867559095601799946e-02 -6.748402206218155619e-02
6.038993035540443644e-02 -1.959297047035763184e-01 -7.254793851395247017e-01
-3.409106271159773605e-01 7.885190688476446663e-01 1.719232508449266422e-02
-1.142153023050340860e-01 -1.107741210341996463e-01 -1.881881179693434616e-02
-2.382584878732459457e-02 4.851132256196026282e-01 7.730269188687158843e-01
-9.020154902795053387e-01 7.270718247253001726e-03 -4.337491475355700898e-01
-1.161870559568476541e-01 2.222352413147030137e-02 4.163846417500882691e-02
-8.504856464548095074e-01 3.416818407594345852e-01 3.279936487392721700e-01
9.688338724615082054e-01 2.174026999371901983e-03 2.601975999108139259e-01
3.605586924931100112e-01 -4.959408029638941451e-01 2.507069734113402393e-01
-1.820503194675444636e-01 -2.763204660145809899e-02 2.720089601826697345e-01
4.084052513391618622e-02 -2.510834928711623906e-02 4.044781165844772985e-01
4.491707857108401258e-01 7.591140139253680363e-01 3.266849264766612526e-01
5.611526831923675518e-01 -2.970034479615021872e-01 -6.183996048016419111e-01
1.977431302963536877e-02 9.687035038321417310e-03 1.775935763908400022e-01
-4.615688643575028421e-02 -4.805491109662481941e-01 -8.170493728576340153e-01
4.509181648699318590e-01 2.488831241391986637e-02 -4.426078579230872112e-01
-1.135324255286568468e-01 4.557962699832623921e-02 -8.536528230049175714e-02
-7.255806842052037187e-01 6.008571578500537802e-01 -8.472435500356566285e-02
-5.988183732337263449e-02 9.822734355300186126e-02 1.362233018567862199e-02
7.399911475683115802e-02 -2.016131484573279245e-02 -2.637560065188034319e-01
1.185522391174509971e-01 -2.335537069411379799e-02 -1.570121919771695282e-02
-4.056388171632790973e-01 6.416985278491510458e-01 -1.685153710733092169e-01
5.438503264701435858e-02 -1.560944990839758031e-02 1.895820857961637851e-01
-4.827093490181735141e-02 7.304841574383647007e-02 6.201236263528292492e-02
-9.126224078555286168e-01 1.933888407208444460e-01 -3.301111152970266915e-01
5.274494580759266082e-02 -7.425507939904046895e-01 -7.019683523456272667e-01
5.990480912330270469e-01 6.357850601920048694e-01 4.546481215930889830e-01
-5.894126954862856094e-01 1.701330142973324355e-02 -6.486779464053052946e-01
-3.178141227370537836e-01 3.053270632390049366e-01 6.894854714885653157e-01
-5.644957522591722565e-01 -6.943626163319609468e-01 -4.546382637738739518e-01
-1.291473148858943432e-01 1.781985387413588806e-01 -1.776453911508250327e-01
-8.976213465680578374e-02 5.279582321534830314e-01 7.579149308063890533e-01
3.304193023593950118e-02 -8.814508465693159101e-02 -1.064524728684670407e-01
-7.198968994354333351e-01 -4.398274454767135966e-01 -5.807524588154234779e-01
8.567078671542610602e-01 1.955350687170774038e-01 -1.417335930254611520e-01
-1.900926058046935874e-01 -5.549191463172911121e-01 4.633571446162697977e-02
2.664835600369052093e-01 -3.295360344165905730e-01 2.929100060900424740e-01
-1.673032842418341881e-01 8.509950589397674570e-02 -4.463264777124321681e-01
-5.649133923047523487e-01 5.871507968508581365e-01 -2.140458969786317722e-01
-5.780729429062507821e-03 -1.407449947461097695e-01 -5.014535120685878478e-02
-1.886011779863058075e-04 1.074550416867884745e-01 6.409159853722738998e-01
-2.814655903285355910e-03 8.981637646210306747e-02 5.279133982680084963e-02
2.656513136425107668e-01 8.222539894883038603e-01 4.382479846312998806e-01
-1.829074175677096112e-02 -9.677553577052012274e-03 3.618329852004749658e-01
1.083550714705609208e-01 -7.992148767684462141e-02 1.680845395001511200e-01
4.916543814146023816e-01 -2.544249037567211658e-01 -6.382159470626591613e-01
6.685903419896423172e-02 -4.559265790157496223e-02 3.406890097142321605e-01
1.149660915905780928e-01 -9.311542969333583275e-02 2.312629178063639601e-01
-9.908739284354121102e-01 1.090167879429826264e-01 2.925156741447367328e-02
-2.470702224418408754e-01 -8.601958350123617425e-02 2.197987016107544322e-01
-7.238558799267715838e-01 4.702346815148632508e-01 4.476591610206931415e-01
2.322442466867739863e-01 -5.685230909801074484e-01 1.545447488713618533e-01
-8.108718806732090334e-01 1.939318848166798614e-01 3.798407281746812858e-01
-2.311091253519443889e-01 5.611926985164537030e-01 7.190929499889916476e-01
-2.025397584561275388e-01 3.337482009063809096e-01 -2.540102911121237539e-01
-5.663475210642437974e-01 -5.822508701335294967e-01 -6.281377372610079668e-01
-1.533579183559637127e-01 1.995440374358035118e-01 -2.266359954506148577e-01
1.804059973202508937e-01 -8.370808702205191354e-01 -1.041451301599321394e-01
-2.961713210077835945e-01 4.897679045026887001e-01 -2.521469956342423102e-01
-7.073288531561753301e-01 -5.034709602606949330e-01 -5.740127075560097492e-02
-1.325819508232587707e-01 7.143802927850488871e-01 6.640627113262806969e-01
-2.148289240199102168e-01 -2.094861616512094793e-01 9.125736994621452824e-02
1.941701979793624411e-01 6.038520401713423080e-01 -5.623416070906008674e-02
-5.111661457792633367e-01 -2.029086037506458995e-01 2.621121969852218681e-01
7.448754271017176132e-01 3.348143741621407710e-01 5.580411813451741088e-01
3.377039518605743501e-02 -3.433401762716947747e-01 8.540429171136017239e-02
-7.304071594658255728e-01 -3.375217984292187556e-01 1.072376446213457041e-01
-6.999879758261599028e-01 6.753464810007443475e-01 2.030688097294063577e-01
-7.862798867997117247e-02 -5.052834398548081661e-03 -1.695628041907240591e-01
1.307284258030007862e-01 -1.284264265416247830e-01 2.036383940054693753e-01
9.043565842339679195e-01 1.318643336852944881e-01 -1.288752303429639423e-01
-8.233442663699196418e-01 -1.256278981832392172e-01 2.131585675567043148e-01
1.607387530146093813e-01 -1.115922561172129623e-01 -6.206959070086414121e-01
-7.161419478139318118e-01 -3.839166402285436042e-01 7.265530089877791919e-02
-2.660040805528036678e-01 -6.536116013861343887e-01 -1.213138046302522470e-02
7.247994778070052657e-01 5.292267919964681600e-01 4.128088915746582765e-01
1.122491380545808104e-01 -7.568914452183813646e-01 -8.124993921043547479e-03
9.465902966466748641e-03 -7.380058433708819310e-02 -6.117342655482845837e-01
7.066969463038442756e-01 2.404707895752357730e-02 -3.874592204784375049e-01
-8.288981099942432929e-01 5.077078235844000725e-02 3.134312829657309174e-01
-7.540467942786011069e-02 -2.398095319324172834e-03 2.938050914704157801e-01
-7.892143530697443010e-01 -4.958232920304642133e-01 -1.959575906304160953e-01
6.769713530610190766e-01 6.043599944961767223e-01 2.684452613228255347e-01
3.883260245679747147e-01 7.879974995968470619e-01 3.302245707337265190e-01
-1.134694247962606400e-01 4.811576012282062775e-01 -1.628633957709595681e-01
1.895911468573164560e-01 -7.631967765637585055e-01 -7.625092445856522690e-04
-4.150921167743839013e-01 4.440784109223582798e-01 6.710055503176699521e-01
3.394190867102621079e-01 -7.751966196023912792e-01 -5.795412564670963107e-01
-2.070455755729704861e-01 8.652098202210772859e-01 1.795397967119746752e-01
-1.609055788803948617e-01 2.221583450598617060e-01 -2.334144133715589375e-01
9.718306862729523266e-01 1.176363804759948395e-01 4.669010222505178692e-02
-4.954573717785402676e-01 -6.298250168029153606e-01 -6.057710072550744063e-02
-3.846376171788150611e-01 4.670887186466634033e-01 6.824962417565932915e-01
-8.450087894607177796e-01 -1.967230737546064034e-01 1.353106513458714188e-01
-9.754960379521722125e-01 2.406859155232092262e-01 -1.099722606359919974e-01
2.305246804295791804e-02 -8.700883021355825253e-01 -1.945419599032212898e-01
6.047216692866508314e-01 -5.741111678280439445e-01 -5.561276063286252347e-01
-2.374751280294947267e-02 1.988672643388328110e-01 -5.748702793050367715e-02
7.866987770459175910e-02 -5.414685103300424102e-02 2.826239038057080100e-01
-7.201842370017735862e-02 -2.510512426893299898e-01 2.843344563762713675e-02
2.679098921237925146e-01 7.681947532008225332e-01 1.124838622835651614e-01
-6.085304022735605889e-01 6.333145276170433213e-01 -1.374953858861227007e-01
9.693620308974065791e-02 -2.183137766771650265e-02 -4.410239544762672437e-01
8.608542487591149817e-01 -4.144932360912745861e-01 1.678937782260615241e-01
6.091242305624238185e-01 4.398725312022365719e-01 6.352965254248169602e-01
8.363133525156102310e-01 3.521999421261819974e-01 4.153385838626455495e-01
1.420223383142205920e-01 -5.755851920668166727e-02 -5.385078785296827375e-01
-5.265470428380949475e-01 1.431823119034951741e-01 5.424521886709142704e-01
-6.648700624988687080e-01 -6.307457957608442189e-01 -2.834582276723118799e-01
8.483208944034917320e-02 8.505562482430411020e-01 4.787962508982063770e-01
-1.817297370119228261e-01 -3.490844500042501741e-02 2.292231597308578284e-01
2.859355598309585855e-01 6.465703344668598529e-01 -1.393488990142628843e-02
-1.963405454988288168e-01 1.056198156913008418e-01 -4.538936025996799795e-01
-1.153159839317707130e-01 -6.483989962339389845e-02 -6.525458166163230489e-01
-1.375401496469584595e-01 -3.652700287200416618e-01 6.628165731805012173e-02
6.222557285883533185e-01 5.445611042170355187e-01 2.093213056051013155e-02
4.906415011172482465e-02 -2.579879104725221195e-01 6.350250155870121316e-02
7.379623626459177466e-01 5.273583634091265626e-01 3.806661700546462024e-01
-4.696777893602614995e-01 -7.009018093294264728e-01 -5.802836462030780407e-01
-2.751141879658934586e-02 -5.349827811856540686e-04 -4.605545152268351039e-01
-2.121523942690736741e-02 8.670374983308840391e-03 4.627954009713963757e-01
6.847355009076103727e-01 -4.032660583334736759e-01 -5.417447725823401061e-01
-6.464456225457017036e-01 5.673426430308318308e-02 -6.124675333043831937e-01
3.059985118292108883e-02 1.236478243450065406e-01 1.328963678515752110e-02
1.151437664147518247e-01 -3.111568510446688710e-02 -9.945688809992661583e-02
9.206532396733460230e-03 -2.509578585322475575e-01 3.808849514329012281e-02
-2.792930608605694864e-01 1.263258982489663396e-01 5.941675839156965733e-01
-9.657825724648878563e-01 1.426629969475766424e-01 1.235169874335058232e-01
2.886628863582949966e-03 1.185011496657738528e-01 2.017076503592826753e-02
9.077457108242290018e-02 -8.035843524774356761e-02 -4.675546574491833834e-02
1.081100588351837227e-01 -5.499293966778436016e-02 7.740025669839419031e-02
8.818794843007705664e-01 8.314488428976181400e-02 -2.007603621004034888e-01
-6.070098135963553770e-02 9.557052777139497801e-02 1.643885151364507177e-02
4.504471744444761838e-01 6.657474108498993015e-01 6.404161221117686542e-02
-1.269940065228134518e-01 -5.774485843366874427e-01 4.551885157387911690e-02
8.314462294230010042e-03 7.627050324064067466e-01 1.958235712362729752e-02
1.375672251879159758e-01 -3.493607400072190061e-01 1.583089520391864347e-01
-2.619725546707029618e-01 -2.624325248539375877e-01 1.141121186578009511e-01
-5.488489580393616368e-02 -3.817972985579842771e-03 3.465600731567898829e-01
-5.768477044055045910e-01 -3.661324733606811654e-01 -7.211051191394635129e-01
6.831132971255435282e-02 -7.474460248064094918e-03 1.422834963266028097e-01
-5.614076693897365189e-01 4.719372562068084864e-01 5.873632173638473342e-01
-7.040405266175695509e-01 -2.156163203775347537e-01 2.239025038675303281e-01
-1.842615103950684396e-01 4.782853770155097439e-02 -5.388807941745490382e-01
-2.323236619511057088e-01 -2.666889621590447512e-01 9.599959483139249017e-02
-3.863242284070838584e-01 2.850300729786159337e-01 -4.394050076744938083e-01
1.867949732921505013e-01 3.506608488665415857e-01 -1.123310514826969947e-01
-4.902905091286406392e-01 -7.515869772628804846e-01 -3.151602294886335920e-01
3.902037357269242945e-01 -1.779742666168680765e-01 5.095221148511814846e-01
8.830832466400191372e-01 -1.835914294035926042e-01 -3.197146842561030544e-01
-8.587567785463313674e-01 -4.147883345192444615e-01 -2.377280141021991533e-01
5.102622312755459300e-01 -1.508052113931422911e-01 5.527459041005944318e-01
1.786743975923827180e-02 -2.670069704526275567e-01 5.005387755333414596e-02
3.049039414305813600e-01 -8.515374787181983042e-04 -4.469994926061301443e-01
-5.691353997772176099e-01 -7.649803159957029031e-02 -6.928799082841408108e-01
-4.965388322053046477e-01 -4.105958695341366260e-01 -7.519988191197052307e-01
2.497989163236835064e-01 -5.549104781370555184e-01 -7.553376905808858455e-01
-6.495614140202186915e-02 8.219265192519958907e-02 3.162292716453666414e-02
-1.395402034172106565e-01 8.494593568320097932e-01 1.271005989078946297e-01
-2.066413082162764647e-01 9.845349269498565592e-02 -4.805305739922377528e-01
-2.313540253406135283e-01 3.501899345176363587e-01 -2.752219069433852194e-01
-3.115806216033304987e-01 6.166326738768076465e-01 6.709632815192438926e-01
7.867966864377239355e-01 2.042118642775119786e-01 -2.051498320513533147e-01
-5.593937095288207262e-01 -4.874920240921620795e-02 3.934340776685003593e-01
-7.415399651124239544e-02 2.237408794104036799e-02 -2.529150134600362532e-01
-3.770754927653906241e-02 -4.475813432760517019e-01 7.771185528847404655e-02
7.053286506140958867e-01 -6.422664477983910936e-02 5.523615227778507775e-01
-7.853517962633735916e-01 -2.868928885463793710e-02 3.090582094077175546e-01
-1.000000000000000000e+00 1.249148369843124246e-01 -7.591437627604558092e-02
2.598902223450551552e-01 -1.147304833898680210e-01 4.984962692090890157e-01
4.978987550181556698e-01 2.804700790668954169e-01 7.214976393608600880e-01
3.538375145632670082e-01 -8.648929568179837268e-01 -3.327698863913004512e-01
-6.500733978718178929e-02 1.262538173372687311e-01 -2.667993557559063256e-02
1.415971037694507551e-01 4.513689993178477411e-01 -1.036221726055040343e-01
2.128423030754866274e-01 4.825798692904593318e-02 -2.492036808669023662e-01
-8.254245833896012297e-01 8.122010441446704532e-02 -4.947410973806723455e-01
7.279416216543426188e-01 9.789247848295586085e-02 -3.251122221844237048e-01
9.517464700404457134e-02 -4.957726249645078576e-01 -8.005756754836214073e-01
1.313967046373942238e-01 -1.491359584838014563e-01 1.732563132827448504e-01
1.034547541255683434e-01 -6.127768684611920730e-02 -4.547439086854184603e-02
-7.957721547233312376e-02 1.173296183985734487e-01 6.291278328973670675e-01
3.434003302158782911e-01 -8.683236793696107458e-01 -2.788386259896801223e-01
-9.787795421083765879e-01 2.162777378378518134e-01 -1.332406274424347004e-01
4.504807810393305356e-01 2.872910702146197481e-01 -2.160295501908210125e-01
4.635424280644587225e-01 -6.637516746533367318e-01 -6.084604853117885348e-01
7.301169953452882333e-02 -1.322959279024738845e-02 -3.265989319439512872e-01
-6.581905978843229921e-01 6.804993679526347705e-01 3.203299615163416880e-01
7.127598923087707927e-01 1.527272261815547892e-02 -3.899766445697582795e-01
-5.914823586161967184e-02 -8.456935460362419166e-01 -1.656598982281974330e-01
9.126708502618683383e-01 -2.968187963853822775e-01 2.122995022084756822e-01
-9.850468539195540441e-01 -2.343306901852311094e-02 -2.507208596949078161e-01
8.674488812659075787e-02 -7.045270804600759244e-04 9.188960801629902919e-02
5.031329821187452422e-01 3.415825436451278563e-01 -1.881722872098770261e-01
7.351494311896390743e-02 8.655373063858096822e-03 5.372794181750862874e-01
-1.133808043649522229e-01 -8.671552527716385184e-01 -2.427995227208817886e-01
-4.156452054031536947e-01 8.326771606388372327e-01 2.635510164718992132e-01
2.228261207167262503e-01 -2.783517660416128248e-01 2.763037090071758239e-01
1.192834728090426399e-01 -1.081805208061008550e-01 1.677255262365517918e-01
-1.041891625764335277e-01 -3.010026410957332699e-01 5.039681082528475742e-02
3.240034544883569345e-01 -6.791030479049925406e-01 -6.750026264938254750e-01
4.597751057618155168e-01 7.474456235884421318e-01 3.979204140054912187e-01
-2.190875060652428333e-02 -3.847292219166046912e-01 7.514344215022920881e-02
-5.018117363668005426e-01 5.499426075915645473e-01 -2.599645902122941776e-01
1.474819346682891830e-01 -4.269717051772444205e-01 1.581564457086505893e-01
1.379510294662513181e-01 -3.178168009505127900e-01 1.597086308133887356e-01
-5.267635866302025072e-01 2.086674495973197263e-01 5.752833784349922208e-01
3.661336624073382451e-01 7.069624592609788927e-01 5.933990032984178820e-01
-3.643200370645229280e-01 6.004572680428792442e-01 6.560535535699025811e-01
-8.125839793114275622e-02 1.987593599223901331e-01 -1.042045238538636814e-01
1.064994621873965736e-01 -4.153167107337286251e-02 -1.000657263559912302e-01
-2.763451168675242764e-01 3.501275964412399189e-01 -3.145484630742579335e-01
-1.938381952815710352e-01 -7.300968369444716943e-01 -6.960218726324925997e-01
-2.184055426981255377e-01 4.983551825988706829e-01 -2.093697083446794671e-01
-7.282884332337339339e-01 6.313793253263358940e-01 2.702378591060614621e-01
1.572882758714939655e-01 3.444348771021050748e-01 -1.063118474937619351e-01
1.698060346778740570e-01 -1.738079627944676478e-02 -4.328951634782501334e-01
3.955842099990682925e-01 -4.652571424751831275e-01 2.855295959272707851e-01
2.639307283675124682e-01 -5.771859189981862759e-01 -7.448949587892247370e-01
3.747151888900403516e-01 1.907074501899067853e-01 -2.513793684273215034e-01
-9.999390085974149134e-01 -1.646001261747735700e-02 -1.249884084994845046e-01
7.960789208838164877e-03 1.754003240769158806e-03 2.115690766039906301e-01
2.087121325903724400e-01 -7.070383219821002596e-01 -6.984701174742737884e-01
-5.917431729307822685e-01 1.047528768479114303e-01 4.946646670451975147e-01
4.648964047873115346e-01 -5.117141668416077538e-01 2.676003344593321231e-01
-3.123577134925176191e-01 7.114433726180133255e-02 -5.951902509828279619e-01
-5.884794716080153920e-01 -2.299298368324055875e-01 2.426733983553432117e-01
-1.223047112366551920e-01 2.483567664851180634e-01 -1.723223953769847938e-01
-2.914253018584680444e-01 -4.960542815910295444e-01 6.463551826657956689e-02
-2.606176918778337348e-01 -4.267308190990328765e-01 8.164740161880461311e-02
8.320584542829791153e-02 -1.715376331281976419e-01 4.733847994118300928e-02
-1.091271095373235467e-01 6.401370234807277626e-01 7.157538346984465560e-01
5.499955992133797045e-01 -6.313564117151391208e-01 -5.667005551714785483e-01
1.863396833467369576e-02 7.192808030584471046e-01 -1.869673794193806721e-02
-4.896494309619322527e-01 5.917378572287806254e-02 -6.393982278857957002e-01
3.307682362403140952e-01 -1.618358566892103001e-01 -6.367815858095781101e-01
1.898290164666249780e-02 8.416356257750691183e-01 1.399739998370952698e-01
7.554454096362731574e-01 -2.397622958087341216e-01 4.283826061061174473e-01
1.237159882159249852e-01 -1.109691616255172320e-01 2.092543870608240264e-01
-6.776075960995977532e-01 6.806881231098284024e-01 4.192678900078068011e-02
3.758878566972224944e-02 7.890568936836451011e-03 5.090600199981585305e-01
2.131952288300606735e-01 8.333014752285590188e-01 4.542889888795185183e-01
1.542782709328965884e-01 -1.087456986148444965e-01 3.686362040148192243e-01
-3.513135400872052783e-01 -2.684445537819051819e-01 -7.900469168034721656e-01
1.442496075492196439e-01 -1.727198503150381053e-03 -3.213873511477299272e-01
-5.582292687700302070e-01 -6.362527027855239270e-01 -5.785008599351992853e-01
-1.600897291718670346e-01 -7.317168734247041229e-02 5.441053566930235258e-02
-1.382777474026378357e-02 -1.794630783760405301e-01 -1.631146089458471518e-02
9.114471529280200324e-01 -4.328315448739988303e-01 -8.563795237982339825e-02
-7.920753794085352295e-01 -4.163382244219256817e-02 2.959099577849741425e-01
3.204754709290006942e-01 3.068045130042547086e-01 -1.638627576625837912e-01
-1.055423789923272820e-01 1.079363042805932399e-01 -8.927271697492381031e-02
1.398557789877254709e-01 -2.296467243026179550e-01 1.662772823805441225e-01
-1.825133806380967449e-01 -1.335423906350947654e-01 -7.315437210418933578e-01
-2.802181807346965092e-01 5.260362500080263404e-01 7.127653451349601488e-01
9.722273806871380153e-02 -7.232619286034737416e-02 -4.364163393943323171e-02
3.594597944003061207e-01 2.756408299972810116e-01 -1.928304091134097065e-01
9.772162467501943617e-01 1.200113573502294001e-01 1.241374368716964133e-01
-4.399963370531016771e-02 4.012759866536040887e-01 -1.368284041956118191e-01
-8.357064536040760272e-01 -2.451360768597573847e-01 1.021969435692091088e-01
8.657378902358856543e-01 3.370645935012833716e-01 4.794949293171599930e-02
-8.332278935689056976e-01 -1.245492782425792061e-01 -5.393061970947914396e-01
-7.674132726481629474e-01 1.946688449550013633e-01 -4.789990796091486147e-01
1.092975813605535501e-01 -1.074436204664526440e-02 3.653224521681172621e-02
5.969977016293251948e-01 5.464545708744763530e-01 5.776214403536880093e-01
-1.749984937295153819e-03 1.368515706462279935e-01 6.684152451978313536e-01
4.425062234732571320e-02 -1.278628832805402474e-02 -4.147262625850157702e-01
-6.998679904417258735e-01 -3.174497608551217209e-01 1.423928225174537487e-01
9.075275729144978154e-01 -2.433514152803015473e-01 -2.832494081132987396e-01
9.092277906161805312e-02 6.920053612221126471e-01 -2.304511276752517837e-02
9.373595703947479318e-02 -2.132461210531342785e-02 -2.300033063074950757e-01
9.866919463798609624e-02 1.002406737597358322e-01 -7.917464684200166067e-03
7.656169202420032294e-01 3.360469829600885583e-01 -1.010852922182676750e-01
-4.294248449253333377e-01 -6.202519517987277187e-01 -2.454551632587595802e-02
-5.441230252650580690e-01 7.156176185065221684e-01 -3.864804466946109018e-02
7.148466296721665836e-02 -1.431379800030765578e-02 -3.985700821596334098e-01
4.858214152863687962e-01 -6.243819281614449990e-01 -6.193611432698785668e-01
4.907003592376757983e-01 5.796728112164706292e-01 6.363394605797749737e-01
6.179826146149424160e-01 9.641328451025744928e-02 -3.681254471681931206e-01
3.499338434735418391e-01 -8.608601005356738556e-01 -3.763399202282324274e-01
-8.500414639185690513e-01 5.126637071320990779e-01 -3.988279045955343653e-03
5.199284598510262034e-01 2.831370755848121035e-01 7.135478455514737695e-01
2.620673766775675345e-02 -1.900891498892409992e-01 5.564786914825313111e-03
-4.239791989694755014e-02 -3.067316882363729236e-01 5.093488009869323596e-02
-4.823791934232880552e-01 -3.385912348681057726e-01 -7.651959824772048835e-01
-1.849008980754549697e-02 2.246155288993968435e-01 -7.138785025920614535e-02
-9.774673199127689727e-02 1.044774943835443948e-01 6.098326841785201013e-01
9.586593694329503812e-01 -1.434677503648107144e-01 -1.699119636383235044e-01
-5.762134992244559439e-02 -8.942911805542903547e-01 -3.554406794879820808e-01
9.112952440779201746e-01 2.040982173020227664e-01 -4.190036860677370106e-02
-6.824999343449423828e-01 4.638015153624295284e-01 4.929310213142817365e-01
-1.555092791257501050e-01 9.802922834492869275e-02 5.878941373200915477e-01
7.990511489589904870e-02 -3.852663805677268294e-01 1.170996716161283036e-01
-4.456202360249609251e-01 -5.539549508717767079e-01 2.499986246449720229e-02
-7.335164862769939786e-02 7.360199018401616944e-02 5.759236138858830900e-01
-8.252062660412560202e-01 6.599115240875053079e-02 3.239089951408808954e-01
4.306104352776212174e-01 5.825567043020649649e-01 -3.033831472175858857e-02
1.559853049848355655e-01 -2.187625782234740301e-01 2.004423490389233564e-01
-2.671060278818763734e-01 5.296387224156781093e-01 -2.170532763467714621e-01
2.325689239009888151e-02 -8.747242043673592038e-01 -5.121701973576796574e-01
2.925508149674660441e-01 -5.741284594261589769e-01 1.741708937571043447e-01
1.078625435688631840e-01 -8.579700590150780570e-01 -5.439868345350661327e-01
9.306109343429581904e-02 -5.564505785363525921e-03 8.243174733238310681e-02
4.072046336444082315e-01 -5.667170906312768430e-01 2.123684306026432933e-01
4.459141314021544122e-01 -2.071359967322584650e-01 -6.339708751874100212e-01
-7.447158308444984387e-01 6.260720100283287959e-01 2.219085557983144913e-02
-1.376734124789672220e-01 1.680369580135534779e-01 -2.004517112459548167e-01
-2.025633832015864555e-01 2.239681774541431580e-01 6.851612757087278682e-01
-4.384684787852352605e-01 6.852819948730621835e-01 5.608032175811255016e-01
7.167701992322588200e-01 2.733489000848717265e-01 6.003779589697851859e-01
-9.568290849247781948e-02 1.239207026158561376e-01 -7.568765638115090844e-02
2.254175791549408170e-01 -2.936168300640358275e-01 2.702690059272432888e-01
2.575407418055421921e-02 -5.299802842781484299e-04 1.969215386546863400e-01
-2.565259058640657619e-01 2.753095179526467429e-01 6.965383719416349262e-01
4.185851386803315366e-01 -6.666750900844751193e-01 1.223715789398594073e-01
7.320267270740136167e-01 7.002851170246017498e-02 5.809758897348260565e-01
-8.825853793915248158e-01 1.262891536584651586e-01 -4.128228346320103603e-01
-4.945074959618191157e-02 -5.885251504637033920e-02 -6.155090120585288149e-01
1.428578714516069020e-02 -5.239362525105800694e-02 -1.744514144161564972e-01
6.836674894452370310e-01 -5.389819623792143632e-01 1.998912857747179861e-01
6.671765092868426894e-01 5.733199764930040354e-01 4.519571298263510561e-01
6.878804929172382954e-02 -1.221821808470452408e-02 4.897975861227066852e-01
1.202322906655601403e-01 5.642032911717542731e-01 -8.226711208910650330e-02
1.104526116384104417e-01 -8.408568156617213241e-02 1.586648524580648312e-01
9.285854208087303968e-03 -1.418823655517884724e-02 -2.810713247109981605e-01
5.724578602599925681e-01 5.228475989118818168e-01 -3.467622651739307033e-02
-3.268668189020705085e-03 8.735927594264936147e-01 2.271806903512728903e-01
-3.876099556169030347e-01 1.977170480859946969e-02 4.684010854819305458e-01
8.512584587813883108e-02 -5.614265871552486659e-02 3.534381034405282840e-01
2.278898420168894157e-01 -1.043501260682819509e-01 -5.994153599292777468e-01
-2.984654336577153844e-01 -3.468459847319844969e-02 3.712246353901237361e-01
1.636525388980390738e-01 -7.337684526903460736e-01 -6.902993363133537175e-01
9.161575603373319776e-01 -7.234491656491252864e-02 3.547286351690037698e-01
-6.029375732187047809e-01 -5.707820351851815577e-01 -5.461374968628607274e-02
-3.843561985902157474e-01 -4.962804023936459585e-01 -7.736612864582839144e-01
5.897774216666781116e-02 -4.729069647692354939e-02 -5.398631931728715694e-01
-6.203961833850270974e-03 8.085644583210938041e-01 7.399634646726439835e-02
-4.082201519362169129e-01 -7.935557878095799156e-01 -3.255345558179056908e-01
8.830678158964330171e-01 -3.964080633160453893e-01 -2.783916085262800322e-01
-2.520024823661735913e-02 1.302441635804981179e-01 6.564609178584500659e-01
-1.692528811845152026e-01 3.047174657332429870e-02 -5.532651401240208378e-01
2.995093924500886740e-01 6.630982104982581227e-01 6.698981914672045290e-01
4.378291420131925626e-01 -7.243668156590332696e-01 5.196080831547037621e-02
-3.776297877054080043e-01 7.131919298363268434e-01 -8.973671944099571862e-02
-7.010867783863149461e-01 1.280330056451173260e-01 -5.539300589263215224e-01
-7.285219575483411480e-01 1.273686904281988441e-01 4.302258398829730823e-01
5.673344791977779494e-02 -2.192231967623932062e-02 -2.636024440956188930e-01
2.512921009277142015e-01 8.224753992412134340e-02 -2.486300214725828128e-01
-1.510147772468788951e-01 8.532511866507493936e-01 1.362068978611169212e-01
4.761983630754169396e-03 -7.928004905600166685e-01 -6.544917415844907493e-01
5.352770391902770403e-02 -8.348602986137048099e-01 -1.166602531673941873e-01
-7.222738855645788325e-02 8.840879310313902728e-01 3.671942027669464204e-01
6.744263209882346566e-02 -2.520332956068254138e-01 7.529625060101989564e-02
-2.049653800747106291e-01 2.936116279530691098e-01 -2.709314057251174801e-01
-4.601687618050441519e-02 8.547335315227343466e-01 4.871424565456893840e-01
9.371365078713357610e-02 8.504998869790946214e-01 4.755699568458853221e-01
-1.112475651370850027e-01 1.335883180076506693e-02 4.309994109639066484e-01
-3.942251392961420020e-01 7.838630012491435428e-01 2.195440564397282968e-02
7.833357450060085547e-02 -8.453095135668700633e-02 -6.034663780768734220e-01
1.925436607680700296e-01 4.798774710309612335e-01 -9.910590563956274412e-02
-6.356516859837645361e-01 5.582635191989894219e-01 4.936222702393950335e-01
-1.381087653509076030e-01 -9.842221802958860816e-03 3.025233271595596518e-01
-3.312293820219263177e-03 1.490061608768230017e-01 -1.036097258389930865e-02
-3.184133188437291567e-02 -6.152673270026445262e-01 4.933854877717427923e-02
-9.785266905273973803e-01 -1.379819243451804178e-01 -1.261981402650472761e-01
-1.154287847403363682e-01 7.630490751806291716e-02 -1.408638230332537877e-01
-8.690998778902345734e-01 -3.908712182795851531e-01 -1.837046775575034430e-01
8.696428559757914956e-01 1.805506091722787754e-01 4.465505721582243570e-01
4.928277492247369884e-01 -2.606785807300568969e-01 -6.400769365148794021e-01
-5.776312999275338977e-02 3.256042163637614673e-01 -1.326459901583223189e-01
-3.494464176311762576e-03 6.566197348758920915e-01 7.181891486353646492e-01
-2.750144577711083893e-01 -8.209995411515783048e-02 2.640141116644407204e-01
-2.135336543108924678e-01 -2.851074708437918021e-03 3.979139533001685436e-01
-2.449983769229958641e-01 7.515599390555544046e-02 -5.513685905547023314e-01
5.483780333118226658e-01 -7.700570482381596804e-01 -3.760642710777141184e-01
-6.119246147621917320e-01 1.979831360783112781e-01 5.298830419750697462e-01
7.215719605741964526e-02 -4.692531589237081135e-02 2.597813186432829657e-01
-3.656361893367208737e-01 3.039317129515559657e-01 -4.125393902112403088e-01
-1.164296136329751562e-02 -1.495590145127846660e-01 -4.205012890939617554e-02
5.172129860840128934e-01 6.134537493796963226e-01 3.624772192871687782e-02
8.979948011020033594e-02 -2.840311438230400110e-02 1.258316141926108522e-01
5.996177717579136424e-01 6.553262302636719827e-01 3.977258567371219633e-01
2.151424854420517507e-01 -4.104975809328784697e-01 2.105968938963511117e-01
1.083059255943430721e-01 -1.153586942960597023e-01 7.146704585652959019e-02
-3.268515128877189091e-01 8.170015820826294073e-01 7.202899763850285908e-02
8.789556242355716087e-01 -4.858188029188412194e-01 -4.299771306637843737e-02
1.553660516055034857e-01 -1.423406448416552617e-01 2.851849964774005874e-01
3.050814463716568226e-02 2.695112361270592394e-01 -8.061969908659158413e-02
-1.103382823208403501e-01 1.665744604194109579e-02 1.023624735048196815e-01
-1.131175060793886827e-01 5.000710426055576807e-02 -1.018887699858697232e-01
-2.337256035453223191e-01 -6.233723541472911689e-02 2.485209588680198367e-01
1.895260106368810427e-01 -1.494890874878302134e-01 3.597012588570849267e-01
9.555180859533111970e-02 2.056157337048985512e-01 -5.863344201803715600e-02
-1.995599949043771471e-01 7.453141611324545224e-01 6.203681170997749073e-01
-8.793901028880116710e-01 -2.190131186865323931e-01 -4.671337185110269741e-01
3.163951722023927715e-01 -1.496117852114315638e-01 4.992622809853470289e-01
3.818393845382113128e-01 -1.838264386416820773e-01 -6.397818134087602804e-01
-3.215021093810764841e-01 1.516721663684497401e-01 6.068268973924116905e-01
-7.474386781023861434e-03 -5.331312139962692681e-02 -1.668100840808627305e-01
4.448651209050117905e-01 -2.151359289616071035e-01 -6.385414391802217704e-01
-5.774192074926589591e-01 7.519927151959990841e-01 2.877190828676900458e-01
-2.044764830991793181e-01 -8.238239201025340797e-02 1.473691292858040625e-01
2.483515441967155402e-01 -4.928610740482147201e-01 -7.658419752798705238e-01
-8.494141977055564841e-01 1.853324500215154658e-01 -4.168282972213347426e-01
-2.622020369169256737e-01 4.454556976323097439e-01 -2.566687453374187911e-01
-3.832143106390307197e-01 4.329246514078889940e-01 -3.282930011513421897e-01
6.769216517162154334e-01 -2.718367822523013455e-01 -5.414012044941007851e-01
6.320027519547487538e-01 6.142596952346942585e-01 4.379733877709885426e-01
2.839348132765052990e-02 -1.484609117169260750e-01 -3.121811158164281355e-02
9.442559942273455187e-01 -3.438648998116516919e-01 4.669876483933155242e-02
-8.150205436620002741e-01 -4.124044361350158727e-01 -7.106807354168050150e-02
1.553389655245535073e-01 4.444756552777004432e-01 -1.042801555671735853e-01
-2.839911887406107449e-01 -9.563011306702834391e-02 2.519059107009711806e-01
7.197146593945328297e-01 5.051867934771405583e-02 -3.627503367410523927e-01
-3.861885844162309123e-02 -3.888336871479812773e-01 7.232616677242767467e-02
8.544272930415500733e-01 2.931099343295233139e-01 -4.111412437596091013e-02
-3.130352774479053246e-02 -6.670453044816329266e-03 3.084794862586526243e-01
-1.484453486937838129e-01 -1.222830169983510698e-02 3.023871909191988006e-01
-7.700511013234168090e-01 2.018309423900662980e-01 -4.727672027781313346e-01
-1.738963211884430038e-01 -6.062096220729555618e-02 1.058981354262717861e-01
4.363309814818447929e-01 -1.234486131328287190e-01 5.656110834697541945e-01
-1.921928362075858987e-01 4.917171080780327608e-02 -5.440149081199237013e-01
