1.068935090917747521e-01 -3.565869051653489663e-01 -1.714859044786013753e-01
1.486663148934224687e-01 3.709242947429372550e-01 7.165622220629418171e-02
4.679298611502810679e-01 7.100682283381107851e-01 4.360561091088038244e-01
-8.799916947306339887e-01 -1.352560920807268918e-01 1.624227173536316460e-01
-5.213129058262186977e-01 7.711217394622135179e-01 4.339718316772570028e-02
-8.324402650892746003e-01 -3.844002739185201772e-02 2.298338602978938217e-01
1.662625305230306660e-01 -3.535595318555284083e-01 -1.024774690086048684e-01
2.340106845113763268e-01 -6.257666225138029947e-01 7.839322378895081933e-02
8.109010273088292919e-01 -1.804474078127351472e-02 -2.483569949891793749e-01
-3.634542787896116178e-01 -5.856530890613572682e-01 6.268328725447029626e-02
-2.269383320435977014e-01 -3.274606185487705656e-01 -1.169449843925938204e-01
-1.438235341667953027e-01 -8.095140197312894470e-01 -6.282086360143852334e-03
8.039900342612703588e-01 7.570741847670517388e-02 -2.192364551161474218e-01
4.189424973016498965e-01 2.703875779091043791e-02 -9.048740602381642739e-02
-8.511481264820534021e-01 4.434256850840713193e-01 -5.786848500051112315e-02
1.466972179947537425e-01 9.212076602186046737e-01 2.892980213569005810e-01
9.458726603666228749e-02 -9.469612256692504504e-01 -2.229863406277671212e-01
6.460703208979576839e-01 -2.235894693341997641e-01 -3.612370704579244696e-01
-1.355061762315269147e-01 4.737568889033557107e-01 -2.025615951393918215e-02
4.237556606433822148e-01 -2.601798895035354331e-01 1.446262480136182305e-01
-4.212589698983067454e-01 -8.518211947660938588e-01 -1.671428009616214849e-01
-5.359357788926722987e-01 -2.036991555261861708e-01 1.517503974998519189e-01
-9.098329732762031608e-01 3.951369062548364952e-01 1.121121621346925779e-01
-4.137608147382890733e-01 -6.584147669654246693e-01 4.321626107959311569e-02
5.239188279099309398e-01 -1.874858058673345984e-01 -3.372488755773538349e-01
-2.364550113396189646e-01 -8.717369392913081327e-01 -8.389752827691199233e-02
-6.462716158873534900e-01 -1.417192650904769424e-02 2.644037605759265164e-01
9.035373470714304078e-01 -2.424919986649100578e-01 -1.914728556522320990e-01
-1.625201989648617784e-01 3.395768693211424494e-01 2.941833957360176499e-01
-9.902827059235769225e-01 -1.110191154036143102e-01 -1.936779315175283026e-02
4.428880136619438301e-02 5.414825623604966331e-01 5.218032347692158623e-01
-3.485311725514779191e-01 -8.266896661282422398e-01 -4.230246553443900992e-01
-5.505556967114854094e-01 7.562489995003877086e-01 3.154904610348192029e-01
-4.001051135955328575e-01 -1.885717604250291835e-01 9.112765345422576060e-03
-9.623855328224950600e-01 1.271062413358531665e-02 1.184026944522620362e-01
-6.949818842272594832e-01 1.615688513120549230e-01 -2.926055437886476152e-01
-4.392021672531815635e-01 8.457628364916092156e-01 2.610658276874969208e-01
-7.737508504222798678e-01 -2.424992579245308089e-01 -3.992961031744459155e-01
4.467743897555792043e-01 -3.265089113012124844e-02 -1.727633928132956687e-01
-3.761463823348626737e-03 -3.658708698952025662e-01 -2.105571288981113454e-01
3.966752129196415289e-01 1.639739402708673410e-01 -4.593060306909672874e-02
-5.042508494923250012e-02 3.661261365458752248e-01 1.432487757524860961e-01
-5.543927609967925774e-01 3.581292323606251049e-01 -2.000241784885446739e-01
-1.149665184060396916e-01 3.609334922905566012e-01 1.238653817371700855e-01
-2.798680937848550473e-02 -9.296595716159440359e-01 -3.599113868829765805e-01
-7.017765538039492934e-02 4.947823049741919554e-01 4.931229617060065573e-01
-4.745611879691457036e-01 -8.323980986439680763e-01 -1.911973846296273483e-01
3.500774612265776797e-01 1.844410123224637654e-01 2.864748067772279749e-01
9.188167283014675446e-01 2.846982300697447621e-01 4.912271331511643135e-02
1.809397959296245306e-01 -3.294220697928516017e-01 -2.576580817800459555e-01
-6.117363667447698328e-01 5.418955456505668566e-01 4.125579586596175852e-01
-5.347480380834747082e-01 6.971498186856547319e-01 -4.213669775577686544e-02
1.982314454003855086e-01 -8.565383193736515466e-01 -4.305343177495228879e-01
-5.885652379453677474e-01 -7.648272269029307013e-01 -1.869835050285227063e-01
7.486055856061348823e-01 4.037373991279774588e-01 3.846468045637665423e-01
8.963020600578661679e-01 2.499361854003183392e-01 2.516710802430939808e-01
-8.303279566289986646e-02 -8.986996037071314225e-01 -8.688953099766011379e-02
-9.779222154874211981e-01 1.485001428202906981e-01 -8.779282760544555864e-02
4.089313464031924528e-01 7.293752836068877476e-01 4.819018396816591304e-03
-4.228405324425791312e-01 6.588985188576286234e-01 -8.764760269608340426e-02
-1.952408317705733032e-01 7.057542975849143696e-01 -5.861247282987085833e-02
-2.732730191587435242e-01 5.605908728576033395e-01 5.055896912476202099e-01
8.466324458883365267e-01 4.511945885321532734e-01 1.539726125978621851e-01
5.419219624879950681e-01 -7.041278990380962499e-01 2.857647348289778233e-02
-4.143695469158693023e-01 -1.063449354865325519e-01 -2.287653151907584614e-01
1.229957918646690379e-01 -3.727615398755996234e-01 -1.053342351989772635e-01
-3.658467606850213105e-01 2.999195877271240707e-01 -7.429746614771898239e-02
-3.456676506361723300e-01 3.031855178343924040e-01 -5.269622555206750908e-02
-4.034245479480960128e-01 -6.597341059079478987e-01 -5.102913800800240596e-01
-8.875770941160655569e-01 -1.943266919306625984e-01 -3.127909393601981947e-01
3.690274686344217070e-01 -1.367819909985123483e-01 -8.153259745572084480e-03
2.586509499968512316e-01 2.668991015615900797e-01 1.126393090293228566e-01
2.120356124053700553e-01 -4.454978907347462713e-01 -4.564087594116472135e-01
4.377334899285274528e-01 7.261800238018885356e-02 2.807738052908169135e-01
8.348356525473178413e-01 2.962043885629824236e-01 3.263679736110309260e-01
4.130914650020751089e-01 1.115786561385610359e-01 2.856959052523129761e-01
-5.978517511477006163e-01 -4.686265069998242494e-02 2.355873089965310474e-01
-1.041265572768253350e-01 -8.087714573926404471e-01 -2.100491951350686066e-03
-1.485587865986433276e-01 -7.838083430470352830e-01 8.532110166937249482e-03
-4.262047664107932454e-01 -8.457483095742469592e-01 -3.250958094519617592e-01
-3.739083207868038605e-01 1.589479150492749127e-01 7.055920767857434828e-02
1.985201119807445680e-01 -6.018596626705770003e-01 -5.214537861697878807e-01
6.262862398010468068e-01 -3.943807886350745306e-01 2.007393773073953003e-01
4.055729864385693162e-01 1.364075111415697338e-02 -6.183172803831845504e-02
3.066807598557804160e-01 1.999008071091326055e-01 1.929302186222806581e-01
-3.042136833089282844e-01 -2.560941510594278436e-01 -1.211114689222437812e-01
-3.544246228425986245e-01 2.479326311269664240e-01 2.805902631086595322e-01
1.039048341168853223e-01 3.628268047019996834e-01 1.131351177293444671e-01
6.391939483343225814e-02 3.437746638138491906e-01 2.798790827136526937e-01
-4.684145335525944365e-01 -5.238872444848019505e-01 -5.120502411816905131e-01
6.673376499871659373e-01 6.189645935600163185e-01 3.399255834491241024e-01
2.384935594191859576e-01 -5.166814128380684545e-01 7.282728948087778542e-02
4.104452153485133037e-01 1.478174793353693450e-01 -6.418365666647590784e-02
4.062959443977744445e-01 6.793233532790342311e-02 -5.271006542004250811e-02
-5.330387333165927943e-01 -2.603183928655089519e-01 1.401692123559596936e-01
3.887724455302622451e-01 6.518185355483926968e-02 1.778709785816690869e-01
-8.589012003559574060e-01 1.461528120358254190e-01 2.625314990793116698e-01
4.892368070007092618e-01 -3.227042642262087924e-01 1.876880706610736249e-01
-2.403445888226564409e-01 3.138882076969992108e-01 8.497123858303533284e-02
-2.569995124547760912e-01 5.202146449245059756e-01 -7.952354208819081838e-02
-6.936051738549824375e-01 -6.467305163941652335e-01 -7.574476324762711987e-02
5.402563690280863806e-01 -1.631648595138255886e-01 -3.281258406826979002e-01
-2.617318939356843011e-01 -7.215438968825923505e-01 2.821846742441177364e-02
4.960997680248514508e-01 4.214871028312654477e-01 4.896904493614924192e-01
8.009028903542978473e-01 5.166474315257562067e-01 2.038151954526891962e-01
1.871025680771201682e-01 -8.526440605597566114e-01 -3.029521850330502142e-02
-2.282819777868794545e-02 -6.857665375587471690e-01 -5.419322943921489610e-01
4.067703637114274962e-01 8.990391653762480617e-02 -5.347760804663794637e-02
-4.028842946433600636e-01 8.000257047831387247e-01 3.877278333249256081e-01
3.869198476376385920e-01 -6.045133667152852164e-02 -2.801021859377166370e-02
3.931092489339968465e-01 -4.508109267612007698e-01 1.307307948161840205e-01
-8.796153441184520472e-03 -6.422611132648160526e-01 -5.423947769819147391e-01
3.969570206671997337e-01 7.707995261733621151e-01 4.243804029731751415e-01
-1.742509799092169520e-01 -3.777507323251779736e-01 -8.481302352387452836e-02
-4.257154379520881604e-01 1.180130069422303911e-02 6.267935688741628486e-02
6.287612687659201172e-02 8.951098195436628657e-01 9.656887549276509108e-02
7.888385647057315486e-01 -5.204564471555652716e-01 2.795632073643345220e-02
-6.510247361193109983e-01 -7.195010006598679952e-01 -2.262386773573118182e-01
5.443538025575389572e-01 3.339141846944951864e-01 4.663349299205583609e-01
9.287024411107052124e-01 2.479854193055591183e-01 1.678009040993621859e-01
3.926674567544944372e-01 -4.404808857757268603e-01 1.306408585044616932e-01
-3.397777558147064836e-01 2.733887377241746020e-01 -2.289179695812908547e-02
-8.280532116781831320e-01 5.114430666534089953e-01 5.502121716328833715e-04
7.311028269869612739e-01 9.810351064533563703e-02 3.753785294830601638e-01
-5.703788204884487414e-03 8.797868344729168344e-01 4.198700114722400678e-01
-3.736673668663653691e-01 -2.142266772677043352e-01 -2.351006917728801909e-02
-1.697247756633302185e-01 -5.702439208358547340e-01 -5.362094873621482405e-01
-9.339961046478978401e-01 -2.120263397515282366e-01 -2.477465658656924641e-01
1.969377615134287329e-01 2.926773836968617482e-01 2.525872610841884414e-01
8.963924241922996972e-01 -3.600248668720213985e-01 -1.483348762656503950e-01
2.471889242318441871e-01 8.990143758293895893e-01 1.990450268201522099e-01
1.963446900607025425e-01 -7.328038438116443176e-01 -5.099113949799967127e-01
7.422248877853589999e-01 -4.914071379151379038e-01 -3.230399175539948042e-01
-1.670749249803882286e-01 -4.434415260782272883e-01 -4.738823490974073960e-01
-2.296698693367622834e-01 6.933115825435816060e-01 -6.507677256729089976e-02
-3.775808494193890197e-01 1.520244851459589264e-01 6.601502246081149272e-02
-6.736430575728650227e-01 3.105811752085220756e-01 -2.348422721391082713e-01
7.062871212192571579e-02 -6.613187836713406709e-01 -5.378159061473107849e-01
-3.104828618066463042e-02 -4.098631903622071415e-01 -4.101428728561408166e-01
1.728538519007813412e-01 -9.180827207528157174e-01 -3.416154439466675408e-01
1.337388762871719594e-01 3.235869448240809576e-01 2.035412622689148354e-01
-2.074695825240584768e-01 -6.479407086623646395e-01 -5.422793907563324689e-01
3.257588046375194946e-01 -4.045697119382903884e-01 8.846565321648114377e-02
-8.503324070224210773e-01 -6.429241283555593711e-02 2.108921694317939244e-01
2.690556366083060244e-02 -5.893177517401892995e-01 4.121126240181163108e-02
7.577358592791806347e-01 5.319383954807584969e-01 2.990513865244386893e-01
-6.961777279310195077e-01 -6.784965803250558869e-01 -1.724386683396925968e-01
-9.510782413940316316e-02 6.001620370978755226e-01 -5.622666859947467177e-02
-3.295152818315259524e-01 -2.439284277611485086e-01 -8.116742509373418846e-02
5.900306769327853251e-01 3.903137618878682602e-01 4.670406651457026936e-01
9.431482455334694315e-01 2.184761018296189627e-01 5.575257261167641809e-02
-4.523460260768897290e-01 3.597123431600653398e-01 -1.549229644100017789e-01
4.320038366605909452e-01 1.855492725572928936e-01 3.704060419166284590e-01
-2.964171113881989839e-01 8.501761903468523229e-01 3.866603225162443813e-01
-9.311409560591232815e-01 -8.673389632511548097e-02 -2.557731427502111243e-01
4.005843756568914782e-01 -3.503737209006376752e-01 1.312132413059184932e-01
-4.268691364581192471e-01 6.715753339138164080e-01 -8.100623285704504351e-02
5.212678641691744774e-01 -3.516433030906662011e-02 2.915983228467713406e-01
-8.997190667146727217e-01 -1.630804915989843284e-01 -2.992181903814841171e-01
4.224033968297029040e-01 6.595075943447431532e-02 -8.652846715829923263e-02
-5.549740537901847182e-01 -5.183724531533514535e-01 8.836606400551018370e-02
-4.536902397316368019e-01 -8.020164627188302031e-01 -8.713141287552662873e-02
-9.194522522449762036e-02 -4.965147307577866265e-01 2.077024579512199391e-05
3.619927508847524122e-01 -8.680820585070300188e-01 -1.146092712275205289e-01
7.650953959789803804e-02 -7.086959786785851367e-01 4.781243359414064781e-02
-1.512858339565950061e-01 -5.786142541604017975e-01 -5.376984343217569018e-01
4.797130774509431039e-02 4.633462126253216629e-01 4.803268213487646987e-01
2.144532353111854306e-01 7.911499364300588200e-01 8.986895201876886688e-03
-4.075130339374333222e-01 -2.841936683415161036e-01 -4.178748043520545408e-01
4.078937104798058821e-01 -5.582409630907680248e-02 -1.176559712411803099e-01
2.291216547665736181e-01 5.639366229557882804e-01 -5.515868462669611116e-02
-1.892302071959492404e-01 -9.076300600263037532e-01 -3.716662317685566763e-01
1.386534223885372841e-01 8.949172756933281292e-01 1.145026926496255509e-01
-7.507035166206058596e-01 2.722834658734675228e-01 3.459525042113661963e-01
3.240101201967491851e-01 8.030588837115498757e-01 4.296733988530341830e-01
6.320721651648297801e-01 6.774552474069076569e-01 9.677191147627571544e-02
-7.309113149563081224e-01 4.818869836154411890e-01 -1.333351158643265866e-01
-7.037635786466286958e-02 7.466097959310498133e-01 5.157339211464558870e-01
-6.384093452882860786e-01 -3.767159831124721192e-01 -4.638363550337916141e-01
3.934066752126984534e-01 4.289619710995530855e-01 -8.618732985043216221e-02
2.821928009085611366e-01 -4.274522503166421905e-01 -4.488225354934661238e-01
-4.232945046077708495e-01 6.995075797664637163e-01 4.519990223541689445e-01
2.593882484247316683e-02 -4.637826726745047923e-01 -2.292519870732346449e-02
2.851545313914641278e-01 -4.720106906162478411e-01 8.254026397482033817e-02
-7.513736206793449890e-01 5.088308119893679704e-01 3.197848240836734801e-01
-3.813800497235114717e-01 -2.492232000740286502e-01 -3.695724521397829587e-01
-4.561466168827721379e-01 -3.900437499744228709e-01 9.438437737813752670e-02
-5.069949325470374246e-01 -6.996072508529483924e-01 -4.499369408290522232e-01
3.291576084607608088e-01 2.103307576782486310e-01 4.956753870972959580e-02
-2.782915171521959108e-01 -5.478450538756700627e-01 5.093604172232438221e-02
4.599950713105575573e-01 -7.473856002419564382e-01 -4.033444616350719270e-01
3.012513957697182665e-01 6.411869285233326998e-01 -5.335487181995976491e-02
-6.095656257603122574e-01 -9.296997845041495012e-02 -3.799476555077744289e-01
-2.715291592666924658e-01 2.910970893029768414e-01 7.714723212918579709e-02
2.163481297048164276e-01 -3.194255334748814512e-01 -2.773733917698360529e-01
7.200799000658225646e-01 -6.515557561609418569e-01 -1.413717098192807109e-01
4.346308003871985348e-01 -8.294172215352892119e-02 1.765081377100899684e-01
-9.392813844828244996e-01 4.673071002885546138e-02 -2.147065496941314711e-01
-6.014278674280877646e-02 3.892654126614490950e-01 8.999286868157523045e-02
-8.157969143801053757e-01 -4.415891407301621163e-02 -3.409277647573145109e-01
-8.615921617247590536e-01 3.934085397043307064e-01 -9.703215581309572457e-02
3.572130758570254416e-01 -6.058291876055493796e-01 1.028014156761647008e-01
5.633356435124051709e-01 6.824901917140255847e-01 3.888685144256416870e-01
-9.625446557074250897e-01 -1.423275982666587225e-01 -2.024765598659392651e-01
-8.877656435801831170e-02 6.757437167439194203e-01 5.309832981131239471e-01
4.833532234224385271e-01 -6.785784102319672995e-01 6.950839952216751605e-02
-7.988003615621535047e-01 -4.376082214060095787e-01 4.752926639632679140e-02
3.406642565351150065e-01 5.803059704628223958e-01 -6.739130015676110530e-02
4.215369367456091032e-01 -6.629941325688361031e-01 8.570421052478642554e-02
9.147592060533454861e-02 -4.614169891814196567e-01 -4.645444662844266936e-01
6.090972333130221239e-01 -7.428611490510003690e-02 3.154178386332127659e-01
-2.144884894400647113e-01 -3.375523506212214642e-01 -1.134591943399930747e-01
-9.649911244626988571e-01 -4.084710667819368979e-02 -1.956542446073733232e-01
-1.249753677832827342e-01 -4.150395107349624246e-01 -4.367871786617589791e-01
6.007971862488175052e-01 -3.269391589801330933e-01 -4.000741497396408386e-01
-3.731240268641684565e-01 -2.204102010192330596e-01 -1.981458151443841326e-02
5.048484520762493988e-01 -6.029845208994851768e-01 -4.478301433478872329e-01
6.401638373857437836e-01 -6.126338462908630378e-01 6.701532324583439615e-02
3.393550615742290666e-01 1.653404831709765488e-01 8.857646284848692819e-02
9.148890442885088126e-01 -1.560814014418200890e-01 -1.796894958058132818e-01
7.067243141003820561e-02 -3.798757504221677017e-01 -3.499935520460944471e-01
-2.344485962353386466e-01 -3.545885847290943249e-01 -6.708238838480055921e-02
-1.354709840480246286e-01 -4.000071958205062561e-01 -7.634633020333507492e-02
7.691127374051905941e-01 -5.465841953871776182e-01 -2.508159888434364770e-01
8.698085575239060396e-02 6.652816168485902182e-01 5.379409487743087581e-01
-4.754514973009936751e-01 8.351028391623990244e-01 2.026031684771212871e-01
4.662096769235221649e-01 -1.314254050512611849e-01 -2.692969602452902622e-01
3.312898011507989238e-01 -8.596674751539162829e-01 -3.604015668143493722e-01
7.502975660494602961e-01 -1.356561460749142189e-01 2.933781096641144281e-01
4.755016021214804045e-01 7.947553572007292066e-01 1.395476802710509390e-01
3.830102804310451248e-01 6.865163900414125719e-02 1.604028076040374395e-01
8.401298978969108378e-01 -3.482231317430367623e-01 -2.604318130568559209e-01
-1.532857188354074252e-01 -8.706952736136707172e-01 -6.184513036943262848e-02
1.625920832995781870e-02 3.488133374252162522e-01 2.380190350573178071e-01
-2.556867140865227706e-01 -3.806990923816446770e-01 -2.459513529274440918e-02
-3.113730664365936818e-01 -3.122478538657472713e-01 -3.223963269225049721e-02
-9.243417943751224275e-01 -1.947043146807680702e-01 8.566095932882804298e-02
-6.467968958198250240e-01 2.892553889527426092e-01 3.834828326495616779e-01
3.611218800963319486e-01 1.797158873640177235e-01 1.013007959632256788e-02
-3.795173004337341616e-01 -1.410525458106675900e-01 -1.711334877118083075e-01
-5.026436335867556782e-01 5.326317307049072136e-01 4.583939438060284366e-01
-2.238586465077447851e-01 3.439231246032835032e-01 5.175377694687555846e-02
8.937541868495016972e-01 -1.325678296524286648e-01 2.063494600712825477e-01
8.169870121256560536e-01 4.875065815299443606e-01 2.169367064895215691e-01
8.254754048932113619e-01 -8.996870356508758493e-02 2.793771715185476845e-01
1.344497260627715574e-01 -7.946311725046434349e-01 1.795032631504677942e-02
4.367577737317780429e-01 -6.193572368696332459e-02 1.882289573383723325e-01
-6.240479674328667375e-02 3.860380164445405549e-01 3.810861986810751278e-01
4.863510041097857672e-01 -9.118291270515931080e-02 2.384123828970184100e-01
-3.682709130746665838e-01 1.786389181168145102e-01 3.012689528534993541e-02
-4.001520760203223781e-01 -8.589175480319365119e-02 -1.223335607376336842e-01
-2.675435667427031317e-01 -6.825957807583310499e-01 4.055206042519390874e-02
5.945893117442058173e-01 5.668579717537256535e-01 -5.144535967523862496e-02
9.486857133208852488e-01 6.941192158355723174e-02 -6.666268055885600508e-02
1.393716391626193540e-01 5.939378836138402562e-01 -4.856720567706053482e-02
-8.417455382922397478e-01 1.200976293791607419e-01 2.697757519377273483e-01
-4.068082144104234188e-01 -6.356799891109488065e-02 -1.185964989439513007e-01
7.521187093475883989e-01 3.157869822207405863e-01 3.946920070888030874e-01
-4.120008899571657168e-01 -8.321115463873089702e-02 -1.868489892035366806e-01
5.019175288169545057e-01 -3.244741498351410014e-01 1.936563334606907771e-01
9.424883546222785347e-01 2.104470433407950314e-01 1.434770744225197792e-01
-7.019802137370735329e-01 4.521609276576157299e-01 -1.641679879449918777e-01
6.655455658151970821e-01 -4.836269512206773369e-01 -3.859548915018771731e-01
-5.803157406158328258e-02 -4.141118985196861613e-01 -4.207817498683832369e-01
-4.490490047851506961e-01 8.081899699663873671e-01 3.411024129609696032e-01
3.591605122163857855e-01 3.426354461163844123e-01 4.546556625840916244e-01
3.163488123056980572e-01 6.039082518530888288e-01 -6.181138282824605312e-02
7.653226343683007249e-01 -4.379365893715426172e-01 1.338294300064042097e-01
4.327092322588152462e-02 6.191319197772671146e-01 -4.858594318786352978e-02
5.997558587974858302e-01 2.397134994324105761e-01 -1.800722646105201996e-01
2.371760201771762888e-01 -9.188643007834651488e-01 -2.877891165430947473e-01
2.814102342588722938e-01 7.820081918703962742e-01 4.658208225879218456e-01
-9.628144694807724280e-01 -6.590859916669655760e-02 -2.030211438915507371e-01
-1.548828113257353645e-01 4.927424571822411892e-01 4.889301890413368934e-01
2.740238538361089438e-01 -8.194223758481598008e-01 -7.785394929001468803e-03
1.093899018489628977e-01 8.174350223592616871e-01 4.758956995615971075e-01
-3.470388849251006547e-01 2.001934142618591594e-01 1.079124612583294840e-01
4.540135087384302159e-01 -6.604084123113815319e-02 2.120563448770539094e-01
8.823498400322935531e-01 4.936783185215564383e-03 -1.887775625603421159e-01
5.293327041440796243e-01 -1.554960958811171245e-01 2.496302080160043291e-01
-5.449298939260711627e-01 7.071346691687850905e-01 -2.788314234358940658e-02
4.627733536049742913e-01 -1.500064005500618969e-01 1.956296600884914194e-01
3.100932500169071779e-02 5.819662069379895053e-01 5.325433232848678644e-01
-3.884914458277430316e-01 -1.793740385996613340e-01 -1.914688086655487106e-02
7.109318398691131247e-01 -5.386636978731158543e-01 -3.330344319710328294e-01
-5.040197007689932729e-01 8.016375547829542869e-01 2.891307009978021925e-01
1.198577837755664677e-01 -6.097441674803997236e-01 -5.303266191036887234e-01
3.845859596872510111e-01 3.864773962993884454e-02 4.069101994100368658e-02
-2.462304012668184439e-01 -8.502489090140518124e-01 -5.918537139428420996e-02
-7.464978350168000043e-01 6.452147257773639677e-02 -3.264130812224776412e-01
8.878809550741260104e-01 3.734046333802919504e-01 1.387891087209071617e-01
-1.816706323706105131e-01 -3.258749054653478638e-01 -2.680913716223776166e-01
4.206264838672161277e-01 -2.734237898886854312e-01 -3.603960637731616901e-01
-4.954979557363225484e-01 -2.457078819182199336e-01 1.196689667153751357e-01
1.911373374417260351e-01 2.952317912752366880e-01 2.454809148970508448e-01
-2.539538391469650658e-01 -8.234278583070260282e-01 -3.351453727710361485e-02
3.163008033107175265e-01 -7.240065275536133882e-01 5.684914610982886446e-02
-2.809676804037186115e-01 2.728211023531351143e-01 1.072809196419116512e-01
-2.395761525619055921e-01 -3.219554103580938853e-01 -1.098807745620455356e-01
-7.164826321925501507e-01 3.254591106259982491e-01 -2.252565944399352316e-01
-9.588481858248641965e-01 1.921811185281986356e-01 1.313580577055432352e-01
-2.258106901065112249e-01 3.732457417378712283e-01 1.295543142383705562e-02
-1.835187001147658981e-01 3.215223995639479027e-01 2.135078400120498376e-01
-7.800239982608837552e-01 -4.722183763260698885e-01 -3.634894623977346639e-01
8.886157142897176398e-01 3.371210813956783681e-01 2.154393149382559935e-01
-6.995508278053973461e-01 -6.540134553443950338e-01 -9.953346311426740367e-02
1.534033635084772751e-01 3.139322771454952643e-01 2.537823753539842353e-01
4.832397249829397667e-01 4.435007798357857300e-01 -1.081565158529820825e-01
-6.307667244191914602e-01 -2.084358541681063937e-01 -4.276062766747303900e-01
-4.866795601087783307e-01 -6.244948764234772298e-01 5.076791719583798740e-02
-4.773410668188755174e-02 -4.945477373269707710e-01 -4.965092189307561688e-01
2.904332692189260934e-01 -3.369190710602582017e-01 -3.670959492884809938e-01
-5.136123583095992817e-01 2.296646204961030058e-01 -2.062393311128580820e-01
1.816231784576148242e-02 4.686956761276890870e-01 4.814087536138678125e-01
4.844284315400971264e-01 3.388454837204949444e-01 -1.234274032783755776e-01
-3.935474928389061100e-01 5.629291994797153142e-01 -1.168923192984834408e-01
1.737550842511779645e-02 -5.108264939052001852e-01 -5.021365280271379294e-01
-4.145795310236518594e-01 6.235493308509487687e-01 -1.026320500102824163e-01
-9.745211127365516202e-02 8.135671087644577026e-01 -1.852915423888993685e-03
-2.520066950507111603e-01 3.244502458544376022e-01 3.263237735374360793e-01
-2.212218394862002779e-01 -4.556543847259338920e-01 7.175161816954533749e-03
-5.030388101183179694e-01 8.096903564026749489e-01 1.132406833121129275e-01
5.938154747645264520e-01 7.318362095979185078e-01 2.331333206981088535e-01
-3.473318372459995307e-01 -8.913736066458241014e-01 -2.531098646075078951e-01
1.224190607212199619e-02 -5.298846362169959967e-01 -5.125090079117565756e-01
3.036209816519637172e-01 -2.520077985742639748e-01 -2.271760454928160866e-01
6.005777427549300329e-01 -7.160157446480363008e-01 -2.957945938744196979e-02
-4.921567999447739039e-01 -4.029784379534077920e-02 -2.863555125369401377e-01
-1.772082223324841221e-01 5.757608319005861341e-01 5.181537694261605376e-01
9.386239604638297873e-01 -2.369775282622613721e-01 -1.100277043233880564e-01
-9.171742369200905909e-01 3.384170715338756241e-01 -5.865136357569628728e-02
4.456687848632356341e-01 -7.305425651133513609e-01 -4.244600428199316600e-01
1.624260946487628143e-01 7.279795548974381525e-01 5.195015221977801190e-01
3.778793894665841147e-01 5.072499983631787446e-01 -8.047429534065285439e-02
5.543526254100861195e-01 4.512497962408911628e-02 -2.277794858245833221e-01
-6.086051069955552562e-01 5.908132298604438226e-01 -1.035564304645522210e-01
4.084933017320519499e-01 8.439573994805557589e-02 2.497946154406647523e-01
3.024148374121377048e-01 -3.286333102576067811e-01 3.344053800248577429e-02
3.996130357882482498e-01 -3.224480062334841163e-02 1.133446359662314273e-01
-9.187145818189153268e-02 9.167230219981903350e-01 3.462279528655851091e-01
7.594001482966140637e-01 3.516530751778774722e-01 3.862694918156263646e-01
2.768954963199765640e-01 -2.740922589270804455e-01 -2.355812410593519368e-01
2.259001202689928656e-01 -7.651525924783553201e-01 -4.904436597796373309e-01
3.208196093458977605e-01 1.811379010929372591e-01 1.652530171964610994e-01
3.622992576387758512e-01 -1.987306771119989324e-01 -2.247699106650490608e-01
-5.845336708660638925e-01 4.104861969108848374e-01 4.248474460134452069e-01
1.373475119446398163e-01 -3.588805049271582281e-01 -1.244047685768810974e-01
1.400546782075382524e-01 3.837348090806372847e-01 6.056722031893655572e-02
2.365880305227838765e-01 7.191017855973989015e-01 -2.970633666886277752e-02
-7.944722984823002210e-02 6.873461099714408551e-01 5.302346814052576462e-01
3.987125541280169272e-01 5.369791294259262417e-03 -4.155305078159296506e-02
-2.414896325118082998e-01 -3.306365359723063002e-01 -9.256839984286115153e-02
-6.182696801008998877e-01 6.553727217390301618e-01 -4.455092839904196272e-02
-9.566954865904298000e-01 -2.713742742617271733e-02 1.166196481064075280e-01
-3.891421094200900876e-01 2.991918095326289162e-01 -9.893378548024153729e-02
-6.976707028564615998e-01 1.953190902459995670e-03 2.761505603831667099e-01
6.995247739066032810e-01 -5.193737436797589702e-01 1.128213695632006575e-01
1.818483276223132883e-01 -3.436726320370093735e-01 -1.047186319297097601e-01
-8.217713540045139542e-01 -3.298222402037854772e-01 -3.659520491103822049e-01
2.644352777533419685e-01 8.081464389438691720e-01 3.373398902642308489e-02
6.077139513735984044e-01 -4.221180896183903686e-01 -4.156459258251226085e-01
-5.836527814353099641e-01 7.275479799595310215e-01 2.349369546953013893e-02
1.415480549685888267e-01 3.291236739068975625e-01 1.612076308158218729e-01
2.785129789247230425e-01 4.229539667264005653e-01 -3.821200884420688365e-02
2.311443066692493165e-01 3.711952980068163876e-01 1.630713657432245056e-02
2.907048282916308013e-01 -3.480830553845582487e-01 -3.803456068728274797e-01
3.391655769574449808e-01 -2.652855045256345967e-01 -3.027317957912044055e-01
7.516002191074533378e-01 -8.045301665432884330e-02 -2.927204449042986600e-01
-7.576037104019607282e-01 4.199845933470245929e-01 -1.620591068920907429e-01
4.949773836167066232e-01 7.985609374359887713e-01 2.226657578263071535e-01
4.578997040257081208e-01 -5.262762263420256437e-01 1.389879335997053766e-01
-9.928835737801012806e-01 -3.031205321828897570e-02 -1.170662911855293725e-01
-9.380682993975220096e-01 2.182496735222393403e-01 1.702517475798601410e-01
-8.493631009852066205e-01 -9.318925884428458373e-02 2.006841576991807152e-01
1.928369936956933761e-01 4.310636601321669037e-01 -4.628952131344911056e-03
-1.000000000000000000e+00 5.828929595009325892e-02 -2.204631738092535306e-02
5.377379798319882331e-01 -7.944437714445179433e-01 -1.344695469743440730e-01
7.017476483700738621e-01 5.837651558576235633e-01 3.311527995855543249e-01
-3.551571160328816923e-01 1.905257131914196156e-01 1.270999712521638791e-01
-7.362485201815553715e-02 5.791154307776253951e-01 5.264887866944715222e-01
-6.600600063558640374e-01 -7.049105570157916389e-01 -1.505115440132054061e-01
4.436978005570095807e-01 -3.207162018492733524e-01 -3.997748667925293820e-01
8.331127322626474818e-01 -2.777975005352625870e-01 1.890051274935214132e-01
6.126678981433645449e-02 -7.229237172359062047e-01 4.351014795383822964e-02
6.275499751898533374e-01 6.869554693075783369e-01 1.105201361130693782e-01
-3.366391899110784403e-01 -2.055190588937330087e-01 -1.821397055968820011e-01
-3.097544126546234455e-01 -8.002456454964497201e-01 -2.553667361026413368e-02
7.799001318487127632e-01 -5.495329132070132516e-01 -2.073350357075556035e-03
-9.019778604418821066e-01 2.512325724296506912e-01 2.224238628941817009e-01
-5.767685457600923993e-02 6.882453215748758346e-01 -5.149509303282844008e-02
4.660531609476417092e-01 7.420477159718822380e-01 4.084443620960622606e-02
3.293831362377116490e-01 1.881163274833311250e-01 2.502760764123773685e-01
3.959716418409865435e-01 -1.076104722241139622e-01 8.744139581532055228e-02
8.760657398163875786e-01 3.435757343944464970e-01 4.679153241805201861e-03
8.026529986891715041e-01 3.905422500225141924e-01 3.351878406048663939e-01
1.854403907799784257e-01 3.056844202686459511e-01 1.645304034695820872e-01
-2.900472568120550654e-01 -2.742624765286619803e-01 -1.149704735517739218e-01
-2.380404755813373685e-01 -4.009870980254848227e-01 -4.539248614182038732e-01
-4.893995508977754816e-01 -2.792534606141030551e-01 -4.419207671846318575e-01
-2.174839994816578359e-01 3.610843512117680731e-01 3.430635666310229148e-02
1.011828839563747306e-01 3.465591305166449976e-01 1.540074271708914422e-01
1.130663271894144645e-01 3.290820852619251169e-01 2.566955365077310813e-01
-5.881522661888957115e-01 -6.848038442868620290e-01 -4.042448615370479725e-01
-5.218479337120895956e-02 3.906675136575495921e-01 3.892155602170780937e-01
2.878127277220564606e-01 6.054090361964269418e-01 -5.984803433736172323e-02
4.061305235156820181e-01 -1.165976441753019954e-01 1.139808423510161040e-01
-5.655076696258137803e-01 -7.015229401826681421e-01 -3.014648831020650191e-02
7.961407377398090901e-01 -5.591323738993568826e-01 -1.452865973013247047e-01
-8.726402608293378771e-01 6.879420786026954615e-02 -2.732810811918340299e-01
-4.943488421528887122e-01 -6.338674770407421999e-01 -4.882261872852217133e-01
6.083607332051705896e-01 -6.847210458156138824e-01 9.643684267625463047e-03
8.418183971982233782e-01 -3.494292097419347543e-01 1.340123541457362011e-01
-1.147304587886745497e-01 4.184465321494227341e-01 3.197607036586978813e-02
-2.302060330011454770e-01 -6.057030673395398246e-01 4.813471903028323368e-02
1.803127671707262791e-01 3.119754374776377293e-01 3.087184033476325085e-01
5.558642265297787655e-02 3.541011857903945126e-01 3.235705641521726128e-01
2.012406685690045216e-01 -7.810493778586602431e-01 2.636428016293923537e-02
2.520357087093360038e-01 -2.827706374273933898e-01 -1.613873286113926830e-01
1.986398117505286942e-01 -7.780888880687665266e-01 2.811098282243295818e-02
1.513895150952133117e-01 -8.234032206091604911e-01 -4.725110616372066308e-01
-6.819059075144046078e-02 5.692707422785703297e-01 -4.693733840054836737e-02
-6.770463387124604493e-01 4.996702329787754415e-01 -1.431925132027568048e-01
-8.192006709280271748e-01 5.480073082039778054e-01 7.348068907855495602e-02
-7.263027883675182705e-01 -1.184871636382288929e-01 2.295916129471395895e-01
4.424959896063516140e-01 -1.912496394060611560e-01 1.662059186494846130e-01
-1.016739145071903355e-01 -9.004645153775850952e-01 -9.259270593646981573e-02
5.250109304627281065e-03 3.706670103132323479e-01 3.534077445899410086e-01
-6.233698624558178247e-01 -6.486625813704861576e-01 -1.153179136454499099e-02
6.278905690581956245e-01 1.427765929194131367e-01 -2.172465279842963892e-01
1.470515506276303536e-02 4.404706452510955272e-01 4.575321887182517977e-01
-2.296322233925692791e-01 7.816728264422388994e-01 -2.348981140168628079e-02
5.773016329323440443e-01 6.480720455280212233e-01 4.695657580962706544e-03
2.922479703974822929e-01 -7.663342215859287876e-01 3.278695294403292937e-02
-6.823521896146315935e-02 -3.593732521254078827e-01 -2.784392449411127179e-01
-3.178788659460209387e-01 -8.988237341928185797e-01 -2.855818251013701459e-01
4.653273112077139367e-02 4.229549553821783103e-01 4.645599063186562488e-02
-5.886067542103382566e-01 6.359392968471253571e-01 -7.600695087931465255e-02
9.367191297044029641e-01 -2.454342536197700875e-01 -1.112947264486577187e-01
-1.228952671700225124e-01 -3.528595401006189292e-01 -1.862420154496714220e-01
3.392648930164532950e-01 6.799805004748507020e-01 -3.841275971370303882e-02
-5.711479771718944720e-01 -1.609761124914452779e-01 -4.019903348846736724e-01
-4.250979228870231386e-01 4.729069542417761035e-02 -1.109415702228952472e-01
1.259960656778297550e-01 -5.283203607145748881e-01 -5.061431923302627256e-01
3.017565203704981602e-01 3.957725242523120190e-01 -3.993781432495037420e-02
1.970404321392731084e-01 -3.534588956580792529e-01 -6.505939664697021896e-02
5.622776660702092366e-01 1.831495793285363438e-01 -1.848947672322612812e-01
-6.588551233683928032e-01 7.086446354668726189e-01 9.134612223639811124e-02
-2.921989385494295210e-01 5.120326731352026206e-01 4.914534250472620269e-01
7.276860360005548145e-01 -1.505672767810186941e-01 2.923866952936811092e-01
2.876633920448395942e-01 4.588588454425203134e-01 -5.243627524799758521e-02
-4.511241593138659023e-01 1.613946032311033493e-02 -1.920784322839743652e-01
4.161347055437760178e-01 -1.550097596114288212e-01 1.324064581058546075e-01
-2.772006039778428521e-01 -6.888437829990881056e-01 3.865848030716653727e-02
-3.966517065391679808e-01 -6.696331896414844387e-01 3.991097698460253917e-02
4.192154366489710959e-01 -3.267339718103003023e-03 1.883939295784195500e-01
3.424835929436390591e-01 -1.994783918419163471e-01 -1.795223460233570656e-01
4.868379651118119322e-01 -4.528883453477632326e-01 1.630641190765183546e-01
-4.569777384242167811e-02 5.339879703479819550e-01 -3.280936490282742451e-02
1.030577746663170757e-01 3.367047685894834497e-01 1.898156711016025511e-01
1.635715664934614400e-01 -4.784676313845813156e-01 -4.779271650885199008e-01
-6.178351930981010875e-01 6.283606123815846378e-02 -3.157314083720084152e-01
6.080000899174330398e-01 1.507678037432207685e-01 -2.100826335973660919e-01
-9.812399335201141826e-01 8.704320952454894234e-03 7.599231201359840648e-02
9.590752790995666910e-01 1.549286907548480009e-02 1.437409601944954762e-01
-2.116920517095223497e-01 -3.875310103997642863e-01 -4.811819509280399615e-02
8.786639003834423312e-01 -1.552957070923812744e-01 2.122221376488309663e-01
5.283920455978353692e-01 -4.414349658198976067e-01 -4.412731549913775919e-01
-6.224909365894907287e-01 5.065183478590728344e-02 -3.221277901620026585e-01
-4.317660557283626854e-01 -6.211762108990560860e-02 -2.144877649105912665e-01
-6.125454725898347164e-01 3.279200363069121327e-01 4.005519282112643964e-01
2.646554039787349377e-01 7.228022686839297162e-01 5.054359313941833021e-01
9.512645909297310354e-01 -1.143910654549392669e-01 -1.065747050626266179e-01
-1.831949270633276561e-01 -5.936003576583940289e-01 -5.406494889612751820e-01
-6.218507444644754550e-02 -8.750802384178983928e-01 -4.457661094207093222e-01
-3.343063086549770691e-01 -4.370021535725885364e-01 -4.968495852249261158e-01
-9.081905924654043796e-03 5.197252280506031719e-01 -2.359107833645813709e-02
1.193067403809471433e-01 5.028432305038457173e-01 -2.258763111233086721e-02
3.250957091326676096e-01 -7.633736616510434780e-01 -4.604678337568654523e-01
-6.149746454968694209e-01 2.245191670488474317e-02 -3.313039434508285308e-01
-5.038459817754774583e-01 6.418733574854413870e-01 4.391775923800731452e-01
3.157709373371021533e-01 -3.949594819987654604e-01 -4.294679484050435980e-01
3.868399928712430991e-01 4.752532835063456584e-01 5.095843828627544259e-01
2.373490963348382776e-01 -5.251092735573166248e-01 -4.992658862150621824e-01
-9.836296336952422559e-01 -1.526622665891509689e-01 -2.854256788714400889e-02
-3.304955220865534171e-01 3.840934275496983852e-01 4.237795975525881498e-01
-4.413133232341587275e-01 4.566638214018516329e-01 -1.444767797002794452e-01
6.419835757369015683e-01 2.757902183377836658e-01 -1.733775750471113208e-01
3.750517855667497291e-01 -1.369899152046358259e-01 -1.343767154069666347e-01
9.220655629364481465e-01 2.189886192772428353e-01 -2.424865082576926206e-02
2.119576016497104753e-01 -7.163350431515989047e-01 5.664635034673550645e-02
-8.532092114071979649e-01 4.833246498194199159e-01 1.719929608806471943e-01
9.368030316717055328e-01 -1.656777058729445029e-01 -1.382778302523182401e-01
2.468762662404262453e-01 -3.849967958213718067e-01 1.910999748761570832e-02
5.472669249949119186e-02 -3.602930692534054291e-01 -2.419016216842853895e-01
1.104402717945061757e-01 -8.596315602684422297e-01 -3.247438398193709663e-02
1.037300978105975408e-01 -9.466500348585213942e-01 -2.503798368378313821e-01
4.846096859451703431e-01 -7.998055038820149898e-01 -3.186670483391739195e-01
-5.861045394623064508e-01 -7.677469223024619982e-01 -2.466586634691141922e-01
-3.362074611791729950e-01 3.334865068222794271e-01 -5.964079263970280265e-02
1.483548525335055823e-01 -8.349499884845373865e-01 -4.641618242797509453e-01
1.773051886691514312e-01 -3.877757996044584599e-01 -3.623820855917222333e-02
-3.854492049274145793e-01 -8.718290096807264078e-01 -1.898201549283115297e-01
3.653681057054767867e-01 1.069741924675557121e-01 7.773776927586728558e-02
7.139495128638312371e-01 -5.780662938251546201e-01 -3.047810734755048157e-01
-3.589084534474876742e-01 -3.471978753270335560e-01 -4.476108127631402422e-01
-9.271290708236581413e-01 -1.162900616876211268e-01 1.234566836946041635e-01
-3.579295569423859846e-01 -1.760738330249514705e-01 -1.503669014174502661e-01
6.113793168905085063e-01 2.563848373550527970e-01 4.396416365300444551e-01
-1.765650551262309687e-01 -3.445112387343582938e-01 -3.397802015201880077e-01
6.182362822980572853e-02 3.964535371517914908e-01 4.141790693189533745e-01
7.453498282470631675e-02 -3.738405469346419707e-01 -1.402219054581987090e-01
-7.214741307295104156e-02 3.625738672528240891e-01 1.456840521163093038e-01
5.334780472169896592e-01 -7.989802168961556150e-01 -2.266653352077574179e-01
3.802147981855709680e-01 -5.109993317211297681e-01 -4.816983225752838882e-01
-3.174073425306549456e-01 -4.272233169418055421e-01 -4.897258101926241225e-01
5.787966513295522697e-01 7.135670655628179038e-01 3.302410109258171467e-01
-8.426350588347991666e-02 -4.093007332204029458e-01 -8.204328978330116540e-02
2.961009176761728728e-02 6.846333517655791567e-01 -4.700021477837618838e-02
6.357526320190776126e-01 6.992758494004308600e-01 2.119969856486491055e-01
8.845627034028051838e-01 3.709211358652607093e-01 1.798212683447032167e-01
7.306101173798456028e-01 -3.146805468197330646e-01 2.220049491410993892e-01
3.846386117182402642e-01 -6.896760217134755011e-02 3.239787468148127517e-03
-1.954530879561647283e-01 4.061037729921377348e-01 3.142996930140526130e-03
6.529618225666414810e-01 -6.780519562500428865e-01 -2.572220485843125862e-02
3.746904028856600233e-01 3.563898062470871597e-01 -7.033963762744901982e-02
8.166194873176248203e-02 4.607577821122997852e-01 7.580126604274218735e-03
-3.689922403201925660e-01 -4.586021872090920715e-01 6.458023729915825240e-02
-9.924188945976911147e-02 7.824510883943620598e-01 -2.166592501870341636e-02
-2.297083346564597339e-01 -8.893719647893640889e-01 -1.097429391974074631e-01
6.911603995694064473e-01 -5.043764621844076812e-01 -3.636083194984074951e-01
1.479643887479565878e-01 -4.332968663014091781e-01 -4.409340840866089462e-01
5.132385726377256541e-01 -6.242809380573546285e-01 9.938028672724182055e-02
2.504971323700592167e-01 -4.396953624354342782e-01 5.338089131596702314e-02
6.814528369871672986e-01 -4.898596986930803809e-01 -3.743317915813939578e-01
-2.136738005110037641e-01 8.997891832041409188e-01 3.411052211479885243e-01
1.409020163672785042e-01 6.751962044422035181e-01 -4.572714411093218440e-02
-6.308913968085017032e-01 -6.691982455653572304e-01 -3.783377998907843653e-01
6.812395023263853600e-02 -4.667588801987839209e-01 -4.692209580809802993e-01
4.574993915915758769e-01 8.132131752700284544e-01 1.721764023463819016e-01
-3.733474278096268056e-02 4.066568667908720403e-01 6.775334526224748022e-02
-6.842633252958134626e-01 5.817261808850525684e-01 -7.807143851562847736e-02
-4.124700034754768541e-01 -4.120806661378111357e-01 -4.931465024663261865e-01
-2.410681950199883294e-02 -5.956024655225429232e-01 -5.369862553792462689e-01
2.033952258282363812e-01 3.408451284214342181e-01 3.898661380167369739e-01
7.195635764036395488e-02 4.557174866563669657e-01 4.773011364629423103e-01
3.309766947553284822e-01 4.998088899513060679e-01 -7.059089025344031376e-02
1.415947897070763684e-01 4.294765644799357629e-01 4.670915542001898846e-01
-1.015373687746760484e-01 3.668466019940271883e-01 1.181132395106466587e-01
-3.879559245460607042e-01 -2.673213985560341510e-01 -3.928180288517360563e-01
3.218491586858559517e-01 1.846271443648746513e-01 2.102881482007040725e-01
6.386669120912248365e-01 1.281699770538725358e-01 3.983761009530809583e-01
-3.839195039846295954e-01 -2.041012138810684162e-01 -3.162340312195595637e-01
-9.627523358395571051e-01 -2.244656750223838759e-01 -2.189699558609603525e-02
2.442421749150211763e-01 -4.162316705840592990e-01 3.752789725854861758e-02
-4.287227460486126018e-01 -8.206613460479690314e-01 -3.769320661282510865e-01
2.083627930255158578e-01 7.949859582108808054e-01 1.089519870787363127e-02
3.201859518573680341e-01 2.747099107086817260e-01 6.974907972643916605e-03
-2.387721155220660224e-02 -3.892264652270412961e-01 -1.276007820627987899e-01
5.257946169019115379e-01 -3.497648933525235315e-01 -4.169045939501166420e-01
-1.435544565860240041e-01 3.412686948205857496e-01 1.599886342195399047e-01
-3.180400914315222316e-01 -2.281855483513216543e-01 -2.117376781991736068e-01
3.010216305597513201e-02 -8.661467378816136709e-01 -4.537879481520012970e-01
7.061729633265748096e-02 -4.260319179973406922e-01 -5.059006387237357377e-02
3.018941143791433190e-01 4.891329373776143741e-01 5.149619425906271086e-01
-7.364181613059609388e-01 2.431981819159980407e-01 -2.579962705966283854e-01
-4.097672809570411800e-01 -3.383718942036167965e-01 6.550336731887981823e-02
1.363298046208449854e-01 -9.364462222573763928e-01 -1.781717077332103383e-01
-3.567560724976212017e-01 -3.004369438328921005e-01 8.591666682616197481e-03
8.199225039041221352e-01 2.016656562977757194e-01 -1.569654542782225604e-01
5.357829217129880250e-01 5.135150329887530063e-01 4.819750938194566903e-01
5.230556740977352348e-01 -4.794758190214700178e-01 -4.477547050793111993e-01
-4.536978179505270492e-01 -2.491567514059956634e-01 -4.123147504175228573e-01
-4.686455134972597469e-01 4.060902680348636440e-01 4.419471457132829739e-01
5.008744227358293832e-01 4.293146509474829453e-02 -1.927594009757534477e-01
-5.322514192785068321e-01 -1.311245418835829124e-01 1.664074387996506144e-01
3.094609335812046821e-02 7.897291841428565329e-01 4.992886756781498847e-01
-1.775490881573168755e-01 5.362103354377013575e-01 -5.910404049346813099e-02
4.308293160377035802e-01 2.433665112039804512e-01 4.121696748778834740e-01
-2.631900279632050643e-01 -5.793423368729154754e-01 -5.371789985831917358e-01
4.615154526954037273e-01 -2.162642965728861222e-01 1.827398590445060977e-01
-5.313555441890339681e-01 -6.159829313000195761e-01 4.790331682785746448e-02
-9.680015891044653209e-01 -2.173762738733278077e-01 -3.557151643019554332e-02
-3.155403322290017409e-01 -2.299080345657294189e-01 -1.953036568860270494e-01
-4.926438199604372681e-01 3.423905521849853195e-01 -1.779894918774289347e-01
-3.730855787878643026e-01 2.470340745663705262e-01 -5.622473366750450896e-02
-4.051642665372576779e-01 8.255642490377040899e-02 5.072405392860120793e-02
-7.364023719877824115e-02 -3.575043846905893719e-01 -2.369587105106579494e-01
7.838321452090055708e-01 1.837626857366120581e-01 3.698128874287190393e-01
5.315715148350546038e-01 6.795689048034145863e-01 9.902643940022498245e-03
1.101154494644846354e-01 9.131927058743180003e-01 3.430164879845977177e-01
2.424890230679958569e-01 -7.466461579722125652e-01 -4.946159489376787399e-01
4.419788935807451580e-01 2.490153731590159236e-01 4.199205054827032657e-01
8.000425304833609641e-02 9.124801594960526563e-01 1.356280374408490308e-01
8.157596470851653514e-01 6.064851467041568189e-02 -2.188275117819260818e-01
3.427173427647111081e-01 2.704839791129871607e-01 3.900629850816573763e-01
5.645989809402101045e-01 6.700052255306826465e-01 1.916821350778679864e-02
9.265338585766919044e-01 -3.076819286437274328e-02 -1.443847627888928675e-01
7.766169591278464512e-01 -5.854489664766502344e-01 -9.518167952940309595e-02
-6.895928963117810007e-01 3.272713781691957147e-01 -2.275266453835300129e-01
9.232953690656381385e-01 1.416197656312715991e-01 -7.854821858103462617e-02
7.324870378152451567e-01 -6.045329548984978985e-01 -2.477699436528282562e-01
-4.105447448329541671e-01 -2.664565204772919027e-01 4.996233901652905735e-02
-3.194571193751357674e-01 8.372736766619158777e-01 4.151583721648521158e-02
3.212532506348025896e-01 2.607902715451485554e-01 3.637083794269305725e-01
-6.498190804971190060e-01 2.147348100672910320e-01 -2.681391514665392162e-01
-2.527298142801300274e-01 -7.011107004803655007e-01 3.565700294925932406e-02
-4.665677111539074939e-01 6.917487869725050253e-02 -1.940504356140270725e-01
7.031496249590465375e-01 4.066749539078939324e-01 4.170333086454542926e-01
3.106720102498283786e-01 -3.471759651324539120e-01 5.362497179833976280e-02
4.332827766459906860e-03 -6.747980073511496979e-01 4.666168294107178593e-02
8.945431007809126478e-02 3.585035457608297671e-01 1.316729116890873741e-01
-9.494170819580751708e-01 -1.370811577218268851e-01 -2.297274461414123559e-01
5.326568188188569170e-02 4.095723807107258807e-01 4.295990111467123951e-01
-1.884749245112035676e-01 -5.027884257720703909e-01 2.002262835260865126e-02
-5.383303624270934229e-01 7.320554164390017382e-01 3.592191250483436904e-01
5.793444720637405676e-02 4.789581898947023464e-01 4.921105706825030235e-01
-6.587228635727332415e-01 -5.715161038825591344e-01 -4.237051975395212944e-01
2.156504473426857915e-01 3.112786238228831825e-01 9.942968878458410820e-02
3.457770066120939290e-01 -2.373299259027731034e-01 -2.664214457443928596e-01
4.903421099257021520e-01 -2.467285548434924869e-01 2.007786819619815366e-01
2.192213328844201115e-01 -9.242000704090718166e-01 -1.823615382444623567e-01
-7.418842970206885878e-01 -4.495963000315871816e-01 7.740252795468000047e-02
-2.117842324540138710e-01 3.704307954209375975e-01 2.791879387571793991e-02
2.828960302910661917e-01 2.407390802884379066e-01 1.123281958876830716e-01
-6.275536529903416039e-01 -3.768561926135509665e-01 -4.668697455575925859e-01
9.606989602486983859e-01 -1.709733939122029256e-01 3.785083109964126891e-02
-7.473188708751243858e-01 -5.307364212765354194e-01 1.065830945681274164e-02
