-5.812774080654029563e-01 7.188535215694237257e-01 1.196711881904056196e-01
6.905523174480686643e-01 -3.623530263510668092e-01 1.322645744126729576e-02
5.984138280904694601e-02 6.347624464447129133e-01 5.659106674447075269e-01
2.712769250338202820e-01 -4.274571040750640982e-01 -6.812363815658859512e-01
-5.780050883419431823e-02 1.660769794508423214e-01 4.822299293878558601e-01
-6.213036311634142494e-01 -5.919334973432716085e-01 4.694933995910116065e-01
3.660782187432857215e-01 5.652238787770966222e-02 -6.718519554631601221e-01
-5.554442747444534589e-01 1.282094528488970375e-01 -1.076940929820452558e-01
-4.147923753084584164e-01 -9.028938505005578152e-01 -8.067128026985502520e-02
9.139492407963965004e-01 2.026158942927426543e-01 -1.988973831990484831e-01
-4.797747480792702995e-02 -1.467351274549116569e-01 -2.018389516942426520e-01
3.368619454485982656e-01 1.928915002901275821e-01 2.338476610818639723e-01
5.053380876580710890e-01 -7.888639603542142442e-01 -2.387948758382591741e-01
8.690224561903061584e-01 3.572033676823042070e-01 -3.243289670012073356e-01
-2.244588884876969892e-01 5.026687829491405940e-02 2.141718480174150362e-03
-5.777944607213505446e-01 3.459142121773238487e-02 -1.222603206651242808e-01
-2.659178700445169463e-01 2.156325755537823463e-01 -8.092624592180400200e-02
4.492455861571209574e-01 4.307297825146833015e-01 3.378801851805385281e-01
6.061293293854822517e-01 -6.728217338282191928e-01 -1.360631228782415991e-01
8.344855238535622832e-02 -1.168555741409882109e-01 -5.011335095019828767e-01
5.578520276498804414e-02 -9.791948662182640151e-01 -9.504304786989731246e-02
-4.584892179086951791e-01 4.607698349211774569e-01 -1.174095444336789862e-01
5.740274797368466464e-01 -1.384172634271598756e-01 -6.995120880083343096e-01
-5.837928481983007956e-01 5.807259262090735952e-01 -1.076953089509257409e-02
-2.179051189112707898e-01 -2.350626629792483546e-01 5.435218082305175447e-01
8.361444516391105530e-01 4.041365806618577583e-01 -3.639110520231427226e-01
6.208067704536415210e-01 -6.961729319703041652e-02 1.185864510913921949e-01
2.602965117455055891e-02 -3.165673458614842173e-01 2.600030909909668564e-01
1.681919038824066792e-01 1.213037586562430437e-01 7.955223393923692432e-02
-3.923316680686914637e-01 -6.473670008844119028e-01 -3.715661626090590586e-01
-3.368358220027406480e-01 1.366476281278664051e-01 -7.809724778602054884e-02
-3.109985616450696710e-01 8.219942760219433042e-01 4.999745452791491407e-01
-4.532266986855477964e-02 5.069301648875632615e-01 -3.215446319890851723e-01
-2.141850147446854903e-03 -5.905015453969786332e-01 3.596699987833109624e-01
1.191506933883954011e-01 2.029027649394952726e-01 2.711287110592462413e-01
1.968917322442736428e-01 -5.792338068106589466e-02 -6.004397684382338785e-01
8.061661047019826887e-01 4.108298309933475778e-01 -4.152192686141410460e-01
-2.431433832893458713e-01 9.136988967521668670e-01 3.855315493916852514e-03
-1.761766114602342781e-01 1.445968144827725343e-01 1.054336598581966013e-03
-8.506293951795660391e-01 -3.247560426507805076e-01 4.518062833204878892e-01
-1.187660829318695072e-02 4.612702664092864779e-01 6.021575200927942184e-01
-7.746483785962087198e-01 4.298468935035339861e-02 -3.967505946288323038e-02
-7.268452970402711211e-01 -2.755354938245797025e-01 -1.337750395093992017e-01
-3.231068430343174702e-01 9.206421313713822885e-01 1.535757401963454838e-01
4.543581146376386021e-02 -6.956393613488953687e-02 -3.312428068816665183e-01
-1.711138170218424459e-01 -1.202133788393151131e-01 -6.757487196519924855e-02
9.564411170951501312e-03 1.826872388048448037e-01 -2.834022850528998896e-02
2.683709542070950027e-02 2.618196288185452025e-01 -2.701136362355419651e-01
-6.349018316414440765e-04 2.801312263066846331e-01 -2.438045214152652074e-01
3.859961756655401754e-01 2.100429428810009214e-01 -6.448727659570443471e-01
-7.295568487916136435e-01 5.865592605594558417e-01 3.695977571202443968e-01
3.569981039224959241e-02 6.659678053677487997e-01 5.681651151168336522e-01
-1.966045200068162746e-01 -1.653788536009944687e-01 5.293142116298580335e-01
-3.453981011718581517e-01 7.400373578507238870e-01 -1.070054541022813360e-01
-3.055235803545760728e-02 -1.648002445176965924e-01 3.365385324727702271e-02
8.070987953164486806e-01 5.949366659863296325e-02 -5.612953685476391730e-01
1.674088150569024713e-01 3.794591917951036786e-01 -4.843588850548468105e-01
8.833708773694348704e-01 3.398248115837566585e-01 -1.479710406340689344e-01
5.541182621364158095e-02 -2.802349879239645625e-01 1.963687772195526759e-01
-6.562390533994619801e-01 5.020358027211129226e-01 1.322247606120179747e-02
1.658060154007751918e-01 8.568140275985702825e-01 -2.758560340789490417e-01
-7.921155667289490054e-01 4.589645024088632175e-01 1.787587211033855594e-01
-1.673699682267039412e-02 -2.913823501796826143e-01 -5.205152088347262396e-01
-1.858230138051467639e-01 2.806066465996680942e-02 4.639794993660129041e-02
3.032664259075879554e-01 2.676309155161008535e-01 -5.969398465535074028e-01
9.339956801018192700e-03 1.537138135045027221e-01 2.472996557829365838e-01
4.903655798493775086e-01 8.789358916556782031e-01 -2.479226507994632470e-02
-1.945431412289275741e-01 8.948520482431151502e-01 -7.061887516891453276e-02
-2.826496706770753042e-01 -9.315221915329096047e-01 -1.855212352030363165e-01
-8.846223543579587734e-01 -1.140100113398153092e-01 5.604553026873989457e-02
-1.229338818899723129e-01 -5.690594266617127195e-01 4.338065695991840109e-01
-4.298326425446625798e-01 -9.034833573859554212e-01 8.605198499799060485e-02
1.402735916254621573e-01 6.748471908994095880e-01 -4.005457046646905828e-01
5.943584071735656671e-02 -1.336804875347386290e-01 -4.783128521033760960e-02
8.493697122017633827e-01 -1.045980761930841996e-01 -6.609789049562156404e-02
6.514302518114244434e-01 5.574317072070958945e-01 1.858376989016841119e-01
7.794466595644091236e-03 2.256767949087708502e-01 -1.731189911943470106e-01
-2.006158358524472995e-01 7.128839819829723146e-01 -2.110124796463912211e-01
-2.378230753439662670e-01 -6.099385081851967927e-01 -4.705150533226170051e-01
4.943773940187005111e-01 6.480064042749117403e-01 -4.588336072153084699e-01
-7.622918114594813277e-01 4.890200588927340331e-01 4.699349278348444736e-01
2.222172154111616837e-01 6.568572028851465960e-01 -4.388412274030050186e-01
-1.148201325519052213e-01 7.002394307013265831e-03 1.905705572461158515e-01
-2.287841857786628852e-01 -4.471239687194693002e-01 5.204689665190341819e-01
2.005076792744092395e-01 1.199146601463408346e-01 -5.493252845462912592e-01
-3.082812062410685838e-01 -2.273991132557617312e-01 -2.631897417231369718e-01
2.677687612224456670e-02 -1.162858252955569355e-01 -1.336004423668215868e-01
5.177095767778182589e-01 -3.447174730504809492e-01 -6.885157341136796116e-01
-6.451018570383683093e-01 -4.410000495241370722e-01 5.642031107881426699e-01
-3.600744432549584650e-01 7.583757675955036248e-01 5.524812185268029863e-01
3.412068554991983665e-02 1.770919582180304486e-01 -7.423838605256849466e-02
-3.144602621102216000e-01 2.931750029566090529e-02 -6.850265980892869533e-02
-8.652636442422027008e-01 3.468167747470462525e-01 3.601370477450061558e-01
3.726499857582871167e-01 -4.944325547412716793e-01 -6.708039539425725284e-01
-7.190227695953153031e-01 2.245366552109228919e-01 6.584350983356771492e-01
3.412741273845878998e-01 -2.886446156118301909e-01 1.414696115228103734e-01
-3.688361366737614722e-01 8.681257099972988778e-01 3.900169237987007875e-01
2.821619959119350263e-01 2.022900113201380468e-01 2.415389728233956479e-01
4.029159735305572893e-02 1.845315505051862981e-01 -1.564959489296781081e-01
9.054220671355414085e-01 -3.051422006482092109e-02 -3.872019477040649638e-01
-2.544926187156313913e-01 9.357722376862339653e-01 3.107196792409302466e-01
-7.098718691014510584e-02 -1.482838826196563042e-01 -9.800451391621526828e-03
-3.466272590208751558e-01 -9.283214927556893148e-01 1.088304427148138326e-01
-6.135107997042925643e-01 -4.185152378050875643e-02 -1.352301647678737506e-01
5.497097942368193296e-02 3.268091506444198435e-01 5.061828093350938529e-01
1.299351192123936183e-01 -1.631637407010651242e-01 3.646938514254526725e-02
-9.559526181301364334e-02 6.658628026180520021e-02 4.381104043306609519e-01
-3.200280045048385369e-01 7.586560545691845014e-02 -6.657039896562524928e-02
1.721775672997996054e-01 3.552674511739412760e-02 -5.408204339722086917e-01
2.106374509758138780e-01 9.442577242495664436e-01 -1.438647157795223119e-01
-6.289281050272407803e-02 -1.955508584073872846e-01 2.569109073140110611e-01
-2.036084983367487944e-01 -2.084836563869469639e-01 -2.622135626233217387e-01
-6.968634737887370589e-02 -1.919529135516441221e-01 2.726805345859087404e-01
1.314335025687553005e-01 -1.323879923470802356e-01 5.488879148022801809e-03
3.505442141313315774e-01 -7.595477100013096061e-01 8.247193997182986069e-02
2.615213990208700712e-01 -7.345172541833368263e-02 -6.504722772232067740e-01
-2.311618491539339237e-01 -1.906974345433457563e-01 -2.272566751721290246e-01
-1.601326457709701667e-01 5.334525416706040746e-01 -2.540282910684144579e-01
-2.812035519979074749e-01 4.459527851166792400e-01 -1.784554889218729623e-01
-4.700393133779373622e-01 -1.403698516734298851e-01 6.918465920072169872e-01
1.063095309389407161e-01 -3.126012882738011221e-03 -4.498381089603060712e-01
2.163427493729166151e-01 -6.613596490525248950e-02 -6.187877385118979445e-01
-2.558965544135174408e-01 9.491968459849493556e-01 2.345224564201362771e-01
2.007518759909930339e-01 -3.451184397791050018e-01 -6.662302649806168819e-01
2.206794023441613004e-03 8.931781879548236214e-01 -1.851570636089052146e-01
-9.348564697237250476e-01 -8.728254590833320337e-02 1.875446199211813214e-01
-5.574524239121082525e-01 -7.433137466627417478e-01 -1.707239398881355563e-01
-6.314971456867978228e-01 5.630370852291253225e-01 2.412952885016224000e-02
-7.760486460375611850e-01 -6.045167000089730625e-01 9.513692244658054908e-02
4.624328364994009233e-01 7.057622200920916633e-01 -4.176660074034336811e-01
-3.139070342190342644e-01 1.659188607704766005e-01 -7.592719005344664152e-02
4.811312244355469003e-01 -6.541247836324006748e-01 5.001581604917788859e-02
-2.831164735326573978e-01 4.528666440751807215e-03 -5.417262282390898631e-02
-1.359347071413910812e-01 2.816905242114213226e-01 6.304178969276714728e-01
-9.884903223206233103e-02 6.271141412552620753e-02 1.826851865016180243e-01
-5.600862618069408772e-01 3.810799700899488718e-01 6.974483813745386840e-01
1.882055219594300569e-02 8.237553319860759782e-01 4.918311983604491400e-01
-1.316636388770899002e-01 -5.408724612190902725e-01 -5.282835759885151639e-01
-6.578667343430287806e-01 -4.767932905487044515e-01 5.362418857824827745e-01
-4.676017078394018034e-01 2.138681884635654507e-01 -1.066860717148998133e-01
-4.460831727845394612e-01 -4.284088199432947719e-01 -3.336976799986403619e-01
3.008784990994171626e-01 9.638132025865814041e-04 -6.554179098572501250e-01
1.536851875958881730e-01 1.313015421092222912e-01 8.283883682564643913e-02
-1.951824316551189209e-01 -8.213870449136093654e-01 3.193307370244308774e-01
2.663788916252443628e-02 -1.682766996968645401e-01 1.451049271748092000e-02
1.922819670328783648e-01 7.817250595126481461e-01 4.497911334527605054e-01
2.802656567087626338e-01 -2.595792704035246867e-01 -6.876541642540558996e-01
4.398004951561285125e-02 -1.042176746593098807e-01 -1.330863755231261603e-01
-1.728536366324114892e-01 -9.580895334679959130e-02 5.088886058953517866e-01
4.985115431949200399e-02 -4.019649399549097279e-01 2.958840223170661754e-01
1.158099090344960475e-01 8.113809745136034701e-01 -3.068421813992078251e-01
3.886006342976280198e-03 -1.809507895348331785e-01 5.832485630849548741e-02
-7.982366172205278554e-01 -4.016531909836302816e-01 -5.028829997571612753e-02
-4.421627998762822642e-01 5.764422113732498021e-01 -1.103485961798547910e-01
-8.287050684348724189e-03 -8.931160787655446631e-01 -3.910587261933546332e-01
2.592932894973574154e-01 1.202520256582142316e-01 1.459320920527987231e-01
-1.917867967258627682e-01 6.532517122044251279e-02 3.247555979506383528e-02
4.253521193530916955e-01 -4.693327497390599734e-01 1.417182375669369110e-01
-1.176812213577030503e-01 2.107020068095645515e-01 5.876845803996632034e-01
-8.897181293967654225e-01 -3.260378470001638052e-01 1.071266513365765893e-01
-2.167988850842134385e-01 1.575169355679313932e-01 -3.142047451721976387e-02
-2.247779306022240908e-01 -5.572209608355753740e-01 -4.798874942206812211e-01
-3.209469946932811402e-01 8.744985394587021510e-01 1.258105968156568617e-02
3.596471746014608117e-03 5.339118869922344635e-01 5.999975619697495155e-01
-9.223014435141040357e-01 -2.495417920557402303e-01 3.151905526451368456e-01
-5.326787992416448514e-01 7.938383006286300336e-01 3.189120794563685135e-01
-9.288825609027976382e-01 -6.374094670015653663e-02 4.012839254728656213e-01
8.249388728202617926e-01 5.086195746711207333e-01 -1.875055285814873351e-01
3.370779756074646083e-02 3.803038483494691202e-01 -3.551803191360480838e-01
8.557486063821876376e-01 2.914778490759760698e-01 -3.072304277172134210e-02
3.365312171372183275e-02 -1.338914765555835884e-01 -4.338498219039599868e-01
-3.585125102158476795e-01 7.701072011247037663e-01 -7.597996570366086222e-02
2.178127030045735185e-02 -1.941938613931939728e-01 8.049261134590535161e-02
-8.050933286580477244e-01 4.743980174163496266e-01 3.545700158353080056e-01
1.165207472366570352e-01 3.311643888377551748e-01 4.618551845019770452e-01
5.090479931371442307e-02 -1.014490516334928122e-01 -4.247792220905513005e-01
-4.774851539289060726e-02 9.188571282965641851e-01 4.012831874254657594e-01
-4.571805431342411130e-01 -3.587615655043067259e-02 -1.411700193698841033e-01
-7.063206392878729374e-03 1.454663924384805573e-01 2.934241754061552299e-01
2.030614821877234355e-01 7.021164803665846943e-01 -4.084835095498577928e-01
-2.392418777976949677e-03 1.757077851080092457e-01 2.127701366775451575e-02
1.953704750370213461e-01 1.299232364807330342e-01 -5.413428343197227433e-01
3.961539804378906293e-01 2.759825586890123361e-01 2.883648195838694472e-01
1.993187962544588354e-01 2.565558790611671136e-01 -5.242530589351946935e-01
3.889646337343061755e-01 4.802039283407777415e-01 3.832965732099135048e-01
-7.609616209099986373e-01 5.107212411379473682e-01 4.417178113637209025e-01
4.948638989970496338e-01 1.549261557663431932e-01 2.061693042883686044e-01
6.098785122430198102e-01 4.608875541976500262e-02 1.482637960665773857e-01
8.011169488260653226e-01 -4.325404014585122470e-01 -2.714544060822159377e-01
-2.457586241796283766e-01 -5.463842586489116027e-01 -4.679459487222444869e-01
3.715359461442026001e-01 5.212350897577539000e-01 -5.398468843096322356e-01
-1.893605281371998073e-01 8.684865123896730321e-02 5.998859921041705956e-01
-7.819385979325338409e-02 -9.883147903802435019e-01 -8.271359998543731384e-02
7.307311096502953907e-02 1.394081335797176247e-01 -1.198696322649654561e-01
-3.872022954330189143e-02 9.897422707202994108e-01 2.287793747509446751e-01
-1.879889981162883861e-01 1.616953837151303419e-01 -1.927994202136011637e-02
-1.343756182737267935e-01 2.845503124547839602e-01 -1.326958801246746755e-01
7.338356183371717023e-01 -5.391179388762460389e-01 -3.417320349530150736e-01
-8.345883955917682284e-01 1.825127453416110490e-01 5.928216654916945022e-02
-6.324142756941751875e-01 -7.669364312706640208e-01 1.742566426826987203e-01
-2.800663237112413495e-01 1.262393429067045769e-01 -5.140881911749397432e-02
-7.086493737507408575e-02 6.234393192279867879e-01 -3.062082422502135914e-01
2.835102890945914722e-01 2.974621194246062084e-01 3.372039554687740748e-01
4.248004678771983428e-02 2.924916139447479857e-01 -3.232584264417276421e-01
2.656972078083162936e-01 1.883621644808954332e-01 -5.913838791059785605e-01
-4.427531723522890039e-01 2.287836366035022884e-01 7.322169799641163879e-01
6.247484976724203554e-01 -4.092038743390720157e-01 4.788911062962547538e-02
8.182779106455982943e-01 4.202948100450838442e-01 -2.238371720864614379e-03
-7.000388838338091890e-01 5.547089942962959430e-01 4.981003093115862201e-01
8.344253605423325171e-01 -2.907502463979106944e-01 -1.451779437400974315e-01
1.629744317165593981e-01 1.238520551036388501e-01 -5.016530996492273298e-01
-7.484064313115416089e-01 -4.632109154181840993e-01 -1.004452673606091584e-01
7.175487406195882878e-01 5.472879746213311636e-01 1.058361709027726139e-01
-9.092665219743037430e-02 -5.470812229146011507e-01 4.192713485975810284e-01
-1.199459433232228922e-01 -1.174066986702201748e-01 3.218251923527987862e-02
-5.461488728884138499e-01 -1.471322351695558139e-01 6.935843891369419811e-01
3.505507934836075978e-02 2.105859262914614172e-01 -2.134465768453473467e-01
8.549086036819465023e-03 -3.289882611635416287e-01 -5.593615639644842208e-01
5.943897428031287289e-01 5.577101287435802801e-01 2.428402958355171115e-01
-4.714614472352804952e-01 3.899643963528821589e-01 -1.137434765042424495e-01
-5.198181511552246031e-02 -1.587166287962690214e-01 4.944842443568163437e-02
2.049101820975155752e-01 -1.138872872012593601e-01 -6.246131849534116709e-01
-1.255991946356736222e-01 4.921229892630623465e-02 4.916775528247597227e-01
5.074965090352484554e-01 7.461314482744685339e-01 2.372513844899067637e-01
3.794400693901897048e-01 6.532006286698740505e-01 -4.683480196853543331e-01
2.778052767411413534e-02 -2.420336628079229890e-01 1.687590696135342072e-01
-1.458184486510814004e-01 -4.350350378231802040e-01 4.669918713318521597e-01
1.482173572520076310e-01 -4.649686522556456536e-01 2.582404520099286227e-01
-2.711911421445030723e-01 -4.890393348804222828e-01 -4.457614374294812110e-01
-4.813460391351698786e-01 1.945917521776824588e-01 -1.063606063833026638e-01
1.808598867363215290e-01 -7.050942640939714678e-01 -5.796469690834624711e-01
3.779075703247236073e-01 7.421479690862724521e-01 -3.994092369480546356e-01
-1.086352574243836383e-01 -1.280420964016288077e-01 2.128686759848486335e-02
8.783155098627589696e-01 2.651675709556769803e-02 -4.625200441813717145e-01
-3.471118152632992476e-02 -9.838063860477762601e-01 -1.601658105763057727e-01
2.386717436589393670e-01 7.331925780580783591e-01 -3.974997055333495122e-01
7.763118013297423126e-01 5.667061482690932683e-01 -3.632394693905418442e-02
-2.731666536594793415e-01 -8.462232631749559975e-01 -3.305317788811485968e-01
-2.074703464653377682e-01 3.443670506992132507e-01 -1.586276537770038575e-01
-8.270007572855657407e-02 -4.001150364851836505e-01 4.123348893667547754e-01
-5.185753081796312669e-01 -8.198194459315770732e-01 -1.164402424726123514e-01
8.484207628325201034e-01 3.554639519602033615e-01 -3.838998743772081834e-01
-1.185774392176151548e-01 -8.701103016625126862e-01 -3.862548476966266575e-01
-5.958452304630732638e-02 1.121260969709117344e-01 1.846389207474077310e-01
8.973792482943171445e-01 -1.714895296955973314e-01 -2.846458253519582038e-01
-7.200597918774338524e-01 -1.968078226369867900e-01 -1.268402820464426817e-01
-3.793246907835618464e-01 -3.091080488309232432e-01 -3.101618801132263736e-01
-1.026980268909838401e-01 1.957629393814966645e-01 -2.410267261356005553e-02
1.719634405457848292e-01 4.223782719657834944e-02 -3.855695469999207217e-03
6.480231663257172980e-02 1.637636918808700048e-01 1.193016317890810973e-01
-3.573041210331735495e-01 3.843680364400731686e-01 -1.415577193446349580e-01
-1.591579711290540822e-01 2.737631345738834043e-01 -1.158342364444096689e-01
-9.108963803443155260e-01 -1.867784604464837461e-01 1.145901854365325295e-01
4.782095050222535115e-01 -7.294474686889159676e-01 -1.336066160186272743e-02
-1.359095029414811584e-01 -9.848283717031356410e-01 -4.090530852129123374e-02
-1.603621287205382329e-01 -9.621333165559067258e-01 8.263171176782918570e-02
4.740034275173223011e-02 -2.342468717259540423e-01 1.398875505948147246e-01
3.600220248204992757e-01 1.364679654151499943e-01 1.925925307543250031e-01
2.208361058759346907e-01 4.922550069085033786e-01 4.799894747257723582e-01
1.354856093809451989e-01 1.646736261510975963e-01 -4.514750725587515223e-01
4.581437627627640841e-01 8.714082728944818612e-01 1.239044025470236732e-01
-2.678191216064408353e-01 -9.815711551358473341e-02 -1.116303157641344440e-01
-3.720100436782257103e-01 4.047218835652947599e-01 7.153690764724740525e-01
-5.617630669244537689e-01 6.670159408164273440e-01 5.303166271469292870e-01
5.722643769804887370e-02 1.611833092253053823e-01 3.684540893756072660e-02
-2.814945386681516615e-01 -8.003024198073346307e-01 3.516612411105901614e-01
-4.294163344635253954e-01 2.528653286839465109e-01 7.311030112197830499e-01
-1.269955786120388619e-01 -6.378987746514427348e-01 4.151613279351424324e-01
7.179413591526878635e-02 -1.276519521003431079e-01 -4.762013524803532238e-02
-2.552905639059431797e-01 -5.936424510936865184e-01 4.858835885612592942e-01
4.700572008363916865e-01 -2.842149053618338583e-01 1.274985643555585912e-01
7.791731878786010979e-02 4.556569472647419364e-03 -2.518005928637615520e-01
1.559165563092047846e-01 1.752973982458606028e-01 1.887977121778736112e-01
-8.853800486394767244e-01 -2.716232608435106277e-01 4.223000322945693052e-01
8.943142610342694199e-02 1.037609039984089820e-01 -1.438970393862956942e-01
3.757865299827877759e-01 5.222966213827291704e-02 1.486773622448122889e-01
-8.143823250021665627e-01 -4.351696811112142349e-01 -1.043690790924949041e-02
-1.075101274777142124e-01 -9.705036037997615272e-01 -2.032790593171376892e-01
-1.506379074510809032e-02 -1.312500418865207852e-01 -2.676175079433543713e-01
4.387842364172384602e-01 4.093982851752163421e-02 -6.920544589162923588e-01
-6.131836346269973204e-01 4.050792434285456767e-01 -5.315280974711036194e-02
-1.581005163857307216e-01 -5.156198761468294006e-02 6.393529184129541354e-02
-6.416541705643292737e-01 -1.674592380520890100e-01 6.724634045679220851e-01
4.603311867542289049e-01 -2.934807552745741788e-01 1.294656911719249126e-01
-6.768869336194517361e-01 -1.796002074456646835e-01 6.570917066581434263e-01
-2.400114205660183186e-01 8.611786553913219899e-01 4.703874751942784260e-01
4.541789927645630276e-01 2.394427239339159685e-01 -6.515210688190230526e-01
-6.939830378875122552e-02 9.794097554788451510e-02 4.075091157301184430e-01
2.560619698381998433e-01 -8.221068459642848492e-01 -4.717588957174483899e-01
-7.550506787001744213e-02 -1.722330178969516123e-01 2.585276584115942522e-01
-7.210571870473340972e-02 -1.603786469357665334e-01 -2.335711326910922259e-01
-3.218166730197754011e-01 -1.806937506754149048e-01 -2.148073873098509390e-01
6.149862570374952098e-01 -6.702106498026508818e-01 -1.532087418633468201e-01
4.916882093091020089e-01 -1.647990307589158876e-01 1.262374062850090406e-01
1.569831572636780914e-01 -1.818316282498496639e-01 -6.112443898386318297e-01
-8.070467289824639900e-01 -1.861938190914106117e-01 -5.265374760342263205e-02
4.198356862739602291e-02 2.214515833208742235e-01 -2.533813669170637550e-01
4.271157010077017979e-01 -4.907469361960974941e-01 1.392764926025385763e-01
2.316748809595125247e-01 1.209604803440297721e-01 -5.794736825727490048e-01
-4.547129023773874845e-01 4.193527111602367019e-01 -1.193767961980449488e-01
7.043991931827351394e-01 -2.490708981219454110e-01 3.942407410923940564e-02
-6.557065651988386312e-01 -4.532679773004800183e-01 5.520560515251904388e-01
-4.389347553856855488e-01 -6.545074833212070065e-01 -3.368094912721963929e-01
3.470042066801739544e-01 3.247596217466525159e-01 3.351979324099920166e-01
3.512365792630255390e-01 7.658910242203166296e-01 3.610734650665351486e-01
3.189801733183702040e-03 -2.666285154910847943e-01 -5.219365473834679525e-01
-4.121079482314349285e-01 -7.118567211279936968e-01 -3.330595749415452000e-01
3.811964588374436302e-01 -1.046483250976105867e-01 1.173378996486628134e-01
4.063481060779562670e-02 6.120472468183226766e-01 -3.725864655526635594e-01
-6.859530467405144938e-02 -1.498334987009187214e-01 -1.340061373113430876e-01
-4.276266511204631637e-01 7.861246798371066546e-01 4.880645522224492661e-01
-4.291033731963606601e-01 -8.908828340169887561e-01 1.495946675577718987e-01
-4.310446779930824368e-01 6.125193695567507923e-01 -1.071621227778005031e-01
-7.644969961959912075e-01 4.352106349239299177e-01 5.219572080265807434e-01
-5.692456292374574733e-01 7.602843450890024446e-01 1.965231746383894473e-01
-2.224267253424310475e-01 -1.097416649473934303e-01 -9.519208527417187538e-02
-7.067798592901182453e-02 -1.634956502332869654e-01 2.086957967167510086e-01
4.508562541416165637e-01 -8.252888085932530426e-01 -1.826434119171403692e-01
5.884123986382213539e-03 -2.166721003475120533e-01 1.470832240076520858e-01
-6.705365467136421564e-01 -3.351128987834058881e-01 -1.826682553316859303e-01
8.030913772867259715e-01 -2.906395065008733902e-01 -8.299924306905448468e-02
9.806968373435244468e-02 1.657588763527884368e-01 1.456678703942947961e-01
1.458315490599277524e-03 4.930270836932322265e-01 5.992162262641539394e-01
-4.036594477690456234e-02 1.565124173795998941e-01 8.371453039603461710e-02
-5.002913149930643399e-01 2.121199945496949901e-01 7.322581135165734390e-01
-2.705592248346032069e-01 -5.758068371382160100e-01 4.987161312097606602e-01
-1.067049042335837944e-01 2.351760830652273315e-01 -8.185497466754226847e-02
1.163564094859714099e-01 2.807960399813304586e-01 -4.289643539594599209e-01
8.810593683985438185e-01 3.641487652909486394e-01 -2.357946254456775859e-01
-3.587500117626359758e-02 -2.588299735547332503e-01 2.828077572262458483e-01
-8.680037257377589688e-01 -4.244638055084483663e-01 1.296232364185248287e-01
4.046469513032173726e-01 9.245720411837582420e-01 -1.368779641291542441e-02
7.014220883839250575e-01 -3.728765997673350041e-01 -9.949185221271310449e-04
9.135474943463448017e-02 8.452656912230975816e-01 -2.689529726001779752e-01
3.171130581971482454e-01 -8.351139982877490153e-01 -4.282885318085950521e-01
1.334913841554967173e-01 -6.917525203620563667e-01 2.600265749971785167e-01
-3.810759364908768987e-01 -2.441610803069769187e-01 -2.645216275014112273e-01
3.761932687364819006e-01 3.244706435578451620e-01 3.245106913281003425e-01
1.839600573736671907e-01 2.268671240941941003e-01 2.879322033931093205e-01
1.927794770437227800e-01 3.797319466131002241e-01 -5.040987584907449248e-01
7.379469993248724546e-02 1.677562542711455718e-01 1.590455306743356334e-01
1.394852484044652452e-01 9.622593354893276274e-01 -1.048727398314232423e-01
5.122497524938721125e-02 2.675842004244478045e-01 4.568372588560229430e-01
6.969045443953514329e-01 -2.373566179761712747e-01 4.782705294844036975e-02
1.862412383475222644e-01 -1.928879362781734663e-01 -6.345034660733557264e-01
-5.636657028770938188e-02 -1.495339623549105379e-01 -6.440433514347383703e-02
-3.276028377487593124e-01 -2.384761767942689681e-01 -2.703230706823553375e-01
5.067149591009587617e-01 -3.542584136007625450e-01 1.169863881999413102e-01
7.383690174391779326e-01 5.522802846819099276e-01 6.877147040844058812e-02
2.223288440604335447e-01 -7.731164647543700141e-01 -5.291756705832727503e-01
-4.401205128710574677e-01 -7.216139271229958796e-01 4.189410884242660837e-01
-8.654063329343902877e-01 2.132529909634762744e-01 1.218737130471037738e-01
-2.328357650005612178e-01 5.511129992524917975e-01 -2.174784599360348181e-01
-8.358388480982889002e-01 -5.121689760315911721e-01 2.110746474599639044e-01
4.754093262355237048e-02 1.000000000000000000e+00 1.651539699137158368e-01
-5.842589611269453087e-01 -6.551965114807419832e-01 -2.096319812286407402e-01
4.612753698555842052e-01 1.929758771074745471e-01 2.283776228486577020e-01
-2.213601734031503676e-01 2.903970198305633188e-01 -1.215914414487853645e-01
2.499894323522816042e-01 -4.136634980139399786e-01 1.976021635253909225e-01
-6.300716136120936006e-02 -2.267759467380909277e-01 -4.145341453541241394e-01
-5.796511365562913992e-02 3.162347495528343155e-01 5.886052714788150286e-01
-2.268907736467651037e-01 -1.860828519195667219e-01 -2.202248756978175681e-01
-7.882883351239572400e-01 -7.596142708519892928e-02 -5.407341445456459450e-02
-1.582686082552290929e-01 -1.953266155394147927e-02 5.109617500367799048e-01
1.328229613300582479e-01 -1.527240396973192638e-01 -5.798018420860241440e-01
5.277132343637701561e-01 -4.268542327472473197e-01 1.003598097562422159e-01
-3.518124472265364844e-01 -1.825701088556820340e-01 6.474326215716317279e-01
3.037119163908283959e-01 -3.672455833420326665e-01 1.685929109309340090e-01
6.547764033499677838e-01 4.835477873618250766e-01 -5.114586645013020627e-01
6.854186223926547750e-02 -4.535860693257143805e-01 3.028008067333030628e-01
8.801336087126810925e-01 -4.248656387297609222e-02 -1.007269879617415792e-01
-7.968484051555125847e-01 2.057554304341604190e-01 2.421418483594703006e-02
7.965029937727651221e-01 4.654707428778810940e-01 1.672135407735634086e-02
2.525062997677929855e-01 -2.593976831982677256e-01 1.315536262720819749e-01
8.062408331583865717e-01 4.025664850776334847e-01 2.923457698451109588e-02
5.321400224089168907e-01 -7.483497843481290435e-02 1.340773848282247604e-01
8.779143221787517604e-01 1.415078023903118265e-01 -6.120101746794236186e-02
7.715329183319225015e-02 -3.577133883930690428e-01 2.499467858058493641e-01
-1.071077621570027116e-01 3.794934506013081243e-01 6.379027529687258946e-01
6.345105267771365964e-01 -3.864717659584175347e-01 4.819151022773095899e-02
6.786894946556436270e-02 1.490246367228004187e-01 -2.086180998385657182e-01
1.258760147836088528e-01 1.318979735398103370e-01 4.623564491822616113e-02
-6.795829056303423488e-03 7.924831977887107914e-01 5.222446675480709732e-01
-2.869077629229727436e-02 1.365523339483744047e-01 3.597912932338482306e-01
-5.953083811479480819e-02 1.012691040588781649e-01 2.216061101161576063e-01
-6.335366887456022056e-01 -2.318141147762253218e-01 6.570538178035962851e-01
4.099926745588582805e-02 1.763763476476168934e-01 -1.135408802552142771e-01
-1.737661712725665220e-01 4.266847127576067211e-01 -2.159548097126947341e-01
-1.188681453101288338e-01 2.379561803193609715e-02 1.682159842984770892e-01
5.000344679918622415e-01 2.987832240190489014e-02 1.589682139885819911e-01
4.253519918378311226e-01 9.129979594583712554e-01 2.974951917625468997e-02
1.187909418586086258e-01 8.470404534933462237e-02 -6.619396929560986131e-02
-4.727073286540336289e-02 1.644299617293168703e-01 4.623178438263621515e-01
6.483349846298579466e-01 6.410334276509660478e-01 -3.782601379753005033e-01
1.311285926725862527e-01 9.976978557725837415e-01 4.649543475994340896e-02
-4.817764720853043858e-01 8.408432315776789845e-02 -1.140136795640290523e-01
-4.882605711312470453e-01 -2.758185789432165413e-01 -2.556410738332944299e-01
-3.374714165023492973e-02 7.228256706002798015e-01 5.697469300250349589e-01
8.141888450337883554e-02 1.699599667560009186e-01 1.709337683971916544e-01
-4.241876357098639527e-01 -8.561974448285102346e-01 2.446405276207408441e-01
4.408974684690361023e-01 7.885752418246644302e-01 -3.354725673989075729e-01
3.137939077904017271e-01 5.426297602438762829e-02 1.251263770589104984e-01
6.888424105869956904e-01 -4.928067514769908786e-01 -5.136349794493938470e-01
-3.631041288094777331e-01 -1.106976952728400410e-01 -1.609405336914201956e-01
2.694865500042379347e-01 -4.774596169241907551e-01 2.048211380443048235e-01
3.227818105317341035e-01 -2.000429926761886634e-01 1.165730974055019381e-01
9.183379769976044438e-01 1.727772909018970293e-01 -2.824916031309014919e-01
4.161832598617622447e-01 3.329107786703731087e-01 -6.184205631628805211e-01
3.765674767622928000e-04 2.179834388104394116e-01 -1.385812903149868103e-01
-1.046005028430420647e-01 -7.689582711163610307e-02 2.552434321127439176e-01
-6.147298531840764690e-01 1.401644001346253887e-01 7.147839599080968442e-01
-1.297153358655647182e-01 -1.974761748613440004e-01 -2.828119755778475408e-01
3.438714006367214054e-02 1.882942768925667532e-01 3.454704141942070983e-01
-1.837606590320796374e-01 -9.306085194254005710e-01 1.640484507821078908e-01
7.158794459721333769e-01 1.598154582879745267e-01 1.263366504870614693e-01
-5.396306822199357089e-01 -3.663971739217073420e-01 -2.673244566161879776e-01
-2.665732635181988774e-01 9.108462468636289167e-01 2.307805418751122592e-02
7.165976501401220833e-02 1.478901831625762386e-01 -5.359415297223560359e-02
4.682276318284657735e-01 2.650738926237696247e-01 2.635073825570394823e-01
5.471680598208914503e-01 2.376099612347233880e-01 -6.523984029192094747e-01
-9.121581173263958453e-01 4.031856815179422904e-02 4.506196180573185384e-01
-2.318241544235183083e-01 3.587872035506194102e-02 6.211355976336020435e-01
-6.493254152389512646e-01 -3.732592591133024329e-01 -2.019474671423791556e-01
-2.127128095422019527e-01 -2.804699734523218857e-01 -3.560091010623610552e-01
-2.117302265022644181e-01 -3.896649180879655505e-01 -4.425196384795209714e-01
-1.301371938880342694e-01 7.038395356825165594e-01 -2.540284092389284432e-01
1.627524236717910744e-01 6.879449663888145272e-01 5.060890014540033732e-01
1.545214238911687965e-01 -6.183065523124022661e-02 -2.603779573025936933e-02
2.235480825491073242e-01 7.174445094151506164e-02 7.536834734265746016e-02
-4.400305490786607931e-01 1.793448849117193766e-01 -1.044864880836394866e-01
-6.568563102484418215e-01 -7.306854507737056692e-02 -1.303352775235494532e-01
-2.108810778429725807e-01 -8.635900572370636130e-02 5.628809071872705738e-01
-2.001814437288233495e-01 -7.152097350623307648e-01 -4.622564080435879186e-01
-5.107534204748614970e-01 -8.504896529877683520e-01 1.616713660843396572e-01
-5.705481200199240266e-02 6.018597836077992369e-01 6.169385337336242836e-01
6.766020393364284846e-01 6.870471232946115947e-01 4.473390625088944500e-02
-4.448322507932414016e-01 -2.687171097845231782e-01 6.550115688159614535e-01
-4.363338723435786770e-01 -7.214794776234541018e-01 -3.089593504526885193e-01
3.917755966885643204e-01 -7.749231650369796665e-01 -4.726660669926055491e-01
5.845857389705950702e-01 -4.470553612255655507e-01 6.337676716648439623e-02
-1.894643988738104606e-02 -4.111662638681173321e-01 3.569007551854705973e-01
-5.425840624724926897e-01 -7.283451946190587778e-01 -2.031974342903493658e-01
4.116801649509144734e-01 6.454040504180783566e-01 -4.732464630249196280e-01
1.284710343508563800e-02 2.779422417198191830e-01 -2.628199553799217547e-01
4.782337516532755850e-01 4.242706509239069224e-01 3.205928559885368179e-01
-8.157598137734767274e-01 -2.818011617189477014e-01 -4.534637085380396199e-02
-6.288119347811020887e-01 3.232584644689501241e-01 -6.170502885312285218e-02
1.657178305752270708e-01 -1.870282128613150741e-01 -6.192388755190594285e-01
-7.148247988277026121e-02 -1.618091004465217753e-01 -2.431339211310877546e-01
-2.269718254531146728e-01 8.978923168975103675e-01 -3.993238669002564800e-02
-1.224433438255997098e-01 -4.024755025643682316e-02 1.660084353901628562e-01
1.762336556462007486e-02 -3.038101986975538793e-01 2.569412853503963978e-01
-5.152506480321512178e-02 7.103884965591097389e-01 -2.942815015998768713e-01
-3.619705384164389472e-01 4.472592849215106248e-01 7.076262229382602742e-01
3.919189648784203173e-01 -3.327029060124886417e-01 1.445307933524488109e-01
4.328578157338953125e-01 -4.188446395993407068e-01 1.402243774842028834e-01
-7.570383243848842758e-01 -1.412956492896324523e-01 -9.071786835611812816e-02
6.315075799723827155e-01 3.066355089666433775e-01 2.080853759608343734e-01
-2.246502816220002571e-02 -2.428911489532491197e-01 -4.783913887529623321e-01
-4.046373305941539100e-01 -5.499120036249464938e-02 -1.387895058717052987e-01
4.111785544839782758e-01 1.538923103824259564e-01 -6.647519713454305146e-01
8.834263091562762904e-01 1.256258479868851141e-01 -7.360953089955980799e-02
-2.356378934793229574e-01 1.134046300363827225e-01 -2.137635900505809733e-02
1.749795567559618292e-01 -2.880015880625322877e-01 1.539473182260023831e-01
8.788079284519047241e-02 1.761120404359072800e-01 -3.459629117851841795e-01
5.909150899560356995e-01 -5.922025994227750334e-02 1.283986596370508826e-01
1.148650259735439910e-01 9.775688450806562235e-01 2.357178878307542302e-01
5.576413257413442848e-01 6.055115370191369584e-01 2.637222342908580597e-01
6.100851274384493372e-01 -3.640106403330021778e-01 6.957004174576605915e-02
-1.038020130210818015e-01 2.248565628152047191e-01 5.822028665038326833e-01
3.012384113988839313e-04 -3.960563648832001182e-01 3.343235585043846103e-01
-8.616137565532133724e-02 -8.399462523035634565e-01 2.713935277893503306e-01
1.578680767961823106e-01 2.012127738517366926e-01 -4.831254882453833166e-01
3.249002042554155478e-01 8.526513140901637033e-01 3.072288337036955808e-01
-8.167588515202993393e-02 -1.468282870211066460e-01 -5.905484896440862247e-02
4.489022168196779572e-01 1.966393219222180300e-02 1.525852930306728916e-01
-3.476903057912816286e-01 -2.599972780197785105e-01 6.271067794879261470e-01
-3.630572264759254764e-01 3.337038475542783988e-01 -1.286801025972860169e-01
-3.317977586175168137e-01 -5.962239349137617855e-02 6.650893658977620193e-01
-1.535607853974012837e-01 7.430088944482460267e-01 5.821760203747585738e-01
-2.386278897901799104e-02 -6.685038429390820491e-01 -5.541056689368611954e-01
7.098548149308805955e-02 -5.756965836093110855e-01 3.172908113606583425e-01
5.397017642706658513e-01 -5.051584021810143765e-01 7.486405144481182716e-02
5.514002787925605942e-01 6.876292164308830390e-01 2.325807920154610575e-01
-6.172558271018191434e-01 7.145225955453285982e-01 2.018796525725518598e-01
-8.380219057819671136e-02 5.854487284722210971e-02 2.466026686639897492e-01
-8.887190720735167471e-01 1.774009529963928300e-01 4.657272625036593672e-01
-6.897853908473421392e-01 -2.733725680180190687e-01 -1.605033239609972850e-01
-8.086016245763278931e-01 3.755475730166532577e-01 1.267953138413998038e-01
3.150730236309013943e-01 -7.983802847781014123e-01 -4.812353258466968708e-01
-2.797892553559493956e-01 5.099990103385300122e-01 -1.912919434997188139e-01
-8.168696319238327730e-01 -3.389485880699324438e-01 4.910406338133435078e-01
-3.370665406580375389e-01 7.879430607160720079e-01 5.301342268508298927e-01
9.048166426008134033e-01 2.455125611328616564e-02 -3.965320266683907691e-01
1.359074999644847848e-01 1.853108321882638576e-01 2.152950780571374345e-01
2.012669799943243021e-01 2.264583579147864956e-02 -5.776844055329899419e-01
8.863881961653771180e-01 3.445024136133414266e-02 -4.452480651745041595e-01
7.717332036196034029e-01 1.600031634858938290e-01 -5.759524881804332086e-01
7.503397054937859245e-01 2.570817460236813901e-01 1.132882073381080712e-01
3.377950896975634443e-01 7.439820811229811426e-01 3.832053838689903902e-01
-7.952621176075246046e-02 8.824796933637287788e-01 -1.589974378962456802e-01
-8.077985818082373815e-01 3.154524832551402480e-01 5.417963337340842012e-01
-2.864152203706281097e-01 9.199294684493996010e-01 3.318262265847704562e-01
-1.482357585241302622e-01 2.211776507779582013e-01 -6.262974779385371837e-02
-6.603941835464088861e-01 -6.470582553505221934e-01 -1.209843058379415637e-01
-6.031709977056505245e-01 1.828626716304237662e-02 -1.219680324964993179e-01
4.742257114522328565e-01 -2.043317694884973501e-01 -7.120346138273607739e-01
-8.090429445020492771e-01 3.843039421893465479e-01 4.908482835809792610e-01
-1.518990018354095944e-02 -1.458892990564432390e-01 -7.692938240342282741e-02
-8.407664631764498742e-01 1.036328328991181075e-01 5.667340298744519833e-01
-2.627009856740640803e-01 1.533362771605623620e-01 6.745409696075080896e-01
2.312250790743151097e-01 -2.218031238512619963e-01 1.097811991435221485e-01
-1.421844611712674289e-01 1.634454279816313915e-01 3.930887556137407056e-03
-1.070410870576210677e-01 7.712350268799644804e-01 5.579458007957659449e-01
4.723232484882111670e-01 4.565424680057203477e-01 3.310314831419869375e-01
1.275687456370475925e-01 -1.391912686838396584e-01 -5.683939847068698592e-01
4.278631167451960038e-01 3.485098913192599679e-01 3.176185521112018795e-01
-9.440330806989412349e-02 -2.038037539876123572e-01 3.540163967184113969e-01
-2.010469978828044457e-01 1.914015427553956983e-01 6.465066196780995256e-01
-3.978179822285438094e-02 -1.473675305226959387e-01 -2.575890472000889053e-01
5.273319970150774916e-01 2.829179873631788578e-01 2.517429398724234657e-01
1.091668157150407943e-02 -1.858185352015113978e-01 6.688691313059941246e-02
4.641536284466309115e-02 -7.535181247958905315e-02 -2.090905352891787028e-01
-5.504534114481831469e-02 -1.479845206828844240e-01 -1.091223446690554599e-01
3.835548745509481661e-01 7.214322420042141859e-01 3.619706755471675530e-01
8.609461559709136180e-02 -9.349047873321989499e-01 5.798022913620800439e-02
7.411801416834598033e-01 -5.278417815142294467e-01 -2.264287634177914177e-01
2.127898670746154186e-01 2.517820074486017412e-01 3.138113734532463339e-01
3.332682276577805247e-01 -7.981112287161306051e-01 5.999678764720960122e-02
-7.980211748867641619e-01 -5.792968543441993079e-01 1.657953921158200061e-01
-4.216194899875243540e-01 -3.170748532084013416e-01 -2.994591024714228222e-01
1.323242332856199299e-01 3.160063503661877243e-02 -7.452479018579431791e-02
-4.583893361176029635e-01 -7.405166568644625524e-01 -2.780578981572217612e-01
4.523908015193992549e-01 4.456217372393844189e-01 3.399749372808577585e-01
7.492507190150442531e-01 -3.393957653208941605e-01 -3.601983012196018075e-02
-8.878286780872466366e-01 2.032089968511095468e-01 1.656410595202073566e-01
3.106998054954991303e-02 -1.923045418899119452e-01 7.097533992044678663e-02
1.408560769076130093e-01 -3.043124997074276861e-01 1.752647758743443029e-01
-1.047036209384339250e-01 -7.757993270856940182e-02 2.844092015606466961e-01
2.558243311412692345e-01 1.256576400084691569e-01 1.498146037995576052e-01
1.026641243686599869e-01 -9.722289963479378017e-01 -1.294023433906476839e-01
-1.282361420178847466e-01 -1.165346151237748734e-01 4.133890640907680325e-01
-7.259960241161220740e-01 5.184894100278057971e-01 4.997547028389663915e-01
-2.228497869579121882e-01 -1.678931839427829642e-01 -1.898114084137621504e-01
2.741388156126713382e-01 -1.179781276476427887e-01 8.043745370563540331e-02
-1.110956287556654903e-01 -4.771979420986535714e-01 4.393088384979780825e-01
-1.228778116488117855e-01 5.280021095670516251e-01 -2.747708174912616985e-01
6.337121503847464865e-01 3.687278554495956179e-02 -6.746752909404972742e-01
1.494882741183138075e-01 8.520478000888931369e-02 -1.620534296334184268e-03
1.624607951332343869e-01 1.044305055046770569e-01 4.481551514354308735e-02
-2.430031034718056204e-01 4.690380957998955824e-01 6.891034297932745467e-01
9.064505018392412516e-01 -1.051540515576976642e-01 -2.257644862184225998e-01
-2.523394274770096590e-01 1.430493006732276237e-02 6.316291086363872154e-01
1.278577536473969774e-02 2.150842710767588151e-01 -1.594773090360336598e-01
-1.895444918996814221e-01 8.310080529988592701e-01 5.127218319193523888e-01
2.579996003942844340e-02 9.746232037758262301e-01 -5.003601167419304691e-02
6.695946769633966955e-01 6.194379542972333619e-01 1.310338914198865279e-01
2.420691259250610516e-01 -1.138964907164061041e-01 6.324386942422689784e-02
4.731958075134563568e-01 4.051726685262453387e-01 3.180870951668752777e-01
7.300990471277553698e-03 -1.242453160445635002e-01 -1.474977467084986060e-01
1.862381754824084801e-01 5.215193271769650446e-02 -5.521079488770683774e-01
-1.089660920410473188e-01 9.701053534591869143e-01 1.831092839680338244e-02
6.891425669949059474e-01 -3.656351269803934101e-01 1.317437430793198284e-02
4.015815824783754151e-02 2.809048893010510084e-01 -3.113219910762596299e-01
6.663109426953105485e-01 5.072422379808377846e-02 1.291806618371708348e-01
-2.358448265426846824e-01 8.154016198586350184e-02 -1.230682848694255628e-02
-7.651783083785104189e-01 2.111489761037267654e-01 6.262318046390551451e-01
-3.402942381905365021e-01 9.097802500656295699e-01 1.395232727967133657e-01
3.749611021609861039e-01 -1.500615664209416222e-01 1.176948281605489782e-01
1.393147928520292456e-01 -1.903277433409182318e-01 6.796276741436689528e-02
-3.509588647928006400e-01 -1.559263538150789941e-01 6.531475235849412142e-01
-5.429348900022625823e-01 -6.665745921726411449e-01 4.402286824837681745e-01
1.473328664137572297e-01 8.336934717080787816e-02 -7.568595434848073358e-03
-1.024891192168645576e-01 -1.197260229257380293e-01 3.156121617334393115e-01
-2.277592088057174557e-01 -8.327603794686809779e-01 3.125265817894427034e-01
6.921640922215407388e-01 3.006013971708807464e-01 1.661958792671093532e-01
6.311237574070432954e-01 -3.781314628522546017e-02 -6.816803342660707754e-01
3.076790836392007122e-01 -3.238020001692138439e-01 1.547048782166090819e-01
-2.392381315257855190e-01 2.984052424984779892e-02 -1.212503561640550231e-02
-6.565868702077218844e-01 -7.348600044179198765e-01 4.668959421112516906e-04
3.605194948305422975e-01 4.211696170468807315e-02 -6.727185836997328083e-01
-1.094728453247958422e-01 -8.133179238888638835e-03 2.212084054791818577e-01
2.024863294561891069e-01 7.284360977699007034e-01 -3.921657696680701521e-01
1.992316213498595001e-01 5.310666630041778191e-01 -4.783338721886048472e-01
4.755907210784274808e-01 3.239782344364807720e-01 -6.280492605806126116e-01
1.358139847831196616e-02 -5.019540414390891714e-01 -5.963776333402553975e-01
6.194032362049111534e-02 1.603337718513191124e-01 5.185539136185345066e-02
2.913149554888282977e-01 -3.406505221245747506e-01 -6.918231544067630079e-01
-4.736274090684126636e-01 -7.581110375679321889e-01 3.701673270475656641e-01
2.002252400830484003e-01 -1.493908612873643960e-01 5.776028032290263237e-02
-4.301994974212084433e-01 -3.383479376805725303e-01 -3.069850185678703047e-01
-1.775896198194505671e-01 3.181027599083260382e-01 -1.490350565705083619e-01
-5.872055260945221455e-01 -9.748410159893709792e-02 -1.579078034517778228e-01
6.585064956583025486e-01 4.542656626667622155e-01 -5.277453663197172462e-01
-2.544463998196877432e-04 -1.353401300916895200e-01 -3.540224231680045297e-01
9.178735604978219276e-02 -1.110008221765147601e-01 -5.284558242896290892e-02
1.072149944511842506e-01 -4.021189625811530388e-01 -6.325289861613707654e-01
-4.737237517810282683e-01 -6.021422025616632867e-01 -3.248396684697885117e-01
-3.272365747019688742e-01 2.133902142531368118e-01 -9.294670869135850111e-02
5.852311239546355015e-01 5.834941046795966146e-01 2.448203074961967929e-01
-5.865095849861520771e-02 2.001688781615080515e-01 -3.264898661104812666e-02
7.431575470368303460e-01 -5.300871503490255376e-01 -3.167374545664328744e-01
-1.215161824550759634e-01 -2.453429271180256332e-01 4.230288102898840386e-01
-6.906563365524526210e-01 -4.306767046971822221e-01 -1.691228153376157506e-01
-8.350375738555002592e-01 -4.154317509921791607e-01 2.014282484308057772e-02
-7.081640362445656978e-02 -9.857362080982801089e-01 -1.378281249270878750e-01
8.244284653246015948e-02 7.373248330415452800e-01 -3.455608752648630100e-01
-4.042149308181629541e-01 4.948688146063544013e-01 6.947778410621042733e-01
1.256067625576397229e-01 -3.024591746871063691e-01 -6.259171504900803429e-01
1.885853492157328615e-01 -3.481394500905243827e-01 -6.619079353781350816e-01
-7.152359425173221430e-01 9.992707810359795217e-02 6.738151083868793023e-01
2.253559677237322867e-01 -3.403768329991744418e-02 3.736334648817415949e-02
6.125769553122413225e-01 6.171860681506151636e-01 -4.324662138522323285e-01
2.349432975842060956e-01 5.120849889855566550e-01 4.765605066721653738e-01
-2.955417251551952992e-02 -6.883008265000050141e-01 3.485311382769170629e-01
-8.693382778007678890e-01 -2.312023183969145745e-01 3.012830461596029824e-02
-6.707494080247659862e-02 -1.819863138858547891e-01 2.445981399131561262e-01
2.670164784721197337e-01 7.004477590862855374e-01 4.463109198430493252e-01
-7.178271166779374157e-01 5.232762467769032089e-01 1.022726443521347478e-01
8.970545640520549702e-01 -3.790604413309826837e-02 -4.131614565918854121e-01
-4.533226361699663753e-01 3.177629660486549490e-01 7.273078152175006528e-01
7.134606365111859638e-01 -2.605626245735521707e-01 -6.152914506816836715e-01
4.091038266748205782e-02 3.939151993136529861e-01 -3.668807857572393694e-01
6.148890377253353190e-01 1.935864789277975673e-01 1.882341408393877757e-01
-5.865077403397570555e-01 -2.906737270406689611e-01 6.486620139553550546e-01
-2.480038908286262000e-01 7.095022294416405417e-01 6.072836037480503490e-01
7.513900897080186825e-01 6.037568075296718684e-01 -2.690284298313759814e-01
