4.104133936968095697e-01 -3.389973650934202665e-01 8.236296652192225398e-01
-7.192648809695825762e-02 -9.157802694511569808e-01 -6.847086964953619237e-02
2.729403745368536374e-02 -4.408490435695316262e-02 8.903835013382118690e-01
1.952198340122899764e-02 4.903558505357214492e-01 -5.990583289984424686e-01
1.422086209436414506e-01 -1.547886830520824215e-02 3.265404583524899040e-01
-4.932930101014131319e-01 2.220065791891553952e-01 -3.796232802160727227e-01
-1.194882157265117206e-01 8.033571669223247280e-01 -4.872597308232801683e-01
2.902614706627024144e-02 2.088461630857050555e-01 -5.135546173551838178e-01
-3.359059041091279063e-01 -6.135203099778464564e-01 -5.002717482599861043e-01
3.044272350112751935e-02 4.401138954497793576e-01 -5.970078487844081572e-01
-4.300065007039106102e-01 -3.662847651478205457e-01 -7.496688527630436250e-01
-2.523832550514419903e-01 3.605234186717782285e-01 5.421543379971351939e-01
-4.014131095722400233e-01 8.940478516322215574e-01 -1.109745115280150879e-01
4.586515895774128659e-01 -3.984582328391831907e-01 1.583751648188298777e-01
3.656848642523857079e-02 3.205294491421352698e-01 -5.069987356902992959e-01
2.041402297230341945e-01 5.048752304339524377e-01 8.079534574588718154e-01
-7.990102832305709391e-02 -5.059227588907846407e-01 9.758823147010155241e-02
3.505560537022363032e-01 -5.339833615809367329e-01 -3.579263615887271488e-01
5.013723407489761169e-02 5.366406360923915431e-01 8.121555319354012425e-01
-3.183818582756257620e-01 8.217658189349358322e-01 3.313259989344728429e-01
-2.938616551025706736e-01 1.603461891037547826e-01 -3.102797664256288779e-01
2.256101377252311135e-01 2.412400488997949732e-01 2.972639723218336583e-01
7.181981917393893966e-02 -5.972702046337143716e-02 3.497798334863042036e-01
-1.596463471168153500e-02 -2.965197535056268707e-01 3.620236067752634623e-01
-3.773434102092686204e-02 3.718695686464585370e-01 -1.925664783427710192e-01
-2.238956811238717870e-01 1.920402010676957871e-01 -9.689407590256461367e-01
-5.587166184970449034e-01 1.872229189398739724e-01 -5.295154112447643113e-01
5.162929975492079604e-02 -8.748778414975288964e-01 2.940984440289963198e-01
4.408618651000580368e-01 -4.069380876859662877e-01 1.216605653153822464e-01
3.147038524457568959e-02 4.035431153738012755e-01 -3.863538326892321240e-01
5.222455250248140279e-01 -1.218784730064304406e-01 7.246967064197902264e-01
2.993166162501884608e-01 -2.136794214929494395e-01 2.350073704154974630e-01
-3.317726445976498795e-01 -6.251858176320894689e-01 -5.240212953083156489e-01
-2.857438493302697502e-01 4.577037228702336424e-01 -8.608746943305231047e-01
4.234211933582023024e-02 3.304002767723323575e-01 -6.145189018654987345e-01
3.830361901919276391e-01 3.884484013946183367e-01 4.506597957977137026e-01
3.774261157709628001e-01 -6.645421784543256161e-01 6.330022093860533383e-01
-2.773416919430597982e-01 -3.263594648035797463e-01 -9.402412929375261186e-01
4.177728580645699574e-02 3.866569840426401505e-01 -5.226911907144313751e-01
2.052691173244838851e-01 7.016891498639710179e-01 1.390442482860197171e-01
1.213240230329584862e-01 2.832664852100067465e-01 2.383725164066455016e-01
-4.474873702427517586e-01 8.162178665037406189e-01 2.361808943407670003e-02
1.583409509322592501e-01 6.574951026057620496e-01 -7.523213627854124542e-03
2.410673568216769314e-01 8.173144312128394207e-02 3.270032297727660242e-01
1.830091753819065511e-02 9.354171781996619695e-01 1.042567292615023261e-01
4.375788996589959762e-02 8.539720903646481620e-01 4.688053854842745283e-01
2.929746822346417923e-01 4.444391779533484188e-01 7.944848615868087549e-01
3.125243198998251537e-01 -4.766753807607126969e-02 3.237728129901115137e-01
-4.560048521666928423e-01 -2.562587530998431395e-01 -5.583696779055673520e-01
3.166568207888390551e-01 -4.659394566602808041e-01 -3.461236024653416843e-01
-6.063088452760802272e-02 -4.485349480422876622e-01 4.223979569197330863e-01
4.836546354373091883e-01 -6.480673325433825571e-01 -3.178518067037641032e-02
-5.167224284434283055e-01 6.832718710374450222e-01 -4.777191412538996373e-01
-3.743326472627580004e-01 5.131572766980888600e-01 2.742336155493061978e-01
1.456494726330117007e-01 5.432862795475413842e-01 2.100136406272135395e-02
-5.523747478979004200e-01 6.318563322192983778e-01 -2.587416858975827849e-01
-4.917751455666958815e-01 -2.005713331884260431e-01 -7.395489354865509846e-01
-5.905056431921106019e-02 -4.030276935897477708e-01 4.712614490383617016e-01
-3.258560211204654111e-01 -6.042935530814788070e-01 -4.259605853883822735e-01
3.075954089052236953e-02 4.178396226935016111e-01 -6.130300865537858801e-01
-7.970351769816762244e-02 -1.762142037872089784e-01 -3.603210032561083298e-01
-4.912417688522531523e-02 -4.363373076703947473e-01 -4.324324178799521939e-02
3.206017470755133103e-01 3.379385107555917811e-01 3.468119548868867641e-01
-3.302656424802251633e-01 4.605814032910530709e-01 3.542830190201836649e-01
-2.425530712777359821e-01 9.434029915063276706e-01 1.876693892465097768e-01
-2.007600419814361825e-01 -7.346324902206480267e-01 -1.365954586173292185e-01
-5.473347946843185596e-01 2.394064385436789899e-01 -7.570146238433624886e-01
-5.727223769409234277e-01 1.879225466581765924e-01 -6.432181642702394786e-01
-4.644863447983831883e-01 2.737413400268389196e-01 -8.635884923955394754e-01
4.031825917132818016e-01 -2.739215612005060363e-01 2.292958972524428152e-01
-9.046135931896627513e-02 3.589785422591676434e-01 -9.994127637565429489e-02
-3.368733616210851239e-02 2.273918301677546605e-01 8.721620364188555907e-01
3.447411533533043526e-01 2.794494842128003032e-01 3.747572377750439387e-01
1.478252541627177730e-01 -3.614807399011971817e-02 9.408497553996171270e-01
7.848378312593526362e-02 6.982879166753170885e-01 -2.544535646800700768e-01
-1.385967072143278606e-02 9.365328974067574919e-01 2.629393349686703352e-01
5.226420159586259856e-02 1.461601522794375996e-01 -5.773700942520739732e-01
8.429672432860867148e-02 8.689574907956671979e-01 3.857854233825934731e-01
2.186836382547908408e-01 -5.638972226892429163e-01 -6.771586788472261365e-01
1.501311295693163739e-01 3.186597479951545631e-01 2.263038238835017035e-01
-1.395886510648221002e-01 7.819272249500489602e-01 5.596588893960141586e-01
-3.880837659339472223e-01 -3.428955817918784010e-01 -4.625214990698171547e-01
3.368826273834897855e-01 -5.211652580301955329e-01 -3.900549680468449187e-01
5.192167447964493032e-01 9.488500708939093600e-03 5.916275457142358141e-01
-1.528723174811629122e-02 7.507792221796263932e-02 -4.563236101954964985e-01
1.576365606967544339e-02 1.710636751278892809e-01 -8.302049979043110151e-01
3.750031898097258565e-01 4.131182590846785296e-01 7.140855985953122875e-01
-2.926440223820959141e-01 -1.636079466109809921e-01 -3.868784500177694374e-01
-4.970225329052495589e-01 7.430209625753796121e-02 -8.536927210634640550e-01
1.108730088086534588e-01 7.944088320514941515e-01 5.373148835688930092e-01
1.983885462287787033e-02 7.311333976307178295e-01 6.568645154457574131e-01
-1.747943531840362441e-01 -4.020337439036515415e-01 -9.371543924308086693e-01
3.184390579977879332e-01 2.472878071886284307e-02 3.434896846487229261e-01
2.306593148964290740e-01 5.425618270812244681e-01 1.828675013324525256e-01
5.264388111569777706e-01 -5.234575447124162340e-01 5.816674342998960912e-01
-6.267961951399698972e-02 -3.136642414061601158e-01 5.368665219113657461e-01
3.292495920239074114e-01 -6.895222076354782237e-01 -4.570713814231684435e-01
-4.967144906059359211e-02 -9.383550140360240599e-01 -9.951272074315621607e-02
8.125454000015028266e-02 -1.811498595977048542e-01 3.122090659072345176e-01
4.894514756230932684e-01 -7.815491658537757624e-01 2.001163896820722099e-01
-7.351674814221942356e-02 -1.466681708315392685e-01 7.121795240176468367e-01
8.005083724567073344e-02 -3.602377295413116132e-01 1.017208568126233004e-01
-3.931557121870114524e-01 6.270192069091724552e-01 3.051453508753955712e-01
-1.034878066278260428e-01 -9.091459458558656115e-01 -1.986331009392447999e-01
-2.440412688728538920e-02 -4.319739587560488259e-01 1.832823615530361494e-02
8.624780485938102204e-02 -3.635721233245067241e-01 -1.410032144716319158e-01
2.573514742101367103e-01 -3.913591411796588648e-01 -4.029452953366123302e-01
4.128467052249972236e-01 -2.132709659918535783e-01 2.850989011192839873e-01
6.677609837447698315e-02 6.225436295424172650e-01 -3.314376987773897665e-01
3.697350767957490181e-01 -2.124914517225180155e-01 8.834332893071841220e-01
6.574256623687371737e-02 4.830616006029037623e-01 -1.080417200712791848e-01
-9.521056489136231482e-02 -6.121868188968696556e-01 2.254891298920569942e-01
-9.010722130853740519e-02 -1.427163560543205922e-01 -3.728139938555977695e-01
-1.649482973187572643e-01 8.992474046212994843e-01 3.733958219875062046e-01
1.679098584082328871e-01 6.139351766017293877e-02 9.482410737144805202e-01
-1.837232917362803253e-01 3.624909506966896844e-01 7.137596046697916030e-01
4.296608359455891812e-01 3.314172023730400651e-01 5.602847858239828893e-01
-1.908272427050188846e-01 3.248998533296577063e-01 2.409394885671346520e-01
-3.651499839784464602e-02 -4.647242444382894133e-01 5.804185929279898071e-01
-4.066684230029719849e-02 1.383904081572275291e-01 3.624393195816071334e-01
1.197078080052673549e-01 -2.736103761190279426e-01 2.157968744452282706e-01
-3.611087872226246831e-01 -3.525938013911638635e-01 -8.724930559111472306e-01
-5.468007150843700037e-01 3.188889947822565185e-02 -7.177629278242841915e-01
4.171132480788377062e-01 -2.981093607638817256e-01 8.330066671949447610e-01
4.163248794125167240e-01 -7.101959081517668360e-02 3.672075611983094956e-01
-3.385478017477963619e-01 8.821263778795697119e-01 -3.614592776910297567e-01
-1.985928355307551296e-01 8.744286980907757245e-01 -4.129793173717105637e-01
-3.825857305898977545e-02 -5.587177340568106887e-01 5.021710925439272222e-01
2.079339541622725607e-01 7.556877162883020027e-01 2.262877904418004182e-01
4.431400411513530119e-02 4.562445775660087244e-01 -3.647250697887431947e-01
1.071599231268725722e-01 6.277577463079161424e-01 -1.637186150198247647e-01
5.233464947834072685e-03 3.638460471137560104e-01 9.597571332509671760e-02
-2.337543835171818074e-02 -4.193426721380848488e-01 2.019258994399832086e-01
5.540355271828240058e-01 -4.290235323115201282e-01 3.495609373009287424e-01
3.436104315523176855e-01 -4.447086909620033834e-01 -1.207567988304468487e-01
-5.374734073825701008e-01 5.051151237509785563e-01 -6.491822377923317511e-01
7.273151513639518340e-02 -2.674302674228780652e-01 -8.780274520235250568e-01
4.507213362320415528e-02 -2.105066639380681059e-01 -3.852270309422330397e-01
-2.895939646585860561e-01 -6.045483760614096536e-01 -7.279809698541465091e-01
-4.020753728281810380e-02 3.154195482522298422e-02 -4.335049024926110883e-01
-3.647321351831788738e-01 4.390692900073885907e-01 9.570988388759105181e-02
3.304949599633718593e-01 3.616515987218683059e-01 8.172502394775136292e-01
5.663476806501237526e-01 -4.543960001888646127e-01 4.531921753584598478e-01
1.786759496631741984e-03 -9.848711078629965310e-02 4.000770868375713718e-01
7.738522624061593136e-02 4.990215268565563744e-01 -1.037121520025704596e-01
-2.935515109758996544e-01 -6.776906964899880315e-01 -4.028085129780198392e-01
1.744133292829220866e-03 3.657007339536517687e-01 8.949429933871641540e-02
3.896124457067208779e-01 -8.449158997028487494e-01 3.584419375063848112e-01
-1.452675609866572182e-01 -7.427084556951245309e-02 -3.793102001958541525e-01
-2.455069348427593168e-01 -1.061920701721349725e-01 -9.973487704024308620e-01
1.733407232657308839e-01 -8.473822392988000773e-01 -5.192673142001370534e-01
-1.151308917186328988e-02 -4.138352401577284900e-01 -3.778700293349381706e-02
-2.740144373126767730e-01 7.991371592538204505e-01 4.213798562448264340e-01
5.470592599860087946e-01 -5.605065458065796591e-01 2.529882108233118543e-01
6.949685666707658416e-02 -7.152593934459300362e-01 -7.174525859026713581e-01
-3.925782062393184391e-01 -1.574793196143321194e-01 -4.461476429621696882e-01
1.989659606032619377e-01 -8.294685127330225782e-01 -5.202577082957452470e-01
1.492831223969602432e-02 -2.566106397395556335e-02 3.853753536915246469e-01
-2.345844309487683452e-02 -4.190342095155068503e-01 -4.477667709582868610e-02
7.382976673525339095e-02 2.559054957461843194e-01 9.164952977419515978e-01
2.168649467915259310e-01 3.936833609652715116e-01 2.294164485274829968e-01
-2.411149487466292540e-01 3.666938473998173631e-01 8.605707484808772234e-02
3.718003493641985346e-01 4.045374263694406780e-02 8.957223904265604331e-01
-2.067553062980025669e-01 9.178619267792252900e-01 -3.172353253285491448e-01
-2.034240269655021582e-01 -7.262898701046225369e-01 -1.388446965193411708e-01
-1.106203604264570789e-01 1.000911071666947191e-02 -3.935541891484079513e-01
-1.288125760276296605e-01 -6.151818286227725974e-01 7.774377907425351897e-02
-3.319079932511023734e-02 -3.388339958649549399e-01 6.847538211743214864e-01
-3.688781609198090172e-01 6.252090561606888919e-01 3.661719353188205850e-01
-7.124026176595832371e-02 -7.286067337926484255e-02 7.673494523809057943e-01
4.223041330572593344e-01 6.767055364184666744e-02 8.492072722702700416e-01
4.087849037453962844e-03 -2.042927674522625747e-01 3.773831815166108772e-01
-5.441934122510627692e-01 3.830781150979560290e-01 -3.372879865682755773e-01
-1.361737830007822281e-01 1.133682563288437167e-01 7.201174355196946486e-01
1.530702233894531694e-01 -9.941478344018422897e-01 -1.325829739573643751e-01
7.019512510080280765e-02 -8.940729785405835406e-01 -4.987230870717741515e-01
5.916994650197839045e-02 8.357200546236301930e-01 4.968172189998302790e-01
3.477079179741972559e-01 5.395943521352721817e-01 5.585928657228509397e-01
-2.545212046152571794e-01 8.915250587468546151e-01 -3.819759506898665613e-01
-1.669422818038094336e-01 1.150605603188864096e-01 -9.784370586988827556e-01
3.309335990945503903e-01 -9.182856722308252451e-01 -1.699231422811023906e-01
-2.002147018531296174e-01 3.559360466282165403e-01 8.122142706430178494e-02
2.500408337491001887e-01 7.063697382945394176e-01 4.813507771068545327e-01
1.738916576894146693e-01 3.434683759023726690e-02 3.232938702535789188e-01
-4.424029799839091642e-02 2.236164255499174802e-01 -8.799247435754404822e-01
1.112961604358959494e-01 1.282272369481482488e-02 3.346451548607235482e-01
-2.006047260971020596e-01 3.041310586199078569e-01 3.237090651374079364e-01
4.075997763489146997e-01 -5.296860754702902296e-01 -1.495098417950551928e-01
3.976017525868809077e-01 -3.108535901128566814e-01 1.886991389738657821e-01
5.504890530331471021e-01 -2.602272568951840559e-01 6.440076822532240231e-01
3.137151911949458416e-01 -5.280007410612290730e-01 7.689586426592994739e-01
2.112779274991868905e-01 -9.860876141460800381e-01 4.702533809581453672e-02
4.126714765962283954e-02 3.934170127223501900e-01 -5.514702259402806117e-01
-7.785719307784660925e-02 -1.119285283467579412e-01 7.260144431095081341e-01
-4.762111743294268895e-01 -2.646603270024359689e-01 -6.465196615710574468e-01
-2.151249094848961887e-02 -6.226539849559121764e-01 4.920913768498978991e-01
3.784141192760015482e-01 2.354792438197043924e-01 8.382729556856418629e-01
1.648136856566026487e-01 -2.401919174194069306e-01 2.253034961024754090e-01
2.893949314361210501e-02 -5.380332297373479830e-03 -8.835206040350598311e-01
-4.786814637588120841e-02 -1.208421519233289498e-01 4.664369996241451988e-01
-1.054579622339025663e-01 2.936342604213740826e-01 2.292113035127331389e-01
-1.153051202245444912e-01 5.468807486915195915e-01 7.444250857211320849e-01
1.157712304559606678e-02 3.776551226441431930e-01 -3.386711753346761111e-01
1.216164650143818082e-01 -3.981488458355534887e-01 -8.226464709773030348e-01
-2.748387366552390576e-01 3.828006827698717807e-01 1.458161024790732563e-01
1.422716225146183032e-03 -3.850844980238362636e-01 -1.183799661977867762e-01
2.720026902288751325e-01 -4.098697986861260523e-01 -3.061118495580560372e-01
7.127385641092492952e-02 -5.956585818761889195e-01 -7.972668084316713033e-01
2.173684922802755597e-03 4.038506395151946204e-01 -2.292684848224789129e-01
3.924922217490554588e-01 -5.564244424247971610e-01 -2.429633401480676969e-01
1.861472388738769357e-01 -4.826772519860104693e-01 7.962219569927591056e-01
-2.716161699432725340e-01 8.611559716598170544e-01 3.409557456443703116e-01
-3.155633899080609317e-01 9.102281773761207173e-01 -3.017316644746760312e-01
-6.939559641839364301e-02 -3.849666832887096990e-01 -9.372155909803795426e-01
4.573814348950483999e-01 -7.579831120153576185e-01 -9.062959457915446826e-02
3.368763652655044627e-01 -3.308409757352829272e-01 8.626073389635057209e-01
-5.373267300189557387e-03 -2.510029481807460328e-02 4.017775749057994061e-01
-3.005871770988993719e-01 -3.892549800911732083e-01 -3.541429077879966747e-01
2.574053836173232912e-01 -3.282363658213074964e-01 9.504827221523683145e-02
-2.779064126077058217e-01 1.655643874204721089e-01 -3.059374039919209309e-01
-1.898454117510993688e-01 -8.318818033009204305e-01 -3.153549026124548571e-01
-8.922290086726093750e-02 -2.048671738979043755e-01 -3.441476185248996122e-01
-3.121170433988511295e-02 2.366443138132025836e-01 2.753766325692710293e-01
2.713473078163727847e-01 -9.106794205938222309e-01 -3.083981949719836191e-01
-5.687955473184541644e-02 -4.540977282294205164e-01 3.192363437419347694e-01
2.324409342347168450e-01 -5.964698290245697976e-01 -6.492114013234012715e-01
2.219592767740813100e-01 -3.341352358642260545e-01 -5.611747998137124327e-01
1.826658003211585612e-01 -8.086902376132810710e-01 4.954992429185823832e-01
1.283584388780319718e-01 -3.137378900008903626e-01 1.550655533442720779e-01
6.026910285320508792e-02 -9.489121795968025186e-01 1.284345791095304057e-01
-2.944045769783090183e-01 4.082342142692921838e-01 4.052951001301767775e-01
2.224677627366873911e-01 -9.881990504739142089e-01 -5.152264311699615573e-02
-3.845531722715482548e-02 -2.851379637092821273e-01 -2.864922321431517260e-01
-3.274403656703699789e-02 -1.712966394929630043e-01 4.402857152101058436e-01
-9.354513417687496113e-02 8.475525725977595126e-01 -3.935202629982624822e-01
9.268090974720702424e-02 -9.758335909834547905e-01 6.577041735692466806e-02
-4.827161730139450380e-01 2.043418616088548689e-01 -3.796769440540749274e-01
-5.038662132755136192e-01 -1.429293615572544696e-01 -6.185404845857335188e-01
-2.702654271828380805e-01 9.636835342312765063e-01 -1.656710192977720736e-02
2.759706959075922672e-01 -2.502866802752943057e-02 3.215542046780949792e-01
-2.399695615103387691e-01 9.669828739806157758e-01 -1.068580623624691417e-01
3.989822080607373089e-01 2.839526186354182635e-01 7.865178413908847643e-01
-4.145330344135194495e-02 -2.896889888022780024e-01 -9.503132179065475471e-01
1.301691432658494130e-01 -1.140637216132838055e-01 -7.002431826009597460e-01
5.208604919641068864e-01 8.320209919034707996e-03 6.057301592453163686e-01
9.534842774689765432e-03 9.109674583738406328e-01 -7.988426461238601339e-02
-4.241677718364155192e-01 -3.870316793878651462e-01 -5.591189443583859386e-01
4.526241397939959055e-01 -3.126269410456993803e-01 2.396095304524130387e-01
-2.976688267703609947e-01 4.119294249420107357e-01 3.948127742048196942e-01
-3.800725901832201215e-02 1.543711445651770320e-01 -4.210373304372232450e-01
1.915054699553593309e-01 5.740840896222381140e-01 9.715408758915614063e-02
-2.391952507628674132e-02 -1.813175746393791143e-01 4.242309927486622168e-01
1.619612968799543917e-01 -9.033394380370715071e-01 -4.405250687789716291e-01
-1.216109656308735631e-01 1.435603357699474225e-01 7.677694691234633328e-01
5.154816101809029938e-01 -6.650405021535505945e-01 9.577921409285608534e-02
4.348452550272376427e-01 2.611266654716218327e-01 7.365569612473735761e-01
4.816257773950396309e-02 -2.590978518019719790e-01 8.380360743887474984e-01
2.280925074821032322e-02 -8.848347804008850348e-01 2.346179365778414960e-01
-3.136865993543750397e-01 6.022021231709232536e-01 4.866726765883492289e-01
-4.487607756235446888e-02 -4.471708467821462474e-01 2.305269494368369365e-01
-2.708606911983585386e-01 -7.091239601700184414e-01 -3.556607398749163096e-01
1.607429311273489148e-01 -3.430340713294947608e-01 -2.675832000817009448e-01
-3.396239857254095273e-01 3.860196262201481265e-01 -2.136532731411472374e-02
-3.014642206617365594e-01 5.581140131243550809e-03 -9.891356149383403462e-01
2.498662712150724607e-02 2.210913825827729440e-01 9.048280230663839907e-01
-2.637196099392862259e-01 9.604647278077771411e-01 6.036857120325663656e-02
1.303460816590240601e-01 -9.700496815000625439e-02 9.280499925118137483e-01
-4.320103904763402530e-02 1.689090646560148234e-01 -4.107143391400160382e-01
-4.435746058627159649e-01 8.219709882289354397e-01 2.578688018780209146e-02
2.416428218989077892e-01 4.708144674891237003e-01 2.235868699674255500e-01
1.399963362928873800e-01 1.919995791411312491e-01 9.367969579216355314e-01
-5.598983423086868472e-01 6.030974621949772851e-01 -2.930809472122640758e-01
4.651264393384690887e-01 -3.936423857999943876e-01 7.554670778518340901e-01
3.190209612627128294e-02 6.209569875633120795e-01 7.554544797696518543e-01
-1.416064268661712255e-01 8.051071245596988502e-02 6.561831412524666840e-01
-6.825801111772892855e-04 -4.167027453243725144e-01 4.765585118692571703e-02
-1.674338763044689871e-01 1.292053051963180377e-01 -3.448508869881817818e-01
-9.853870333682629434e-02 3.285665373904058661e-01 1.488893829848826067e-01
2.306440264237699933e-01 -6.859097695526497063e-01 -6.119437132574523375e-01
-4.410238572468284241e-02 -4.496680755327445711e-01 2.114664300802432395e-01
-3.568223621460405726e-01 1.879242245031519654e-01 -3.049082897722735774e-01
2.170414150286839317e-01 7.169784044305697046e-01 1.930298746991911674e-01
-7.699179471836459232e-02 -3.685442834815232938e-01 -2.012365321502882776e-01
-1.303923570278213602e-02 6.664731187985372118e-01 7.142038765527387589e-01
-4.363112882325142355e-02 -3.821259953369565698e-01 -1.601801541425584841e-01
-1.114199950996631050e-01 4.875075603537614155e-01 -7.920190641280245858e-01
1.099333985426919486e-01 7.454228078117307588e-01 -1.214649275415670138e-01
1.219363659889056567e-01 -9.927599853492627968e-01 -1.600226532726277129e-01
3.617163693022207305e-01 -8.945296244294757004e-01 -1.555152194330191862e-01
2.969290748631414623e-01 6.305648328170320172e-01 3.950688549706811159e-01
-4.706357971139802365e-01 2.242160661403700683e-01 -8.705515924884708046e-01
-4.386313467891385653e-01 1.282502746898600277e-01 -3.868377742514304551e-01
-3.485360057559205860e-01 3.063428280618316069e-01 -1.826571295835464903e-01
1.085149474783109746e-01 6.762633865578487891e-01 -1.626263813816674342e-01
-4.337304074709172341e-02 7.538566453078133778e-01 6.267925244897006865e-01
3.449361175856213158e-01 -5.726614882665665984e-01 -4.160347690289579181e-01
-8.698373594071155679e-02 2.823507834814184547e-01 -8.891248367577415657e-01
-3.587484341205542937e-01 -5.367404788951481986e-01 -4.730294530840473688e-01
3.767880406746200173e-01 -6.236684740239248903e-01 -3.501020692505082965e-01
1.491135783418539029e-01 7.558005462784427309e-01 5.708176458957811006e-01
5.079302404009312655e-01 -8.785589720575524841e-02 7.527423425971988546e-01
1.634451191119680180e-01 3.208223438319753873e-01 2.318571776766257253e-01
4.527902949188041259e-01 -8.363806694306799017e-01 1.844979097877220142e-01
-4.800018600281830139e-01 -8.852341819900152661e-03 -4.928659168268360591e-01
5.142668408176032102e-01 -4.012879572741144263e-01 2.544823713230491835e-01
2.892440967332716717e-01 -3.459976458895527296e-01 7.261314490837292301e-02
2.386012384991289398e-02 -2.874354169177468221e-01 3.004693610787698699e-01
5.428270931054034465e-01 -6.314397807981672051e-01 2.612793061925821059e-01
-1.607980642493847534e-01 1.878771280849148018e-01 -9.587808062175396939e-01
9.295019101479280732e-02 -7.467223767582708005e-01 5.224207400538218860e-01
9.215241076163717404e-02 3.783057424917187633e-02 3.380358353010087802e-01
4.678742461913059647e-01 -6.316936540972893921e-01 -7.819876064338138200e-02
4.681982535985219074e-01 -4.515884400999551351e-01 1.113847176165530528e-01
-5.432882315574255605e-01 6.131959747937895111e-01 -1.918071478580437583e-01
-6.913895231725682156e-02 2.679262211247462333e-01 -3.188007299805956651e-01
-4.279329963218578281e-02 9.465737596772902385e-02 3.908956323354050300e-01
2.529597680570896956e-01 -2.880021162891133746e-01 1.556128782695644364e-01
-3.561030794870322924e-01 5.123924545923660423e-01 3.420022678438596198e-01
-1.924889761569813784e-01 -3.683457129693868959e-01 -2.720276791713173714e-01
1.302530612223678497e-01 6.970360463044046329e-01 6.675852173345773188e-01
7.718236262667253246e-03 6.605567860212450959e-02 -4.816944276088746535e-01
-1.685774238879086395e-01 8.537184562366717522e-01 4.501999737528638024e-01
1.501778936220098948e-01 1.894527059804016755e-01 2.932347215719390277e-01
1.086895325419400538e-01 -1.898335417225342769e-01 -4.709695154757720381e-01
7.967107212925232315e-03 2.423343459351934570e-01 2.603435021540278504e-01
-1.216593364986635201e-01 -4.945717932603388434e-01 -6.750016966902269711e-02
4.360165864764992127e-01 6.327407246086516612e-02 4.350557215409775469e-01
-4.816950697525891334e-01 6.220874758158414508e-01 4.033674104305842029e-02
2.721143693135668479e-02 7.860413499269556237e-01 5.898678729432782486e-01
1.873762173948486376e-01 6.641428105586199004e-01 7.213457331080903867e-02
5.124687503369725061e-02 -3.652874539493579376e-02 9.065071484583254735e-01
-3.750595353468169635e-01 8.976070100314142985e-01 4.733568749558409589e-02
-5.069634080300577939e-01 -5.587897925950668920e-02 -8.079450682042600418e-01
-1.880526215093722420e-01 -6.719420361118974006e-01 -7.919776390328682469e-02
2.777627790058564972e-01 -9.603168689751038212e-01 1.348962997634251260e-01
-7.633417713928840331e-02 -7.854548324111412794e-02 5.139607691235803522e-01
-2.875899379535193714e-02 1.255125279587938070e-01 3.626667719172902427e-01
-2.575863007068795053e-03 7.902235286972828510e-01 5.873457684724036065e-01
-2.866251368603267569e-02 -2.660877241271507043e-01 4.071192542592582120e-01
2.246591920671362277e-02 -3.870460964728114073e-01 -8.973054528733652446e-02
5.238666249984688106e-01 -1.933144672635198902e-01 7.248816086366728362e-01
5.444033993189688614e-01 -2.631304398150369206e-01 4.400861603430786251e-01
8.188213589638804971e-04 -3.685988659012511270e-01 2.423481797083759381e-01
-1.367631211934338190e-02 -3.867096714734528234e-02 -9.326519965565090997e-01
1.556768288952092294e-01 -1.860567979108869174e-01 -6.168002899927205185e-01
1.771345786105437969e-01 7.717598888138851310e-01 4.991396979137264212e-01
6.856206405613891539e-03 -6.032583032841190018e-01 5.642691594667128552e-01
1.232278431757494602e-01 -4.629082505866427381e-03 3.316462248739822094e-01
3.264498219813136148e-01 -3.791817518872399595e-01 8.464300555616598443e-01
-8.775420197273522960e-02 2.323773195575075390e-01 3.093681592978665962e-01
-2.106701206478235888e-01 2.702883550845915916e-01 4.579782986768672903e-01
7.906347017587576909e-02 8.421207248760500530e-01 4.674032265473614389e-01
5.008794107854936534e-02 -5.014022706599531309e-01 7.033974825586659652e-01
-1.182410236721442437e-01 3.326997320973736350e-01 1.424824792462507095e-01
5.073360691430662817e-01 -3.308083411284828412e-01 3.018893494259847765e-01
3.158204502231178323e-01 -4.282265126664635546e-01 -1.371359860053857627e-01
-2.034323964191634415e-01 8.369930612868095032e-01 -4.811806576131086866e-01
4.534903057170346918e-01 2.369768702307905317e-01 5.479258706080225583e-01
2.451496517766504624e-01 -3.689063396183703825e-01 -7.667455773726837912e-03
3.586202926601732566e-01 2.721706399689639566e-01 3.894384905119378515e-01
-3.060956372345030596e-02 2.720655599158031124e-01 2.350751370555367592e-01
4.326372132535322851e-02 2.936987459399354461e-01 -6.558626584890853151e-01
3.872017419514685033e-01 -4.877418382855793766e-01 -1.220423434294585635e-01
-7.710531964587845344e-02 -1.460129935622427322e-01 5.465811797406519013e-01
4.181105386551566827e-01 -5.636429845233106306e-01 -1.705248364029437191e-01
-4.369048381261116110e-02 -1.861975824683780312e-01 4.597502022287998091e-01
2.807467471234628142e-01 -5.555253712988461601e-01 7.557929978217686751e-01
-1.410539135071501859e-01 9.697538660649295261e-01 1.603169786743644798e-01
1.153834591723181952e-01 -3.708733762359509023e-01 -8.071387730194144738e-02
4.247978652182620718e-01 -2.544618376443129049e-01 8.396126200193922973e-01
-2.981859288691472432e-01 4.346013890764781062e-01 4.557116085328664634e-01
-5.322440982129229559e-01 1.171372465261252549e-01 -5.099622000523474918e-01
2.229509818919213071e-01 -3.349475572788239708e-01 -5.096623890574596416e-01
-1.032475051461988619e-01 1.349505138110930827e-02 5.247762093000177819e-01
-1.528945917133243404e-01 7.580282270031899472e-01 5.763048945056660211e-01
-4.475667195082039251e-02 2.966193727639741540e-01 -3.211559048029195562e-01
-8.872286696499820380e-02 3.405333466765822492e-01 -1.769576119778437095e-01
-2.902232807844348228e-01 -4.971382039405184972e-01 -3.185599318127649293e-01
-1.934019637286117643e-01 5.412215015906243210e-01 6.787040478531179977e-01
3.274303774518642213e-02 4.314012125788484475e-01 -4.790701360823921423e-02
1.309179782654665836e-01 -9.422843127677039687e-01 2.199756058999382258e-01
-5.160546728539371353e-01 4.213468342369069419e-01 -7.438306746807927805e-01
1.169749045179771657e-01 -1.120750270852177363e-02 3.333239534360663558e-01
6.936182822654858582e-02 -4.822673379676044036e-01 -8.470637733452368590e-01
3.278716327946307185e-01 5.027369703349960917e-01 6.971867380376647327e-01
5.300111127275947132e-01 -1.699736527993260804e-01 7.095898568220514457e-01
-5.678258837136562764e-01 2.617798317669413066e-01 -5.022939792482978838e-01
1.737549679258833801e-01 -2.507217031058464607e-01 -5.255879122223424682e-01
-1.318852195281436934e-01 3.391156270541097473e-01 -8.898309388112329854e-01
2.154961699272936460e-01 -3.631754728788338382e-01 -1.526515603339570568e-03
2.626703891120895085e-01 -9.627558248705213595e-01 1.434222307359389881e-01
4.975413694945807763e-01 4.804566277426651662e-03 7.513456942863411259e-01
-4.392282288269055424e-01 -3.772418616909062883e-01 -6.260442373606732724e-01
-2.886346398755963716e-02 -4.592383646292378385e-01 6.066679032575947872e-01
5.078626662166308980e-01 -7.401213781480761034e-01 1.610778303171003234e-01
3.551926277021945633e-01 -5.331547108161704962e-01 7.521443991845013777e-01
-4.139031955660609219e-01 8.703775159323836608e-01 -2.594261884807576579e-01
-2.377923485688189786e-01 -7.575831364757008579e-01 -3.038264376100338060e-01
5.717305363342443936e-02 6.160138853033965134e-01 7.600730886341872106e-01
-1.033605922638212299e-01 -3.779394841336509159e-01 -2.057234781588415939e-01
3.954278345448881266e-02 4.292418563006102916e-01 -5.488935241513076546e-01
1.141863604008377386e-01 -2.985628990218160417e-01 1.889668209561519985e-01
-3.510143669780084186e-01 7.365579134362340019e-01 -6.092871900773010330e-01
4.725959921917312623e-01 -3.084834325232405517e-03 4.566066160697394571e-01
-2.762489392839442282e-01 -4.019898052082602757e-01 -3.257899345417311632e-01
-2.243421756081045992e-02 9.702455228260234432e-02 -9.068431485188341856e-01
-4.080940703303578276e-01 8.248766784566770038e-01 -4.166250503793596516e-01
5.367321735926724457e-01 -3.423537063648777745e-01 3.563934395372106989e-01
5.589114235237947481e-01 -4.120076015274759529e-01 5.618537633613978066e-01
-3.289341711630060228e-02 9.462447317451899709e-02 3.830482978198624933e-01
1.239370575951264652e-01 -3.387981590438103319e-01 1.086137335808154830e-01
3.195147883028092717e-01 4.466563294187915201e-01 3.419964162535447660e-01
-4.579933678486194926e-02 5.066906524376076915e-01 8.011851154948468334e-01
1.910420243993292411e-01 -9.178259413615084961e-02 3.026405738990042837e-01
-2.610712589545351459e-01 -3.451648409883838892e-02 -3.765285497316113172e-01
-4.008081362276418869e-01 -3.170728627059283267e-01 -4.771667095324984564e-01
1.336414102813666127e-01 6.413282409557626018e-02 3.253323483028734420e-01
2.602651857564473176e-02 -2.949893428662631600e-01 2.903411865457768970e-01
2.606368661999466929e-01 -2.541562218126038886e-01 1.945875486074460370e-01
8.335323972806578385e-02 5.218290352152810119e-01 8.223877827621257630e-01
-3.811748265412005510e-01 2.576372947142130387e-01 -2.561317189078353151e-01
1.179965954757139328e-02 -8.825396912291911394e-03 -9.035989660926927458e-01
-3.627407906220052602e-01 -2.207495197934956910e-01 -4.268985028176447982e-01
1.540274136701658414e-01 4.554708472951265463e-01 1.195390919670346885e-01
-2.078181144471495656e-01 -3.928142089714820595e-01 -2.683942145382761102e-01
-1.534695328047561425e-01 3.441449383582062538e-01 -7.762051129660278714e-02
5.480366261987313914e-01 -5.982437589228841723e-01 4.017218728744519907e-01
5.391558236133164178e-02 -9.694820495376550440e-01 -2.904446823807679268e-01
3.752777287921311156e-01 -7.602613600108866221e-01 -3.227224602908827511e-01
9.498720483880539189e-02 4.902915370318707833e-01 -2.713747838672505783e-02
-3.987102093537978759e-02 6.922733673688634681e-01 -5.381967677088961288e-01
1.910401547269639233e-01 4.563627326946754770e-01 1.654529946372627347e-01
-5.490898997580714314e-01 4.268361256806607051e-01 -6.810136399787758421e-01
-2.080948782135728925e-01 2.563267901129775983e-01 5.776689350747956642e-01
3.660037862103812656e-01 -4.564318698954491493e-01 -9.813552439642937719e-02
-2.432929006615576484e-01 -7.408172691033687585e-01 -5.632587793729006975e-01
-1.721546843150102979e-01 3.509763577411996738e-01 -1.882125758529144474e-02
-4.842178009206137279e-01 4.848639265253687491e-01 -9.879153782658620098e-02
4.839900999341130161e-01 -5.978850795283756625e-01 -6.001210601681863932e-03
2.394382392031527973e-01 -3.652374936827075813e-01 -4.453551160181518087e-01
3.135343728804023539e-02 -9.600998519527673691e-01 -3.191513297193260823e-01
2.383485281785059362e-01 -3.895621418333143349e-01 -1.775820960622763456e-01
1.303388074525494156e-01 -7.366745257462989915e-01 -6.666970235979861048e-01
-1.418686414203182145e-01 -9.644601177241385326e-02 -9.948768893053090423e-01
-5.675120894429147578e-01 5.831371800070577205e-01 -3.572095889350263009e-01
4.765991865113353154e-01 -7.970100863211424524e-01 2.424291171915659848e-01
-1.009543404947500500e-01 -7.049778557148338176e-02 -3.903630244209906897e-01
3.824771923570813859e-01 -6.859481555880042603e-01 -3.398335278193082010e-01
7.428189533185015903e-02 8.332104516378057157e-01 -1.066127586726594578e-01
-3.423931054480175984e-01 4.183342863962926095e-01 8.584921241621347454e-02
-1.941431505375204314e-01 -7.634027530028865138e-01 -1.425261395958114796e-01
1.754509992654221251e-01 -9.711351230527328626e-01 1.436535065709942105e-01
1.871453024923710740e-01 6.419091672814385419e-01 7.016388389642386203e-02
-4.003915411167717313e-03 1.249980732046426235e-01 -4.666531552032102126e-01
-5.733156991271458613e-01 2.001892042673001915e-01 -5.978724160099868623e-01
1.561336569487750681e-01 -3.151829261635766821e-01 -3.384510416838671931e-01
-1.747182535061143072e-01 2.150851472801007802e-01 -2.880099932266522722e-01
2.276345316949215936e-01 3.621200105969964445e-01 2.535913157958413211e-01
-4.935741113769089028e-02 -2.342968699171452396e-01 4.681435158618327819e-01
-4.870707008180326092e-01 7.799713744057269471e-01 -3.381874562171459653e-01
-2.917878633258513266e-01 -4.315369529152971451e-01 -8.805877851578821636e-01
5.525817783985509900e-03 -8.672495820530153887e-01 2.406610784515995916e-01
1.132824579120785546e-01 -2.393961204808918719e-01 -4.153165812611208652e-01
-1.913786441769735891e-01 5.764890873629480855e-02 -3.628615335595601898e-01
-8.682517480639170837e-02 1.994099083227424962e-01 3.458347671232980813e-01
4.900022407762386067e-02 7.124219435691335478e-02 -8.216825761160904129e-01
1.340633644725607865e-01 5.108596918026251377e-01 3.027644129108377630e-02
-4.231189407196961905e-01 3.241432918972655397e-01 -2.144889363659519543e-01
3.221889922476009471e-01 1.189554312781808398e-01 3.562187477224574850e-01
4.948170903680577104e-01 8.590630619876535659e-03 5.029784090804569896e-01
1.414792893958904396e-01 -2.786871462920800790e-01 -7.900911736774313132e-01
3.122933260547167689e-01 -4.310992703072265009e-01 -1.646898715357903997e-01
-6.131537215099432808e-02 2.456118957405085124e-01 -3.477718051368210994e-01
2.076374953578018212e-01 6.355288539471074527e-01 1.211856080806631430e-01
-2.282013398779482727e-01 1.601344897639935816e-01 -9.770264925989983196e-01
-8.082382104736486605e-02 3.214016353847393148e-01 -2.318233982562447337e-01
-1.969909136255202364e-01 8.004978734563924503e-01 -5.348827621374575569e-01
-4.480899157894138729e-01 -2.515768661297431152e-01 -5.385794740570265526e-01
1.004276001411402303e-01 -2.958666438466752563e-02 -7.446520361004503874e-01
-8.889932020516344569e-02 -3.724929685500483201e-02 7.477825546242078403e-01
7.415398692773150779e-02 -3.621302055174278611e-01 -1.486451453043249882e-01
-1.560594781348479676e-01 -8.480261302145284397e-01 -1.664957207440764253e-01
2.487096039157011065e-02 -1.366100064282390614e-01 3.731892192408521880e-01
-2.128738412160195714e-01 8.314431228295815490e-01 -4.926074878907796828e-01
4.528889049535237410e-01 -7.814653406893840026e-01 3.827131645138006633e-01
3.627665358742312440e-01 4.742398643797471891e-01 4.506919453609009585e-01
-1.057942582590211539e-01 2.570218850315761361e-01 2.899179222953152668e-01
-4.466813098747787203e-01 5.435289697345325743e-01 7.916282687421351272e-02
2.758310921278798733e-01 4.797845742842366534e-01 2.708126954051355839e-01
-1.044338391538089245e-01 6.015723397303304187e-01 -6.987734972501291608e-01
-3.406955060021039650e-01 5.499782501460279693e-01 4.212731173553443953e-01
2.807660321908532486e-02 3.187434779495521009e-01 8.909217415671613072e-01
-4.888027666929451592e-02 8.151201764109715642e-01 5.515293189725428702e-01
5.292421064405556930e-01 -3.675660614283936534e-01 3.172661251618131284e-01
1.091040024683518350e-01 -3.679613186781199863e-01 1.860485895685443786e-02
-3.050600444179333848e-01 4.391455392395042789e-01 4.320540801323335955e-01
-2.010538634329325225e-01 9.575276673956297779e-01 1.828620653870579316e-01
4.548796598760755927e-01 -3.565071738557423764e-01 1.991824482479425673e-01
1.044719522301339604e-01 4.991981799191145264e-01 -1.887260092518196902e-02
3.097580915264469548e-01 9.822931631710486722e-02 3.489702957744963419e-01
1.859980499491227790e-01 -9.196821614842152215e-01 3.011251117947164047e-01
4.517452829532316722e-02 4.642617344844816030e-01 -1.567573441557538472e-01
-3.004152906245902491e-02 -9.547804831254377289e-01 -1.509607700773354932e-01
-1.687485060159198136e-01 9.756625561559267856e-01 1.021294651279774507e-01
-3.161625352061218086e-01 -1.135908080227161776e-01 -9.786707856053029619e-01
-1.685538779142678467e-01 2.088068865539131624e-01 6.937957677481572105e-01
-3.533875637953045046e-01 3.549852607078550770e-01 -1.076303691976353560e-01
-2.449210317564801467e-02 -7.726397016015131847e-01 -6.817320791184330320e-01
-5.407374602489653515e-02 -4.142405029079448964e-01 3.839743526659764594e-01
4.025978294092004139e-01 -8.388331199648846326e-02 3.517126409441478363e-01
-1.976344681923145885e-01 6.303565031859406087e-01 6.359677249051470804e-01
1.055084507054791440e-02 2.290903979422499459e-01 -8.076420455253302544e-01
-2.410879441611318841e-02 -3.444172704241007521e-01 3.398369636547158290e-01
1.034155525723825658e-01 -3.612529482561510075e-01 8.289788318289362801e-01
-3.302908982668954496e-01 -5.586756547668862982e-01 -7.244040070695384470e-01
5.217035523583358758e-01 -5.030107958556087056e-01 1.840375527058393246e-01
-3.326817714741096832e-02 2.914338543231151935e-01 -3.451725938162322760e-01
-1.104508578045295120e-01 -2.364288972429913760e-01 -3.258690300827511432e-01
-2.447314907427578234e-01 -7.334949339313244776e-01 -5.790509906146704688e-01
-5.060717445214947263e-01 2.283203048963487469e-01 -3.919390964759529306e-01
3.063890499102321641e-02 1.676932157450061189e-01 -5.212586773900671488e-01
-9.058095432757407028e-02 -5.115579877067801817e-01 5.771338229374102513e-02
-3.421936958453425937e-01 6.072976742539921702e-01 4.276900195267251403e-01
-7.914895344440553426e-02 8.609871690859023652e-02 -4.026379682432934537e-01
4.356129585024882123e-01 -2.471366640212874499e-01 2.782258248147395086e-01
-2.367093236429048952e-01 -4.048444286166467676e-01 -2.868050373136419862e-01
4.784883874345028376e-01 -7.411558199592011009e-01 4.043914549290633098e-01
-6.370698396692940635e-02 5.668635393757847502e-03 4.566884175549890124e-01
4.228794049361913054e-01 -4.512312773026266877e-01 7.636561409546084311e-01
2.817559832687887011e-01 -3.655689834135494864e-01 2.612642362220782624e-02
-3.289397131075609826e-01 4.656929710831317903e-01 3.732675516876093891e-01
5.163963355102717534e-01 -5.746207172332469248e-01 1.156586220447290980e-01
-2.329844588015509213e-02 -5.311526151126243489e-01 5.646745712038385712e-01
3.525220625177426514e-01 5.041561083832526435e-01 6.367889371432310375e-01
-5.302094443335406693e-01 2.092377383812922542e-01 -7.959433220517849739e-01
-5.291994435675831943e-01 -4.964208897036319346e-02 -7.374389071224998204e-01
8.752354047090604716e-02 -2.506532815371241840e-01 -8.617314331052712273e-01
3.469931773213218995e-01 -1.291112270259973660e-01 9.077486710569312445e-01
-2.087651525755971141e-02 2.032297273660246817e-01 3.027729910882478448e-01
1.530159686385565154e-01 -1.888187506344180810e-01 -7.005052304411314434e-01
4.181056214762267076e-01 -2.961512255563487628e-01 2.205787117956806986e-01
-3.004109571897459197e-01 8.328413689736127168e-01 3.438789299853485248e-01
1.024828073398713763e-01 -2.107582510300874401e-01 -4.380740030391634399e-01
3.149776276247376328e-02 4.470715257019978739e-01 -1.751278604061970723e-01
1.690302918529997533e-01 6.542847095048462958e-01 2.217687177657013883e-02
2.563532842458946318e-02 -2.802214943463636199e-01 -3.010063921828493028e-01
3.059204561431737024e-01 -7.843063514242525347e-01 5.275058251954057864e-01
2.767613401455021327e-01 4.689861687845766625e-01 2.739098233509390523e-01
4.358180705887429451e-01 3.230541672023247157e-01 5.940750619269447030e-01
2.163018925914670931e-01 7.468138795011042275e-01 2.454528168222660511e-01
-1.764998359790000138e-01 3.149603302108789915e-01 2.479919417412263238e-01
-4.824008695221924659e-01 6.851548424031941309e-01 4.440962862294423746e-02
-2.356434426516020031e-01 -7.754444909729872881e-01 -3.645496379215059091e-01
2.782662629073396135e-02 4.189029333562669932e-01 -1.613289374588207023e-02
3.134838207082720207e-01 -5.521477843923903173e-01 -4.939216331795749926e-01
1.287900125630794205e-03 3.398879717650084564e-01 8.760017783305693584e-01
-2.148000019376250791e-01 2.754832991723809577e-01 5.816156230834045315e-01
-6.284270062308376648e-02 -4.800938119818972116e-01 4.095688835546075768e-01
-5.732727210853858502e-01 2.718181911638205550e-01 -5.184146647868794755e-01
1.820501744899785390e-01 -3.671398685139670159e-01 -1.930200470773662802e-01
3.940726060150362975e-01 -5.734281554436919670e-01 -2.602080686901015460e-01
-1.623619475905345444e-01 6.921941468787184970e-01 6.262634433181225591e-01
2.168964475074922071e-01 4.997764780522553907e-01 8.054876887107892403e-01
-2.831765445672467796e-01 9.584367451061993615e-01 -8.869826891150554837e-02
-1.725368770506053584e-01 7.552994178163894290e-01 -5.849015153055481253e-01
-3.565527491742671515e-03 -2.114079018250676623e-01 3.853076587128146380e-01
-2.736855762397402692e-01 -3.601263394683387742e-01 -3.367431461169064222e-01
1.039546640363388785e-01 -1.318822944420624532e-01 -8.095134927180405171e-01
5.371323258332888484e-01 -2.126372288145327305e-01 6.908533634875925200e-01
3.045402949905190448e-01 -9.471588712043487179e-01 -1.293183989471634876e-01
5.311409669116867738e-01 -2.274726377738094385e-01 4.294580906155752720e-01
3.330547797863546156e-01 5.640483262337634418e-01 4.518707059979230611e-01
4.463597753673675950e-01 -3.033910721288380352e-01 8.081428444316947068e-01
5.363890612504025324e-01 -5.132258198692626339e-01 5.652946233488378436e-01
3.558104721425822126e-01 -8.844791457762506415e-01 -1.977836730738609938e-01
3.179121812955256199e-01 -5.651867718089246262e-01 -4.875421280964420956e-01
2.192661227817239433e-01 -3.711117297171528939e-01 -3.451992729304351887e-02
4.794654596633951549e-02 2.722782106289952098e-01 -6.122156272707025559e-01
4.826331628637441362e-01 -1.067615166293072772e-02 4.688629946303426999e-01
9.632411678600844018e-02 5.833083133227908723e-01 -1.777826376996057556e-01
3.356595816705809643e-01 -3.675106695174962246e-01 6.271355333998467063e-02
1.033522094902853718e-02 3.559851155180936977e-01 -3.685884239529033657e-01
3.570628332824927198e-01 -4.807811800482881814e-01 -1.999263791480158925e-01
-8.115022294872274722e-02 1.875799209597705242e-01 3.530134936551605485e-01
3.609566096998511608e-01 -5.241221367678334797e-01 7.557268803550251102e-01
-5.199031884875633391e-01 6.247836426761379514e-01 -9.093327558630893981e-02
1.450366777871131552e-01 6.473149119814572972e-01 -4.463953374095764454e-02
-2.387917144705452577e-01 8.871555063161968846e-01 3.343647780250110779e-01
3.071152363472968161e-01 -5.597929145614704005e-01 -5.131911478278229355e-01
-1.607722920831624325e-01 -6.328985220297297376e-01 -1.357984461184553841e-02
4.440230761712586627e-02 6.037556071282360604e-01 7.687557059990445252e-01
3.120156499146805595e-01 -1.198123273994207427e-01 9.218203500464637878e-01
-1.055410880814806607e-01 1.484764817517571049e-02 -3.955447557953769566e-01
2.186410324938617700e-01 -6.487801103226750188e-01 -6.461532102775713327e-01
-8.682069829724786691e-02 3.519507599235606743e-01 -8.551917878096094716e-01
-1.787597650607312960e-01 3.389669583873261560e-01 -8.333957199211189382e-02
-3.533919653104709568e-01 4.257500321955668410e-01 8.193692981358680072e-02
-3.379701085089772267e-02 -4.293704653400320370e-01 -2.999339716281690729e-02
-7.636205054983033480e-02 -6.679807604038326962e-01 2.961178727211627448e-01
-2.682514687446990731e-01 3.786858604579995125e-01 1.208965964606703442e-01
8.166113133941391156e-02 -3.300709459197378459e-01 -2.382140445155994102e-01
3.925288276588927983e-01 -8.687397178061843084e-01 -1.279782356014992906e-01
-8.285694037949617105e-03 -3.858295225265062078e-01 2.339460977400069364e-01
-2.194158682157973106e-01 -4.189818265665027353e-01 -9.205960857624411187e-01
1.643771402622283273e-01 -8.852282141872108712e-01 3.660665570185949180e-01
9.070455450671403852e-02 8.658499220369698657e-01 3.850322516472620693e-01
-6.969757279724764221e-02 -3.447468449744942598e-01 -2.271387639809614445e-01
2.864521134570948702e-01 5.163700880951562766e-01 2.866192174375380985e-01
-1.347247189443368520e-01 3.518122957387989636e-01 -5.208298468453406022e-02
1.195380044450027046e-01 5.942239022415887195e-01 -9.835427997260005883e-02
-2.989901800528182302e-02 5.856846191240871330e-02 -4.425094621233657266e-01
-2.802740414759682386e-01 8.489129754622102286e-01 3.487703923923807792e-01
2.276749228894494326e-01 3.330885341154570245e-01 2.658217883217272592e-01
-4.461378163353039716e-01 6.617250533027314585e-01 1.611028011219896583e-01
-2.130934674711510990e-01 -3.088511614829307916e-01 -3.163369973907675936e-01
1.509963081218160807e-01 7.269145122177490537e-01 -8.750018077545889880e-03
-3.818549907730722226e-01 -8.322379342688959736e-02 -4.264769897801924947e-01
1.552727747121099844e-01 -1.569747962978213646e-02 3.238518697202545371e-01
2.102337531366434697e-01 -1.652352303966113378e-01 9.272771474593938246e-01
4.365507583575762296e-01 -2.784048163758008343e-01 2.534480081340291235e-01
-1.305643722763501387e-02 3.599386880206189021e-01 -2.929442053013929792e-01
-4.294672886113171661e-01 6.900104997222321346e-02 -9.245622122536590881e-01
-3.410039131287588843e-01 7.579067143618755109e-01 3.622358980271398465e-01
-4.509121131844915920e-01 -3.222511154638640907e-01 -5.943172406867156532e-01
-6.162465324783487214e-02 -2.600505284405131290e-01 5.118545610824951630e-01
3.865897709035087115e-01 -3.185355689525458112e-01 8.452965153741374138e-01
-5.561251337925102733e-01 4.450363279881150991e-01 -3.215745201156999244e-01
