-4.200792107697385869e-01 -4.032698126153400064e-01 1.461882303172105935e-01
-4.030542701208029710e-01 -6.358180365353498509e-01 -5.982039992939945927e-01
5.371472164092052637e-01 2.234809743143699803e-02 -2.552319753016570325e-01
7.494663465808909519e-01 4.772143026362948293e-01 1.870106140981079301e-01
9.197771803431614712e-01 4.848749555044034043e-01 -7.460709114413127674e-02
-4.840981355862113422e-01 -1.807834190654604711e-01 2.658428085347930292e-01
-4.668258176125714143e-01 -7.127830273914157466e-01 2.347782810331826842e-01
-4.428502215457321561e-02 -6.652352508263140729e-01 -8.237834671166066602e-01
5.053262248017340585e-01 -2.648562854880679232e-02 -2.957550477306503112e-01
9.084252526387299742e-01 6.809750997367897130e-02 -3.122091140646319207e-01
9.597957740482533362e-01 1.688127760434461611e-01 -4.719516656190174686e-01
4.337004230930211479e-01 4.140211412239145350e-01 2.788762410690412419e-01
8.460028769238252533e-01 6.756987013145925314e-01 -2.053099931754254204e-01
4.746850560012246811e-01 4.632506669147701261e-01 3.785853038661728953e-01
1.577204954215446764e-01 9.659863067833578398e-01 4.024665704289352997e-01
3.402417736982924490e-01 -9.544495864737581603e-02 -7.942209069395420595e-01
-4.720552267143129366e-01 -9.169685899472279633e-01 -4.554562477807665988e-01
-8.882759535643273974e-02 6.777316713344699872e-01 8.468458168537872366e-01
9.580687750371207345e-01 2.006426417068387091e-01 -3.149634520970224227e-01
1.181457052403587921e-01 4.158645372743026702e-01 3.844194400110592658e-01
-8.064801788199736643e-02 -9.683711571378885719e-01 -5.175969146060247494e-01
5.603584442468371174e-01 -5.746541978142305496e-01 -7.395503166969353837e-01
3.727430108489105387e-01 -2.267091365873626085e-01 -8.903426940233211129e-01
-2.003273292084614132e-01 7.701997263683327821e-01 7.769029852686125670e-01
3.616494160467108032e-01 9.023934271287408215e-01 5.213127863786030103e-01
8.732253952624247084e-01 5.225223545515305101e-01 3.681629839232965218e-02
-6.441374539589389547e-01 -6.952995121065811412e-01 -3.950375624337171265e-01
7.363344154077215986e-01 1.574988036879354514e-02 -2.170693995001192478e-01
1.238425447650906008e-01 3.970183485092535491e-01 4.614659449848150241e-01
-4.642077659386679711e-01 -9.711508601889763392e-01 -1.352232324062065394e-01
2.078896188396426592e-01 5.918941003618122254e-01 6.213684567977292850e-02
7.049290655414391926e-01 3.940263067260403318e-01 1.516903555624467270e-01
-7.151880327579936969e-01 -3.318038577961204133e-02 2.200959453671330890e-01
-3.992127118616509152e-01 -5.100047244535065305e-01 2.024405658857309498e-01
-1.910934763272736925e-01 -6.590452666307834440e-01 -8.141407295371980157e-02
2.747925874308113081e-01 -1.027146071644346736e-01 -5.624466535937435729e-01
-8.011227122502465603e-01 1.317180311831278872e-01 7.793410363502463190e-01
-1.111294912907859339e-01 4.639795229910387286e-01 3.387234299829036122e-01
-2.213081528245011420e-01 -9.850034500288719075e-01 -2.943308616289485591e-01
-4.519026163030512300e-01 3.338334025717356601e-01 9.215723078851114636e-01
3.692760729788776564e-01 4.070785482101504371e-01 1.338827721922918879e-01
1.492080065984486559e-01 5.655765093547725497e-01 7.563152492363524049e-01
-6.044467688918639947e-01 -3.308049916168258608e-01 6.613719360183287765e-01
-1.084185752190981455e-01 3.633730812604643035e-01 4.166753559602889845e-01
4.058415165521452872e-01 5.507546106897813765e-01 -2.546199685061806273e-01
-4.152021529725058446e-01 -4.098150054829257094e-01 6.586047430542109338e-02
-8.748865286941492903e-01 -3.004569438485792943e-01 6.325355011885620549e-01
-9.147206089681669816e-02 -5.038412076713326693e-01 -2.802839981245549006e-01
-4.287734589978213218e-01 -4.583526748284708074e-01 2.868273461474767916e-01
-7.104405897836407746e-01 1.499758059707199387e-01 3.325825120835140813e-01
-7.764543604158411494e-01 -4.719966473919910976e-01 5.700273722656817865e-01
-1.213609298266203479e-01 5.956866495286834429e-01 2.932957226678569174e-01
-3.102984540273084901e-01 1.361543699638308180e-01 8.100411527807085399e-01
1.174704972616237054e-02 -8.397910187685747596e-01 -2.788056438015618088e-01
1.198408791523388472e-01 5.817921832548075267e-01 1.580592900424212244e-01
-9.742337374821423424e-02 3.795511589499559468e-01 4.034981632873771984e-01
2.828285843697330715e-01 8.953101759364927581e-01 9.804945003732858100e-02
-3.582899213215944290e-01 2.263068098746007506e-01 3.981765531181398199e-01
-6.201668600235668571e-02 -9.279987447068018813e-01 -3.122601974419689785e-01
6.887415283785445208e-01 5.447197752029101503e-01 2.901796222444181783e-01
-3.220100200176859717e-01 -7.240941581402341454e-01 6.974354604689551873e-02
8.128077226130731026e-01 3.721513162315965850e-01 4.780267240377149979e-02
8.369343228937480283e-01 6.670357116173528667e-01 7.027107202458250657e-02
-7.108038466217598828e-01 1.811307718063086269e-01 3.512896246562535740e-01
-9.436808975924008136e-01 -4.958199587197721914e-01 8.914552115312411595e-02
-1.230119795698544904e-01 5.619439014395656296e-01 3.008779303152624984e-01
-6.986022225015220410e-01 3.133817679152236524e-01 4.327209092057375250e-01
3.258512436284176084e-01 -1.100960780749106645e-02 -6.102354808616452519e-01
-2.887150550178512187e-01 -8.642953502230175111e-01 -4.265787609252032209e-02
5.050807060183122310e-01 6.367413477874280803e-01 5.078088743672988237e-01
-7.918312996424303751e-01 -7.045072017823658106e-01 3.116082735837509277e-01
1.509971087085772157e-01 4.019008517598190444e-01 4.818706040680295621e-01
-3.583402731051255619e-01 5.768997151769703763e-02 4.599497508825236558e-01
-4.444048415922066120e-01 5.001836834397572762e-01 4.027777857965434416e-01
-1.941305268594207267e-01 7.714950255781127808e-01 3.841220050139517173e-01
-8.779477819210014244e-01 -4.808754064374064496e-01 5.015640017369101811e-01
8.923046746812072216e-01 5.042469990340708863e-01 -4.553344735435773880e-03
-4.041193936549750676e-01 -4.610241687053412973e-01 1.866657779884227930e-01
1.491055127895496712e-01 -8.517996713167810263e-01 -4.197593368536755576e-01
-3.055110743515958641e-02 4.521430236191851249e-01 3.373261018632885966e-01
-4.771624628445543803e-01 -8.685425767315191337e-01 8.502837242868702128e-02
-3.379685873444226996e-01 7.704658927166275761e-01 6.081038272950625156e-01
-3.402245855485478421e-01 1.565226645027436442e-02 5.343949273124815047e-01
2.886731214316197724e-01 -7.310830747262814233e-02 -5.869281654729335829e-01
-3.256853326051081243e-01 3.654605698167499583e-01 3.759004666398206296e-01
-5.037901396854435054e-01 3.042555660850166377e-01 9.159561893476411143e-01
4.032942843731759930e-01 4.239808552203579439e-01 -2.599867039236305466e-01
-4.477165390934388367e-01 6.784145851772382940e-01 7.106857715249905727e-01
-8.773964417451201037e-01 -4.704112038792082062e-01 -3.701790582016706299e-02
5.636397184273842509e-01 7.635066762960167619e-01 -2.287213729964343578e-01
-8.927690880122732819e-01 -6.663812143666899557e-01 2.144924299665435519e-01
-8.806997902557232027e-01 -5.504391221015537683e-01 4.281286734231422031e-01
2.639908719103218893e-01 -5.882748468033425215e-01 -8.940718095704460744e-01
2.377481683514820199e-01 8.967763272902030680e-01 1.342786481980363100e-01
1.156506896443511706e-01 9.450581651434070141e-01 5.381370167522668835e-01
-1.354379365000638880e-01 8.555402013683431894e-01 4.331201686982039112e-01
4.891382725077201843e-01 9.471533027855557618e-01 1.872275682853169754e-01
7.011190602857478860e-01 -1.511999803904352513e-01 -8.405440611127527051e-01
3.905140147953481966e-01 -9.566253053864308409e-02 -8.323213981208814616e-01
5.443565538497302514e-01 2.249105771203692983e-01 -8.377229167945998700e-02
7.716162596785259842e-01 7.872943195130910343e-01 2.984449350643057081e-02
4.136955031686533890e-01 9.622867688305778433e-01 3.124353991261126229e-01
-3.036094782894724342e-01 -4.496658852673894868e-01 -3.442417826646385626e-01
5.668738059689258924e-01 -3.516105976921871101e-01 -8.863558613521612672e-01
4.089697917064403776e-01 4.911745751360288570e-03 -3.855709381275865821e-01
-5.276076614947847743e-01 4.951761472614446546e-01 8.536897326008285880e-01
-4.094918596146979728e-01 -4.776313483346040223e-01 2.218897752103707599e-01
-4.968179365034217643e-01 6.100385962916874405e-01 5.185674625068600330e-01
2.265638612811310404e-01 -1.688276762601263747e-01 -5.593259556086346285e-01
2.847240818561123099e-01 -1.488441472151656730e-01 -4.851746459845047155e-01
1.292894693612031166e-02 7.257006497376675691e-01 2.103186133110928613e-01
1.693169384557302315e-01 -7.995666948490793846e-01 -3.791428331313227429e-01
3.780930310843176323e-01 7.679605712843821097e-01 -1.067268123135723806e-01
9.062235695584466288e-01 3.633137441814089930e-01 -7.917136848669496796e-02
-5.259200652666122799e-01 -1.997391584204577519e-01 1.866538165761258139e-01
4.151019875419084681e-01 2.171474756206114576e-01 -4.621441514657097516e-01
-7.084441118445351515e-01 -8.441131628520752717e-01 -2.251505085261869543e-01
-3.953502570584008780e-01 6.737581334363109686e-01 4.776200295185181188e-01
-8.123581696900487037e-01 -6.087313647333582045e-01 -1.763412336853627527e-01
3.949370985804069867e-01 -3.189936329495889344e-01 -9.164191426715170286e-01
8.663863098425866882e-02 -6.005791373753028850e-01 -2.880585825098802011e-01
5.946766461001667947e-01 1.516535287022520162e-01 -1.283721617714257690e-01
-5.884612201014802757e-01 4.838586407748742824e-01 8.135202008688678932e-01
4.424764879077874857e-01 2.302810316164439208e-01 -2.565019172985572582e-01
3.935559349063136869e-01 1.222533736534548721e-01 -4.671081229041497140e-01
-7.546334546454860348e-01 -5.024775165067422167e-01 5.496369101905455024e-01
-5.650687186071771118e-01 5.669183033523729209e-01 5.582753472191290811e-01
-5.397642115732270707e-01 3.313479297513866051e-02 3.000988614461322923e-01
-1.606741672557079337e-01 -5.042033716526849174e-01 -2.440044262263863784e-01
3.908362593506439775e-01 -5.370507034448314121e-01 -3.902168871307940545e-01
4.770971030751545716e-01 2.800622900202915377e-01 -9.001497469308460120e-02
-2.938280909233025873e-01 -6.996245806838709003e-01 -6.925440618966055562e-01
9.689874487737924758e-02 -6.235577042068742859e-01 -2.877831019565568749e-01
-2.930884042969473247e-01 -9.386297238319082359e-01 -5.584298943895588119e-01
5.481977124840721194e-01 3.227623273797563530e-01 7.863061844352386975e-02
3.685314174183638714e-01 5.933734351657061756e-01 -1.804951368748092810e-01
8.623881653192366770e-01 5.649540156446617445e-01 5.854351819405077817e-02
-1.490405645481986674e-01 -8.787090791989826677e-01 -6.867502979439287225e-01
1.888916421562491788e-01 -2.705388187567054903e-01 -4.760579616018004723e-01
8.408335663774029189e-01 -6.914703905739322254e-02 -3.462485848462549254e-01
8.822344731102389481e-01 6.155913276881200824e-01 -2.468766507557129952e-01
5.545196704469871340e-01 6.502637525708353239e-02 -8.064464832850405385e-01
-4.568652394266933814e-02 7.884792943320924063e-01 7.772335725021931596e-01
4.827184700388873484e-01 9.453370187091025834e-02 -2.695504471622671705e-01
7.915244672620090904e-01 6.953867954206887081e-01 -2.630935140102126923e-01
5.165665850902788347e-02 8.602673036456718325e-01 2.500266297815211258e-01
6.603769985940323162e-01 5.237754222586703534e-01 3.041669694803910695e-01
5.475159065907519995e-01 -8.378064572038991520e-02 -2.933466027131957921e-01
-1.759876948504061345e-01 -4.362348703925897353e-01 -5.668118483959148080e-01
3.777142387998886908e-01 9.483359273283503699e-01 4.201091800238396790e-01
-1.409336028352523584e-01 -9.846526399156385612e-01 -4.044516822401120759e-01
5.854353465326075368e-01 4.629124429749398861e-01 -5.322459263404205609e-01
7.108449962815353018e-01 7.160720183564250885e-01 2.841141795067302911e-01
5.812007250247369639e-01 4.542472532423267456e-02 -8.206940043498296422e-01
-5.992186732118343073e-02 7.642229266460085491e-01 7.966981360800465817e-01
-2.123604949200074699e-01 -6.259844063037801609e-01 -7.353521231963451310e-01
-8.973460852445454272e-02 -8.501873770083792081e-01 -2.017910460749967605e-01
1.969662829384083436e-01 -7.736681566413096123e-01 -7.921934008053299614e-01
-5.092891909708846532e-01 -7.034786016797072161e-01 2.796576186756557503e-01
2.193889166994167084e-01 -8.509665225227383001e-01 -5.358629676791700769e-01
-9.997724595451371044e-02 7.896488417025713247e-01 3.200763956375573538e-01
-8.086886337177875417e-01 -7.717020576185308345e-01 1.553696549186294740e-01
-5.852131910279851912e-01 -4.596425671325619633e-01 -2.757505837723828179e-01
-1.077296870095525083e-03 6.745115216796349067e-01 2.175200686413540085e-01
4.990390531369519045e-01 6.552730763504577283e-01 -3.040292450041325867e-01
-6.359130241193862165e-01 -7.524993244180232521e-01 -3.990829009174339803e-01
-8.467425204838953112e-01 -7.342132394416770458e-01 1.675059645109417406e-01
-9.833390483564341533e-01 -4.197720763874172034e-01 3.060788858670246415e-01
9.343863869319957161e-01 1.706675833273308407e-01 -2.690200101014992851e-01
4.363251725633708333e-01 -4.301889538537829183e-01 -3.784505938298025063e-01
6.451747276586124180e-02 -3.710619861333356306e-01 -7.886880081319553870e-01
2.549544603380184404e-01 -1.608628155885999389e-01 -5.165170452593065287e-01
-7.659890692711708304e-01 -5.664544547257269747e-01 4.883420796049083856e-01
-3.280538133058807371e-01 -8.472424849305343342e-01 -6.289389362839775677e-01
3.052968018940880324e-01 -7.132922763477914652e-01 -8.108576722098633782e-01
2.669244175451289114e-01 -6.352086601638816665e-01 -3.629705384178011363e-01
8.245618453673201342e-01 1.525477891254692631e-01 -7.088751931465998579e-01
5.145038239754519127e-01 3.957405708268306732e-01 -5.297516270139418504e-01
1.198534894454274385e-01 5.321990433850165569e-01 1.968485860702676726e-01
4.734147951802425425e-01 3.316605886715206508e-01 2.718024536950159123e-02
1.126375013215117765e-01 -3.756687910517748086e-01 -4.185424243502005592e-01
-4.219344685476103529e-01 -4.468594659202967390e-01 -3.070669048052152017e-01
3.597464943491404110e-01 7.792668264623476837e-01 6.197416550331420471e-01
3.952018404704001342e-01 5.048067711944644875e-01 5.058347401274035926e-01
1.384222606118227228e-01 6.390631109477231675e-01 1.150922403990666809e-01
4.486476379504825696e-01 -2.621961868069349055e-01 -9.108889370930440821e-01
6.981652766087021594e-03 -5.778028488668758289e-01 -8.456931068943883689e-01
3.944669564668037975e-01 9.531022239140234387e-01 1.652896986941626845e-01
5.236559956047845965e-01 3.516186563042655311e-01 1.272169240601790929e-01
-2.186311576889600206e-01 8.325143938517861608e-01 6.470178302336936360e-01
-4.302049381126658578e-01 6.376271716232726483e-01 8.013420136439810548e-01
-2.801433390213720065e-01 1.284895723389347932e-01 5.190883363860131494e-01
-2.735882863600229142e-01 5.386963744716626312e-01 3.522708674730447020e-01
-4.257390857922191962e-01 -5.202705130551137369e-01 -4.799419165212576721e-01
9.602547490291541976e-01 3.108799967486918781e-01 -4.295756818190078485e-01
-5.406492010035132134e-01 -7.691532312525373172e-01 2.369063879660557592e-01
2.460701381187544168e-01 -6.026499810336303220e-01 -8.901776062005559709e-01
-1.813486591057115738e-01 -9.022384117463242426e-01 -1.694690551826875946e-01
-8.699797785955774854e-02 -4.596973686331216613e-01 -7.323606693809014967e-01
-5.979968267295847628e-01 5.379322711205632990e-01 7.278938662937353143e-01
-4.526701055971723009e-01 -5.279334076409250009e-01 3.268470483128377291e-01
3.444327760929521975e-01 8.594858132524790806e-01 7.791959994410489060e-03
2.608788421968183391e-01 -4.579685682118876944e-01 -3.607119487196848717e-01
1.789328228418118061e-01 9.550990919167805515e-01 3.018721517608589644e-01
3.963086173795070388e-02 3.753145406172504472e-01 4.634054657306668212e-01
3.775388026437188072e-01 -4.912660993282033650e-01 -3.764864712531038604e-01
-6.699355067406894239e-04 5.774035389911159610e-01 2.415841375929755896e-01
-1.023977125131166344e-01 -4.005974617586604558e-01 -5.467755669594910328e-01
-2.614969186626456277e-01 -5.419191355953736355e-01 -8.080261291073206897e-02
-8.693966860643803640e-02 3.706617624261336341e-01 4.153126749094534498e-01
-7.498049831448376779e-01 -5.565563158678820121e-01 -2.368801991453833022e-01
4.195366335611481756e-01 -6.903630625349287397e-01 -7.508544828459310372e-01
6.311876726981106023e-01 9.974289916303920311e-02 -7.975304671660990996e-01
1.815841599191311828e-01 -5.329261163777878618e-01 -3.338817734321784525e-01
2.842537224076380556e-02 -4.189861618812804611e-01 -3.950189929526665145e-01
4.510458880020524752e-01 3.427263770365680806e-02 -3.288400277931531890e-01
3.951195448092050255e-01 1.095551527696195099e-01 -4.454497341478091399e-01
5.919705291122353552e-01 -1.634656562001213231e-01 -8.835485235561073569e-01
1.583478522087749529e-01 8.988751500503702196e-01 6.284861741427085757e-01
7.097176910768726588e-02 -8.779536866384943794e-01 -6.954363539981802678e-01
1.844383714847626921e-01 7.601682873715929212e-01 7.387620480898790531e-02
8.555383697079114169e-01 2.428531755894935973e-01 -9.624828604313477587e-02
-6.293746098355534890e-01 -4.190499719141205781e-01 -1.960845364126623802e-01
6.244695222521602640e-02 5.421774299193905522e-01 2.269513084971178096e-01
7.375581798198836692e-02 7.354030127929112037e-01 7.844577931923897296e-01
5.181674553576325337e-01 5.616522086199339237e-01 -3.981746547192785424e-01
5.049890844334778972e-01 -6.240008813132983390e-01 -5.402785092631198216e-01
5.734572285538714481e-02 4.080164962549681640e-01 3.942223987821797948e-01
-1.595656106102851801e-01 -4.807143010066411981e-01 -2.852945533569453129e-01
2.956603735454066406e-01 4.382654494259780042e-01 4.556015032028672418e-01
-3.134359806554592454e-01 -5.219466625389260761e-01 -1.574514014737860360e-02
-2.858417011408423969e-01 -4.963543775248809298e-01 -1.224022454486289324e-01
6.155791736274144332e-01 -4.046678559257234631e-01 -8.393003982648511441e-01
7.030966293032987480e-01 -3.717591127413668595e-01 -7.663571189167094344e-01
6.937711001464731408e-01 -1.333243571714421705e-01 -3.056457111659294235e-01
4.816867395437443577e-01 3.136201786800766889e-01 -6.801052826208719634e-03
-3.405104522276385937e-01 2.963128769321326378e-02 5.145888945970560346e-01
-5.926253619126801153e-01 -6.454512187579406479e-01 3.888612326225802107e-01
-4.411011780734925281e-01 -3.753453171456362647e-02 3.718482711051832035e-01
-4.103813896068361777e-01 -7.971856577131657406e-01 -5.969186643355990363e-01
3.636603749051041112e-01 -6.913219981276660375e-01 -4.549917621041568161e-01
5.775079307509344284e-01 5.000930553793522249e-01 -4.959432314427026922e-01
-5.956578967465241403e-01 4.536130837440083829e-01 4.616667471239148668e-01
2.602548515723672184e-01 -2.696580541678660903e-01 -4.278174682369916826e-01
-9.145261698236243353e-01 -3.982965447555590448e-03 6.406015805125767626e-01
-5.966680264111654530e-01 -9.121837950473294931e-01 -3.059549515000189457e-01
-5.401322691831687006e-01 5.729646905834685500e-01 7.685824484953255320e-01
-1.101279641763400902e-01 3.515017523173438740e-01 8.188502372134309759e-01
-3.757773982201761259e-02 3.719075157042366353e-01 4.297863451750065233e-01
3.846432745832508715e-01 5.794217557936167662e-01 5.841029820724065180e-01
7.963322557775054378e-01 -2.025917618890927807e-01 -7.419796599101616819e-01
8.407810931502956997e-02 6.681885470941550942e-01 7.991942330807252359e-01
4.403718233359354972e-01 3.060585198929299255e-01 -1.375654673446743415e-01
-2.823183296760338745e-01 3.767211226773280464e-01 9.107937079395354019e-01
6.860183190449548052e-01 -3.407915748562129199e-02 -8.344432237559407106e-01
8.044453416626546893e-01 -4.424989204804116033e-02 -7.638297067300499066e-01
6.827650228128605558e-01 3.010390550821024913e-01 5.625012903619949073e-02
-6.559594715103796991e-01 -1.856339556472622887e-01 1.060108451723517642e-01
-8.188567926530602170e-01 -9.433292273325040445e-02 2.022392585349317706e-01
1.217672537322594343e-03 -4.559873391915047480e-01 -8.031915173206868319e-01
4.311823577354699788e-01 3.202568453123891268e-01 -1.402607775746450847e-01
2.014907165368449438e-01 6.520752879613235242e-01 7.401742508271577092e-01
-4.260421302617760642e-01 -3.336072346471917471e-02 7.670662120010141027e-01
4.194253051795911458e-01 -5.474591059207423172e-01 -8.793949974243902012e-01
-7.222408322118405444e-01 -6.573822771129905762e-01 -3.022157148387785153e-01
-9.722624336906016129e-01 -1.504287113144046895e-01 3.819300031207151780e-01
-9.211857961330098821e-01 -5.487288896369661717e-02 3.412029535326127072e-01
4.193351775675784876e-01 3.133941833270181831e-01 -3.220772988080161103e-01
-9.586630754621324746e-01 -3.769304513465352446e-01 1.579586826157508006e-01
9.238798901097986516e-01 4.228447273007157059e-01 -4.353238710591053051e-01
-2.396096070839848907e-02 4.646967386007695988e-01 3.249756229054218126e-01
2.042792306578292694e-01 4.847349315292797112e-01 6.583485552285813780e-01
3.288973942723823485e-01 8.083827111056733905e-01 6.269876593166867629e-01
-4.962390547491229431e-01 -9.520545130812183565e-01 -3.634600138863325891e-01
7.636147556426194083e-02 -5.536294593188179070e-01 -3.000260014542002196e-01
1.069723436217952239e-01 7.531454065614908711e-01 1.409932321501881913e-01
-9.724725577850377167e-01 -2.918653336669735920e-01 4.848474936381053646e-01
-2.117448643360834298e-02 -8.537329514079141646e-01 -2.618734623749448542e-01
-5.432772177242715106e-01 1.565892088988715680e-01 3.324328757565030434e-01
-4.138199201957213913e-01 -4.241656330586786594e-01 1.785880723293709893e-01
3.851596048166843200e-01 7.867947436338927625e-02 -4.593467485552860108e-01
4.312685001422279507e-01 8.152106576353976286e-02 -3.494797222414098847e-01
-3.464599114237976729e-01 4.871015738066254985e-01 3.698196026113592660e-01
4.213918595848395454e-01 2.907409862296805314e-01 -3.071337599932992823e-01
3.562321286039863977e-01 -6.873240511396183638e-01 -4.448893071128588450e-01
-2.785856502902296916e-01 -9.691998604225876557e-01 -2.002654841501200211e-01
3.716059798265257674e-01 -7.559982810083987204e-01 -5.859021641824194715e-01
-3.082652850211514139e-01 -6.629161150208449094e-01 6.101983161567504227e-02
-7.701844423777094717e-02 -9.532345992582397232e-01 -5.763446677029531173e-01
6.138111145635117422e-02 6.959129929370321266e-01 8.021786168296446418e-01
1.200981051842077985e-01 9.596668839947195551e-01 4.539854120348199573e-01
-8.240637957168550631e-01 2.479887639778451114e-01 6.560823788810027368e-01
1.299876619102535436e-01 4.695807005826259650e-01 2.685390654740422156e-01
-9.316783718912800827e-02 -4.284491849071361269e-01 -4.051780611221407202e-01
5.003387750309967741e-01 -5.881153492049955300e-01 -4.868435504609991415e-01
8.268496233469504464e-01 5.286845859901569966e-01 1.174084878280273747e-01
-9.467284967651722338e-01 -5.699841301165455842e-01 2.103681797170600942e-01
-5.196152453265685534e-01 -3.320356245791979966e-01 -1.641753207003610569e-03
3.453717707913623869e-01 1.774451871951730070e-02 -5.450185056030225628e-01
1.175863725969403389e-01 -6.666904122491726925e-01 -2.949035057005048865e-01
-2.105338414272388270e-01 1.634486606842708023e-01 6.513295347195395824e-01
-2.261986458390531640e-01 -6.622394636251879296e-01 -7.330106809519618682e-01
-4.902263240352613960e-01 -3.738630769575853607e-01 5.094206993712612208e-01
-5.456727330974653345e-01 -4.869781301227575354e-01 -3.398326101775866470e-01
7.330104375138771777e-01 -3.710502382907547858e-01 -7.089008308106067302e-01
-8.179534882347059277e-01 -6.792868091149111276e-01 -1.610936867255300387e-01
-4.465115002886083651e-01 -4.764038878710820102e-01 3.359038144933871872e-01
8.895476921767322964e-02 8.846163101700833531e-01 2.443655053299818025e-01
5.168421054476158849e-01 1.257186870655771505e-01 -2.114865080042650225e-01
2.620677826253842158e-01 7.499311846549486793e-01 6.924995958749612379e-01
2.949961685337030293e-01 -8.047946147532737404e-01 -5.514316785181868630e-01
-3.703353153206947468e-01 2.486143571308713218e-01 9.029143196903387514e-01
2.996948199863238016e-01 -7.809599238498772245e-01 -4.966805305858686959e-01
1.794754406227084820e-01 -5.269035053726973672e-01 -8.980646162865418836e-01
4.293981958427406376e-01 3.292010168656300251e-01 -4.054661156529676957e-01
-4.931913234978346772e-01 -2.913480201018525118e-01 1.263556397060136560e-01
2.616959414580070087e-01 -1.277434846534157287e-01 -5.506541068563493013e-01
7.422463454744516742e-01 -3.808492454109643766e-01 -6.321156070054592124e-01
9.476315216326753887e-01 8.305298898113230854e-02 -4.241868321400394937e-01
5.397908497305587971e-01 9.112522797761325455e-01 3.122955860546358653e-01
-1.663277008696509573e-01 3.041866787974528141e-01 4.504431990713431144e-01
-5.941343791483340020e-01 -2.154157585005273268e-01 1.044305191868103860e-01
4.362563835087587827e-01 5.439291244830112282e-01 5.135302780402152267e-01
-3.197681911169794611e-01 -6.845652349904457479e-01 7.534665964426158491e-02
3.180122775366844845e-01 4.453394142784672383e-01 8.179664955791114689e-02
-9.146979324113007070e-01 -1.770329031338623016e-02 3.687098438091936381e-01
-2.965163598739328221e-01 -5.070298471746781388e-01 -7.823379584949190224e-02
3.425568848760828788e-01 -5.653811581113047380e-01 -8.927918836029538063e-01
-8.915345446714337818e-01 -3.226158737709351465e-01 7.470054839119145973e-02
6.102081634493974338e-01 6.234561466097287008e-01 -3.987529601977018445e-01
6.229818031441531900e-01 3.249770153353899738e-01 9.577602092581598281e-02
7.367986092002580811e-01 5.963779401386677392e-01 2.568280548708113953e-01
3.645599512881990134e-01 4.191790921041151363e-01 2.967757772576555264e-01
8.262836989613959737e-01 -1.619403224853685486e-02 -7.416360473230382278e-01
2.367793508413647274e-01 5.375866858138828031e-01 6.654651022608068511e-02
-5.854108927241019611e-01 -6.756203769372830514e-01 -4.521381876047091963e-01
7.058568027038403248e-01 5.709403872239294797e-01 2.848513384489315681e-01
5.410800379559060902e-01 -5.216090053447288710e-01 -4.644080115014902477e-01
-5.150813773120783978e-02 7.036292226088727286e-01 2.521459061209403996e-01
1.875419001050739054e-01 -2.858838876611871638e-01 -4.624149647128646956e-01
4.525401362979240560e-01 3.067749657793269330e-02 -3.277799947705050676e-01
5.467155645978140077e-01 -1.490325368490820201e-01 -8.876167786159426809e-01
2.323749558522147651e-01 -5.387377025839451550e-01 -9.046101494395855092e-01
3.995654266183654713e-01 1.481938252088647046e-01 -4.666630283795042411e-01
5.772345629668279576e-01 -4.007178415497704149e-01 -8.671419302554222996e-01
5.486464659443579528e-01 2.456891825755297964e-01 -6.843312100421155009e-01
4.408761962710729954e-01 -1.351007295706157241e-01 -8.736196038347342485e-01
-7.835925051206172887e-01 -6.435232394234989828e-01 3.985578420002535149e-01
-4.302347732473136288e-01 -3.804021176067698407e-01 1.784769987783902945e-01
1.289279531146592384e-01 4.018700349893669088e-01 5.898427597120550203e-01
8.366618331083579552e-01 4.902377065522478539e-01 9.016281188096274268e-02
-5.788956836748481161e-01 -4.529527305100841117e-01 -2.685537071286240307e-01
-6.076780068628833131e-01 5.342429552182182961e-01 5.846513559536542504e-01
9.157326270532791801e-01 -3.549700518568103119e-02 -5.426757661871537408e-01
-8.786051295980490394e-01 -3.336580343407560267e-01 5.140189662348834676e-02
-5.777056905791464470e-01 -4.705833188461535643e-01 5.318758566783109432e-01
-1.262058745008250715e-01 -4.489098213001636584e-01 -3.610385168365197184e-01
2.140254746406693165e-01 5.650533793615184486e-01 7.245930095594642351e-02
-4.438931583491450561e-01 -1.655684176546639574e-01 3.601163177867008902e-01
-9.364740923321638322e-01 -2.449389300655501756e-01 5.841773948097584990e-01
7.680300357209807194e-01 3.853928998546078954e-01 -6.109642878288463752e-01
-8.552053917689378393e-01 4.108280789049655740e-02 3.407462765585925202e-01
5.360603224351722096e-01 1.160481498978740977e-01 -2.001058009944725047e-01
4.098840385309859835e-01 3.920653247517044693e-01 1.575611880203567627e-01
6.830418517042471382e-01 -3.969711183421260614e-01 -4.878149858085039092e-01
-5.075661422982398197e-01 -2.511173710631897094e-01 6.522060727858204343e-01
6.317629790744817564e-01 6.432205623666407135e-01 -3.843420343839057396e-01
-5.248823608479159519e-01 1.258306209112664276e-01 3.305767240566204745e-01
-5.237528197946551556e-01 6.012395425433381124e-01 7.460826896234763472e-01
2.702671193925452187e-01 6.634032608499732531e-01 -3.433250255490342268e-02
-5.489623504186174063e-01 4.195739132223140488e-02 2.983708199245871384e-01
4.278122910110075949e-01 3.162055255680795707e-01 -1.741216993977455496e-01
-2.463112237986812003e-01 5.591875071835136213e-01 8.985254467685088731e-01
5.311345490261126789e-01 6.467075973801513777e-01 4.869235805111446491e-01
-4.972406530489033027e-01 3.482690212055077339e-01 3.759746046840218292e-01
-8.407818161346971575e-01 -7.303019733066891117e-01 1.958723133496834967e-01
-3.526497904071503320e-01 1.182176496012070088e-01 4.373096753077603815e-01
-9.334888612202751901e-01 1.581602219607966542e-02 5.491514369881362878e-01
2.800036763059574052e-01 4.732969056949463127e-01 5.653336572843546959e-01
3.784258897938477251e-01 -7.209108371859257458e-01 -7.468676251696022561e-01
-2.044240882243486823e-01 -6.793981040769547786e-01 -6.227364819560485265e-02
-2.763030701977635117e-01 -7.675604099570642047e-01 5.801857961264163428e-03
-8.633924470921507111e-02 -4.526216298610286071e-01 -7.252983710259218730e-01
6.603537287302160830e-02 3.724839124073717755e-01 6.146288461161827366e-01
1.518163919859150945e-01 9.562618021112437861e-01 5.001318336525791830e-01
-4.002617685618478638e-01 -6.585376377184076757e-01 1.899376179720630720e-01
3.365815627233249563e-01 -6.035697538438931087e-01 -8.774630865978139127e-01
4.862254595345444907e-01 8.441837827945705142e-01 4.777137753234361184e-01
9.078074010532028587e-03 5.381379624246661608e-01 8.303237082021844850e-01
4.001277690249826491e-01 9.536851036154045946e-01 3.791857568331679640e-01
4.266358541619519884e-01 8.704774054107181636e-01 -2.802132295333512046e-02
2.919778465612107854e-02 7.627272049832228840e-01 2.069974462746741461e-01
-2.544828503229940031e-01 -8.044587802469341797e-01 -3.164110649435687705e-02
2.892072940252192748e-01 -6.544850695111390504e-01 -3.803696196061001622e-01
-4.609197990326605043e-01 -4.150003941416502973e-01 4.073717054204994970e-01
4.118687772412485404e-01 1.200102296499401255e-01 -3.917937136121260600e-01
-4.363363609196316828e-01 -1.579658458508233776e-01 6.407159314957171503e-01
6.920128458928803683e-01 7.769501868762456187e-01 -1.994422696517595683e-01
-9.664340793700680887e-01 -4.731363877014786445e-01 3.388219357925041919e-01
-5.548424887583113252e-01 3.166717629812503265e-01 3.753897637480740346e-01
6.567157291282411657e-01 8.633216137348029839e-01 -1.165721224401432797e-02
1.196929220598366150e-01 -4.577554530231076613e-01 -3.562525321104465514e-01
3.620929298277652530e-01 9.337077734311145516e-01 4.688807767666839377e-01
-8.637383403956073735e-01 -3.757089851677379855e-01 3.745793618136828047e-03
4.992550370026599960e-01 8.957243992565556701e-01 -5.061367277481220936e-03
2.009740459890550224e-01 -7.371204171592774523e-01 -8.236213357014190439e-01
3.662709716615026312e-01 -7.179398538936184737e-01 -7.644440925407032239e-01
6.118483298106713875e-01 9.512857349127994133e-02 -1.686429321616326749e-01
-4.385131076842538334e-01 -3.427067637769053987e-01 3.144105728730414717e-01
-3.620042582261299713e-01 -2.558082676963863850e-02 5.253950265748312809e-01
-3.531246641271681974e-01 3.186079678242371149e-01 9.156917908203660028e-01
-8.692308658756575657e-01 9.905908679244557202e-02 4.180647540819834029e-01
8.902485898263412523e-02 3.788527920463232168e-01 5.256710365514299932e-01
2.288700081512390350e-01 4.447718650647684013e-01 5.639625163501598148e-01
7.621504903559503941e-01 1.511019353472831117e-01 -7.465697555552653908e-01
-4.447322970796052100e-01 -3.907681468709279238e-01 3.643294064413352129e-01
6.405946333042894514e-01 -3.758414695697484542e-01 -4.298127736526351494e-01
-6.804722827251460382e-01 9.032033617202026021e-02 8.604321136400389092e-01
-4.144800649457541231e-01 -1.226875252119014464e-01 4.415008173640303513e-01
-2.385064977970883793e-01 -9.737415874391283088e-01 -2.426000460804282888e-01
-5.632658808044487264e-01 -7.670849818875531412e-01 2.500943175833065801e-01
-4.474649072911958125e-01 -2.456343963975429201e-01 5.416364437472519500e-01
5.709981889059491111e-01 8.683152409364965907e-01 -6.124478614271974819e-02
-7.363509351189119201e-01 -4.078292695858301009e-01 6.276673112082141737e-01
-5.089101361960997050e-01 -1.107008701765674896e-01 2.693687905141414762e-01
-5.247733657144060260e-01 -8.751294948263493856e-01 9.381914881115072102e-02
-5.403219299150309185e-01 -7.197277563908220932e-01 2.871747650349478764e-01
-4.476128756865844216e-01 -5.197838904619599409e-01 -4.609403375158042104e-01
6.088756529388737737e-02 4.702488834857557198e-01 2.975206449254547691e-01
-1.889169040301861002e-01 -5.915806977420283719e-01 -1.197562342674242108e-01
3.697251429337687911e-01 9.706435912935109656e-01 2.931267283018865188e-01
-5.139963397722068228e-01 -6.640080815719010543e-01 3.167649460788612426e-01
-2.038354625625283523e-01 -9.946633120383515658e-01 -3.901424754332334377e-01
-2.434940091054336453e-01 -9.354494960111103818e-01 -5.864802380091020950e-01
-7.656699331414814624e-01 3.385514014151417284e-01 6.852700252053267604e-01
-3.974823231375655408e-01 1.903597981500241010e-01 3.868805332980360667e-01
-2.358640637153527550e-02 -6.646741598635232950e-01 -2.156807293738709774e-01
4.549182614647943046e-01 8.540242559019377566e-01 4.984107348560968265e-01
2.568343696935184717e-01 -5.315108303908475662e-01 -3.508137483323565120e-01
3.647459331280273886e-01 5.272783817409433249e-01 -1.739639448470486627e-01
-9.494727214879360444e-01 -3.172589826783433486e-01 1.694996681871607513e-01
-6.599318511511469421e-01 -2.999650041301617498e-01 -2.441346382926292205e-02
-2.674560741950245402e-01 -5.985919267370520824e-01 -1.773228535249622012e-02
6.764848166228562554e-02 -7.659716318339656604e-01 -2.824071923744822521e-01
-6.296037589925841393e-01 -4.132343655411466199e-01 -1.875778533860224806e-01
-9.279671922947311247e-01 -3.771222973274869772e-01 9.212632011528847087e-02
-5.478076788853364354e-01 8.549821433308016361e-02 3.122593586872466909e-01
-3.894237515485769463e-01 3.767403027034088026e-01 3.726804621044498833e-01
3.742526403173875860e-01 7.948817830508445037e-02 -5.165451653414439015e-01
1.793575244892937903e-01 8.610537316890761739e-01 6.657414566009760559e-01
6.005502313473928266e-01 6.838781365790553846e-01 -3.327301924900237795e-01
-4.991234296266073289e-01 -2.927640790995879663e-02 3.097414365637060629e-01
-1.853409677252386423e-01 -9.924943944532543805e-01 -4.081137021825788080e-01
3.220478016518987796e-02 3.784141363606240982e-01 6.981926013675758824e-01
-5.159834298970622513e-01 -9.712341183145800638e-01 -1.966819977071306014e-01
-5.503383849122681637e-01 4.543003620918444341e-01 8.629388159519709722e-01
3.787518453592718104e-01 9.010332184643407571e-02 -5.092759256573624604e-01
4.441625789228687005e-01 1.664176061066992285e-01 -2.979434304768592279e-01
3.533883525386278257e-01 -7.709164784881551435e-01 -6.408195265400283835e-01
9.252372515267844877e-01 3.618200829976867539e-01 -4.860555165651142540e-01
-5.051635981055255797e-01 6.360897068268683840e-01 6.977706955835943914e-01
-1.080414488813287721e-01 7.497814912388802711e-01 8.087550128426824747e-01
-6.944499870742120162e-01 -8.315578530951440728e-01 -2.700412565741019399e-01
3.272661454915138379e-01 4.714349268425359618e-01 -2.228673146521828463e-02
-1.149498949896695654e-01 -9.754731335901838385e-01 -5.047568677298568396e-01
5.383748425642485014e-01 7.968731837724549183e-02 -7.936555150785100654e-01
3.160672164548662955e-01 8.529023957194593608e-01 6.046227910947221673e-01
2.826915176623336426e-02 -8.668446279240769048e-01 -3.168712615515035247e-01
-9.838772781770825926e-01 -4.067174110743729254e-01 2.639444855634990317e-01
2.208727078065182148e-01 -6.740727385757511181e-01 -8.614503070479689883e-01
-6.042386552857921256e-01 -8.348281515967436173e-01 1.712703376278783274e-01
-5.602335359116802360e-01 3.596384493605848665e-01 8.930455347156396329e-01
8.623861257100544631e-01 6.726637115394492605e-01 -1.432069614724685858e-01
-6.418329810397300772e-01 -8.433930617027843857e-01 -3.393621156605234890e-01
5.618218908029443126e-01 -2.683128366802109976e-01 -3.512570132488839203e-01
2.556117954704164030e-01 9.719016638585742385e-01 3.139790716717033581e-01
-7.112853734981153253e-02 3.319663145551341454e-01 4.743196048694008349e-01
2.133915367433256716e-01 6.916757844846125325e-01 7.320416409900921684e-01
2.536290925314411693e-01 -2.185335979479088309e-01 -8.236059479243204029e-01
7.888685274004474390e-01 -3.082733119889061735e-01 -5.881508062884116539e-01
2.813893412322567289e-01 -2.795632731988851316e-01 -8.778190996322544626e-01
4.188577093496007042e-01 3.976496301278639733e-01 -3.242286246613945155e-01
8.967818692708330319e-01 3.602764515217696806e-01 -5.321641140129153014e-01
-4.905708666303953414e-01 6.001347702012586049e-01 7.910367189299928325e-01
-8.309366952193856237e-01 -2.017869285456812267e-01 7.122438345978885366e-01
4.876760230326780410e-01 -7.310397285530506085e-03 -8.258632462056125778e-01
5.116345685343137717e-01 6.018792962011331182e-01 -3.593594812897468738e-01
-6.799151574255282160e-01 2.034927509034592796e-01 3.536799603743340237e-01
-6.015631067392357423e-01 1.722888450871409016e-01 3.297771668000433198e-01
-3.756276649844141335e-01 1.237516079817547882e-01 4.148710701033171411e-01
4.336148716361149513e-01 8.097850617766072512e-02 -7.242727692289391284e-01
8.517767284071345868e-01 -8.672944480075429896e-02 -7.005890129217882123e-01
-8.730523793686001399e-01 -1.758251138058726515e-01 1.732297653027440043e-01
2.346322165486224853e-01 7.613672095606488499e-01 7.040765828554200745e-01
7.613606106742747404e-01 7.645383167806126812e-01 -1.563580181935037561e-01
-6.904015473886377929e-01 -7.666455281033910385e-01 2.681160213662780456e-01
-1.583754159602945022e-01 -4.345379958103243734e-01 -4.093567947841295629e-01
-3.814896237581196226e-01 -9.956748867152857008e-01 -3.251162824615390079e-01
-7.081628969146706032e-01 -7.101980372362922678e-01 3.411445991765139629e-01
-3.483834312606704509e-01 -4.828198614240860054e-01 -2.561560019477788358e-03
-2.393165157393747910e-01 1.574474549029542259e-01 5.516328123439071529e-01
-6.568112510503759660e-02 6.146892534334087443e-01 2.636458715106318462e-01
8.213481608192944039e-01 6.134925597347202775e-01 1.321079261980019348e-01
-5.435288202431223237e-01 -2.166390218073801222e-01 1.481684351920067033e-01
-8.862064675131132718e-01 2.282915678236351401e-02 3.625808768256603143e-01
-4.678719313125792034e-01 -6.243248767377236330e-01 2.969348430843198328e-01
6.246074496452770353e-01 6.893682450637450554e-01 3.980070005721971782e-01
4.563674660063032906e-02 -8.781564637513655791e-01 -3.464632158719929689e-01
7.708137102629996074e-01 -1.659534725493252982e-01 -3.641032407942531024e-01
5.352210764783144059e-01 6.028042511019031657e-01 4.673719035907963892e-01
-7.180186516919621065e-01 -2.904299604656531697e-01 7.083290315947243787e-01
-2.145305478620407602e-01 -7.036193202098727228e-01 -4.868106664508948384e-02
4.553651401849145297e-01 3.563089035721836995e-01 -4.675192999599994681e-01
-5.917208542630718604e-01 -6.501931083131915479e-01 3.838939472290265331e-01
4.293485984125056665e-01 -6.008406709687013070e-01 -4.381858776074636919e-01
8.050705947716763067e-01 6.286937549256106372e-01 1.585953760909166455e-01
-9.368347860235908264e-01 -4.756395777720840989e-01 4.237236192081415553e-01
-5.724498256122348971e-01 -6.697940335786976007e-01 3.545989365263707560e-01
-1.731801926824131088e-01 -8.523900183089607729e-01 -1.324045350812293187e-01
5.797856759550196193e-01 5.874251947452364259e-02 -8.141617162850453004e-01
5.452122294435143290e-01 1.909808939641772507e-01 -1.237021676499131528e-01
3.309245661894547608e-01 7.342115777194716530e-01 6.527610138589609035e-01
-1.867185541186887898e-01 5.630941298952563123e-01 8.927154619135523328e-01
8.359505307278710662e-01 -2.395994788443590179e-03 -2.828798817448864300e-01
-4.330950938596613287e-01 -6.765281080882034059e-01 2.232021270753073716e-01
7.884105010338129382e-01 -1.084517076864855850e-01 -3.316241178899534958e-01
4.439174708470466219e-02 -6.772610190924641671e-01 -2.550963428874284955e-01
4.700691079453824250e-01 4.136243291040557768e-01 2.737229014720824471e-01
8.021425470069393215e-01 6.194709747972845237e-01 -3.686563417326758629e-01
3.854539275662071662e-01 3.960653098018308560e-01 -1.471710984812204387e-02
1.505144950770693490e-01 4.669165276207165038e-01 2.611278962682905824e-01
3.963638813859625687e-01 1.271485560603430598e-01 -4.563581127929801085e-01
-4.449875193894711201e-01 -6.081360575676438840e-01 2.753366215772786729e-01
5.893004942046118355e-01 4.424743583688352244e-02 -8.219198444673777582e-01
1.736084552795554570e-01 5.262527160769224777e-01 1.560919812915852467e-01
-3.551019301636748615e-01 -8.809739145938401128e-01 -5.868242827678018525e-01
5.404747446757316443e-01 -3.557124918394906354e-02 -2.784738840629660817e-01
-1.561337655998588578e-02 -6.321812047125512368e-01 -2.290875969787345701e-01
-3.275992654664542925e-01 3.876573976052689607e-01 3.721701814368008066e-01
-2.106569420671661752e-01 3.003275619437354438e-01 4.314062191038042782e-01
1.757798481935774759e-01 -6.885781438781153341e-01 -8.568874563709314440e-01
2.751080507715066292e-01 -1.237069641094272893e-01 -5.266566734955109297e-01
3.885186656926117865e-01 -4.553755869090571062e-01 -3.740911746379030900e-01
1.779647418395372549e-01 -3.727885284406431410e-01 -4.013412088110409615e-01
-8.064612115046361496e-02 8.854402687628311064e-01 4.257238926856080075e-01
9.455979605140428512e-02 4.854988479056943085e-01 2.644754739819726863e-01
4.186007438258730340e-01 6.629660290092171948e-01 -2.192785737559539982e-01
4.161858153392507947e-02 3.708081750350183392e-01 6.655937229755412021e-01
1.301129189142499198e-01 -7.238426093985754761e-01 -8.386388916809721650e-01
8.254139366602223360e-01 6.818971718045762076e-01 8.696187621634651754e-02
-4.642628770824321349e-01 -1.765015231317886291e-01 3.073636069601972665e-01
3.273891638061508513e-01 -1.661859714568381385e-01 -8.396311425522774430e-01
-3.034367420971497697e-01 2.435901983529999426e-01 8.769838998021107779e-01
4.212308427948501244e-01 2.762339330307495011e-01 -3.342670645138833829e-01
-3.321791366183720617e-01 -7.072816779843487112e-01 -6.668747736577254059e-01
-6.947589756026746333e-01 2.911704337523712272e-01 8.327223804894815506e-01
-9.789443267980285635e-01 -3.487903276785883078e-01 4.276358219893983681e-01
-6.028654760559742920e-01 -3.853097880231349248e-01 -1.494527385122798868e-01
3.107735171599070312e-01 4.466655880013033486e-01 9.896230666043059898e-02
2.768718491910748258e-01 6.816976274137981351e-01 6.938201312525004161e-01
-4.325129438075102084e-01 6.439366847263326976e-01 7.919404931275222381e-01
-4.506482130121632901e-01 -2.795193709094001555e-01 2.808867215205463341e-01
-3.905253091728984605e-01 6.988754226452645879e-01 5.047565432615817027e-01
7.151042313236793957e-01 6.977015036595278774e-01 -3.143687846762601712e-01
4.750744957118240852e-01 3.727076607958642596e-01 1.554200448563118342e-01
-5.877608993262716242e-01 -5.960717434663443531e-02 2.335688705571665191e-01
6.601768534485967788e-01 8.746215707696619601e-01 1.075118488158455926e-01
-4.471836024279547406e-01 6.810775005792760739e-01 5.696361633620629084e-01
4.236553388574725715e-02 -3.947496034715591851e-01 -7.902566311162865231e-01
2.086768874750649372e-01 -8.453464989121703965e-01 -4.907606466868374984e-01
6.874250646087048944e-01 4.809155445713101940e-01 2.469998483917363596e-01
-9.022630880471598641e-03 3.380528469859599427e-01 6.752824947361013574e-01
-4.012218530478642298e-01 -9.087862293947753800e-01 -1.278456772276268319e-02
1.307497405598843088e-01 7.494932651898688070e-01 1.194855530776094549e-01
-3.752932735935953779e-01 -4.457526147685416662e-01 -4.255068391968174629e-02
-9.810890607195464630e-02 2.934275814299605600e-01 7.408917908638437133e-01
-6.420903171672723841e-01 -9.009451810154855966e-02 1.903966598124600673e-01
2.658919990582017667e-01 7.681418290104599089e-01 -6.577991993718337481e-04
-3.753559285950486268e-01 -5.542094653835757390e-01 1.570293986069555836e-01
-4.087457949804844393e-02 3.071710414440512182e-01 6.016503965295814105e-01
9.198294651413788658e-01 4.122287802545804292e-01 -4.536560987488605368e-01
-5.087450058939674280e-01 -9.734581050548257730e-01 -2.193988567394986600e-01
-5.424831147782160912e-01 -1.536636341229876412e-01 7.588173401064820522e-01
8.104335833364060271e-01 1.329665623101056460e-01 -7.259562854644691088e-01
3.516757225900921102e-01 4.843316129645943713e-01 -1.164174732154078379e-01
-9.813267314651270556e-01 -4.145194559874698648e-01 2.430031355671489757e-01
7.829596133526834922e-01 3.669603406627212627e-01 -6.183868327136794463e-01
-1.832756818629421858e-01 -5.835125405183833047e-01 -1.319409876164424067e-01
-6.199646033510890497e-01 -6.608176473765233760e-01 -4.146854688689610713e-01
-7.572177876816259534e-01 3.547366054675685221e-01 5.762298365935741851e-01
-7.745961925069928811e-02 9.017225853444297279e-01 4.832169648561943087e-01
6.384386617077372206e-01 8.177107448167408865e-01 -1.469786736289267204e-01
4.630628533497445076e-01 4.725008291679729244e-01 -3.959044143890677603e-01
-4.554631745096994755e-01 -4.443847246776867488e-01 -2.925717974634372553e-01
-4.890744043472407543e-01 -9.066811111515173938e-01 -4.521234720083374126e-01
8.552360487137108946e-02 4.997385492258190065e-01 2.525123517743473878e-01
3.595996038712698795e-01 -6.852270160717718328e-01 -8.096985652603286843e-01
8.979105786294278024e-01 4.966190705715018416e-01 -4.045848158223110946e-01
-2.130450305518922227e-01 3.517738648259866041e-01 8.811375204476916689e-01
-3.820688780125913731e-01 -4.413445724658308089e-01 -2.665008363941422931e-01
2.542286698588158700e-02 9.040209202518437737e-01 3.353345208292631274e-01
-3.433580013936188835e-01 1.353430190945209555e-02 6.995682517787521482e-01
6.215228131404160195e-01 1.348603912294917551e-01 -1.316733600448053709e-01
-6.988116324909213750e-01 -3.677823254274082965e-01 6.578152814638119628e-01
1.019631254116868530e-01 -3.235093619189906566e-01 -7.764481942807731629e-01
-6.918229629108284540e-01 3.192302542470974031e-02 8.470723019933765752e-01
-1.417195167624486496e-01 -4.596354006836874118e-01 -6.745205396819942134e-01
-8.632174114237953777e-01 1.738972168851330991e-01 6.366493840259961345e-01
3.470438722896941885e-01 5.098460451251002334e-01 5.548977290215051372e-01
7.221406320295417069e-01 -3.584502729498080797e-01 -7.480789445858654352e-01
7.991614042959025443e-01 2.034863527497783875e-01 -8.591742231665278062e-02
2.686330289538638727e-01 -2.753360533300763802e-01 -4.203947315838589827e-01
3.785310893040494951e-01 -5.949055855472769050e-01 -8.695295664037967498e-01
-7.677527941515556176e-01 -4.116750163812312735e-01 6.192023683010460244e-01
3.690589831715137548e-01 2.211495244040837319e-02 -6.966731890146499184e-01
2.134321757545689369e-01 -1.739529119494281073e-01 -5.839259776678548119e-01
-7.175016213771349127e-01 4.061222878715781692e-01 5.761699937698043783e-01
3.992297021900089171e-01 3.834963218522241535e-01 1.653950086700463340e-02
-3.417196309068535887e-01 7.295385986881174345e-01 4.868846521939879657e-01
8.702929245490105270e-01 2.591393891606992295e-01 -9.898139884628323615e-02
8.037361111144057935e-01 -2.699379575099286610e-01 -6.628148273200372698e-01
7.477632566784450097e-01 7.241902792178792625e-01 -2.555306226687971138e-01
8.203117858416137942e-01 7.117683452488718920e-01 -1.760285123220246273e-01
-7.248872679130176078e-01 1.191887269014987316e-01 3.184696944467190205e-01
4.230752680548540701e-01 -1.355886868057179506e-01 -8.685705154328114963e-01
7.417334182317255609e-01 5.622975826375995467e-01 2.406538526017872881e-01
-5.050142818330289884e-01 -3.940307711444181460e-01 5.168727391775180813e-01
