-6.031923703098071021e-01 5.305899972736839443e-01 -2.328800505343194827e-01
7.876037963733615310e-01 -6.929513819363681826e-01 1.114740602846158862e-01
6.136938273470046168e-01 -5.620355201909977838e-01 -2.267667826788085372e-01
-5.562103520132898327e-01 -9.827375616434141925e-02 5.493226688377053080e-01
-3.782200438690984101e-01 -6.892893628844712905e-01 3.986186323989227009e-01
7.330179719128762095e-01 -3.756658908363475491e-01 6.058906086612939751e-02
-8.196695467652217459e-01 -3.885598843449352691e-01 5.663819743836974174e-01
7.308494479359142204e-01 -2.288436533772766623e-01 -5.009422677704041815e-01
7.245482699697176621e-01 -4.210359845379639809e-01 -3.774651524357716115e-01
8.836623544253374707e-01 -4.990393425832370111e-01 -2.708188949269398904e-01
-6.456999738121275145e-01 2.918408295711561462e-01 3.741282190541074804e-01
9.531850715775276317e-01 -1.055358805987151316e-01 -2.607683695477516772e-01
-3.656652653069215608e-01 -7.023398155525115705e-01 3.985350576705635195e-01
-3.237290864655563705e-01 -5.545170345837469039e-01 7.526929004450683136e-01
6.965236337820682744e-01 -4.845707199885549571e-02 -2.021177079281936961e-01
-7.878231503413670733e-01 -2.613580776929922966e-01 6.901138081474356145e-01
-8.505445026470062064e-01 5.481381290868260203e-01 -6.662424066042035853e-02
-8.175414526217223976e-01 -3.887640628150448308e-01 5.778249388252331142e-01
-4.176615677833852569e-01 -3.340690516551749756e-01 4.793842682181169157e-01
5.886962038758279947e-01 1.678096600017489337e-01 -3.277170192874008237e-01
1.882192129044628348e-01 -8.245153780211128547e-01 1.750789047945736088e-01
-8.488754606479627096e-01 6.470817011675196184e-01 -3.154916774675795531e-03
-7.576743113415661257e-02 -5.430008181496357444e-01 4.990674952857150903e-01
5.083415975991414371e-01 -8.409291889418912813e-01 3.817231321032452662e-01
-4.850504424818036231e-01 -6.447317568932453558e-01 7.299112837678107812e-01
-6.379112492700598214e-01 -1.393227094173025149e-01 6.813118999696462508e-01
-4.831768586743646621e-01 -4.636037194260156924e-01 3.895334961371237359e-01
-8.882717255648671095e-01 4.647688440628992002e-01 3.291671242869688152e-01
7.429266352557201136e-01 -7.700542029741413996e-01 4.296127901762047258e-02
-6.285391489886986705e-01 6.705649974603810071e-01 -3.000764775407212537e-01
-9.037906436311545777e-01 4.819396566013051109e-01 1.411130945109914485e-02
-6.338204975730189483e-01 1.145928590865616659e-01 2.935227555255911502e-01
9.226755243625771596e-01 -1.712865800531147842e-02 -2.726653018519901717e-01
5.131537252983525699e-01 1.061744871049564859e-01 -4.768557298884940066e-01
8.639205580379841765e-01 4.823474783708928820e-02 -5.849734477259687093e-01
-8.668642648465403333e-01 -3.113690369810095948e-01 5.137095760051937354e-01
-6.238296163724790233e-01 2.808105848817436107e-02 5.404152403489308476e-01
3.638238565649482004e-01 -8.661870785968120989e-01 4.810979122653847306e-01
-4.206916355693419707e-01 -5.008011611832526855e-01 7.625291245934973094e-01
6.147427487643646327e-01 -1.034491892059566237e-01 -4.873479392808603983e-01
-1.586783510363042327e-01 8.334506873693411366e-01 -5.766750952054534585e-01
4.131256031706883602e-01 7.512669977595153314e-01 -5.247139070311186426e-01
7.563959966014193181e-01 4.031979599391947167e-01 -5.948625555898334749e-01
9.605142538577630118e-01 -4.487389659705331990e-02 -3.473245421007716827e-01
2.535154963414997797e-01 -8.478862963909651329e-01 5.552676832429720433e-01
9.278596357289149443e-01 -4.340472493986768932e-01 -2.742177537447047508e-01
-9.430061634786195135e-02 7.760595864689838752e-01 -2.088698026726054091e-01
9.429990367063397771e-01 -3.921894027538269656e-01 -1.173612488892678135e-01
-5.378135852440651954e-02 -8.634503800877431079e-01 3.235956505278513307e-01
-6.244471747424634733e-01 -5.499489764361568112e-01 4.420023719634367243e-01
-9.125476763624266185e-01 -9.835722371502732264e-02 3.288967457674732975e-01
-6.616026964844116953e-02 5.658590815948015829e-01 -5.158437844542392847e-01
1.194791545288193951e-01 5.053706931833973348e-01 -4.387779212731929279e-01
-1.260493777787461411e-01 -5.186214186296000950e-01 5.360328970232534074e-01
-9.803830499352534922e-01 2.412102821466919345e-01 2.064119189591769876e-01
8.108536639578087790e-01 3.045017415729642241e-01 -4.139613001711023865e-01
5.416635109858097819e-01 -8.424232862226059826e-01 2.340901406041055385e-02
4.792596979408135782e-01 2.655538940729287867e-01 -3.935220651086004384e-01
8.563572343563689016e-01 1.848799562855261702e-01 -5.821568272330512883e-01
-7.102903738275547774e-01 7.659732450920940169e-03 6.279665277548107660e-01
-6.764623660020618878e-01 3.946933125520412644e-01 3.623032611199665798e-01
-4.137895361010638373e-01 -6.614475091470042312e-01 7.439888249978593437e-01
-1.491464477079676616e-02 -7.843313045543434114e-01 2.781424190323884549e-01
2.640335063949908467e-01 8.050210352636107958e-01 -4.172253051490451004e-01
-3.587220012635957689e-01 8.429827045588561552e-01 -4.711979258432900664e-01
-5.963644596307868806e-01 4.155520409686102035e-01 2.395705959753740844e-01
2.632858860630710729e-01 -9.709125910853561026e-01 3.306894209729837053e-01
7.606932714144579721e-01 -4.890058330240097950e-01 -3.369798008141096646e-01
-9.697821881809981504e-02 -6.448417798763165232e-01 6.979692449043145563e-01
7.804457597301569516e-01 -5.114166211202744172e-01 1.308304308815913530e-01
8.888443921354050037e-01 -4.265287257151744726e-01 -9.140494122954570880e-03
5.982294146493536413e-01 -1.505560839785116678e-01 -3.142806342073870551e-01
-4.817710906152081751e-01 -7.355879378966788673e-01 5.212707084806950109e-01
5.331850722679257748e-01 6.242670448167804143e-01 -6.518197515637261796e-01
-5.502304020106710096e-03 7.304962885246517601e-01 -2.523098841483377708e-01
5.151590246662354211e-01 6.674519502569065121e-01 -4.944539484472701973e-01
6.368368247300062457e-01 -3.267485552293655227e-01 -2.737453274605579356e-02
9.565081661248937550e-01 -2.955001304508518833e-01 -3.462544105533873484e-01
5.267454099153142666e-01 2.991352584261189884e-01 -3.555958702859450815e-01
-8.729645997145150937e-02 5.869518282435818302e-01 -3.270433438954046257e-01
-9.395568571611895292e-01 -8.622204433687127856e-02 5.418516909456159159e-01
-4.389297274019460793e-01 9.225112929767317338e-01 -2.317670519913971605e-01
5.880845052671791473e-01 -3.159556836035329885e-01 -1.727741397625012221e-01
8.060601873607551315e-01 -4.609319186341441221e-01 -3.549262584102775286e-01
-1.816767284330676746e-01 6.535418820495174641e-01 -1.975031993212665593e-01
-4.027067636934545392e-01 5.964096611151907812e-01 -2.905926360679660439e-02
8.493530703338765253e-01 1.057210624765130141e-01 -2.872723379343841699e-01
7.116188770166218536e-01 -2.682885268713728344e-01 -3.949274613187348654e-02
3.288347375791424443e-01 6.712095564850358853e-01 -3.629545736023585545e-01
-6.580558740721038635e-01 3.848740295116068744e-01 -5.452226421370776760e-02
-2.464253207480070484e-01 5.759492420846337168e-01 -3.811847707567040389e-01
7.258102075082391025e-01 4.645207578072056420e-01 -5.532069173691995800e-01
9.780672815287629052e-02 5.037850531202181514e-01 -5.639119826154972426e-01
-6.297944627624106895e-01 1.651872520894683560e-01 2.802932756945284987e-01
-9.966673706013564615e-01 1.135848836448847127e-01 3.431994531713686292e-01
7.230298198144921029e-01 -3.833453358609366646e-01 -4.013546971789753726e-01
-7.258386040726121369e-01 6.579704486918481754e-01 -2.117127378947094019e-01
8.147664748210122765e-01 -1.245863652322961868e-01 -1.337808010644683521e-01
2.350815070693107467e-01 4.225682380026288265e-01 -5.896443977766717692e-01
-7.544141452877154430e-01 8.107747956209400073e-03 6.366494578362245083e-01
6.020471080476279546e-01 -2.723362426133329461e-01 -3.085925500636679253e-01
8.359162304418163991e-01 3.007354326312894344e-01 -5.145513138022673738e-01
5.473489697389432029e-01 -5.159823128673514114e-01 2.149228619546107999e-01
-4.350703890649625372e-01 -4.378913501658195928e-01 7.496645392059659851e-01
-4.174171706497763479e-01 -5.084615366257613234e-01 3.925616233134506250e-01
-7.330712515418978947e-01 -7.286509542383684535e-02 2.669935005530680305e-01
3.951278126390555534e-01 2.958246811862563774e-01 -4.688846312483944123e-01
3.147726830480658822e-01 -6.129444437152864467e-01 4.146749219859938163e-01
2.794421212983095870e-01 -7.052965567767687238e-01 5.329741400926347739e-01
6.742826196148199447e-01 5.260388285948108811e-01 -5.604372256132978958e-01
5.663837308449627683e-02 -8.611987964341075719e-01 2.622925063710585536e-01
-1.548438072453429265e-02 5.802734812911973794e-01 -3.464908551933786884e-01
-4.234378643100238926e-01 6.878357490898805437e-01 2.039636194078035814e-02
2.522558103013383332e-02 -5.813892153002907515e-01 4.304345535306802195e-01
8.431740319273817175e-01 -6.506840533584954400e-01 -7.484429823732800802e-02
8.773193681287326795e-01 -1.489378578744564585e-01 -1.427537293397343476e-01
7.096433294769869393e-01 1.714549958036014343e-01 -6.801050291373592627e-01
-6.029543305205432580e-01 3.357411431834079751e-01 2.387070705149033634e-01
-7.022555622045985046e-01 -1.312448486014740623e-01 6.917449844010721272e-01
6.737250647035974982e-01 -3.111401940094502550e-01 -4.153048654151956787e-01
-1.830426858698498971e-01 6.105736632920899520e-01 -2.451618576852881703e-01
5.682145301034120521e-01 4.287987300055964290e-01 -7.275632315263445005e-01
-7.085348685189245543e-01 6.364838914689101568e-01 -2.280957854228543025e-01
5.524068468575771274e-01 3.215793432180679701e-01 -7.212444054357266543e-01
-3.483036622002191884e-01 -4.039777683368803163e-01 6.762405630964505310e-01
4.106220718613090570e-01 2.563289121280814542e-01 -5.615275912996867680e-01
8.602733389956754850e-01 -5.873251558908372250e-01 3.152688660841385798e-02
-3.863980244829595678e-01 5.439065081513477784e-01 -1.992014914939497505e-01
-2.925843526305034470e-02 -5.813692572576616424e-01 4.127949446185710802e-01
4.951520619124585298e-01 4.550137147739219401e-01 -7.372357349305861396e-01
-5.666348320747719436e-01 -6.655706652211859642e-02 5.037736575200479905e-01
-5.478506578516915138e-01 -4.127711461080731947e-01 3.813304974151440208e-01
-2.866972198819995321e-01 5.696122175123934372e-01 -3.300737125360783675e-01
-1.515986616470600956e-01 -5.142530534745275439e-01 6.058362556182683711e-01
-1.595913406160225090e-01 -7.751377598511288713e-01 3.386861108871853099e-01
3.749528965812791090e-03 -5.707076370190593551e-01 5.256085373870608146e-01
4.684375255156626450e-01 -6.085562667635451284e-01 3.552100671177018665e-01
-4.185184708850227253e-02 -5.625657668121247790e-01 5.725921270980875999e-01
4.054261474137201282e-01 -8.438667330137435973e-01 4.639778225993256289e-01
-6.410013318115553860e-01 2.828188514161528166e-01 1.102708862401784590e-01
-6.511097354873840448e-01 -3.090630201976959923e-01 3.543684398361123811e-01
-4.999426713400287325e-01 5.470768263344939486e-01 8.886113156013657199e-02
-4.196249214137721430e-03 -5.912792915072886402e-01 5.947625327127822326e-01
6.021580217970264881e-01 2.833505217049824276e-01 -3.304285269394479641e-01
-6.105982626907371369e-01 -5.599087221685650206e-02 6.032633059611732795e-01
3.062571446816924614e-01 -7.891458452890550701e-01 9.152270874832614533e-02
-6.079387022125866125e-01 -3.311511037182104378e-01 3.650204860340912627e-01
6.174107932666833554e-01 1.257320141213580655e-01 -6.597190870451484779e-01
7.091724833919760274e-01 1.898008904034773903e-01 -2.920051815932310779e-01
-5.831850825297185681e-01 -2.670176715271052603e-01 7.250409320543980130e-01
-9.157898544935001023e-03 -6.641273775291889336e-01 3.123744359678078952e-01
6.891943491931303845e-01 -7.311686073109829875e-01 2.439327753075228311e-01
3.916324977674383589e-01 -7.283157784183215133e-01 4.793951912155526296e-01
-6.516177361378120737e-03 9.079512297974435819e-01 -3.500323345257185803e-01
6.427403470164663180e-01 4.395275798033820847e-01 -6.949509137144611604e-01
5.894078828797445491e-01 5.793782303785157684e-01 -4.551740908294898968e-01
8.779703147813234798e-01 -2.168313088933923605e-01 -4.885149793695005016e-01
-1.704850515859535412e-02 5.886518316591029532e-01 -5.970583514543545967e-01
6.467847533868159582e-01 -7.998042359186581865e-03 -5.954626843914396783e-01
2.846650874613433357e-01 -9.641455647807429807e-01 2.891763173719981150e-01
4.324183135411162060e-01 -9.083879698102301781e-01 1.346503801468913741e-01
-2.698135216003358372e-01 7.117375283921572038e-01 -1.052965011375841808e-01
-8.138566354011133042e-01 -6.007239361769548674e-02 2.525073729219317609e-01
7.138565536081531437e-01 -3.203056249146855883e-02 -2.015500179458239172e-01
-6.301138334444655875e-01 3.029015595853294385e-01 3.352308510588853374e-01
-8.038996166783788366e-01 -3.630562017954726550e-01 6.420820950697374574e-01
-6.226383806285541445e-01 1.871412714404907529e-01 3.390563141421046311e-01
-3.121591051147596385e-01 5.689805309678309664e-01 -3.319189068956470701e-01
2.295859041941425080e-02 6.476088479587454039e-01 -6.571168353576910537e-01
3.454948821933451902e-02 5.554769466782102372e-01 -5.959065998797051789e-01
-4.515204703733826097e-01 8.305215152768269382e-01 -4.133906145304723223e-01
3.396683362855731914e-01 6.397116209572070167e-01 -3.587609623457256314e-01
-9.695331466237060436e-01 1.300517090090494987e-01 2.420157971095069915e-01
5.942338894230025925e-01 -7.235950491413756236e-01 3.397274794068992909e-01
-6.989177406146503957e-01 4.810742978533954356e-02 5.993798939485590616e-01
-1.982442494517882847e-01 7.228599910721821287e-01 -1.527468799992729720e-01
4.589949063525194939e-01 5.127453844037954678e-01 -3.629877000991352798e-01
-5.550205574573759959e-01 -1.711774635141081746e-01 4.138046775378567688e-01
5.755427614641814849e-01 -1.256071898164225556e-02 -5.038648704855458460e-01
-5.597217969844734409e-01 6.351718529018973713e-01 1.495776131467970449e-01
1.084978339853416851e-01 -8.493121769573941382e-01 2.286764205164542596e-01
-3.087130747961943644e-01 -4.902091780188980730e-01 4.266423346905762193e-01
2.299546497777686938e-01 -5.956095022516227910e-01 3.461841408016547161e-01
-5.839956329170671312e-01 7.161741470394824560e-01 -3.391203335981238798e-01
6.478039373370569898e-01 -6.010371255936295398e-01 2.651107136795985975e-01
-6.022670508167494718e-01 -3.440692941652432890e-01 7.495480899330170255e-01
-3.597618675889107664e-01 9.066238579813030718e-01 -1.633406793399988788e-01
-6.683696870392071832e-01 6.156259368302690049e-01 2.245040819270887333e-01
5.148674034542828348e-01 -6.074607129118498872e-01 -1.161802019110975276e-01
-7.252655475939960850e-01 7.451948498845071267e-01 7.427147039847438459e-02
-1.991405034937514251e-01 9.255032093365138657e-01 -2.597515891609417094e-01
-2.496681123954235249e-01 5.753136948943033957e-01 -2.873534582212196042e-01
-2.612566644000239302e-01 8.928896146440267190e-01 -1.812961005184302032e-01
-6.152076281591527529e-01 -1.417148894886024156e-02 3.550859867715961959e-01
-6.020654523758826038e-01 -2.235643243579667760e-01 3.620195665082125425e-01
-9.183699020370672539e-02 -5.340758693185664319e-01 5.319531045509399148e-01
-4.693809472278074324e-01 5.504502587532951186e-01 3.818806874351883540e-02
7.054862082447359573e-01 1.442938754721435068e-01 -2.758484295988248847e-01
8.669496719746256908e-01 -9.562696564274723865e-02 -5.482419243545644250e-01
-4.630942841519063435e-01 9.160609105355778103e-01 -2.217256933008135145e-01
-6.389087893341235391e-01 -1.944507417508773428e-01 3.398516511754312019e-01
-3.615395332387901783e-01 5.523988310479130970e-01 -2.400343742469600028e-01
6.493134409835583654e-01 3.576515261913886662e-02 -2.660468671669994345e-01
-5.718774324812923027e-01 3.916287922559184009e-01 7.591260932248511395e-02
2.666515861028705414e-01 -9.514344914102392803e-01 4.468990603098215164e-01
6.946506715882503347e-01 1.720932483549529046e-01 -6.828747833130964784e-01
-5.474532083662759785e-01 6.395799738557490510e-01 -3.442567087353382571e-01
5.896842009882801161e-01 -1.031046859523106485e-01 -3.625213231633744315e-01
-4.620601441912213780e-01 -4.530023051974426673e-01 3.944155077073881466e-01
7.281620209254342502e-01 -7.796710426448995035e-01 2.609253615040492413e-02
4.581762585247057817e-01 -9.235832309513756222e-01 1.757215924781563021e-01
5.989925266921746205e-01 2.842341547675169555e-01 -7.144363710238703646e-01
5.786499502911672810e-01 -3.745683561864991962e-01 -4.891705824081498538e-02
-1.300254788938856043e-01 -6.013280297868541791e-01 3.781560166736749884e-01
-3.724964729022126053e-01 -6.724759480810603707e-01 3.915159382316526493e-01
-4.666073982120231833e-01 8.184522592875115299e-01 -4.083403844191066390e-01
5.131833230228898257e-01 2.494644022397377592e-01 -6.829007060386164119e-01
-4.931884991498608484e-01 -3.542577037159073128e-01 4.051489999453332103e-01
3.489167004476511624e-01 -6.059594039287696798e-01 1.188313347732431607e-01
-1.478832832805126729e-01 8.198181815004460526e-01 -5.870800068109938152e-01
5.347566318658534268e-01 -8.453013504468327444e-01 3.520693911570083046e-01
-6.417801191646217707e-02 5.663792760310230046e-01 -3.769354826068619380e-01
-8.401646321412060692e-01 6.332198203743465426e-01 1.571877876654177719e-01
9.699163979265610358e-01 -9.625070081856888782e-02 -3.670169172210603903e-01
-3.809420165707811945e-01 -7.425396788057336828e-01 7.030450591163558416e-01
8.663246646719038324e-01 1.638858321917731689e-02 -2.401721235401112209e-01
-7.405446986558241740e-01 -4.589862424759976745e-01 6.561381313777028268e-01
5.241149544619371214e-01 -8.556398071292987684e-01 4.313756034862347571e-02
-3.945927998860063735e-01 8.834388051531443242e-01 -1.164890191107738338e-01
9.079769412397239448e-01 -3.623295360922174080e-01 -5.560085257073792836e-02
7.119498459864544992e-01 4.074004471915358000e-02 -2.350283648837818151e-01
-7.691658733432971129e-01 -4.469846199104350326e-01 4.948585599446710948e-01
-2.449981271990868403e-01 -7.635831038787258551e-01 7.178400935636646274e-01
3.723794704821172252e-01 6.714910708618703206e-01 -3.801999645205074718e-01
1.087009153868042505e-01 4.941661048385321275e-01 -5.481469141166224190e-01
-6.728858627138584181e-01 5.978803075608892653e-02 5.741035276840952273e-01
4.274845250080435144e-01 3.773772699617715110e-01 -7.123485953662468395e-01
-5.984962064882735078e-01 5.731536866340090075e-01 2.070489949258944862e-01
-6.696732130068997479e-01 5.605720179213057319e-01 -2.285263843782584237e-01
-2.933871635387112486e-01 -7.704130832809593654e-01 7.074957512988239161e-01
-9.460837046621141111e-01 3.475498472093491720e-01 1.035029241690885449e-01
-8.639074431542576038e-01 -1.589521260330262198e-01 6.369418845384712258e-01
-4.562235482962948008e-02 -8.907819836225037147e-01 6.218685230925555807e-01
-7.918039988116957195e-01 6.835170956230842698e-01 1.271188358561538279e-01
-7.625143687028992368e-01 -3.416222130367433940e-01 3.862636726841032209e-01
2.881384952855142734e-01 -9.389675713792767775e-01 2.210807574563491140e-01
5.774308319200331940e-01 -7.357825523355545627e-01 -9.727567412069094976e-02
5.579363124401299778e-01 -5.114626281998556623e-01 2.092457985676366983e-01
7.970421629263930718e-01 3.517544654824531491e-01 -4.571747875255753324e-01
7.601221150338892674e-01 -4.381833856958355367e-01 1.018141156413177040e-01
2.374922991758930679e-01 -6.540297493704781973e-01 5.157217598448494700e-01
-4.079189577888487489e-03 5.874620178732835596e-01 -3.371444661512825181e-01
-4.853267035898536919e-01 4.991479512801861862e-01 -1.538997676880390561e-03
6.275913468397167350e-01 -2.580458060313403634e-01 -3.884332699262038613e-01
-4.956608227367088060e-01 5.309176118642613407e-01 -2.461779340439988473e-01
6.586816871858943712e-01 5.436285951169166353e-01 -5.586040367454977451e-01
-2.220272306229105763e-01 -6.930584389966384373e-01 3.534344470851327746e-01
-7.748294926386400938e-01 7.382505252016988706e-01 -1.491751988215811280e-02
3.638793720942773424e-01 7.435604278528731292e-01 -6.453324145482476348e-01
7.820544828598648135e-02 5.284914944041971818e-01 -4.170268217939370747e-01
1.630595926795356254e-01 -8.090909827179345593e-01 6.094038440844938842e-01
-6.241934377630087294e-01 -3.202866476853925989e-04 5.690968074164390877e-01
-2.188272365400446284e-01 6.364213907067398646e-01 -5.182875032421599970e-01
-4.962692184609165391e-01 7.947234035779823236e-01 1.582643087764936882e-02
-6.370315102970406373e-01 6.207527530041935249e-01 2.072964416610712513e-01
-5.284245634918225409e-01 -5.364193072338576673e-01 3.974141524859930441e-01
-1.890587153447940982e-01 5.814809504710211074e-01 -3.073003557882282299e-01
-1.109561730234828736e-01 6.541960027347618611e-01 -5.935653211769987836e-01
6.336737905239130386e-01 -3.940828990378774099e-01 6.198633420330085936e-02
9.467538716661749731e-01 -2.777095814211839042e-01 -1.501649696962319425e-01
2.575403025765651832e-01 4.777829790626983986e-01 -4.012246336595907126e-01
9.474497587410105615e-01 2.512528932306118054e-02 -4.045389659310001385e-01
5.502751307372587553e-01 6.396574412937131582e-01 -4.995722471888111582e-01
6.535690529895606948e-01 -1.771141502867011608e-01 -1.629748296494644977e-01
6.820011590113606026e-01 -2.326737858697939254e-01 -8.830337062178413021e-02
1.742395516382614917e-01 5.133509632066504125e-01 -6.593089760374626351e-01
2.183264778899541569e-01 -7.497568306171488173e-01 1.511571887888230326e-01
2.907204892058115053e-01 -8.162847131048844851e-01 1.099348423865054158e-01
4.741718395805717967e-01 1.819185613877848939e-01 -5.720250838608215149e-01
7.890833893681424849e-01 -6.057524553179828297e-01 -2.267106015776562677e-01
2.918498857063574481e-01 -7.881851333645277791e-01 1.010529771354177903e-01
-7.409587698388319099e-01 6.384406729330938113e-01 2.141093195711809005e-01
9.283853646513384739e-01 -8.265469134108943683e-02 -2.329986554370542529e-01
5.088708025225391340e-01 4.870588903376293355e-01 -3.643148420286019817e-01
-6.109332393829317587e-01 6.920296339257989704e-01 1.449280959774263966e-01
5.093941990791287511e-01 -6.621487896986169019e-01 -9.826170249805489532e-02
-5.779479072675347551e-01 7.542012986714832223e-01 -3.395934543279630624e-01
5.317624902081569127e-01 -4.440395563381860367e-01 8.414665684702548124e-03
3.764768274293920913e-01 -5.895885544632856190e-01 9.944096646121634853e-02
-3.605148639536687183e-02 9.179114427390780984e-01 -3.478899109115579091e-01
-2.385969536627058629e-01 7.552240749355345617e-01 -1.233109632390415045e-01
-7.144093694873411282e-01 -5.314596062599332704e-01 5.776332442294086489e-01
2.207530102499718483e-01 5.309632582238790199e-01 -3.730945650804498026e-01
-2.596258536264319239e-01 -4.428182014433429958e-01 6.076927818719084495e-01
6.186177339050165092e-01 -3.809168386597566042e-02 -5.505542291933270826e-01
6.056447288206239232e-01 1.368271039819602686e-01 -3.147679742129041447e-01
2.920371205352008115e-01 -9.276952032986272023e-01 2.008089880038782526e-01
7.243255376327740747e-01 -7.709960638691406576e-01 -1.550717677501629345e-02
-2.905734074623865792e-01 -4.207636342761086889e-01 6.143893577947355800e-01
5.486752521398575479e-03 -5.889888911683582862e-01 4.028153377541641711e-01
-4.358728626490844527e-02 5.578653333883223375e-01 -3.987544478771494760e-01
3.472776042618083148e-01 -6.407708460408866324e-01 8.260031832276434893e-02
8.501940743774931697e-01 -2.988738981385667959e-01 -3.393477307501942264e-02
-3.541647578852753497e-01 -7.380177416083596453e-01 7.159509593911320691e-01
2.422637760271870999e-01 4.131793300810608360e-01 -5.192450261934303812e-01
-6.962971612138886268e-01 7.281308729879176767e-01 -2.264268004778720866e-01
7.613259474678716332e-01 3.196148666297192187e-01 -3.736425437577418629e-01
5.654499791029968803e-01 -8.232738838754698474e-01 -3.653978509538883743e-03
9.211942067374957466e-01 -4.248219548458554984e-01 -6.361144278090850868e-02
-6.187787948629707158e-01 3.705439101958922787e-01 2.915557621794528931e-01
-1.243375516383501411e-01 -7.593573818104393247e-01 3.225156023694418783e-01
-5.064551430201713611e-01 -1.944361422189627708e-01 4.878909021173045701e-01
-2.992694921972554600e-01 7.040859835924339061e-01 -8.408194267510261943e-02
-5.072090891264553481e-01 -2.858202525857683196e-01 7.025083215269198877e-01
2.680490137062407352e-01 6.892564485570851218e-01 -7.104357445687642381e-01
-8.185690274461064897e-01 -3.026989929633790988e-01 3.980514328012870195e-01
4.471432398751369885e-01 2.520917034936177026e-01 -4.373716747732259158e-01
-4.336083219766548313e-01 5.259108693282813496e-01 -1.901058954129371259e-01
6.165806033689310572e-01 -5.130124683050365508e-01 2.086924068511528674e-01
3.989555549932737311e-01 2.701476872613339242e-01 -5.189790405470178225e-01
-2.115662088509508709e-01 9.390210411198663953e-01 -4.320697448575501198e-01
-3.977502212522354696e-02 -5.705034606089405269e-01 4.338958163489676223e-01
5.643736917420996146e-01 -8.917997863273851022e-01 1.692693738970705297e-01
-4.992827555325459188e-01 -3.492692692548530209e-01 4.033048578540659457e-01
-2.552892603514119174e-01 -4.888639308780430848e-01 4.543194521760851035e-01
-4.820647507279933186e-01 -4.424210961654913010e-01 3.916685716278876517e-01
-8.261888767827976210e-01 1.406097370872735897e-01 5.710162107166103507e-01
-5.759593859664183801e-01 -3.463425924005897882e-01 7.494262424194739758e-01
-5.572352660812920355e-01 5.028971897619081144e-01 -2.027259706854735166e-01
2.699920138660881763e-01 4.209563627658304830e-01 -4.539399103120562162e-01
5.092937051891268663e-01 1.130186225280908896e-01 -5.140166133664311188e-01
5.331028068153816912e-01 7.335369207611754094e-02 -5.188850493430969824e-01
5.506482683276519019e-01 -6.394371414477086901e-01 3.434548993058594291e-01
6.949245697798734911e-01 -4.994459910547424664e-01 1.738485296798372715e-01
7.024041192711432124e-01 3.526336558689160405e-01 -3.608906280564408431e-01
3.790635065929557346e-01 -5.619734254325067235e-01 1.962434496220881452e-01
-5.894166846642211466e-01 -2.875929786124874488e-01 3.682501587744468341e-01
-6.650753416477034330e-01 5.339670152523371405e-01 -2.129047406085722849e-01
-2.864223897237265851e-02 7.539697896385799680e-01 -2.406048651182118858e-01
1.392206078676785398e-02 7.243352444701363080e-01 -2.610877156529550214e-01
-1.169203441214261979e-01 8.323521557368127599e-01 -5.922443150382161736e-01
5.277374582665244063e-01 -6.665828954501493708e-01 3.717764793719381955e-01
-2.287502450801171261e-01 -5.781509195311085314e-01 7.282700063853411176e-01
-8.894945520060767441e-01 5.723399891028032593e-01 2.050783891463629424e-02
9.387535983049508648e-01 -8.065356541624361941e-02 -4.752034105042364787e-01
4.463103609829201512e-01 6.754750830127554950e-01 -4.252684442855100833e-01
3.179982126481593618e-01 -9.358498728245203679e-01 2.061214078856621890e-01
8.836085937138420388e-01 -5.436465201221779564e-01 -2.116194547669847104e-01
1.373775483693931258e-02 -8.860164913001126186e-01 6.201619064205973197e-01
-4.487479355667334802e-01 -6.907228818361105249e-01 4.324644327783849218e-01
1.502011269208256283e-01 4.708164311728524343e-01 -5.479485805268985432e-01
-2.657195283168112265e-02 8.423470357469690084e-01 -2.659534215981645966e-01
-9.426316625124986359e-01 2.578213094862319421e-01 1.330951168951606534e-01
5.142957737492128700e-01 5.160368385897565746e-01 -7.264600443208270031e-01
6.618543487899177791e-01 -3.168789466367696872e-02 -2.338823431236310701e-01
1.725353013800232926e-01 7.082457594234463638e-01 -3.180616794410273118e-01
-9.360526007369061041e-01 1.411565612471611386e-01 1.899424157193383422e-01
-8.492209822626205495e-01 1.053514456788958720e-01 1.611024611607058399e-01
-9.118942710597300882e-01 -1.998480894458661006e-02 2.716283361326132240e-01
3.532633999566602290e-01 -6.307196090417345191e-01 8.343265170490424265e-02
-3.659053709799327536e-01 -7.671517504875043914e-01 4.389422315561180565e-01
-3.254239995200709501e-01 5.955451018513597816e-01 -1.355684411960204061e-01
5.526042644843759399e-01 -8.833291189596782500e-01 2.748041025414673655e-01
-3.341851589220312668e-02 7.028547436228980150e-01 -2.462706648317824487e-01
-7.412299820180292542e-01 5.214040805720091543e-01 -1.635081086231651715e-01
-9.205582492453049381e-01 4.053483577919556741e-02 5.613531867158289002e-01
9.516787189809964298e-01 -3.990311829625590723e-01 -1.536447279727344295e-01
-3.142558124474653658e-02 -6.294085696517589534e-01 6.561557773562093354e-01
7.649986569526191493e-01 -1.861130825308245640e-01 -9.157681760253362502e-02
5.263764435628196514e-01 2.209835110261417490e-01 -3.685959403362169540e-01
2.245206784541297906e-01 -6.254466906156973538e-01 4.826129448454087867e-01
-3.785619419412203923e-01 5.547859737217551990e-01 -1.432050396607467968e-01
8.987480659814750528e-01 8.998486441928496560e-02 -3.264729819373808350e-01
-3.741900415367724886e-01 9.329797852633069377e-01 -3.260631029206221831e-01
-6.989118600869529407e-01 2.098153553144278816e-01 1.202609254279123352e-01
8.750698780669270427e-01 1.968898780044356922e-01 -3.993231138012897086e-01
9.531914096032364503e-01 -3.117601326587330357e-01 -3.414163432552408395e-01
5.846142519454168296e-01 -8.805004979422099698e-01 1.447255968489009337e-01
5.964934191454246415e-01 -1.055525899494185599e-01 -4.388487157009316464e-01
1.123606754845897643e-01 -8.769030220753916138e-01 2.407576295714771997e-01
-9.661022872093095737e-01 -4.867743574224367431e-02 3.898497762206915018e-01
6.877631839377397194e-01 -1.058088388140622227e-01 -1.771349484333405444e-01
-5.281821452702829545e-01 6.888043265695530382e-01 1.027050945558218437e-01
5.692158019616577747e-01 -6.811395866996056148e-01 3.512553070845383929e-01
-3.697070693645062023e-01 -3.506267978119612660e-01 6.082381212978706930e-01
-5.670436374155395365e-01 8.183934771822712895e-01 4.741973315571669512e-03
3.011209734009269168e-01 -7.204112437308215489e-01 5.282100249271538539e-01
-1.249600399991850491e-01 -9.060805067886346098e-01 5.874098099102509352e-01
3.700663306482773196e-01 3.575811533924214691e-01 -4.314412296625755872e-01
5.693448267742104996e-01 5.807584012806721319e-01 -6.629694726522874504e-01
7.160558225532230869e-01 -4.031066813695212137e-01 8.670443034750145717e-02
-4.561001036483989801e-01 7.992917889436631507e-01 -4.243549219928781646e-01
8.492697736129456443e-01 -7.286427594461647277e-03 -2.159219176848096167e-01
9.626099481840965089e-01 -2.839750159984925637e-01 -3.381632253422464096e-01
-1.474072120492933048e-02 8.310601961751457045e-01 -2.660425170352498925e-01
-5.709086790587271087e-01 6.524968436501830116e-01 1.495306701582576059e-01
-8.172049668144891477e-02 -6.763926054811824073e-01 7.011508870079777855e-01
-4.853669751212429939e-01 6.952465946854444745e-01 6.938814700455582518e-02
-2.430493692736528377e-01 6.403269357082046476e-01 -5.081742847163625010e-01
-9.671616622036216526e-01 -2.010399588834215975e-02 4.894900299318889481e-01
-2.642297208823812249e-01 7.030701086354087526e-01 -5.356402512248891190e-01
7.624634845138191785e-01 3.690808020516314070e-01 -4.189013209008864425e-01
-8.550182411855342668e-01 5.051487247434702788e-01 -5.789031688071949455e-02
1.646802039741420143e-01 -7.235660147126274921e-01 6.024096445093456431e-01
-4.772259898426817193e-02 6.006018953945934102e-01 -3.138042234107352724e-01
7.046280267295411681e-01 -8.012029275126960615e-01 5.469475922100355825e-02
4.638468124291553751e-01 7.097785848844102574e-01 -4.993311848670359820e-01
3.786108989105959610e-01 7.556340659932812009e-01 -4.617414358158867249e-01
5.248876970761222616e-01 1.400389396898327199e-01 -6.045884515979323970e-01
-6.776995123464711612e-02 -6.651390958960760047e-01 6.923918968551083797e-01
3.222781470942013421e-02 -6.977641636441033191e-01 6.583513108788734414e-01
-1.658232638851137308e-01 6.850309278578937677e-01 -1.868887084087123840e-01
-8.553495233185574032e-01 6.285461733849790900e-01 -1.559439713837166598e-02
6.078494570275008169e-01 4.452334589688131117e-01 -3.717179873462507222e-01
8.277779637724941297e-01 -2.318095028969577309e-01 -6.667898130672497703e-02
3.246414797834979993e-01 -8.791055609302079743e-01 4.983473479159646891e-01
-6.785352925630834253e-01 5.955172004434062805e-01 2.430405299030620192e-01
5.443320737469279358e-01 6.446292217054574447e-01 -6.010357352157077448e-01
-6.144281494264272059e-01 3.915803940025062158e-01 2.788484205722130960e-01
6.119827862405965435e-01 -2.724475947588831937e-01 -1.443806476457232257e-01
-6.644335428796565024e-01 1.131584610309893241e-01 5.261091735767440269e-01
5.859604971638927573e-01 -4.133652411998578469e-01 -2.400999096261494103e-01
5.307803943233844191e-01 2.340071941656870769e-01 -3.624883543226896099e-01
2.424048494630776374e-01 5.919780387648456710e-01 -3.451368420657463520e-01
-2.473150626379017891e-01 -4.660307107908880364e-01 6.452748904910768912e-01
-3.534771104206787529e-01 5.772327132838529495e-01 -3.555465976815157525e-01
3.785160347962820970e-01 -9.265286093758549057e-01 1.751866160314386189e-01
-9.107155730678726524e-01 -5.258593543361794742e-02 2.930547885379012341e-01
1.613206600408536584e-01 -9.500741946380447667e-01 2.965683347728189645e-01
3.886965620324522863e-01 -8.644755821505641924e-01 4.648272259821332741e-01
8.097169149605047966e-01 -1.290179989366166124e-01 -5.588696612937796848e-01
-4.576108649137967666e-01 -6.160574747447563615e-01 7.518337160407846387e-01
-7.881750089703152273e-01 1.936795819367311267e-01 9.663021537235902403e-02
7.125468865387217000e-03 5.444390889595466243e-01 -4.167645930089547424e-01
3.597407362349187010e-01 5.007914242225723900e-01 -7.321307842719059211e-01
-2.786562568112772031e-01 -5.171316317199902146e-01 4.182383578998744023e-01
4.255821653258709536e-01 -8.113998167917708670e-01 2.824811026140655948e-02
2.274422015126502730e-02 -6.336027338171684731e-01 6.265938805554247537e-01
-9.647541302446487332e-01 8.053479026408680297e-02 2.663413905360116907e-01
-1.879382173638178277e-01 -7.539225714442159276e-01 7.211026602061079149e-01
7.988118893314976043e-01 1.363546139376195787e-01 -2.802048897352659718e-01
6.731543426042372325e-01 -1.992245777856466726e-01 -4.865566596524165677e-01
2.535312847721979401e-01 -8.141629653569911751e-01 1.324279468197053500e-01
5.694620878154869059e-01 4.338684822161670285e-01 -3.597029178726954823e-01
6.977997463386397259e-01 3.945632264692716662e-01 -3.836971368562345774e-01
5.299559884045339508e-01 1.181459795531940166e-01 -5.864244420461277585e-01
-2.816533740153027709e-01 9.471526227464053260e-01 -3.030201705820421698e-01
-9.386029512058878810e-01 1.670088220806383028e-01 1.772614894715734968e-01
1.788785774350558355e-01 4.695403257800130348e-01 -4.618028237007989478e-01
9.546712646505385313e-01 -1.657680126216670158e-01 -2.231040999330610730e-01
-7.155724915134252795e-01 -4.675410834921492342e-01 4.455729699137548905e-01
-6.055715169866445757e-01 -5.448454620463936138e-01 4.272002837971013434e-01
-7.395522808622123634e-02 8.456192696115319984e-01 -5.970529291342946410e-01
-8.413966202355313007e-01 5.007071410298417069e-01 3.242364804683069424e-01
5.778214390481803964e-01 -2.647451120120148868e-02 -3.677566837184386150e-01
-2.895078774404553634e-01 7.956412569317997674e-01 -5.290201306140182025e-01
9.686901616181821384e-02 -8.234213171251161256e-01 6.328660056192570993e-01
5.686196701193315661e-01 -3.981622174161756900e-01 -1.872403756324853841e-01
-6.921703955563919264e-01 3.507448350697398576e-01 -2.548115737386932173e-02
1.156297912139655770e-01 8.904939181272789606e-01 -5.260232449823190048e-01
-8.790083390329747060e-01 1.751961605019931312e-01 1.273691845436778214e-01
-7.632707067433917025e-01 6.107325884701878538e-01 2.394510205378267698e-01
-4.668647869005225215e-01 -7.248547470214994348e-01 6.674773914266396435e-01
3.283899061041479217e-01 -5.790711514925812597e-01 2.634445256975192495e-01
-5.970948582011770256e-01 -3.114635476256640279e-01 3.661846966874935938e-01
4.857232210255245375e-02 8.862876217389087374e-01 -5.660345899157835925e-01
9.052017695066040259e-01 -4.985931076656747729e-01 -2.364973658083557029e-01
-4.484024846013137111e-01 7.684768485721411579e-01 1.149223897938043797e-02
5.145566054566081959e-01 2.201243171693252620e-01 -3.790462599682571376e-01
6.614251372195056877e-01 -4.200841380278980686e-01 -3.407658831678016531e-01
-7.404391873718865202e-01 2.542881607811502964e-01 4.929822343725831502e-01
6.666539584703626842e-01 -7.709887835531290534e-01 -6.310122571970312733e-02
-9.233083370488796016e-01 -1.621379070514817056e-01 4.093112926455463318e-01
-8.675695330978975273e-01 -9.709424923857906675e-02 6.317475864311531408e-01
5.641551343603572466e-01 -5.727385493940361227e-01 -1.773443941629860854e-01
-6.990335519754752557e-03 6.866109653082201891e-01 -6.543072323842515914e-01
-6.763314883773544617e-01 7.908340439177381498e-01 -1.982775509483198917e-01
-5.879190308027514300e-01 -5.410650973101167882e-02 4.054358786132563619e-01
8.847101830328260585e-02 -5.880384721301233908e-01 4.615209202418504297e-01
-5.084070084942581003e-02 9.205717267547897098e-01 -3.423766342412302710e-01
-3.996738976126720244e-01 7.731922075830095498e-01 -2.029610149911526343e-02
-9.092393795331253914e-01 -1.327213841836558383e-01 5.858350723016967354e-01
-9.462329179827542180e-01 -5.641207266660357850e-02 5.343083329899811496e-01
-1.791141363024968958e-01 9.036610945078429324e-01 -5.109018834088728811e-01
-1.520817633315800221e-01 5.829303540682430063e-01 -3.192025061542188014e-01
2.859500836121000589e-01 -7.017768227884053633e-01 5.274625956710348174e-01
-8.099287578810682176e-01 -2.998264259871047388e-01 3.885568663048175608e-01
6.138712300606141703e-01 -3.241880903797434432e-01 -3.245857148195959718e-01
-3.577917655738585556e-01 -7.949336706524309237e-01 4.645191618889948360e-01
-9.635245348325572889e-01 3.315570036441875534e-01 1.411493139387920703e-01
5.909639654210289139e-01 -3.945670933498240385e-01 -2.532513093153952455e-01
8.221653267292815537e-01 1.561288837338903335e-01 -3.028442439181555090e-01
-4.902109362411714022e-01 8.698323076460541259e-01 -7.848667208782647564e-02
-3.019135614392998504e-02 9.333212757688648109e-01 -4.255511149869610210e-01
3.540039971289472565e-01 -6.400258927117878915e-01 7.493401134250375628e-02
-9.922824028563888010e-01 3.024413063019131820e-01 2.786307941490633877e-01
1.405990170970134422e-02 8.219805272026201592e-01 -2.767194950461810965e-01
-6.252650698335305846e-01 -4.949053081378687602e-01 7.341727657456259548e-01
-5.216901036740856368e-01 -1.692523125395668238e-01 5.910576926350989968e-01
-3.560019142882698828e-01 6.070149594401463844e-01 -4.092762571762999513e-01
-7.153263357259609379e-01 2.695088829555962184e-01 5.208047965260404616e-02
-8.954359614445812632e-01 5.854669973778663383e-01 1.027000527471458591e-01
-1.384414252531243061e-01 8.765772018197225401e-01 -2.287673550378696297e-01
-7.089787059570974437e-01 -2.346915436227387797e-01 3.285036704751453374e-01
5.907313925847919034e-01 -4.364782690149779931e-01 9.923651858103527124e-02
-3.666169756468100616e-01 -4.257861191496744580e-01 4.438246447810408335e-01
8.427859360508440645e-01 2.867031757880911802e-01 -5.187181770627335986e-01
-7.344448338359287343e-01 -1.562845390780499555e-01 2.986173624055672438e-01
9.489501533942573674e-01 -3.141751090348129938e-01 -1.423395442045294057e-01
8.421235654548748784e-01 2.812529352641545688e-01 -4.511259093104603712e-01
6.086145760830314888e-01 -1.834914176145691633e-01 -3.954739167942575850e-01
5.219673964959827828e-01 2.164366166050439855e-01 -3.734938104106044765e-01
-6.775866804703998270e-01 2.697952849236998629e-01 7.807924298893154091e-02
2.841362195916051214e-01 4.257598867958571898e-01 -4.354737158632422944e-01
7.810816621830472817e-02 5.542862531153677219e-01 -3.762970740434062322e-01
-5.588282228354832792e-01 -1.442787090587085985e-01 6.253972121434840936e-01
-2.392083135444763586e-01 7.401220252549262080e-01 -1.231819783055284195e-01
-5.872906934763790776e-01 5.272894860754608892e-01 2.113363902208095502e-01
-9.535216096538969011e-02 5.944826980873214595e-01 -5.471702040042968340e-01
-7.840847126289268720e-01 6.654676379621987659e-01 1.643512462669156071e-01
5.217337244472393110e-01 -7.551851067142009155e-01 -5.906657124822435601e-02
9.474191887727441141e-01 -3.121578927442216211e-01 -1.394413673480126570e-01
7.583057175072184242e-01 -1.742999186297366776e-01 -5.388647899182584800e-01
-5.615298957438054524e-03 5.622865240786830698e-01 -5.703348574582951525e-01
-1.040998806205963856e-01 -6.109426850853381108e-01 3.699046236371401064e-01
-3.475408606658811905e-01 6.013066980841953457e-01 -9.880592612232305672e-02
-6.047251723667226297e-01 3.666716690269265500e-01 3.010557845620874182e-02
6.359262831751129053e-01 -5.521605648339202865e-01 2.390997907246631971e-01
-8.496215108079419043e-01 -1.734573005328041706e-01 3.291568464274258199e-01
3.898052522379192864e-01 -8.160747048429358719e-01 4.842787143223285518e-01
-4.823772593973765788e-01 -3.360952877344715595e-01 7.205567851058968243e-01
-6.213673081867826520e-01 1.512840309669884718e-02 3.430875319111367783e-01
1.281541994830394382e-01 -7.083023262896955830e-01 6.153300590960241179e-01
-9.454081365523911984e-01 4.632843351730164816e-01 1.129678369866133625e-01
5.485719090431474543e-01 -4.222020704721878848e-01 -9.562589069085997151e-03
5.948794595148151343e-01 -4.408769309780107282e-01 1.092855609264292288e-01
-6.522016680131823563e-01 6.006308855268752689e-01 2.281024164838214019e-01
-3.895636412011984628e-01 -5.223709805370597703e-01 7.609188059643990920e-01
5.128468876735592374e-01 -7.865030307689843125e-01 -3.107068748270798084e-02
4.962639953438549578e-01 6.256323766118917495e-01 -6.804334112683984026e-01
-4.222879517320187598e-02 -7.865725207585630985e-01 2.906549456771200801e-01
4.210289670654569494e-01 2.556559433177961749e-01 -5.961582826437278326e-01
-7.547207243061505588e-01 1.848902591617478108e-01 1.100467919284304624e-01
-6.652880906799285565e-01 6.204605134125259491e-01 -2.596489173387580562e-01
4.024210454925926106e-01 -5.792295966428472331e-01 6.730436401731439144e-02
2.015270009901689585e-01 -7.305179990194654582e-01 5.857296442840748130e-01
-6.229351192820621330e-01 5.676052043864124319e-02 3.375976544907154930e-01
8.594534616808143790e-01 1.342253663599129176e-01 -5.894790830932526982e-01
-6.224805275313106678e-01 2.195993218086029763e-01 2.717206325161364289e-01
-8.583414714725416950e-01 3.663121837720281077e-02 6.059345366631470053e-01
6.275004135775867908e-01 4.326029958910039830e-01 -7.055410563095030341e-01
-7.872249278032388276e-01 -4.147419061412087604e-01 6.224290935178212747e-01
5.418453014661114286e-01 4.850812439496124950e-01 -7.258672213083093849e-01
1.960321512508802488e-01 7.317684598105298477e-01 -3.301181506219560413e-01
-6.276877021572417892e-01 2.748420673646017054e-01 1.541373521647591283e-01
4.379386494105954597e-01 3.415787382424512741e-01 -3.914161829850678065e-01
-3.545855203061592520e-01 5.764119078637519600e-01 -1.289171875540597034e-01
9.676009169509761088e-02 -9.671226141540845145e-01 4.613243899729843611e-01
-6.822952528962477059e-01 6.680937642910841356e-01 -2.543437361892924020e-01
9.296505536138637282e-01 6.683863890309572897e-02 -4.742117973637890449e-01
7.917425360108985011e-01 3.176563623486622912e-01 -4.014186406572240462e-01
6.650851051735806596e-01 -6.039127885475847890e-02 -5.727498679201135090e-01
5.037286430467935450e-01 6.805980486458056422e-01 -5.055013213813059902e-01
-8.563387593563901445e-01 2.394954128499752477e-01 7.576640642315551899e-02
6.737564864326007763e-01 -6.766799669303924514e-01 -1.722739732469335261e-01
2.685551301719480422e-01 4.923741412041257592e-01 -6.998588855451109980e-01
1.444271208528583872e-01 5.986090578013404384e-01 -6.916640531244699908e-01
-6.474399718448012875e-01 4.909270405450509855e-01 2.867808474373298999e-01
-7.856656133822690347e-01 -4.410926387673791971e-01 5.512394660421245929e-01
9.419944388271970226e-01 -1.511857647864208454e-01 -4.512576794360763643e-01
-9.066708376698201510e-01 6.750194769079408130e-02 5.657716743688387950e-01
-1.860427205218358471e-01 -8.181779119862266914e-01 6.863504865082327155e-01
6.329999886238816265e-01 1.773230340869252908e-01 -3.049754466851373746e-01
4.822348207385855900e-01 2.416128937559713363e-01 -6.579909042110460016e-01
-7.503895481945515034e-01 6.490172068153488016e-01 -1.855404524821240297e-01
6.026562824051635570e-01 4.266740075134947130e-01 -3.631829010172089589e-01
6.533973365267973232e-01 4.151473127751137415e-01 -6.967828885757874069e-01
-2.433560315291079246e-01 7.417449348317824986e-01 -1.202883911265354433e-01
-8.439844828013585154e-01 -8.171336338126393428e-02 2.712939248575684248e-01
-9.997025179947378604e-01 1.832149513940265484e-01 3.492970117318604517e-01
-8.402812141394916390e-01 3.754680231205295704e-01 4.268440220666227525e-01
8.469843894213010538e-01 -2.000189966390841512e-01 -9.473992574961963287e-02
2.682289471487493970e-01 -6.398148039771645035e-01 1.740818504302470981e-01
-5.818434984241964703e-01 -2.883252163929037742e-02 4.654442816155282547e-01
-9.643623410649200256e-01 5.848820294683525212e-02 4.983262757676387711e-01
-8.386491265313478216e-01 3.967864473094945832e-01 -3.177039972026957787e-02
-6.112932700754160065e-01 3.927103627061639401e-01 2.723494197778043024e-01
7.032900741319400018e-01 -1.090174755036187881e-01 -1.650689647586330577e-01
5.931539859492747091e-01 -3.163604042029570795e-01 -2.611349739158786432e-01
-9.172623263650059311e-02 -8.270477380533335365e-01 3.240411345431994938e-01
5.931399177130339817e-01 -4.044118185412188260e-01 4.429812547165382086e-02
-5.222948902387702930e-01 5.074440086550112694e-01 -2.042578543704311189e-01
5.869317002741896161e-01 3.519750871461601593e-01 -3.429740971932575544e-01
3.142574281843825146e-01 -7.532233513296502370e-01 8.043480067010363999e-02
-7.249879660077683807e-01 -3.086319235069996947e-01 3.563169017816845141e-01
-6.091938930277239761e-01 4.556014523585779630e-01 2.569861577542272291e-01
6.286401707819849749e-01 1.199685923285436079e-01 -2.977956238186644233e-01
-4.628268159719968189e-01 -2.493478510015092187e-01 5.193239016956269216e-01
-7.196791511468382252e-01 2.243002455293402198e-01 5.002183739006517138e-01
2.005362467283687555e-01 5.800835436680517043e-01 -7.067203382413340673e-01
-8.081838119459168190e-01 2.201868674829207673e-01 7.708765949792281691e-02
2.594884519843412146e-02 5.669620067500846794e-01 -6.039233294281597386e-01
-2.417841799816056458e-01 6.185591665695548969e-01 -1.897375169991148691e-01
9.130394572385584773e-02 5.002240799844723806e-01 -5.043263037169519736e-01
-1.737215212491715829e-02 7.527122182065193456e-01 -6.504008410554555919e-01
6.199857051034184385e-01 -8.599602355871403814e-02 -5.115536510591159880e-01
-5.273442080035640328e-02 -6.391158874091352748e-01 6.740470103826197157e-01
-8.573781575174997949e-01 -7.099517309414984934e-02 2.701288203338725324e-01
2.232437085122917775e-01 6.524876007419612156e-01 -3.321275873994476990e-01
6.711799080648110927e-01 -1.556922432732746886e-01 -1.592905516068020833e-01
-6.275376062960305035e-01 8.408507260415939433e-01 -7.455225609400228937e-02
-7.232406737107474060e-01 7.710553082065872976e-01 1.346650890563583398e-02
-8.023346999002007873e-01 4.015209754291308442e-01 4.122456441568245755e-01
-2.155619155833127520e-01 -5.152785893870225342e-01 6.799018975629521622e-01
5.807020966870964918e-01 -3.891235798647753596e-01 -7.402487157611459603e-03
6.284048286628725055e-01 -5.593646680538501004e-01 2.479846175381075490e-01
-4.566535193270075399e-01 -2.661696894144109371e-01 5.023759028448235853e-01
5.164949419685928023e-01 -4.671416943841909530e-01 -4.976242047144056185e-02
7.873753665998418638e-01 3.344899207146025399e-01 -4.137413467546465218e-01
-7.770423447524411609e-01 6.958133384559567203e-01 1.202399586922499042e-01
-3.831187184958569913e-01 -7.104997556458518826e-01 4.097180179715154691e-01
8.639226172950790206e-01 -5.070879218852477610e-01 -2.833086879501051647e-01
7.979303041146368347e-01 1.451286657869022001e-01 -2.847905491213879592e-01
-8.665077157267730978e-01 -9.649979631277959269e-02 6.325047619345827155e-01
2.229910406210935947e-01 4.269521953813706916e-01 -5.712457996858200104e-01
3.035927123551759865e-01 5.390864680901896744e-01 -7.270818055362112675e-01
8.902950456009731672e-01 -4.127447098960978500e-01 -3.492139017819531066e-01
