1.667341417051775021e-01 -8.068434748301819837e-02 -7.253131423238556863e-01
1.320217258735441879e-01 -1.195324793495358418e-01 7.962515739182305374e-01
3.489157129767030407e-01 8.326311153345938854e-02 8.129848691475165534e-01
4.358151260503146940e-01 -2.623974221861546940e-01 6.281297427936886058e-01
-8.960971290089237984e-01 2.909361846899379822e-01 6.922710726429978645e-02
4.033670081117575190e-01 -2.478579621793384202e-01 -5.558083560032877068e-01
-6.938759690207426667e-01 1.968698716318348918e-01 1.639382581743740741e-01
4.214936250281178559e-04 5.236809510100508269e-02 -8.608184329045269756e-01
1.319256939256086003e-01 -5.505639886653416332e-02 6.940578725134376459e-01
-6.357252604102969773e-01 3.740544136911578832e-01 -3.481989124562088200e-01
-6.286639880449966800e-01 3.435688137630299455e-01 -1.632197401350870825e-01
-3.423103347308041888e-01 2.423423918316353065e-01 8.633757804079547071e-01
4.104141107854772930e-01 -2.506449708852742098e-01 6.588801126982339884e-01
7.890228735790637549e-01 -4.720070544647453348e-01 4.136234135837055237e-02
-6.026902708668320230e-01 2.436128827876695158e-01 -2.636990076069029576e-01
-5.641273307784475666e-01 4.163562908201738355e-01 5.940738235602378570e-01
4.704020338260991307e-01 -2.792444416155960840e-01 6.620223982043588196e-01
-7.372826082626607880e-01 4.682634603786960392e-01 1.954105406951869017e-01
6.045491740311685902e-01 -1.992957150869742455e-01 -4.424996611800410817e-01
-6.654321495778202644e-01 1.767098937655488811e-01 3.976996585029171638e-01
7.565171565435142575e-01 -2.400538757938469880e-01 5.778279787901389186e-01
8.210934893253855060e-01 -2.319043363648281009e-01 4.695324165963833951e-01
-9.895198339593641590e-02 -7.049319280061508430e-02 -7.172434073226243711e-01
1.369222056466697923e-01 -9.047772508275601921e-02 8.927883698381923194e-01
-9.890575815154291350e-02 2.686572879922575763e-01 8.481892077338644143e-01
9.199678681460217167e-01 -3.681444895860113697e-01 -1.040739565122444782e-01
-4.964986126595937743e-01 1.526347803828699279e-01 7.260069295551405677e-01
-3.897377494859435160e-02 6.315957047665202162e-02 -8.966759484875069797e-01
-7.690020386530778129e-01 1.525926492405076107e-01 -5.325870914077581730e-01
-8.120145107173831756e-01 1.617880889933233368e-01 -2.380135180260760097e-01
-4.819447209749038730e-01 2.415066772113329818e-01 -5.179356525373141062e-01
8.162686458711591042e-01 -2.592073208802422868e-01 -3.926427861023862875e-01
-8.943206272764080422e-01 3.610025959138359886e-01 8.004248564509405806e-02
5.518119682072943760e-02 6.125360654557573947e-02 6.802361681319863962e-01
-8.976163649783674980e-01 3.682581707775433033e-01 -5.694814395815105817e-02
6.281271451313691356e-01 -2.893993450245214705e-01 -2.137056847008834137e-01
-6.397861803646752721e-01 2.057183888252538395e-01 -2.085115572987756016e-01
3.824883317910805075e-02 9.445155215817475913e-02 6.815578846002148250e-01
1.910558078281898720e-02 -8.350629866933666212e-02 -7.216217651664915689e-01
7.460560941268100654e-01 -2.495510212449054410e-01 -5.326849172551356704e-01
-6.262875844973424533e-01 2.098243669533000622e-01 -2.364341355743411754e-01
3.399604231844861602e-01 -1.427713894896522617e-01 6.065680572156759709e-01
-1.353853637675524468e-01 2.605850615623544475e-01 8.771344514381324009e-01
5.015019909025424383e-01 -4.333425028582899019e-01 -6.181761727278622942e-01
3.917880296004782603e-01 -3.541990209863165595e-01 -8.300091503055088138e-01
-2.582349456592362147e-01 -6.068841689896140729e-02 -7.028279679671365354e-01
5.384746047639769190e-02 -1.177945950625494537e-01 -7.161543112869436234e-01
-1.043073905482770902e-01 1.024072737947225725e-01 9.454863940723088334e-01
5.870134873137086151e-01 -2.149854699174941763e-01 -4.208655067233693092e-01
-5.571411789701701256e-01 9.265312562700479815e-02 -8.098880734901936496e-01
6.985815833051253754e-02 2.043525629991542747e-01 7.781234863204481433e-01
-5.596393074792131994e-01 4.205826111993988814e-01 3.702744199677488468e-01
-6.163670182257839913e-01 3.601651669849634807e-01 -3.916546936728953487e-01
3.063911328035023307e-01 -3.503478386991464300e-01 -8.358054039489082321e-01
-6.146256846021151965e-01 3.561321446639055810e-01 -4.743072605488060645e-01
2.786798036596814798e-01 -1.586514343632244167e-02 9.267936350879373286e-01
1.673415361196813889e-01 1.454741192905186775e-01 7.399602449556813566e-01
-8.751895212621579878e-01 3.350364485703979378e-01 -2.763757897616495596e-01
-4.883239257376872922e-01 3.591973881625526444e-02 -5.755994727189950311e-01
-1.549455436767701588e-01 1.127559987998468793e-01 9.341100377000013388e-01
-3.836961729636204077e-01 8.936625679325764515e-02 6.934960120960645957e-01
-8.997899667230464804e-02 2.215549722215461731e-02 -7.356594365956335979e-01
-4.154728608833740261e-02 2.489288502095137190e-01 8.523150428456462979e-01
6.410607923402757979e-01 -2.056923214862503568e-01 -3.890411220882298293e-01
8.667851057896791556e-01 -4.316556122950845897e-01 1.355812624851173154e-01
-1.918298203524348988e-01 -1.633132317284355095e-01 -8.143249295948704614e-01
4.287386792029965199e-01 -9.428311378318367242e-02 5.447078582609820030e-01
-8.469223891205701626e-01 3.604651871949310915e-01 -3.169559501727778339e-01
-5.552664438874896913e-01 3.650915781093996282e-01 2.891080572104887114e-01
3.618254141159475412e-01 -1.009132957079591913e-01 8.889195758548956716e-01
8.836471426908006910e-01 -3.712716924183132039e-01 2.498332448446200227e-01
2.614234862603477261e-01 1.233822119200452122e-01 7.657839684091530819e-01
7.932084818569082874e-01 -3.989762980887299748e-01 3.600270104155485762e-01
-7.541935605813531174e-01 1.960996964496275474e-01 2.903983016617278090e-01
-3.076834577186386699e-02 1.229105589255935146e-02 7.058616539734843265e-01
-4.980962615231866453e-01 1.730999557942039524e-01 4.781637129965689570e-01
-5.662503999868660071e-02 3.679012583177412171e-02 6.945491367438585417e-01
-1.212381909979573652e-01 1.604545932279308751e-01 9.401302378550999705e-01
-6.012864556412520489e-01 2.367937886438925554e-01 2.466053820971655652e-01
6.438290848330859850e-01 -1.840312460044440934e-01 -5.330506068684131016e-01
-3.482654760496029650e-02 1.305570615918650035e-01 9.525917990613460562e-01
6.193121789181103010e-01 -3.267416432370909285e-01 2.472690207369318272e-01
6.907506360641596510e-01 -1.087303381410500425e-01 3.953943279457775573e-01
3.768926688463455910e-01 -8.501441336957703265e-02 5.780124254800654837e-01
6.579305261319184917e-01 -2.805018504649171573e-01 -9.193382740962113830e-02
-7.294355483187635603e-01 1.166261249070423001e-01 -3.604609656155736142e-01
6.058581174864123842e-01 -3.451554794067891452e-01 -2.411981027426072233e-01
1.965896339299596229e-01 -2.877788535655149971e-02 -8.305021558624419153e-01
-6.286313101789162694e-01 3.188167143964138472e-01 -6.780571506902513534e-02
4.450049002926809161e-02 2.095338837016253453e-01 7.633120625681478755e-01
-4.605925790537206410e-01 3.926171746507861049e-01 6.753325721254613834e-01
-3.135591383624818373e-01 3.035147123850359119e-01 5.832588784784099589e-01
5.205491349892882313e-01 -2.418662075050075910e-01 4.356508542844517162e-01
-2.338428262921600220e-01 1.373477254272562620e-01 -7.374757422120961081e-01
-7.142645659925119794e-01 4.378564266149367890e-01 -1.204000642651876229e-01
8.136162591782487574e-01 -3.289043543375821388e-01 -4.631649280694958293e-01
4.801086429433323866e-01 -2.613473914931613851e-01 7.232379334735027365e-01
-6.224178088258502939e-01 1.741622121460621730e-01 4.017331883120266456e-01
3.032023876455103815e-03 -2.004777115067097881e-01 -7.529087429845809920e-01
1.618239973065529191e-01 -1.283942924379356809e-01 7.630640390297891429e-01
-7.157700728588137773e-01 1.154934364685741705e-01 -3.568289622454053900e-01
1.582606500927513093e-01 -1.993477484126409890e-02 -8.906711422936472999e-01
1.356806728845152965e-01 -2.782753520192223773e-01 -7.505472383462303831e-01
-4.914283298792905819e-01 -2.689162205063941671e-02 -7.573869921579939879e-01
-7.311516779346640682e-01 1.887969315255853819e-01 2.192746602945090661e-01
-4.002143057434922463e-02 9.460125996194297671e-02 9.553492227431311656e-01
-5.512735478963658453e-01 1.051326819322540018e-02 -6.280776585535992051e-01
8.839140656929946882e-01 -2.699945517134995088e-01 -1.951708913793357147e-01
-1.927149487259406380e-01 7.491569206558228167e-02 6.748030641505522453e-01
-6.580331402636123428e-02 1.699898582143283699e-03 9.080173830728452966e-01
7.279198675258364837e-01 -1.063872064163946252e-01 4.822649442899156202e-01
5.076274116720885105e-02 3.282950025252728138e-02 9.556161196588933704e-01
-5.772171670509617103e-01 1.694932905124758027e-01 -3.725958370258091734e-01
8.484843810670632536e-01 -4.187277761643366514e-01 2.270590267985186927e-01
8.769269452140945331e-01 -4.440571649200946713e-01 1.314666399245244775e-02
7.204047518216364354e-01 -2.044137763699424015e-01 -3.320478052036441863e-01
-4.967028393414061882e-01 2.510151567694196562e-01 -7.519808777693992585e-01
-2.868808516227987493e-01 2.742097844965541986e-01 5.906328667394337151e-01
-8.443468312079791538e-01 4.271510592794653394e-01 -1.051379332865611527e-01
-5.096156141918997129e-01 1.979209134570788786e-01 -4.565763070507144472e-01
-7.156473607157495254e-01 4.497049381080833741e-01 3.824580031348941977e-01
2.529118517942480215e-01 -1.556629527971927496e-01 -6.693350702641366334e-01
4.947787203017731672e-01 -9.767424470880678444e-02 5.017472364705317656e-01
4.711277610310859454e-01 -1.993045593514072567e-01 -8.374625080733616445e-01
-7.282342492524315203e-01 3.267806132423790588e-01 5.299135434016812862e-01
7.069429824979330812e-01 -1.177014571000542936e-01 3.692858331921528570e-01
6.004317824470867260e-01 -2.517558286796868217e-01 2.869097483129481874e-01
6.490374266717381380e-01 -3.410227035019105513e-01 -1.877460511090883050e-02
4.503096165928860417e-01 -2.373943175833923280e-01 5.428767702858443567e-01
6.453033322546284367e-01 -3.600122828190419622e-01 1.620130098583909828e-01
4.934675165261505625e-01 -1.620042667048896545e-01 -7.822466516559066774e-01
9.090348959017638952e-01 -3.283921511626198275e-01 2.116769146164558246e-01
-8.604464823321918976e-01 3.714535583222637882e-01 2.324574560379045751e-01
8.086936144930439996e-01 -1.825811753442135033e-01 1.122789107558743033e-01
5.548851810031918408e-01 -1.917627215790785600e-01 3.891288414730582623e-01
1.609140741015039266e-03 -1.972824962362444978e-01 -7.510394687216990217e-01
8.364264905901407365e-01 -2.733052136841981339e-01 -3.655898501749401674e-01
-6.338280154932601773e-01 2.739543599479861702e-01 2.111839374375105299e-02
-6.462403153913681697e-01 3.374940096426890523e-01 -5.694428747857998019e-01
7.149426966218909163e-01 -1.694952593905056371e-01 2.064812914588973758e-01
-8.378801129109239021e-01 1.897751615732322650e-01 -3.626183222161409869e-01
-5.524545734456252077e-01 3.995971893910097994e-01 3.380595148557073437e-01
5.986802127261834361e-01 -4.578217742756853226e-01 -4.454627639921279747e-01
-4.965606742689926967e-01 1.212892975033682819e-01 -8.533997820297486436e-01
6.269384781282073549e-01 -4.236448604833752962e-01 -6.345132524515888495e-01
-2.601672086931443653e-02 -9.174887077526554247e-02 -7.209111348967718325e-01
4.827722652320106111e-01 -2.650211893972060917e-01 7.163523310286290524e-01
4.217412234041265640e-01 -1.536426080002973593e-01 5.391086600359644709e-01
-4.286726890292505421e-02 1.407575735849814769e-01 9.500854159282430267e-01
6.911086064657943062e-01 -2.094530778996483711e-01 -3.109821394096256575e-01
-7.447526700339654471e-02 7.390034868338343776e-02 -8.006115358529527493e-01
-6.031346497235656745e-01 3.514892486690062157e-01 1.474915618889363622e-01
-1.310150748635877105e-02 -2.445784331680085077e-01 -8.496808519333981513e-01
-4.757807241616279215e-01 4.128695603038091133e-01 5.859107577156389413e-01
-3.283726585349727722e-01 4.947011246728143241e-02 -9.415194243134895613e-01
-5.211720869606988327e-01 2.614901540791180201e-01 -4.596729352989726292e-01
7.494363667805357121e-01 -1.302281066747764948e-01 3.455785829451800684e-01
-2.126351851106832724e-01 1.604078648316324962e-01 6.265983164334096855e-01
6.694881184769685412e-01 -4.091359827401869209e-01 -4.037698612979261255e-03
-5.902498464023372415e-01 3.906428190788670540e-01 2.307644426452557795e-01
-8.969548161245683993e-01 3.494598257908365091e-01 -1.462633961905560609e-01
3.994277974994441816e-01 -8.956734667610787015e-03 6.093137542125520723e-01
8.006924980903439293e-01 -3.035939709704388867e-01 -4.799897578078320959e-01
4.920089465354571256e-01 -2.417897825389487276e-01 -8.342856607674592473e-01
4.002805206881047267e-02 -1.612771078664874402e-01 -9.898710843805340609e-01
-7.574514379961371224e-01 3.955482491996847316e-01 4.386011874875238026e-01
-4.927734057191796579e-01 1.808550344578323255e-01 7.590125293686335040e-01
-6.416987482060783066e-01 1.575924084502831057e-01 -2.968241144896316963e-01
5.268326179206228588e-01 -4.387798732565943438e-01 -6.188801211101093713e-01
5.054231184582390624e-01 -6.091799277885015518e-02 5.294841230043980662e-01
-4.741715811935908187e-01 2.400347210443804780e-01 -7.699512421979654020e-01
-4.704319910464210830e-01 3.340564744876656222e-01 4.205665580935726844e-01
-5.193320341584723998e-01 1.593841366392186043e-01 4.942431267558751729e-01
1.959599836394224429e-02 -2.004673576637478749e-01 -9.668865489292688409e-01
-4.617562279755481058e-01 4.079255936282084605e-01 5.650730281875506744e-01
-8.843240544945850656e-01 3.760629886284034273e-01 -1.502055802037512156e-01
-6.422133029070243859e-01 3.598802069425822148e-01 -5.002585743181033884e-01
8.188247347581012470e-01 -2.800226130582905704e-01 -4.204772685403780907e-01
-5.313088470973709176e-01 2.784983494570746898e-01 3.297592750772808112e-01
-7.551272070079813048e-01 2.698489240748729312e-01 4.766490316371734814e-01
-1.071178711362838834e-02 2.371562569952521959e-01 8.551662634383930817e-01
5.466896178521121197e-01 -2.449198300998838354e-02 7.395467726150150023e-01
1.622292595235702850e-01 -2.202441671221464503e-01 -6.962002024500706376e-01
3.720599935880533615e-01 2.387002199534042982e-02 8.718237382254770962e-01
-6.505479225538161048e-01 2.396137995495087047e-01 5.479221652238607659e-02
6.762192668922911709e-01 -2.471156020674234455e-01 4.520876456379661207e-02
-8.827841754983910549e-01 2.981440383578247699e-01 1.562221928104432223e-01
-2.826654187134775564e-01 2.902823396886537732e-02 -6.610307539968448554e-01
-7.085495882829091763e-02 3.392988903020984631e-02 6.981445396684609062e-01
-1.291835611850648269e-01 -1.614928759050427709e-01 -9.464507373653747724e-01
3.046303544310627331e-01 -7.220419592694232724e-02 6.178445841424916596e-01
3.556938405423377692e-01 -2.362699623166250318e-01 -5.930071674591927966e-01
4.161582985169115512e-01 -2.910319434658656945e-01 -5.376507637479772672e-01
2.847585383183078023e-02 2.115871044750340102e-01 8.812034357903881787e-01
-4.153033283200932013e-01 9.941305666629496329e-02 7.024801771042137322e-01
-3.167036034342630701e-01 -1.023370479598942340e-01 -8.713284033920761784e-01
-3.840293867415153217e-01 1.307603988532916317e-01 8.177683243680345937e-01
-3.443116517174073521e-01 3.470010578233079790e-01 7.733424453581423386e-01
-7.240702996369100530e-01 1.475519011048701812e-01 -2.314884115326361902e-01
-3.530225395846407765e-02 -3.237033916963923813e-02 -9.911747833371072902e-01
6.407137340748150223e-01 -4.100719615826600162e-01 -1.762003312445805658e-01
-4.627835518096758971e-01 1.691984644834343965e-01 5.054263137021559604e-01
6.186228618507690902e-01 -6.495454276684753392e-02 5.054379670034205851e-01
-6.034396742075036624e-01 1.842018478976842344e-01 -3.168828691744868808e-01
-6.985315073216873394e-01 2.873007850250026696e-01 5.731822715266857715e-01
4.692228961812690002e-01 -2.817125801120098361e-01 -8.469672928562772540e-01
-3.820981480446530854e-01 2.212835028256759373e-01 -6.724048580886644588e-01
-7.427027617729355935e-01 1.137725624908871302e-01 -5.157379163730464455e-01
8.352983239530320514e-01 -2.668254707146617832e-01 4.429699869384263744e-01
5.647010846186950594e-01 -3.335188944823733737e-01 5.343244433567962970e-01
4.535522070597562960e-01 -2.756616647168697032e-01 -5.032101310050665077e-01
-6.298211470481249741e-01 3.380819107704977622e-01 -3.693742432812938126e-02
-7.747775167519551642e-01 1.803980138006860967e-01 -6.869972596739916393e-03
3.657339805278528311e-01 7.295835588665761096e-02 7.227420960629835633e-01
4.884255954503537445e-01 -1.757225199183272413e-01 4.727643319857011139e-01
-8.457969439779375320e-02 1.189629073265740938e-01 9.498651399237603155e-01
-5.234211174376297571e-01 3.395345744843569769e-01 3.381643948089557705e-01
-5.627042254243557612e-02 -2.255598996195355976e-01 -8.418341068928451021e-01
7.931733489765967482e-01 -3.896759896041949722e-01 3.808508458952430398e-01
-5.382657653269220521e-01 1.432404378380220666e-01 -4.418979548082286879e-01
4.012246239207947207e-01 -1.130132111773854281e-01 -8.053291066594757686e-01
-6.809706342233983190e-01 2.407057816700724773e-01 5.773650277185292667e-01
-6.271179422125252589e-01 3.073000601471830295e-01 -1.046834314680756967e-01
8.114503965897321702e-01 -4.677031185047895168e-01 6.184190289773089377e-02
9.231394747606082030e-01 -2.956399029258700573e-01 1.265904100668597794e-03
6.942855580375948410e-01 -2.356236636235132520e-01 -6.051671607849654633e-01
-6.599058777413232546e-01 1.992838710787410428e-01 2.375462078437537705e-01
-3.288063623419746340e-01 3.477364536633325565e-01 7.698758888781217502e-01
-8.536359101765765844e-01 2.267862559952351365e-01 1.005550037143754794e-01
2.659911664830509892e-01 -3.376310136936127027e-01 -7.116378056148080500e-01
8.334176047056578440e-01 -2.438737424555376399e-01 4.457686773394745061e-01
6.820623150829775438e-01 -2.477294989446224283e-01 -1.789042327585940728e-02
-6.945600583503301895e-01 3.576260594772673329e-01 -5.084018851748176582e-01
2.019458172210905622e-01 1.173093046245398674e-01 7.180566165857181771e-01
-1.625501658808203853e-02 2.135590004031844846e-01 7.247556716864655968e-01
-7.541618340133904308e-01 4.427937582727357047e-01 -1.563977623350617796e-01
-3.472100056347933172e-01 3.294647887817351434e-02 -6.331281953767593507e-01
-3.958162685232834987e-01 1.067698674625179728e-01 7.734277517936111179e-01
-4.019559583854309670e-01 2.118558822308549694e-01 5.075949405057522679e-01
-1.031976102213669338e-01 9.001796268165543347e-02 -8.917025393243578346e-01
-7.124508315889298976e-03 1.895082877872922289e-01 7.075714581227633415e-01
3.145458688444451728e-02 2.820650157217681822e-02 6.873614310712384823e-01
4.351399483416805158e-01 -9.178847893393432544e-02 5.418801968407891412e-01
7.165218169043418017e-01 -2.019015571604112214e-01 -3.860089609677759825e-01
2.939380013009554315e-01 -2.384777662181549185e-01 -6.310447591454354521e-01
-2.829837603074380481e-01 3.338791783611480546e-01 7.892102677411729772e-01
5.581190341669868271e-01 -2.052313839134431162e-01 -7.578035178332624966e-01
-3.843682749519901631e-01 1.950956882689072747e-01 8.471042294848887266e-01
-5.405082773590265122e-01 1.840121706979480354e-01 -8.047750162888958059e-01
7.137086623206795322e-01 -4.733899832301593502e-01 -1.508400255892061725e-01
-8.633388432294942794e-01 2.112701164400954956e-01 -6.929044627205042939e-02
4.225738021103427888e-01 -2.291451649394998791e-01 5.762667797188387731e-01
-2.235030930041004282e-01 2.881804321929385890e-02 7.987311198829509795e-01
-8.702725713743117986e-01 2.305771894261070820e-01 2.588178786534461179e-02
4.570566481095061223e-02 1.645870703323254816e-02 -9.240204331270821525e-01
7.236385971694431207e-01 -4.615898696325929640e-01 -1.248750943231829134e-02
8.831616534572592769e-01 -4.213374115879543469e-01 -2.082178922596317205e-01
4.976211991587063399e-01 -4.154553356157250077e-01 -7.050957362043096532e-01
-5.559190073215632966e-01 1.562248987790261778e-01 -4.117510839519678001e-01
-6.111497925465987358e-01 2.961963457591409443e-01 -2.202066170248297983e-01
1.895193052442742943e-01 1.547149420680706267e-01 7.773329417322759616e-01
1.818295385934003972e-01 -3.004077091252733145e-01 -8.936794617599298496e-01
-5.438017759087582226e-01 3.641117798030511499e-01 6.888857620746940968e-01
5.834383562484992680e-01 -4.357472438117648283e-01 -6.341715803754841563e-01
5.453109574102212864e-01 -1.789498359912980452e-01 -7.420504371408441768e-01
7.539337052589180355e-02 -9.455987919452702242e-03 9.435567970927020154e-01
7.246556085971371797e-01 -2.148445382892592292e-01 -3.596177525275057185e-02
-3.791450433466687087e-01 2.171768186881439244e-01 -6.675197207084975215e-01
-1.699304766904128350e-01 -1.695596669273242429e-01 -9.011008325613613090e-01
3.113223787968594225e-01 -3.645122637508934060e-01 -7.992370573210356710e-01
4.550813626140458035e-01 -4.171184580955825671e-01 -6.235575517393899814e-01
-1.372730729130312854e-01 -1.918565473221902629e-01 -8.460011773649154243e-01
-5.997847164992095026e-01 4.115983897360772636e-01 5.855921494978745256e-01
-4.041961364548766200e-01 1.848106127684715771e-01 -5.906642441681184685e-01
-6.092331601897877924e-01 3.115122964711181663e-01 -2.414480091066998346e-01
6.514589432554080961e-01 -1.513300538540177931e-01 7.051462450859921072e-01
-5.129981003728717459e-01 2.328474869443412920e-01 3.887924346123974861e-01
3.776734300036281300e-01 -8.938877561776623071e-02 8.875273924116311441e-01
-2.705114580443586103e-01 4.662077953814732639e-02 7.614998776036382422e-01
2.863070805473368896e-01 -2.887766917077149720e-01 -6.462135689307653141e-01
5.411200541882013049e-01 -1.534733323890362100e-01 -6.428170258908179058e-01
-8.876935015760376579e-01 2.831651989155758442e-01 -2.596357628055435685e-01
-6.415264202069305144e-01 3.265237435799559496e-01 6.353704971429785520e-01
8.806944436840230539e-01 -2.245972287499864162e-01 5.117989021300951846e-02
1.940051584219372738e-01 1.154813618726179270e-01 7.137054904051030046e-01
3.754777021277149185e-01 -1.477708625202797943e-01 -6.409951012172929730e-01
-1.760462082971017694e-01 5.146849979338870285e-02 8.956018451459771823e-01
5.929173747616323098e-01 -1.107954974456174108e-01 4.255710326961184009e-01
7.257684619570795581e-01 -4.722097539367505203e-01 -4.212333174394456425e-01
-5.266406278555592069e-01 -9.642951241001236629e-03 -6.873000771597911340e-01
3.774212926440240201e-01 -9.048965503322070614e-02 8.873483385570174464e-01
-7.918954061170747627e-01 1.562141845240372084e-01 -2.138968017775663977e-01
-5.146061700395359040e-01 1.471546235052854645e-01 5.289320594340362058e-01
5.779033960168026285e-01 -2.834535582525808950e-01 6.826615229257237960e-01
5.798561247155058496e-01 -3.843891327971483696e-01 -3.223483674443476943e-01
6.191753172651569548e-01 -3.135904453485039989e-01 2.354796017990515300e-01
1.156686990135329107e-01 1.415512067507389560e-01 7.151801718151250542e-01
-2.424177480507650750e-01 1.513606456572551273e-01 -8.574937322144501328e-01
-3.076035794746337371e-01 2.446237771599146238e-01 8.747792498965951680e-01
-6.903810965795418308e-01 4.429113828287608579e-01 2.935356091606771203e-02
-9.395186787407079632e-02 1.631284305906880450e-01 6.655160750552657767e-01
-4.900993541915914520e-01 4.016203390489133107e-01 4.692794929994142383e-01
-2.022114225934744658e-01 2.628045480983773885e-01 8.813766313315540835e-01
6.961912501087661465e-01 -2.334046407967660941e-01 -1.100131114056631387e-01
8.762719035231639753e-01 -2.196878151333159779e-01 2.531497083091689970e-01
-7.427237010661444927e-01 1.567248545080361932e-01 -5.955631371848953970e-01
2.042741759102141841e-01 -1.122248245129399968e-01 8.879126241801486019e-01
-7.708396598746291017e-01 2.911788643323527381e-01 4.589786805909852330e-01
-8.649695565203182612e-01 2.634377018641260726e-01 1.774876618844644927e-01
5.619373315142218717e-01 -2.188521169336554717e-01 -4.398233090619760310e-01
8.528080400966122632e-01 -4.086511690172293654e-01 2.463376183067921277e-01
4.619588242490615948e-01 3.301858906235703023e-02 7.467863808424929362e-01
-6.725977292042736311e-01 4.098981282904777812e-01 -1.406427835620374378e-01
5.416256014852705025e-01 -3.083403859535289726e-01 -3.831791158663351848e-01
9.026962050585080055e-01 -3.943216748555384288e-01 -1.766504769916982243e-01
6.456485639237052876e-01 -3.662033790641682773e-01 1.827609813163469932e-01
-7.306657047213614975e-01 1.892888840609176226e-01 1.778843615253110078e-01
-6.969512473910812744e-01 1.996677724982072188e-01 -1.768705042863650536e-03
-8.178390674528082105e-01 4.314830008806480599e-01 2.401538852549135739e-01
7.744076009615527001e-01 -4.837463210609316833e-01 -9.729025137381663857e-02
-8.048343640946098443e-01 4.448550457199499375e-01 -1.077136610794598159e-01
-3.492055091169758430e-01 -1.248788246113925575e-02 -6.577003656256391606e-01
8.298677180656118813e-01 -4.389538380876489287e-01 1.917356717686043710e-01
-6.678670441768527199e-01 4.585504935626775191e-01 2.420490651852349184e-01
6.548071819236706004e-01 -3.697212820197215422e-01 6.042216843313116814e-02
-8.458132705591108191e-01 1.865998986802330506e-01 -2.685764971856209882e-01
-6.235252105096251718e-01 2.928420211180879917e-01 6.248408729985497484e-02
8.966586420201175800e-01 -2.403940184273972713e-01 6.336358833459959650e-02
-5.919558507990558827e-01 1.975444009767856335e-01 3.474740344555297122e-01
5.992555700335984170e-01 -3.204390849338571434e-01 3.134693766849330210e-01
-1.039675813069685373e-01 -2.017954226784665073e-01 -8.952358956005468382e-01
-2.798608648838695270e-02 -1.612942593043188433e-01 -9.820603218170885773e-01
-5.930707680280676852e-01 3.823470145079592708e-01 6.351123886143236197e-01
-7.393669334182609854e-01 4.649428778516305205e-01 2.567398895821584870e-01
1.395458773638311722e-01 -3.644707831563623324e-02 -7.644220621308660535e-01
7.838828827078558881e-01 -4.784627240423258154e-01 -2.954718361464212517e-01
3.768928856756669776e-01 -3.576756050044733320e-02 5.968151000568683306e-01
-3.554144375903107722e-01 1.780073937519291993e-01 -8.544468484465401747e-01
-2.323790560297122887e-01 -3.440592166997741286e-02 -6.924134872546354735e-01
-5.322829381721477793e-01 2.538994962759449359e-01 -7.438073426066327265e-01
-6.730268011261389960e-01 4.355821804485418003e-01 6.096751955866718670e-02
-2.634651971215747901e-01 1.468042730562106324e-01 6.140282820888047777e-01
-2.889100161596820926e-01 2.141747718904271625e-01 5.813122101389205376e-01
-3.928215756210779452e-01 1.707900127424627768e-01 5.424660356431763031e-01
9.116395524601428324e-01 -4.042857385694560990e-01 -1.694675296623302310e-02
6.604508469089243050e-02 -8.139762821462159792e-02 8.646661752034942028e-01
-3.310386833191564793e-01 8.694114367463515181e-02 8.135722651657972815e-01
8.616165772570267833e-01 -4.388279261262607034e-01 1.195662220439970280e-01
7.514810243287050051e-01 -1.239571096650230603e-01 4.882185234225593362e-01
3.518281063380677143e-01 -1.908743947928482065e-01 6.279551653431920677e-01
5.584087621114417477e-01 -2.763257926581597079e-01 3.813991559131515996e-01
3.097021286729421674e-01 1.010928715157526497e-01 7.507940644640463956e-01
5.593865371993423929e-01 -3.277005944539715943e-01 4.737672692422204013e-01
-1.006158575800514612e-02 -1.522485364555507814e-02 7.223143016690739548e-01
7.713985030942586141e-01 -1.966685254595318122e-01 1.424097899440357516e-03
-2.487268146222799126e-01 1.069670159563602119e-01 -6.938597996962917458e-01
-8.956412473243293704e-01 2.873953606992502574e-01 6.561229080686561965e-02
2.116721386723174614e-01 -3.913528905124926544e-02 6.564222818125807768e-01
5.558653871733509888e-01 -1.369365530221467245e-02 6.848734821397158834e-01
5.470902194198051099e-02 -2.691660396972672120e-01 -8.195724130663132323e-01
4.151857583979411959e-01 -7.272349818076122296e-02 5.617182917743404058e-01
8.070539510615388767e-01 -2.098703073855417434e-01 -1.434556195813486423e-01
1.680095949191135196e-01 -1.930936602501878152e-01 -6.894732879905982603e-01
-5.331950255630031332e-01 4.090563851321034061e-01 6.228497707765113800e-01
-4.409186479756525001e-01 3.373107253513142889e-01 4.629702372547099820e-01
2.980937539101907174e-01 -1.496784950808378034e-01 6.463019610443890839e-01
-8.046258075326672143e-01 4.526841099840455684e-01 1.747943006730211801e-01
3.759366803407782065e-01 -3.292133701131739754e-01 -8.603467498610700703e-01
5.706917454549722546e-01 -3.361545018414150432e-01 4.695876982678608980e-01
6.666201722115480122e-01 -4.745097947515236059e-01 -4.396015385452847202e-01
-8.343143306700510076e-01 2.008910046455653076e-01 2.315779274844041724e-02
-4.157843953452490804e-01 1.285246764174736989e-01 7.853657597201707530e-01
-5.616228053943796983e-01 3.212438024717124141e-01 -4.673147808121163038e-01
-6.541023161712568035e-01 4.586782267135401936e-01 3.636796712521154773e-01
6.615069618965426779e-01 -3.479513725714106220e-01 5.491605325760292589e-01
8.112794231703861492e-01 -2.166179115924375120e-01 -2.086490887876685241e-01
1.570138136867562928e-01 -2.942541177250292406e-01 -7.549334573415832361e-01
-5.099329201757455410e-01 1.337831249032951086e-01 6.540474618606396673e-01
-6.210136889181500086e-01 2.447556599788896503e-01 -2.043315074259099418e-01
-7.438505731807472099e-01 1.897186097360182566e-01 2.114041958946197008e-01
1.093710685552542194e-01 1.180295893210576569e-01 6.975489936106032962e-01
6.292462376643416233e-01 -2.581664308195698587e-01 2.108084925527152764e-01
-4.642079843429781916e-02 -1.757245282155514565e-02 7.408823583910425503e-01
6.430594228050166006e-01 -3.426186867771416344e-01 5.639072463587536665e-01
3.550471213944975668e-01 5.555801393389445120e-02 6.811989523637997923e-01
6.879557189877542056e-01 -1.946787355775806139e-01 1.750316513600650992e-01
2.101385212659627119e-02 4.350010725181564092e-02 -8.656848997393402634e-01
-7.871332355421812865e-01 2.967943376026374591e-01 -5.059210001021999803e-01
-6.177857907283613725e-01 4.028212451674036410e-01 1.672770159479861907e-01
-7.330005432881082639e-01 3.976958466678476301e-01 -3.789955725487161309e-01
1.424578220088099645e-01 -8.305207249046490242e-03 -8.719670975270347180e-01
4.437392906908622647e-01 -6.950853714916613302e-02 8.598437477234244231e-01
-4.982155317177071607e-01 1.273575775484498129e-01 6.296459823884410500e-01
7.463692187501893560e-01 -1.467697885165874239e-01 5.617337665240712541e-01
-2.933112413451760547e-01 -7.008712592647119155e-02 -9.317285165679768388e-01
8.866277226992599347e-01 -2.286479936839646843e-01 2.066376413239041088e-01
-9.006934369870708279e-01 3.429852178610469648e-01 -1.305224632153531017e-01
5.053170943770274315e-02 1.460664171859118732e-01 7.000094899249921232e-01
-4.931211579799652522e-01 3.862222034452026387e-01 6.832146875482200121e-01
8.902120339840248198e-01 -4.142434814504153406e-01 -1.944416904104625810e-01
9.688716045561854284e-02 -3.969465147056097480e-03 -9.194172894687496767e-01
-6.177556395990109195e-01 3.023970336816671489e-01 -1.864463639159381070e-01
1.458545339434081378e-01 -1.021754978774195577e-01 -9.765175343215090065e-01
-2.973412160797913595e-01 2.794261628557888066e-01 8.579141189200227835e-01
-6.258949775072397692e-01 3.637658054703075683e-01 -4.483695467340248486e-01
5.711000500492626752e-01 -3.286548006450349946e-01 4.278450800913844443e-01
-1.752738236867317778e-01 -1.707169691491546570e-01 -8.173408428395494418e-01
8.782672274168509263e-01 -3.366798750842546761e-01 -3.058754880760598538e-01
2.394728910745393957e-01 -3.099863661984977176e-02 6.462316830133153500e-01
-1.738458966099803438e-01 9.772646497450482306e-02 -9.204288333956834878e-01
-6.345923549283862819e-01 5.072785078143610821e-02 -5.607756678632900282e-01
-8.423527856968532346e-01 3.830945480719009644e-01 2.751069750092516863e-01
1.991892588285186505e-01 6.701820650986234362e-02 9.362330661052677971e-01
-3.560813810195624929e-01 7.864185646753653336e-02 7.176246447126959360e-01
3.550366346549514440e-01 -1.756268790782908040e-01 -9.083387804175466762e-01
2.280727940425311684e-01 9.610439381431987171e-02 7.025047834006462599e-01
4.366057792445428576e-01 -2.561968060683176285e-01 -5.255148698682213793e-01
1.122943677855060551e-01 -2.953104784263153593e-01 -8.393934154179317764e-01
-5.351629931476337143e-01 3.641953958503401645e-01 3.303221852949391746e-01
5.913298862452435189e-01 -4.094989997310082841e-01 -3.234292057399081877e-01
-6.831389430276398889e-01 1.495463452714727304e-01 -2.619301152635377106e-01
7.697962860376532657e-01 -1.408928393648191668e-01 4.851748214625072331e-01
-3.605039312637228210e-01 1.237783062059412131e-01 -6.128722365883488843e-01
4.781986874671732002e-01 -1.570804302531417507e-01 -6.014377247321630593e-01
-7.994763067814223412e-01 1.552533610399188801e-01 -4.316147746476468039e-01
3.498714965573910818e-01 -3.745765860035775718e-01 -6.763901507712398731e-01
1.174788418519145533e-01 -2.873325739932226508e-01 -7.839919773539300030e-01
-7.230116173126636125e-01 4.677958415998336728e-01 2.278280257197700942e-01
-5.247896277032141343e-01 2.891058485399112810e-01 -4.925685365893962553e-01
4.110086590412859731e-01 1.178309669673172771e-02 8.511165556507129804e-01
3.619312263061196799e-01 7.136374015038289553e-02 7.147429024087192939e-01
4.372159543669160708e-01 1.159733906632574689e-02 6.304270157163125443e-01
-3.776304469285082788e-01 1.225925253906339080e-01 6.036656428802066321e-01
-2.905544290387178652e-01 3.210805341068262986e-01 6.226757781266807346e-01
-2.499968738132098134e-01 1.177635274196342924e-01 8.983556345351549899e-01
4.372270901546387867e-01 -8.347044146039155673e-04 8.389269816977603655e-01
-8.081083482249558081e-01 2.629823097017997546e-01 3.568035659364477974e-01
2.069844689335271770e-01 1.264631501602632990e-01 7.317051591554217804e-01
-3.335909869307100983e-01 2.043922036399223319e-01 -7.682715684280879698e-01
-1.324439901880395676e-01 1.058189121266970255e-02 8.756095515759110270e-01
3.499831641858493492e-01 3.822599497579041300e-02 6.585144028218846701e-01
-3.466910630258719372e-01 1.359529032348971156e-01 -6.278152279040051242e-01
-7.794154139800693049e-01 3.686228618601723461e-01 4.287570387976242237e-01
-4.833504706665067152e-01 1.567954342289713254e-01 -8.473569327708164733e-01
-3.710627216535737349e-01 1.446413162369256933e-01 5.775633074804575884e-01
6.484906421623011508e-02 1.583125162334416136e-01 9.274229827842611629e-01
-8.116804689793292171e-01 3.650936818043918342e-01 3.684298597187199431e-01
-7.206412617469488691e-01 3.948926889689591269e-01 4.927481135769504750e-01
-5.050146734859426445e-01 1.600647266067465324e-01 -4.703174020729344873e-01
-2.094174365075124333e-01 1.092373851738099033e-01 -7.269962809497634293e-01
-4.031228634860185012e-01 1.138675213554624366e-01 6.177729802240972123e-01
-4.026985597546202666e-01 3.198747797162843631e-01 5.003821103334467058e-01
1.884039828144765671e-01 -2.660879569440877807e-02 6.630475202506246335e-01
-5.593105983704539375e-01 4.371835609213669538e-01 4.706341022644686123e-01
8.560748746564996736e-01 -2.124611754992374035e-01 1.956696106331348630e-03
-3.046436618493282289e-01 -2.343943969926286577e-02 -9.474272888391239711e-01
6.835659074335451724e-01 -2.378552093503544518e-01 -1.605170951288094894e-01
4.054525629632110273e-01 -8.991367575908133791e-02 5.602510475415801716e-01
-8.793804802499378681e-01 3.355472136142861328e-01 1.858589545326384540e-01
-6.249936454579930745e-01 3.385438009660602376e-01 2.533934921567857282e-02
-6.163602960234715322e-01 2.050354211516386138e-01 2.937788733722811463e-01
-6.786542448290315832e-01 1.415768168163206442e-01 -2.884878868584331291e-01
4.861194152351923647e-01 -1.691867769673032484e-01 4.762263279520179693e-01
-7.369872497229809083e-01 4.683897819635369220e-01 1.771034756900617957e-01
2.881404675695119488e-01 -2.758648248273614101e-01 -6.399531336489677757e-01
6.070940217136839845e-01 -1.863979678455042199e-01 -4.845408071568927943e-01
7.786395433588481907e-02 -4.773917900833382633e-02 7.139270893275674323e-01
-5.037015499544212904e-01 2.825496566305375490e-01 -6.798320960455458417e-01
8.305489485735469968e-01 -1.981550979842812976e-01 4.158749069311098445e-01
-5.689979416099035792e-01 3.154038726258907854e-02 -7.533270229929848183e-01
-4.773466357535285365e-01 6.006677939782001374e-02 -8.670093273543539869e-01
5.801120550648340979e-01 -2.570094815301252056e-02 6.615640138363609868e-01
-7.600372425087057460e-01 2.531323973562631391e-01 -5.734985670234588051e-01
1.080096862897637899e-01 4.758636235043545160e-02 9.572014589054335110e-01
-6.640159689672646692e-01 4.444398211876994242e-01 4.542276299824336561e-01
-7.266957699106166291e-02 5.371571544141041932e-02 -9.384077639742037791e-01
7.074021387575847308e-01 -1.630651242617506824e-01 2.334524167842804421e-01
3.251628658532763616e-01 -2.073027719931647972e-01 -6.194685763309291104e-01
3.498731375797873855e-01 -2.172243903091010397e-01 6.825657832435886307e-01
-7.519681034377831974e-01 4.510448750246111582e-01 3.222616251296562262e-01
-7.976610308819512829e-01 2.885777926748139821e-01 -4.959658357145169671e-01
5.373329586234516508e-01 -3.587965891870057988e-01 -7.684645164461489930e-01
-6.206783083125300138e-01 3.485571352772516840e-01 -2.601493016196222419e-01
1.711403059932470605e-01 -3.078663404539481174e-01 -7.661440595482897908e-01
-4.182008945067001299e-03 -1.585045980780049601e-01 -9.872143702034236190e-01
8.044742327215598232e-01 -1.643817132933424185e-01 2.325075479064206696e-01
-6.766780938883336649e-01 9.998487330050816191e-02 -4.048117385954001501e-01
-1.530364944323483654e-04 2.254888500354862990e-01 7.538039538355563174e-01
-7.473643933598009825e-01 1.570643639296076255e-01 -1.769739024272540262e-01
3.293781416305655574e-01 9.147443058643395242e-02 7.421262601643625612e-01
8.734452256712008644e-01 -4.489450296388388106e-01 -1.160785800289432235e-01
6.042103192748291551e-01 -3.567990747336959867e-01 4.141451095339298560e-01
1.423876978911527702e-01 -4.938625574089620940e-02 -9.477225420181525362e-01
-6.822939950447882707e-01 2.006249060455685129e-01 1.698708568125259222e-01
3.932785361741977237e-01 2.993187160518449852e-02 8.504066359298519950e-01
-2.771587997493668021e-01 1.774063653549334818e-01 -7.809938414723688327e-01
-5.414523999965371176e-02 -2.239404943212155996e-01 -8.913899185458276087e-01
-4.867211363138623792e-01 1.372837494216407606e-01 7.114138860927051722e-01
-7.077277959248372552e-01 1.856129350551069257e-01 3.008070618007670505e-01
-3.672569563439866402e-01 2.208329087156583326e-01 -7.178417151392072482e-01
6.322851880989784901e-01 -1.844703143115577482e-01 -4.952121527200040729e-01
-4.823091965757416721e-01 2.812335954663988113e-01 -6.282695517429026655e-01
3.534412134508911341e-01 -3.849578353678460574e-01 -7.318710827862945356e-01
4.979305117621549703e-01 -2.007555897627226749e-01 -8.152050283992563484e-01
-2.476008028213191603e-01 3.339916890769988322e-01 7.132531195018819714e-01
2.636946331417474032e-01 -3.722373268344594116e-02 6.372975832010984165e-01
6.426686719219992794e-01 -8.211468945921769624e-02 6.723958569532277885e-01
-2.141958299163368440e-02 4.302165653927699646e-02 -7.917290528833711427e-01
-2.566302704110541288e-01 4.411054190633136723e-02 -9.602819060692543429e-01
6.561244861640491699e-01 -4.665319439416546476e-01 -3.122536714733331609e-01
7.351250843592940787e-02 -1.971354331259644876e-01 -9.765230320446447454e-01
5.850783913454067620e-02 -6.757045002017961211e-02 -7.275859813115215236e-01
3.445663720060175850e-01 -3.791021677373303533e-01 -7.670513345137768280e-01
-7.090329166139736072e-01 4.037453353636275555e-01 -3.517815580645461959e-01
-8.300523160573974879e-01 3.714282480743305026e-01 -3.325700104581533756e-01
-7.637520143941036732e-01 4.458421564473012966e-01 -1.380573328007183576e-01
-5.156769765079244339e-01 4.062139008206735458e-01 4.291360355599134757e-01
1.532324335980846108e-01 -1.202327319478647683e-01 7.526301828253065818e-01
8.189897621249485615e-01 -4.027775926351525038e-01 -4.208074472212957606e-01
-8.887108609345342192e-01 3.491089234898480109e-01 -1.978991852020892672e-01
-2.917632052916597774e-01 9.118409374903942155e-02 8.549985669852017134e-01
6.172763554890363380e-02 -5.112821664117808002e-02 -9.803817446822640225e-01
6.445637117288763873e-01 -3.469827422890588986e-01 1.324208944517078768e-01
-7.969128024256056930e-01 4.333387587641533423e-01 -1.899082801500169559e-01
-3.673469009711466393e-01 2.112284347045615407e-01 -7.943071704962216817e-01
3.539132280080942161e-01 -8.871507385587074079e-02 8.950038752903023420e-01
-2.627873942571395255e-02 6.096915684585436923e-02 -8.311436424709796045e-01
-4.677060855902257508e-01 1.781511768774076410e-01 4.903969431057846884e-01
-6.945970250766985155e-01 4.112851863402084418e-01 -2.823162231271393319e-01
1.122201161152880100e-01 4.926414984073982511e-02 9.568470939570510314e-01
-6.048532304756932820e-01 3.428935620104489601e-01 -3.410164566962693433e-01
4.249281437851929466e-01 -1.414500222363853366e-01 -8.307126913937777912e-01
4.198987877478126407e-01 -2.136179266446180947e-01 5.640997774997252856e-01
-5.945029167302861017e-01 2.042414898050869121e-01 6.647547383547147692e-01
-7.658121339784798032e-01 1.563489290207805416e-01 -1.812922517481659057e-01
-6.983596489296588494e-01 1.957477307126222477e-01 1.598688138641032597e-01
-7.639559929713743980e-01 4.669829244974424975e-01 1.387060583804693159e-01
6.222332801294926385e-01 -1.469553202071884612e-01 3.517684114376249949e-01
3.169427388096153209e-01 7.238550266721871518e-02 6.953618671672189278e-01
1.572227372830266659e-02 2.228042076514666903e-01 7.637560681138660934e-01
-2.570458915387786036e-01 1.212987269931960072e-01 -6.970565699344045685e-01
3.714959052854763938e-02 2.761056923048122239e-02 -8.125847234779244310e-01
-6.099617477029050105e-01 2.796318558759627870e-01 1.492964719035758114e-01
-3.508129774743633522e-01 3.531561354894020011e-01 7.616442715464776247e-01
-5.521051600148039196e-01 3.082768011007377962e-01 7.221703016109997098e-01
8.785197507003136286e-01 -4.113841387158894136e-01 1.720319959710045477e-01
2.744559495722715958e-01 -1.849882540543032750e-01 7.649814209881501403e-01
-6.439823195516672927e-01 4.453201357819527306e-01 2.274150165830447767e-01
-6.182405272169424482e-01 1.986760567149964407e-01 -2.708353312954772663e-01
-8.575964913702902592e-01 4.185367337475709437e-01 1.262603003059002416e-01
2.102944264758204451e-01 -1.419352742407964385e-01 7.259976008277212456e-01
8.684926907913178562e-01 -2.446081311155748894e-01 -1.655965205146805175e-01
3.732750490873287252e-01 -3.853888455597275775e-01 -6.683089265904662568e-01
5.967118675766478475e-01 -2.352487712952115728e-01 -3.699444934886889080e-01
3.312032113189333216e-01 -3.662355297516546315e-01 -8.057749334373373040e-01
-2.575415019951861617e-01 1.183561080157434359e-01 6.331828918499814440e-01
9.157277948796102018e-01 -3.082831419401135253e-01 1.813282118774175167e-01
-1.872193542585294523e-01 2.631235502570065665e-01 6.588588228664973290e-01
1.650307176905511375e-01 -3.526425852053850091e-02 -7.763341646567309962e-01
5.549758027492137646e-01 -2.648560027552204765e-01 -3.901663965794310851e-01
-3.535686013957042850e-01 8.152019194692759763e-02 7.683170127796363769e-01
8.160386996659237113e-02 2.045783436515412335e-01 7.992962259929006219e-01
5.386425264574226102e-01 -2.913313604540883062e-01 4.403045240562927232e-01
3.243512314984723921e-01 -3.730742330170204180e-01 -7.720131799791902782e-01
5.763049722037920652e-01 -3.993558369044927781e-01 -3.449831278447607064e-01
-9.092781041419630006e-02 9.407479737336431336e-03 -9.793122584136235709e-01
4.022750442749452038e-01 -1.379182457590236166e-01 -8.489259303210696661e-01
-3.303599039076714483e-01 1.449598332261182454e-01 -6.469467555199863718e-01
-7.291084564581375160e-02 6.964551408968108759e-02 -7.934702934164352683e-01
1.341576805407870554e-01 -3.037025660872400556e-01 -8.229096013929335651e-01
-9.035089270853542409e-01 3.013339413343985029e-01 2.073146144949577357e-02
-5.059636507935006966e-01 3.515292771696267304e-01 7.233497572698586175e-01
4.742323979560321145e-01 -7.511749140595089247e-02 5.301790806650827914e-01
-6.195937900548721400e-01 3.335901250712842159e-01 -2.171220551490280204e-01
-6.216505520421380382e-01 2.611183768870457000e-01 -1.833097006084691838e-01
-7.799515216171248877e-01 1.915017721291178976e-01 1.273360065854750311e-01
1.413549799935941709e-01 -2.010842474736869723e-01 -9.745338272100158017e-01
-8.610452943126453706e-02 2.717664756846106533e-01 7.701705423049548527e-01
6.273386624116669141e-01 -1.978328305901627948e-01 -6.520168390470573172e-01
-1.675301327041885668e-01 -1.749145968652820737e-01 -8.213574836109357458e-01
-5.070194259774868373e-01 2.777553146787194449e-01 3.669269202492679294e-01
-5.961289639026827736e-01 4.081699809637108767e-01 2.465762380111028162e-01
1.482157586607443234e-01 -1.579714784450789514e-02 -8.083934987247977100e-01
-4.471943329792369415e-01 -3.312648124757029688e-02 -6.837252624341364493e-01
-5.513950287331585987e-01 2.348490776451153325e-03 -6.753893789549033633e-01
4.323463837794285780e-01 -2.992407116168946304e-03 8.445437360930552195e-01
-7.573984430839479642e-02 1.501451790403325881e-01 9.465779091617023688e-01
4.873920843512144496e-01 -1.833367877427878045e-01 8.094456467352915130e-01
-5.454974658014499767e-01 2.723186215150725786e-01 -7.133187639739821950e-01
3.034623719322698809e-01 -1.218474314900115096e-01 6.266420741447751297e-01
-6.506010016582126632e-01 2.423265079937055033e-01 -2.985228601299624168e-02
-5.869818979225063238e-01 2.243425938949896448e-01 6.881825978312863246e-01
-8.992416856468635755e-01 2.803953714573513278e-01 1.527718179701809814e-02
4.330505582206974902e-01 -1.600226056001195496e-01 -6.084010339576603199e-01
-7.078646770091931995e-01 4.478869322147848164e-01 -6.120210829557056788e-03
6.014134045155722363e-01 -4.282048584891487431e-01 -6.425675226401605933e-01
-8.159104342018737299e-02 2.568592986573964843e-01 8.631841816787678701e-01
8.350021339359788852e-01 -1.781724691440815245e-01 2.514608888141787180e-01
8.083547607158405590e-01 -1.637973049339994935e-01 4.075386782031874544e-01
1.502870138347611184e-01 -1.405821775845962456e-02 -8.169820803745216908e-01
-8.200429779636673189e-01 3.845250331159885682e-01 3.313151798660853298e-01
8.407765921655203645e-01 -2.001039368981782085e-01 4.788259266383200485e-02
7.966529010281152567e-01 -4.742346244968891900e-01 1.967891157348975253e-02
-1.713651552962579261e-01 2.461076151364844505e-02 7.340326400047867406e-01
-2.422088085744270314e-01 -1.304642466508212917e-01 -7.772042173741016136e-01
1.790549083007126896e-01 -3.192338810408019700e-01 -8.399654932235851579e-01
-1.762486103713430396e-01 2.900236917150303406e-02 8.683989301566299446e-01
-4.455811959300275960e-01 2.615415377692834609e-01 -6.751681165729676026e-01
-4.620096955782557191e-01 6.672764765231790907e-02 -5.580363346447487771e-01
-8.853050332989359505e-01 3.944188064599639665e-01 -8.882774683286692383e-03
-3.543945126247077249e-01 1.273917436195160478e-02 -6.400954922986745732e-01
8.025178019731460388e-01 -2.892003574787719855e-01 -4.663292700082925513e-01
-2.392986674746034881e-01 5.942397785245783631e-03 -6.803980905050337480e-01
-4.269426264923509295e-01 1.099216498421359683e-01 -8.908561339468485940e-01
4.728844798003169897e-02 8.227387435024702961e-03 9.474359134077229294e-01
-2.164167775198228283e-01 -6.074223769385910660e-02 -7.055719979955765719e-01
-3.336871981434422207e-01 2.971497127185094289e-01 8.362239810232542370e-01
-6.754349359744642456e-01 3.973894467996286206e-01 -3.352686662936722461e-01
-5.926887543507916023e-01 2.786841820755888918e-02 -6.931832996559769144e-01
3.350773739225463288e-01 -4.116746028141504005e-02 6.098109750407431084e-01
-4.660570953810938555e-01 3.232752807416538476e-01 4.225140459268241222e-01
-8.192807123118712731e-01 4.468373618552834436e-01 1.547211915790533965e-01
-6.288379566872960291e-01 2.870233744779959184e-01 -1.032747490584876859e-01
-6.723192998254368113e-01 4.300439448594352565e-01 4.886815481698454366e-01
4.421808795748451981e-01 -3.443392735380081393e-01 -8.264190174782716225e-01
-5.515999524491360662e-01 4.244658247039207466e-01 5.726252193505289023e-01
2.104774709079761941e-01 -6.492610828420627977e-02 -9.220101147407924191e-01
