8.832288684387731292e-01 2.272146315666521421e-01 -3.105352302346526261e-01
1.729992504279414256e-01 4.371360400225588472e-01 -4.587568459647787811e-01
7.718167586672279867e-01 -1.944710876015257883e-01 4.055285391896520375e-01
4.847871326705074368e-01 1.071429486735802905e-01 6.249071617919029764e-01
-5.456417739266502392e-02 -4.363421453308398701e-01 9.034403339565300062e-01
-6.973182162064176515e-01 -5.587681346488958534e-01 2.327595618966244173e-01
-4.764696794347327291e-01 -4.035211476790436652e-02 -3.215486215349734889e-01
-4.991981025929006499e-01 -2.178005744391845466e-01 1.302702337172893521e-01
-8.437032515412117295e-01 -2.853426370896707254e-01 -3.615207520385607665e-01
-6.149277432555719791e-01 -4.544432564474997216e-01 -5.441997571282316225e-04
-5.762050693996788597e-01 -3.224869601504042338e-01 -1.543910683633134551e-01
1.886087192663961909e-01 -4.424600296909162456e-01 8.779133391889524241e-01
3.487264160765705112e-01 4.676908423143565918e-01 -3.524108999357284944e-01
3.133518319626924509e-01 2.478154838194849829e-01 -4.570634576394461690e-01
-6.075188735822844022e-01 -5.373413973515059894e-01 1.621178247836958797e-01
-1.579513182304935759e-01 2.902349807600729803e-01 -5.116730763411806437e-01
6.855495864178509091e-01 5.765653189130003353e-01 -2.511971992860712599e-01
6.086933529546516564e-01 -3.013289091318800406e-01 7.097572354374289683e-01
-5.276230564899622166e-01 -6.891594802370343276e-02 -2.012317655150431539e-01
-7.924925597544116851e-01 2.595114496987422498e-02 -6.407375798972235470e-02
-3.544572622199380074e-01 -4.242278589072764894e-01 2.914415510314994351e-01
-4.722050689296326542e-01 -6.175522899338777710e-02 -3.384817025276734004e-01
7.593803481252272558e-01 3.641651916052801030e-01 -5.525694046117609615e-01
-6.377482524210583703e-01 2.735199771711139816e-01 -7.177166290262837478e-01
6.220761033302645293e-01 4.735941674570245397e-01 -5.257889333023117728e-02
-5.435493712790030463e-01 -5.222348657959118290e-01 1.807926127570182173e-01
-6.208222719981767446e-01 -4.082066789121641115e-01 6.467059976262850007e-01
-7.605888320097388133e-01 -1.522740018065234791e-01 -5.773704511647963500e-01
-5.806377756111749111e-01 3.250403289137857588e-01 -7.263161047955202232e-01
-2.026291515649590314e-01 5.201975206675638619e-01 -7.045366730033766345e-01
-3.784316070751138628e-01 -4.768288968702368014e-02 -5.519424001589722240e-01
-1.315100828745672246e-01 -4.927299220365979338e-01 8.645750315170126488e-01
-8.107415867405418641e-01 1.587608093240257534e-01 -5.021981762341601874e-01
-6.385268084377992981e-01 -5.063940094892969146e-01 7.653354508267364020e-02
3.555929891727871994e-01 -3.622089870193945793e-01 8.702503468743321147e-01
-2.973566578069551380e-01 -4.321132028103556455e-01 3.424333443534504640e-01
8.196734812875335063e-02 -5.240179092362807767e-01 8.163913197260642685e-01
-7.305809319672621482e-01 -5.344131915829498647e-01 1.477683363497525049e-01
-5.320526013505632035e-01 -1.971005962987209537e-01 -3.828575652850795263e-01
2.312137613411446857e-01 -2.953933820806568522e-01 9.270991447183468681e-01
-5.027437749878552742e-01 -5.323376376935186061e-01 6.826481930702046341e-01
7.745596982325018143e-01 3.324747012724854622e-01 -5.263808263046183544e-01
-3.869716163173543833e-01 5.896353137972090708e-02 -4.267721792966400196e-01
4.593579956932227204e-01 5.007176234737420462e-01 -7.853805356788917669e-01
6.367318141561219003e-01 -1.820304325789282585e-01 3.157962802681369419e-01
-1.533520678003502391e-01 -2.147931756179389529e-01 5.122821836335852419e-01
-2.073030999501713212e-01 4.878838879543655471e-01 -8.505663908711197374e-01
-6.591473057469502406e-01 -6.163417408576972456e-02 9.352679863303646479e-02
8.691730343660398761e-01 3.713077452122732214e-01 -3.953295572731347352e-01
6.262108209024548344e-01 7.425696196715375619e-02 -1.275310695755327468e-02
1.075609202482785548e-01 -1.306477946140202906e-01 5.701020371475892246e-01
7.291623758935453781e-01 3.744352290387206184e-01 2.412617868226117901e-01
-2.317914130993420085e-01 2.893536028624406065e-01 -9.509844200172993256e-01
5.605957417693834266e-01 2.276315778858332417e-01 2.554091216726292468e-01
4.930007124063029433e-01 1.402958995483525317e-01 4.856799717527530702e-01
-7.463351420924113633e-01 3.590591608661379552e-02 -7.569086137557869132e-02
-8.303139272811114191e-01 -4.350589290594969460e-01 3.583826356731356633e-01
5.457354742411690829e-01 3.437729110999445115e-01 -3.630129342513270518e-02
4.298550600777087949e-01 -3.078232381404860662e-01 8.623906725732135570e-01
-3.183439289282329332e-01 2.786713737866769458e-01 -4.800107526509828082e-01
4.777303651731496514e-01 1.926797564642915850e-01 -4.018015378686133343e-01
-5.258751060307221836e-01 -5.454394524247789811e-01 2.346176080745635550e-01
-2.553240458890004838e-01 -1.938415982182352948e-01 7.521149599735424962e-01
-1.512659095722689306e-01 -5.332645762228329644e-01 4.885490536003607720e-01
1.583067117877997587e-01 -8.178168850021534653e-02 7.992469406143427602e-01
1.054613980067167639e-01 4.433986795171773743e-01 -9.292882268452135053e-01
-3.196692708084527546e-01 6.626406437204347688e-02 -4.928583153025534735e-01
-5.134579879639266098e-01 -4.584443013042314718e-01 1.299565556691076318e-01
-2.441302136611180340e-01 -2.300301771103731019e-01 8.084937796361558737e-01
-2.094161129590200732e-01 3.367545304108157667e-01 -9.499237479991957667e-01
9.096423946291637419e-01 1.329056822924103709e-01 4.466436871587572965e-01
3.135547441911192834e-01 4.732752051222864909e-01 -8.664972492635211188e-01
8.222191383151804533e-01 -1.585783909871990027e-01 4.141631665711953958e-01
-9.611885769495649712e-02 4.718290988411856790e-01 -9.095748193888101296e-01
4.690768029300689812e-01 -2.570845877247722178e-01 8.603936494659586431e-01
9.960563462526520473e-01 1.591150152356347047e-01 1.633609125879268154e-01
-8.482796483604146953e-01 -4.532457042796645408e-01 2.836219656682558710e-01
-2.726134994430954861e-01 4.939776092983777511e-01 -6.964583078630892654e-01
-2.529102821245269861e-01 -3.512074427724336534e-01 8.660304712927261450e-01
7.763221796424170096e-01 4.537704233452400926e-01 8.631438522547198178e-02
8.875748552384529200e-01 -5.070903370538139970e-02 1.985042504704765953e-01
-4.927036920939881770e-01 -1.670827556982666107e-01 4.855475515567312939e-01
-2.210664286729474223e-02 -2.734579729515189683e-01 4.902742256479417637e-01
5.580322184789942019e-01 -1.889750654009050290e-01 3.434070128501590657e-01
5.798187828429525181e-01 1.541658733127271030e-01 -2.390950412308481821e-01
-4.768672954501388950e-01 -1.328705107081125658e-01 -5.027465592886465329e-01
-5.035637172475472267e-01 -1.651482787082120818e-01 4.725027793302881696e-01
-7.615227803408954887e-01 -1.286704617652582872e-01 2.778079073259893672e-01
3.702177858570865343e-01 -2.546880227899643856e-01 9.000476544793443168e-01
-5.805274979639347271e-02 -4.971823340160848037e-01 5.042900542139725495e-01
-7.580015817527048227e-01 -3.778175437188849295e-01 -2.442370375862130683e-01
-3.933831214545564503e-01 4.316287693620682320e-01 -6.320978967518993130e-01
3.780664439689819245e-01 6.240485271689625302e-01 -6.650841756683473216e-01
-5.314554784773923846e-01 -1.835091591651518417e-01 9.241748475538115112e-03
-3.262547997298516078e-01 -5.164584721517144761e-01 3.622441754025828575e-01
5.770398591538140609e-01 1.561387629280825140e-01 -2.647131150086622364e-01
9.426922149069841828e-01 5.084500345576717373e-02 7.183972560299983767e-02
7.869064376492783675e-01 -1.602818783901009680e-01 3.278967188512953435e-01
4.394848310705247174e-01 2.308665778831502924e-01 -3.543451159553641094e-01
8.323956889347230437e-01 4.116595115698974405e-01 -4.489122240085641202e-01
-1.050693512848122763e-01 5.541730664872611678e-01 -7.378412170806577519e-01
5.823780042218307251e-01 -3.144541992367376193e-01 5.009750921283467884e-01
5.988158271203856131e-01 1.227210767840300892e-01 -7.129972168145073952e-02
6.372457802870044041e-01 -3.090875917651151328e-01 5.874327822039441260e-01
2.607531470335783808e-01 -9.252389214068063028e-02 5.105744408168386705e-01
-3.318586376571638907e-01 2.569409727503262353e-01 -4.697229295760281254e-01
5.392695870803230207e-01 4.305779310311699248e-01 -7.557436116285969341e-01
-5.322926382173072124e-01 -3.961517119385221664e-01 7.189994795219232238e-01
-6.241667650789805011e-01 -2.064624519367759536e-01 5.249141692343781695e-01
4.395193311196313735e-01 1.919127782759717793e-01 -6.105233819500468506e-01
8.682561890163098539e-01 4.783252378019083872e-01 -2.918659376099897451e-01
-4.929381387432619777e-01 -5.439871582248784199e-01 2.581239804858499465e-01
-3.947551426367492122e-01 -2.438820378183866044e-01 7.379875278192425947e-01
-7.787222043029105034e-01 -4.207592082300184444e-01 -1.515166313448367275e-01
-2.559263920197444309e-01 9.433556741307953797e-02 -5.315344898408027596e-01
2.620376879549520255e-01 -2.026106650433779355e-01 4.700790505093013771e-01
9.541779799095065906e-01 2.330357094025498066e-01 2.888185609852835234e-01
5.610827016709156734e-01 6.207520845241818463e-01 -4.888579817219325108e-01
7.567002631826601489e-01 -8.458854829768189948e-03 2.453398375170936022e-02
-7.015728678769672655e-01 -3.954725608955209082e-02 -6.980439832107271370e-01
6.677685005054301293e-01 5.606705858324573244e-01 -1.969697183751961400e-01
4.878051342382863087e-01 1.502923479905656640e-02 3.107376473943922468e-01
2.656681369181248739e-02 -1.824206730463464043e-01 5.450048433177506757e-01
9.268865373522210405e-01 4.192475367509694295e-01 -1.945961157669075237e-01
-4.672289303792823700e-01 4.034019118750441502e-01 -6.366526892829185158e-01
-2.715058224981822810e-01 1.349351830538060015e-01 -4.987398301009196011e-01
4.492114959185380951e-01 6.312385024335247508e-01 -5.668289393460097525e-01
-5.223126520342138424e-01 -1.839999572992672694e-01 -3.073743190056582586e-01
-4.843619734289262846e-01 -1.130390984854406228e-01 -3.500881973575025174e-01
5.486051758070148790e-03 3.630528315888629232e-01 -5.074181202895806653e-01
-1.427836671236862136e-02 -1.604755487526143831e-01 5.783262957912838065e-01
6.918404170455576263e-02 -9.491985329112284653e-02 7.469243947237647063e-01
-3.481461230448153477e-01 -2.163737074757165479e-01 4.112642261537873267e-01
-7.002606082375939164e-03 -2.570492983282376964e-01 4.984415321151840494e-01
1.137209344990307430e-01 -5.444629141677453932e-01 7.047076606756901285e-01
-5.373196104867358214e-01 -1.513159024779185680e-01 2.661672967016418534e-01
4.962715346366752267e-01 3.131122421620746721e-01 -1.549763247972368030e-01
-5.256458099669804040e-01 -3.324535707618854752e-01 3.771114707846318775e-03
5.250306856701971725e-01 5.848887280253028953e-01 -6.606645628846752327e-01
-4.680391426746300931e-01 3.882717418158808109e-01 -7.763452246567408288e-01
6.879515733982051184e-01 2.228480989073388652e-01 5.098603887817295677e-01
5.418623748935725848e-01 2.786038489106030802e-01 -2.618309700910895210e-02
-5.793572952391462527e-01 -2.611718504017920828e-01 6.275545589097980548e-01
-9.614430965847937660e-01 -2.835228608527008975e-01 -1.142739023871139764e-01
-5.328164208913287458e-01 -4.792368562932827758e-01 1.305061354752787006e-01
2.366508424942724009e-01 -4.240200558465526126e-02 5.947542070269362657e-01
4.962335957635052863e-01 1.076730085091824607e-01 3.359827867212052954e-01
-5.320049915549190933e-01 -1.931203554153318180e-01 -1.178777427437748826e-01
7.383563278567282229e-01 5.641526991390739543e-01 -2.343656196187060003e-01
-3.577674637195296659e-01 -2.176124104479842114e-01 3.997115089400373189e-01
-5.174672514511402532e-01 -1.760227885215459032e-01 -4.341543880875571859e-01
8.103735787178802941e-01 2.977335357677098893e-01 3.759107701814347058e-01
-6.144902663940028376e-01 -4.794279624664627426e-01 4.352009208128009010e-02
6.678816331938006723e-01 1.998643389097700951e-01 -5.003658529111323361e-01
-5.270695414812451851e-01 -2.004779246261972070e-01 3.834915770258215655e-04
-5.453076113218612297e-01 -2.167208127836610099e-01 -3.543845197768467625e-01
5.793870597123098598e-01 -3.428997263912280102e-01 6.575280465483758219e-01
-8.226923733751190237e-02 -5.085438827788444360e-01 8.571373052983304319e-01
5.378243768244769241e-01 -3.663737586495839915e-01 6.042289224886078225e-01
-4.474774537071339875e-01 -1.699209729185353623e-01 4.762473908511132281e-01
7.062803403576590755e-01 -1.488066495699753300e-01 7.172598280355128031e-01
5.527240626238791865e-01 2.200474410389835767e-01 2.416593756128430914e-02
5.540721265397726691e-01 -1.378847970618762575e-01 8.274260095874128584e-01
2.057706358371248767e-01 5.788670775192181761e-01 -8.106055039477376711e-01
-6.518331725826025380e-01 -1.691540958788850246e-01 -5.947775394703609386e-01
-2.270804607723955204e-01 -2.254614227402391147e-01 8.124532519872343928e-01
1.678863561117585057e-01 -1.419737405423358301e-01 5.310291605689920758e-01
-1.028130144555664156e-02 5.788524714834243357e-01 -7.063696088436425269e-01
5.765739622895655891e-01 -4.087759874880921712e-02 2.145709751013042121e-01
8.679456169012924605e-01 -4.973815903930361298e-02 1.609925198910201194e-01
-7.932038498812553629e-01 1.159685233453740250e-01 -6.187985078199697009e-01
-8.086971855285679522e-02 4.811848613315121148e-01 -5.678126962266170086e-01
3.824602460127720094e-01 -4.260889974511237743e-01 5.968035175042868401e-01
-9.724472687598457732e-01 -1.906627181042086783e-01 -3.796506772155422427e-02
-9.024406581377221181e-01 -3.709065211301099119e-01 -1.251532755318159329e-01
6.585593841245039881e-01 -2.741491472503910787e-01 6.713041874232853479e-01
-8.780307642132596513e-01 -3.873875291149620481e-01 -1.355369127413937336e-01
3.907420311932942036e-01 2.400502441824137190e-01 -4.010889842270052852e-01
7.725989774167620894e-01 -2.042476175328817867e-01 4.565340604475363051e-01
2.882494597589332352e-01 -3.065854280477623983e-01 4.766933594034834520e-01
-7.776215684247416160e-01 -5.212214352348207846e-01 1.586862165158264837e-01
9.204285633050284243e-01 3.694191467855393873e-01 1.455043693934025828e-01
4.636026016980160924e-01 2.898304488881543739e-02 3.530714359004989422e-01
5.435659461787876179e-01 -1.456208517780187457e-02 2.372450406034866954e-01
-3.962024289704016433e-01 1.103597819384750101e-01 -4.125862863580975204e-01
2.913681262621430346e-01 2.180394110602708879e-01 -5.158037614305919227e-01
-2.858642848326378716e-01 -6.042487348477052489e-01 5.230629078238501206e-01
9.171809636761123485e-01 4.320962572607161545e-01 -2.090225118154678263e-01
-4.794734940674026946e-01 3.707402667481359271e-01 -5.614361053329283147e-01
-5.222477559847061857e-01 -3.825571043629441559e-01 7.257335097002075575e-01
6.050625145265805527e-01 -2.869268727443280431e-01 7.352145864755844640e-01
-5.055404268651650934e-01 1.969577811487794594e-01 -8.679214472947373027e-01
-2.315388744206772417e-02 1.928422796452007315e-01 -9.050522492263038954e-01
-1.021365708287631097e-02 -4.162463226513044012e-01 4.832514553796516399e-01
7.806428018446558426e-01 4.506515063236689045e-01 9.308912186725512572e-02
-1.144049910599952424e-01 -5.961063955508187906e-01 6.780192822948010178e-01
6.226856052466147595e-01 4.462970973613594738e-01 -8.076332135230757450e-03
3.529569022911871468e-01 3.787005203946425258e-02 6.210419783431456731e-01
5.857815603182406905e-01 4.728273706151927547e-01 -9.497678652977857572e-02
-8.205499454658485847e-01 -4.167815960014980559e-01 -1.379673032753380990e-01
7.544174141296661196e-01 4.065767032200836573e-01 1.850072938034253989e-01
6.336336586126707360e-01 -8.065737046622738216e-02 2.017271522434370967e-01
-6.946127714158830679e-01 -1.623336055349715035e-01 -5.964596692318460125e-01
-5.668090945333915665e-01 -4.260761852388714743e-01 1.910582800443752852e-02
5.127627484226687793e-01 3.680349774317121653e-02 7.475757208863478276e-01
-9.180772037252159512e-01 -1.739906416003250689e-01 1.371647436561944100e-01
7.604986961531100542e-01 4.895031649772473882e-03 -2.801978556509271065e-03
5.909308321678237164e-01 1.898629043127682825e-01 -5.256712237120186870e-01
4.175929125094446914e-01 3.438017627904534912e-01 -2.764559257312628748e-01
-7.447951007058696282e-01 -5.376052469803741518e-01 3.502165134023308979e-01
5.122231068826037514e-01 -3.551182987903134941e-02 2.852618489069774221e-01
5.720318269325112004e-01 5.002030946821762747e-01 -1.483949215660737841e-01
-6.465492251573267124e-01 2.909059354769346628e-01 -5.259308625595389142e-01
-1.853625039295545285e-01 5.691000276344502368e-02 -6.660528182594332991e-01
4.115531374980273549e-01 6.287544015060059222e-01 -6.243870854246820201e-01
-4.063206736337052760e-01 -5.717176587416114564e-02 -4.936575582589775579e-01
-4.477823990677526345e-01 -6.070059032225014750e-01 4.332555870737413994e-01
2.562570262365678354e-03 4.901372411919616701e-01 -5.469253405624953102e-01
1.286374035726771392e-01 5.046218890620886022e-01 -5.050175370401297492e-01
7.228339864119767144e-01 5.786838503706587256e-01 -3.296951374824942382e-01
6.224204593946597308e-01 2.235357095443255004e-01 -5.752896249329756406e-01
-1.501846384159697956e-01 1.062606218600053026e-01 -8.518214361341985841e-01
-5.839290436989738042e-01 2.580557302007739917e-01 -7.964705540590346633e-01
5.403174767824640012e-01 1.765132827662525550e-01 -2.980229467480256522e-01
5.772437085542411195e-01 5.048483158067138543e-01 -7.013227681432184779e-01
-2.673699626015059727e-01 2.031377422905252805e-01 -9.347860030383433605e-01
-2.875668298529858169e-01 -2.823812862397373502e-01 8.277152074982704333e-01
5.910718915163306608e-01 -1.024694768378350829e-01 8.039898163010856802e-01
1.498224609491114467e-01 -3.555623017318157997e-01 4.952469487734569853e-01
-1.520543394614517485e-01 -5.867007019204272256e-01 5.708116632941179214e-01
-5.740416879574942177e-01 1.633707645666073252e-02 -1.816608454808507633e-01
3.035659996482763523e-01 3.364523531185432126e-01 -8.748004325353810895e-01
-9.739120119681088372e-02 -1.792077383749934583e-01 5.640571489024339691e-01
4.686424039799101937e-01 2.012760940634766016e-01 -3.831457384618127127e-01
-5.204579946535774493e-01 -1.962531692906415437e-01 7.476870490100989697e-02
7.367340581077053141e-01 9.650790695836365674e-02 -2.146121254999664718e-01
7.515429811283160788e-01 -1.067668003876526411e-01 2.005979617205310150e-01
-5.409737615355471041e-01 -4.623743811122656977e-01 1.000051061492759630e-01
6.146871414264921674e-01 -3.233514691763873516e-01 5.918818575864717157e-01
5.912046697233056536e-01 1.254962685654014976e-01 6.438087371383360846e-01
7.704248468859832277e-01 1.972023672825957419e-01 -4.117355524796805777e-01
6.221061893605981385e-01 -2.442965542461191311e-02 1.483106036250486093e-01
-4.583697164642476229e-01 -5.267014544289088107e-01 7.184270221444951643e-01
2.219542655262558006e-01 1.969604259990213602e-01 -7.944855609974713628e-01
7.421707891059354800e-01 -2.250746798572861307e-02 5.488485595445984078e-02
4.447819690278524973e-01 4.504376982586791867e-01 -2.519077017859334688e-01
2.439886048911372729e-01 1.802943167896467469e-01 -7.262478621869492557e-01
-2.007867755118850905e-01 1.578299543400906724e-01 -5.291774376250576450e-01
5.175328905860068218e-01 1.636081770512549105e-01 4.575977083129827983e-01
7.436206831218157287e-01 5.505104278772926518e-01 -4.442385809394177043e-01
5.889895682838687252e-01 1.955332975415155217e-01 5.138349578643846005e-01
5.772473438309513316e-01 2.266463693588444406e-01 3.930785707059969991e-01
-5.883819162012451365e-01 -2.667962484285976710e-01 -3.344512259239653118e-01
4.600739340973741820e-02 -1.816083947297825740e-01 5.418231234875460212e-01
4.738725421688617101e-01 2.149180936305127299e-01 -3.301538170546441386e-01
-5.017359236073053452e-01 -7.637892472534961452e-02 -2.692982532830573983e-01
7.091784158330491916e-01 7.764499181746020717e-02 6.647854680529233784e-01
-9.421876927530445922e-01 -3.318254837253294953e-01 -9.251221272273141283e-02
4.961331510095716713e-01 8.672326722471131177e-02 3.166230957239473121e-01
-8.923856596947260522e-01 -2.111014990567431360e-01 2.271316297502127823e-01
-9.119857853776739409e-01 -3.096015543244702850e-01 -2.314721562216695006e-01
8.107991957249673920e-01 7.609096748323097847e-02 -1.488373814644366466e-01
5.789838386892176558e-03 5.772928858885142400e-01 -6.716081178958296372e-01
-8.726455195125512043e-01 -1.900167353621927124e-01 2.402239613519165928e-01
-4.821878991898029820e-01 1.967920096341464753e-02 -3.128874018682971103e-01
-2.853958413503452501e-02 -5.286811984233639183e-01 5.471703576915066813e-01
5.712079388591130291e-01 -3.367506203740306958e-01 5.462557132596088660e-01
-3.806663289078887069e-01 -4.762719678682403313e-02 -5.440986077184698511e-01
6.958049412725604288e-01 7.973801070562462970e-03 2.390409359261459060e-02
5.301053300905534948e-01 1.770899572932374821e-01 4.353937385670126892e-01
-3.339684198164366014e-01 -6.173712084025499980e-01 5.578429949198941973e-01
-4.299564410149848137e-01 -6.009634040407602074e-01 4.203086537659672661e-01
9.739111165263619752e-01 6.592682785251517685e-02 2.016242371514240517e-01
8.142298293099196060e-01 4.393656720635462642e-01 -4.657478218622097543e-01
4.784422779589073693e-01 -2.810185378280887214e-01 8.471893111941344312e-01
3.067272931826570126e-01 -1.892254269377537379e-01 4.534116904119609992e-01
-6.120424265646955408e-01 3.031768766525529402e-01 -5.144246311719072873e-01
7.535953812385819128e-02 -3.971203766382110922e-01 9.211402329862645733e-01
1.791669762032174415e-03 -1.854893024147163672e-01 5.463371470905026284e-01
6.658191253606866589e-01 4.343082737981570074e-01 -6.508403575678639585e-01
7.861408443962413228e-01 1.359402469472886510e-01 5.755475515573481582e-01
5.555736923881128275e-01 4.396949839498652257e-01 -9.692035597707614192e-02
1.302462787582077952e-01 2.919827677609767580e-01 -4.995468318878852343e-01
4.222120560524794119e-01 -4.179455770573067830e-01 6.126190650504572677e-01
2.154910789617657529e-01 4.053131273812370372e-01 -9.139009975821493770e-01
1.219926517983113690e-01 4.562163976618534567e-01 -4.860276597350996486e-01
7.932251144288214872e-01 -1.021710712139842041e-02 6.393283779553181612e-01
-1.705423142061373853e-01 -1.603697777657882295e-01 7.277270155743593705e-01
6.118092692113717979e-01 5.536309549043769707e-01 -6.261133759447818914e-01
-3.692764797981621383e-01 7.713052828567597274e-02 -4.399342593605192198e-01
1.405221004186555656e-01 -8.369942347126277382e-02 6.197054485533902701e-01
-5.113220564258476042e-01 3.588162680111156577e-01 -5.580000972857704911e-01
8.535117974477077762e-01 4.751304563367345080e-01 -3.475605903667154384e-01
4.620717161259599304e-01 -3.867097446628142698e-01 5.691434014480053483e-01
9.417988669597521234e-01 1.999791970616690839e-01 3.456403835135871128e-01
4.660087460222843703e-01 1.148749416853632327e-01 5.502303511289685645e-01
4.746455591853128708e-01 1.836873621230555309e-01 -4.850566431130514666e-01
5.209045083786789654e-01 -2.812351684804436092e-01 8.194472387573531469e-01
-5.248144431499351947e-01 -1.724490212990947291e-01 -2.177705130266270883e-01
4.613634979045685980e-01 -2.344788616819516724e-01 4.075509924019722896e-01
-3.946426639528058944e-01 -5.541373775812559188e-01 3.504933898364582245e-01
4.718208059673926202e-01 2.000102675164059374e-01 -6.241469039994248513e-01
4.211722553754417842e-01 6.652598801708355103e-02 6.630932027849225641e-01
-5.835347930317416054e-01 9.760298562758792928e-02 -2.509592387977627181e-01
-6.228984568475129935e-01 2.130204284034034334e-01 -3.634163786887568137e-01
7.301560379056831751e-01 5.758971197634703554e-01 -3.364463326599135273e-01
-3.019971724219935316e-01 -6.692507746741521366e-03 -6.886517772369952217e-01
-8.411364154345563060e-01 -6.367180975778524710e-02 -5.619602512814569906e-01
6.546122617879259753e-01 3.412156664169356812e-01 2.410362522550993647e-01
-7.516612156484221430e-01 -5.192087903694160289e-01 1.056696442630630506e-01
-5.297688374033062697e-01 -1.857116194143455246e-01 -1.775267765932300734e-01
-5.819836107747569098e-01 1.272427894433603331e-02 -7.848742778686318422e-01
1.255797526044784840e-01 -3.180218726351271008e-01 4.892770051167376621e-01
7.049649337362344781e-01 -2.545169548848165153e-01 6.048858654839014415e-01
-3.369238397449784150e-01 -1.882756894556110172e-01 6.819307559501026628e-01
4.555134401069699246e-01 9.491201875520131892e-02 6.214660376731928615e-01
-7.369285419098596523e-02 -1.942205994922464596e-01 5.434743521671094868e-01
1.921270102798986468e-01 -1.030400262304714404e-01 8.460398109153309809e-01
4.051830004611826630e-01 2.349150563347129905e-01 -7.436370628378771164e-01
1.550677005442377965e-01 1.800698324408048223e-01 -8.044034247885556432e-01
-2.634878328353139620e-01 1.139825308238176238e-01 -8.882873482100769325e-01
-7.818698366715307602e-01 -2.466818546955840130e-01 4.206270115976422641e-01
-9.240558014340194415e-01 -1.785090173660239254e-01 1.286147544078540261e-01
-2.989945917497989214e-01 1.910778573614861364e-01 -9.280358454930045520e-01
-3.889531460493744763e-01 -2.384085921699445054e-01 7.354782397794511484e-01
-5.209806813716107987e-01 -1.816033930588408507e-01 -3.104784142058008012e-01
5.640457655656230251e-01 2.178817405557117726e-01 3.764762637888109387e-01
-4.584870185656359509e-01 -8.641768855556770934e-02 -3.978686129094983204e-01
-7.145063410356770062e-01 5.158811099515309834e-02 -1.101347050621558493e-01
-5.674098603982097311e-01 -2.640203850741924541e-01 -2.691382436606123418e-01
-5.146592712699933347e-01 -1.665547205391915697e-01 2.534518191119461417e-01
6.221942997340246251e-02 -2.602842769570005710e-01 9.242039452009866984e-01
9.396700853880582960e-01 2.143999334603231572e-03 3.496219663805467670e-01
-4.889698210225009167e-01 3.964365041045863625e-01 -6.566957899211417482e-01
9.563178345577802997e-01 3.460849213012442971e-01 1.036082822888793886e-01
-4.194472596239807727e-01 -1.949024279650462821e-01 6.423029394885175769e-01
7.773750270632258097e-01 -1.106448894135838162e-01 2.145826743719504992e-01
-1.663359869031348359e-01 5.215699466604049039e-01 -6.637138995626657989e-01
1.574839672463023976e-01 -1.873229610868352990e-01 9.059178342793624550e-01
7.797081627244450974e-01 8.435647484389310891e-02 6.160417131567327287e-01
5.603892551520491816e-01 1.681337839690184299e-01 -2.352535609599933075e-01
5.416785725415358410e-01 1.677638992640540783e-01 2.132835572392302870e-01
4.234489282480981553e-01 3.375360374500577798e-01 -2.709366836416837732e-01
2.923133857380027512e-01 -1.084157684495732910e-01 4.789091506974447188e-01
-1.183805214359282126e-01 -5.484222293955066663e-01 8.125857309796393757e-01
4.851172781996308803e-02 -4.640286300378345108e-01 5.216890343086025839e-01
9.886865560309533452e-01 2.254560944169960723e-01 -4.833682107064524169e-02
-2.576118404348235261e-02 5.758858052336628397e-01 -7.237944156205867730e-01
-6.768400963885217170e-01 -5.074864618820320583e-01 5.975726098017718202e-02
-9.653963625569746965e-01 -2.664166768784814732e-01 -1.280332485311518886e-01
-6.492621885822340566e-01 -5.456609457251119233e-01 5.193819505756234189e-01
-6.524423439426331461e-02 3.926051980650220319e-01 -5.212838773447163732e-01
-5.818969980298477340e-01 -9.480790256662624538e-02 1.771475649851192088e-02
8.482119630310804848e-01 -1.082492995896330995e-01 2.825696133586402259e-01
6.871089854137257813e-01 4.357508845891044369e-01 8.545690630810597044e-02
-8.246286462928100747e-01 -4.025427011978819358e-01 -1.669349958682934121e-01
6.340740881319993638e-02 2.963250543114607782e-01 -5.109098148509508830e-01
-5.679653607852934716e-01 -4.175192228202655453e-01 6.904429168759793622e-01
-8.125881535260937039e-01 -5.019646633495500332e-01 2.478878245202553732e-01
-1.096720510933351517e-01 8.393108555074378641e-02 -7.082893054289270962e-01
-5.261380203273068323e-01 -2.436852815988987397e-01 -3.746128718663165047e-02
3.279386723909349377e-01 -2.694041255092433432e-02 5.032604668407127946e-01
-7.902469662696005592e-01 1.659400898007891145e-01 -3.748881904319918412e-01
1.329492679410335942e-01 6.058449641193924817e-01 -6.545379358167607853e-01
3.327847681844534611e-01 1.876319820546785144e-01 -5.941556623381999414e-01
-9.651711488570386965e-01 -1.060365385027039753e-01 -1.434975707610649520e-01
-1.308790757070890654e-01 -1.922094417289084700e-01 8.219990407702110202e-01
7.471847522241037431e-01 5.586379945992170359e-02 -1.122198082833164856e-01
-6.068264852654252639e-01 2.905574856711030107e-01 -7.411140607653008416e-01
-4.745018204258206196e-01 -1.782552217589058671e-02 -7.791256757855381521e-01
7.819865865352867429e-01 5.122565418902862433e-01 -4.474543247586851291e-01
-5.437371802158503797e-01 3.462610064571441382e-01 -5.557990397962742080e-01
3.432229057707363862e-01 1.210324051173248920e-02 5.372278741217227926e-01
8.584305890158407948e-01 1.793255463879565581e-01 4.793572389261088751e-01
-4.643012741116095965e-01 -2.069433280335464809e-01 6.387785235662644112e-01
6.214941573420132981e-01 5.079132701793426241e-01 -1.106363724840197099e-01
-4.209297097195855986e-01 -2.141078345579724984e-01 3.267257676108157871e-01
-7.429508296898713615e-01 -1.529459461506020579e-01 3.385826754875128075e-01
-5.545925230485450330e-02 -4.893647731011274704e-01 4.999548771715041640e-01
6.853860119641103088e-01 3.492669940331888379e-01 2.619390082039279033e-01
-5.955811604126943770e-01 8.203310581187978068e-02 -2.259155163158614310e-01
-1.948392376665090131e-01 -2.827723394887269315e-01 4.396449157870644942e-01
4.069034491305643098e-01 -3.804985875081587365e-01 8.249891241699714994e-01
-4.470663563761084203e-01 -6.055750977933246348e-01 4.276937099884908777e-01
5.683739380323834522e-01 2.505513269553565348e-01 2.024402822545455782e-01
3.444511353859357472e-01 2.057242121206215024e-01 -5.132819883889647716e-01
3.426377244703674996e-01 1.874351265705167802e-01 -5.943134026445021645e-01
-5.384782179022982174e-01 6.187149438788502182e-02 -2.625093481187381061e-01
-7.382572743374452573e-01 -1.336730415010208284e-01 3.040815577893895005e-01
4.204357959607223361e-01 2.265425360957757511e-02 7.512604986649777938e-01
-6.631571577545315455e-01 2.705400629668927026e-01 -6.759639768278977723e-01
7.414829893921426329e-01 4.783115154137588809e-01 -5.477437142613147403e-01
-5.931005347322697574e-01 -3.181823758741624819e-01 -2.102144794433558894e-01
5.718775520943890633e-01 9.958184604150688291e-02 9.838130111351352236e-02
-6.892679153318842511e-01 -2.592949247167803881e-02 2.997138495337462599e-02
5.092179580675898487e-01 2.768310535830166286e-01 -1.418410263531572069e-01
-6.033569796055301415e-01 -2.740350061587628061e-01 6.192144054810320153e-01
1.141103382283295137e-01 5.514379777011375605e-01 -5.519382239708022775e-01
-6.693137056088052095e-01 -1.906995358429193765e-01 4.639408769320377823e-01
-5.223353328563395959e-01 -5.516500421881723737e-01 2.486363243618086305e-01
-1.798475421234571603e-01 -1.922324191278980132e-01 5.388445046464801491e-01
-5.577338461664205216e-01 3.183852547761884533e-01 -5.068387049996172511e-01
-8.847638512009540213e-01 -4.378702878195710468e-01 1.504869509501609304e-01
-7.185857437498389677e-01 -8.274588075285782551e-02 1.886276814120004530e-01
-1.975509030817486911e-01 -3.916262845418778671e-01 4.054025222056425459e-01
-6.391811201784739493e-01 3.096641605702832312e-02 -1.234044807670441890e-01
1.276390873739482838e-02 5.826567413655253658e-01 -6.889014347283570761e-01
-9.583748657219541833e-01 -1.008868262798554016e-01 -2.862373620912778138e-01
-3.597500793005258268e-01 -8.132220989466781846e-03 -7.623607826147611455e-01
-4.748455437245372446e-01 -1.746989292228443014e-01 3.487127610326787308e-01
-8.573999895551172035e-01 -9.692040108254826314e-02 -5.265354760249505439e-01
2.877931800922160430e-02 4.222165439560495170e-01 -5.089670893511425431e-01
-6.107459342097790733e-01 2.422583442918633048e-02 -7.793437554818565260e-01
1.946719713354120029e-01 -6.018409779965771395e-02 7.780927417495719922e-01
-5.320376325979662147e-01 -3.664656050247528940e-01 1.530562134290119891e-02
-3.166047522029768468e-01 2.882678176574366979e-01 -4.836873014919991220e-01
3.752824818358715953e-01 4.104125357238803118e-01 -3.158839058083561802e-01
7.083707124047234904e-01 5.174908535921822761e-01 -7.411662479507076517e-02
2.632431654888063854e-01 6.185144917526202990e-01 -5.856557891861547960e-01
8.900418185196939946e-01 2.197711414385069839e-01 4.070499434459695642e-01
-2.972407982490057332e-01 1.327560439039185691e-01 -4.827090521149162705e-01
4.571500737831454275e-01 1.089925063155572915e-01 5.057556063136772195e-01
-1.882530000745961385e-01 -6.058079942809225793e-01 6.196000765134559440e-01
7.542968361661828158e-01 3.087881284721696873e-02 -5.644131770033205403e-02
-3.211483519643213436e-01 -5.860035714282723074e-01 4.536163317316856958e-01
-5.926787597876951308e-01 -3.083511976940380150e-01 -2.321534294845756241e-01
3.407838736866151130e-01 -4.202624733915550359e-01 8.269312560477934948e-01
5.592292802915967975e-01 3.824650799399153395e-02 1.818957525108852447e-01
1.363984469096128915e-01 -5.342989170881028427e-01 6.718564257971775255e-01
3.379049140988264477e-01 4.900947077421989317e-01 -3.709733878752796143e-01
6.832294679033736884e-01 2.165401230290859014e-01 -5.170089783080711321e-01
4.753788192996397099e-01 1.064198558937382629e-03 3.282338637033919149e-01
-5.289723170547117048e-01 -1.922790680226887927e-01 -3.947952526061102030e-01
4.686380954216334827e-01 5.295826817947464349e-01 -2.880707621776095184e-01
-3.970882577244548850e-01 -6.074261916865146826e-01 4.610700386953213159e-01
-3.441681667648302523e-01 -1.893751185482925037e-01 6.797999266989572797e-01
6.946038652298602845e-01 3.746685254346929228e-01 -6.239461010626931037e-01
-7.834051821567878937e-01 -4.146058769230623886e-01 -1.636201584186228464e-01
-6.757726673105172166e-01 1.274786930932773343e-01 -7.581294578435289200e-01
8.985692550974781756e-02 2.002741091867880352e-01 -5.789104075616705591e-01
6.722650435811036163e-01 5.289530634628191175e-01 -1.158199083202201135e-01
5.894100909830395363e-01 -8.418824660786436431e-02 8.007583717021563574e-01
9.125973643931079016e-02 -1.805060677533930347e-01 5.319207196135847804e-01
8.630675031608188164e-01 3.221910425635182151e-01 3.038481309467902514e-01
-8.993060840981911275e-01 2.267204418302217611e-02 -4.390731277159203860e-01
-2.503501847911552280e-01 2.010817844026289714e-01 -4.938953566309439158e-01
2.966677415215598357e-01 -1.769553220694490836e-01 4.586029767126648116e-01
5.101945193813544055e-01 -1.078610866832287879e-01 3.164097734219791791e-01
5.760920768061115194e-01 6.148493632846642187e-01 -5.184410736193920677e-01
3.408321437615434157e-01 -3.943309416355965380e-02 8.115018977131727151e-01
-5.162067927983456928e-01 -1.853414358334433132e-01 1.434347051815987872e-01
8.788030019863088960e-01 2.556013178286514753e-01 3.804971134760894991e-01
4.963982554235586986e-01 1.413986432020849504e-01 4.264254378183606198e-01
-7.271785856000073656e-01 1.101387567390424010e-01 -2.089066864380133004e-01
1.300725558375991353e-01 -4.116908177839996297e-01 5.127450332390018906e-01
-7.683713011679522698e-01 -2.464321453965292452e-01 -4.647266013919686412e-01
-5.739396537751085825e-01 -9.897211969897526385e-02 -2.132930352180411899e-03
7.533345368811689147e-01 1.998069113775731709e-01 5.306179602432647968e-01
-2.609308664837428626e-01 -6.055650206418542458e-01 6.825670342936783763e-01
-4.814942122228731414e-01 2.290785391835287177e-01 -8.772558899244614627e-01
-7.196851994998580693e-02 -5.610871807449986370e-01 5.701319900291337284e-01
-2.046216800517306200e-01 1.648747635424905045e-01 -9.185252103961385473e-01
4.933240987685602770e-03 -5.016138593655330435e-01 8.618007146682425956e-01
-4.989737711618987825e-01 -5.428086769390368105e-02 -7.383072518194718770e-01
-7.211407791784193444e-01 -5.544662607814658806e-01 2.550320107908421452e-01
-2.130950804179234104e-01 1.451762162677835144e-01 -9.064878678632343201e-01
4.770378368153498916e-01 4.401269175533881195e-02 7.359674931881107218e-01
9.911926103522429310e-01 2.748549605098688509e-01 -3.565716145974071744e-02
-5.436292253617726056e-01 -1.501343918587188797e-01 1.931098477249086065e-01
-4.541206000007397270e-01 1.079671580049249985e-01 -3.642131021494969256e-01
-9.154000250172178443e-01 2.031686582252292123e-02 -2.665645142922338229e-01
7.142997966713356961e-01 1.750118902419976752e-01 -4.187079781578829651e-01
2.785099907277114317e-01 4.261406549440305835e-01 -8.913030111400839228e-01
4.822864579649476791e-01 6.886477981905860662e-03 7.774998592903129557e-01
-6.256149280520263423e-01 -3.837268024437707203e-01 6.431459686207375848e-01
-5.883314964499133382e-01 -1.926567811281049147e-01 5.262587766816800849e-01
3.200678312704984263e-01 -3.141217767407487593e-01 9.047976456782408361e-01
9.689020916964341534e-02 -5.090875405938276588e-01 5.829363228345483261e-01
3.538804756611307889e-01 4.129620492408414001e-01 -8.624537338560277488e-01
1.343802270013862155e-01 3.341546006363509957e-01 -4.813403086741621095e-01
-4.703552279932178282e-01 1.310064929959649793e-01 -3.595445128786096678e-01
5.127256828204580508e-01 -2.275040843372827526e-02 2.806450846772641228e-01
2.488597248251191441e-01 -2.533903689103293444e-01 9.245351568252753172e-01
-9.740885149630269524e-01 -1.931458340278977559e-01 -1.751768419501069096e-01
3.838365887903043561e-01 2.065840957211864670e-01 -4.798330886555245423e-01
-5.142720969312669643e-01 2.683444515386002038e-01 -4.342349902040485432e-01
5.174752398548831955e-01 -3.361927714815436397e-01 7.772504269677488198e-01
-4.062716269733903096e-01 5.766921452301310147e-02 -4.062780477804853185e-01
-1.596987708527264072e-01 -5.904868858060600134e-01 5.755965724845168996e-01
-2.878344282842953961e-01 6.994028362475129129e-03 -7.312572862168654764e-01
-2.257878889629041097e-01 -6.106498081098375996e-01 6.454866639701619668e-01
3.080797207070474220e-01 -4.497378539794700258e-01 8.085884096927145048e-01
2.242704103881632827e-01 4.643702991118868750e-01 -8.983210703176172096e-01
-1.456118232284097681e-02 1.207839898396991379e-01 -6.942743447273747037e-01
1.508404948516045840e-01 -5.211887781139703524e-01 6.399686531484674035e-01
-5.880984210927653333e-01 -1.393538452034762398e-01 3.461280509343386824e-01
9.011488051028864188e-01 4.525539895551491942e-01 -2.256735043058953338e-01
-1.834364420822318376e-01 -2.702877552687889540e-01 8.657157789552414329e-01
-5.124793214741408809e-01 -2.174086675400551671e-01 7.103725615812664373e-02
1.402436666860621683e-01 5.379474240363901760e-01 -8.669442167305826397e-01
-4.252907693471610906e-01 -7.190965457306369712e-02 -4.716931015027068241e-01
7.324472258170158234e-01 1.200266027430016286e-01 -2.780753604097058185e-01
7.622503531522295539e-01 1.953217104879211574e-01 5.321138164707402973e-01
-1.902038278348627820e-01 -2.036307109717109542e-01 8.060672958060201010e-01
4.604978100995550383e-01 2.521917236572679411e-01 -2.826363371424417958e-01
-7.880187242077179022e-01 -5.143736422996630919e-01 1.441179047516240042e-01
-4.359184772138410824e-01 -2.144815630487404978e-01 3.006105786394164259e-01
-8.991120640204476322e-01 -3.063614031453605335e-01 2.626687575016537490e-01
-5.698001050738878970e-01 -1.311669458846535796e-01 -6.414510477741728334e-01
1.736337593242647664e-02 -1.687570710736336355e-01 5.603771227888723061e-01
6.692276485635716421e-01 -2.184166950187585096e-02 9.770678695667457669e-02
3.251947190647521690e-01 2.268299351312003109e-01 -4.804128138138407111e-01
6.246698790711270322e-01 1.455632252865600718e-01 6.190830735893075865e-01
-1.106110114453479204e-01 5.523076598375625812e-01 -7.466384161148911236e-01
-3.149979477055734889e-01 7.132812608790795039e-02 -8.565588240984024493e-01
-4.596707013534443581e-02 2.530535889392871995e-01 -5.310850568829936780e-01
-5.436549697844558215e-01 -1.478984562144247950e-01 2.660793988667912169e-01
-4.021100578251168844e-01 -2.705201971159092861e-02 -7.504213903256690132e-01
-4.804072921995429235e-01 -3.263913770862777453e-01 1.088348362473573055e-01
2.968446802972588006e-01 2.289923091566750113e-01 -8.013214727600120879e-01
9.708717906490470506e-01 3.106539825642748998e-01 1.289927651185598101e-01
-5.959803959374020410e-01 -3.017808553945246497e-01 -2.571715155992994051e-01
-3.634757417382071254e-01 3.597416497035329508e-01 -8.913261796943285908e-01
-5.199143291172559911e-01 -1.038077069679758518e-01 -2.135574751661055148e-01
-2.499965821596929483e-01 3.645279192893721709e-01 -9.331497443669963809e-01
-7.681355413948487421e-01 -3.440296950700452716e-01 -3.078012112288565083e-01
3.232591338259159230e-01 4.082087049953563307e-01 -8.758618951593142299e-01
5.580562662025291276e-01 -1.112974409098152068e-01 2.830609470418666285e-01
-8.716081554562130629e-01 -6.211050958642150288e-02 4.527788820464603847e-02
-7.880703351576106019e-01 -5.177594207709835805e-01 2.795366360773049452e-01
-6.250517554994163838e-01 -5.099385571914570869e-01 5.947744695841351570e-01
-7.096132476036894898e-01 -2.450018776237957718e-01 4.977075678570916373e-01
3.912811078663414044e-01 4.371124361155772631e-01 -3.042481229781535124e-01
-5.458705916527699376e-02 -3.278613097473921933e-01 9.193161821734244787e-01
-4.921083411907975491e-01 -2.783291257714716194e-01 8.907876524922632433e-02
-4.644241790593116037e-01 3.655479290290644667e-01 -5.453094621488671079e-01
-2.348964685631909355e-01 -6.117801337619586111e-01 6.141847330901962776e-01
6.464735404123935769e-01 7.068097894127456371e-02 6.957594130701906243e-01
-4.775069499543977414e-01 -6.658483629738312648e-02 -7.158239805460042682e-01
-1.823506916504102071e-01 4.661373018114222666e-01 -5.849723704627121101e-01
1.455004084337657710e-02 -4.297885362349717076e-01 4.945159859329434360e-01
2.508224717471814746e-01 6.251191738731772807e-01 -6.481535078024117658e-01
2.759089751127930534e-01 -4.905700598986033611e-01 7.130528141089108596e-01
-2.711780745893291877e-01 3.419262775738144966e-01 -9.348133381967427269e-01
-7.431375182633764842e-02 -5.627285448695027448e-01 5.716788819030362845e-01
5.002671907172975274e-01 -3.056237074547529797e-02 2.981137865797403030e-01
7.246373068830902486e-01 1.357390489035968095e-01 -3.213517011948583968e-01
7.656106483577365673e-02 -1.712956479373575758e-01 5.427763652228582147e-01
-6.594695063165560978e-01 -1.326552274895680950e-01 3.352138785494501727e-01
2.024817138989828125e-01 3.183959742302323037e-01 -4.613236647791966183e-01
-8.594174349606733543e-01 -2.095499583070225269e-01 2.815910115103567590e-01
4.960065221821735038e-01 4.173710097276859265e-01 -1.699676983764400739e-01
2.232453506711760405e-01 5.453075489577741131e-01 -8.479333623647709040e-01
-1.731222792438382937e-02 -1.944770313886085567e-01 5.401871234334535421e-01
1.287540811774440519e-01 1.571069762560620975e-01 -6.895176644950625766e-01
-4.469288470922462841e-01 -2.448661328615054644e-01 2.288941832139015919e-01
-6.710256186898153064e-02 1.668662595994932496e-01 -5.808241681674197743e-01
3.964513833099887474e-01 6.266234730785937845e-01 -5.242547198125010466e-01
4.745995619833248691e-01 2.550829748901197180e-01 -2.508085913491596708e-01
4.672040685818131256e-01 4.904453041430342775e-01 -2.526346785889024282e-01
6.930090319096587903e-01 7.005402708476204943e-02 6.780165511654140387e-01
6.363790190518735512e-01 3.335212116349976497e-01 2.265982755908130253e-01
2.960739130938489505e-01 6.130193986984169285e-01 -7.275019354802030325e-01
2.761422158003995486e-01 3.800151793454866755e-01 -8.939683248986920461e-01
-3.941854447830204777e-01 -4.015019834167411761e-02 -7.187886254393144325e-01
-5.912298229097836533e-01 -2.922636150278706477e-02 -9.802121500898944295e-02
-7.434322756117390796e-01 -6.063178538378771743e-02 -6.580829303438198163e-01
1.520748468862613209e-02 -1.966263107702235780e-01 8.837245619207444447e-01
-7.765189695143958071e-01 -1.873175838777910163e-01 3.617447182098482705e-01
2.545282725631795029e-01 1.921783975498438934e-01 -5.875131280873722162e-01
-8.672057385801762441e-02 4.312807635826192976e-01 -9.366263603222936274e-01
1.561135213200977589e-01 -6.730075525819420590e-02 7.593235981234641718e-01
7.297757904577021337e-01 -8.204401901531879759e-02 1.599130017164768214e-01
7.592757397357084992e-01 5.630534390817518720e-01 -3.098520471830404355e-01
-5.713163891286816565e-01 -1.864637001487544007e-02 -1.485311287804276792e-01
5.406012480280703025e-02 -2.361924939356653541e-01 5.070843582777351255e-01
6.558525661667965467e-01 -2.735018309707817341e-01 6.776811459265341675e-01
-4.667857310857365105e-01 -9.010714940540667794e-02 -6.643986712957098417e-01
9.096881658741908794e-01 3.679453153040440627e-01 1.681044535202841639e-01
9.775297220189876901e-02 -3.995540033298195515e-01 5.023068284460651123e-01
4.577323851116228415e-01 -3.999143936793716492e-01 5.990134350002535024e-01
-5.699857673204166142e-01 -5.108195353128223148e-01 1.386358607903192541e-01
1.504685137051389454e-01 3.076583687951364166e-01 -4.861151291216347925e-01
-4.851975541156373084e-01 -1.876031104902179392e-01 2.607372625396702781e-01
-8.132577761226329471e-01 -2.364671174216995131e-01 3.723454971188996376e-01
5.905422197486056568e-01 -3.137278913419098703e-01 5.057417385954261491e-01
-4.433261076356790897e-01 -5.864992202181306125e-01 3.734702330729685049e-01
-1.636794222955703093e-01 -1.825929823792512008e-01 5.581595623768866865e-01
5.502645203144718167e-01 1.825169938515069368e-01 -5.173104050170193036e-01
2.294629476442961724e-01 3.611918793577251208e-01 -9.086309031824019167e-01
-2.803214781101281416e-01 -2.295372043252377758e-01 7.888067161180524201e-01
-7.870508475661216474e-01 -4.968139764169130640e-02 9.588712588208830878e-02
-4.553701795379601069e-01 -1.765913547546009432e-01 3.859608160639230734e-01
-2.380211122997271667e-01 -1.951905058691499606e-01 5.190721520521008880e-01
-6.650126163697874793e-01 -1.221800800520765895e-01 3.018681992270776937e-01
-1.071439584915968024e-01 -1.513536167677903277e-01 7.585245144658833150e-01
-8.653639209017716105e-01 -2.147397684224539027e-01 2.772096609146196822e-01
3.071524634050586955e-01 -4.084790363805712587e-01 5.409394283646927759e-01
-9.739024716222677291e-01 -2.014086392330403097e-01 -1.694901979719282692e-01
6.190335035143498255e-01 -1.822631603798400834e-01 3.192629229948867331e-01
-5.822357479366596644e-01 -2.481124540739659268e-01 -3.763564215489027531e-01
-8.564817428459443605e-01 -4.685213532654453061e-01 1.636568644921922444e-01
-9.313762834377580235e-01 -1.024330492790696129e-01 -3.885704389576467577e-01
6.153259431196795859e-01 2.922647773037067576e-01 2.842729220747987062e-01
4.889690853320912689e-01 2.211972109385799967e-01 -2.807265104165594383e-01
5.300895680251875852e-01 1.502968571820340049e-01 2.578815229369402773e-01
-1.903619838996550295e-01 1.199727599762279995e-01 -8.814603639794476031e-01
8.492741665351485891e-02 -1.992828389473499662e-01 5.215735282612905532e-01
-2.897574540496374307e-01 4.579118623273278899e-01 -6.152017540872716239e-01
-8.271051124811811261e-01 -4.942604205942564138e-02 6.948814728724858614e-02
7.103258305728368249e-01 2.155788620789536869e-01 5.207236752000492519e-01
5.911596732983045999e-02 1.679671395730234218e-01 -6.208280290678633850e-01
8.736830128588026767e-01 1.039145963361026714e-01 -1.500680809530933191e-01
-5.400221150800734726e-01 -1.721653669151097521e-01 5.003452121594698099e-01
4.574907047611703748e-01 -5.127260440915873407e-02 3.492119655855310811e-01
5.057549741156135426e-01 -1.316000770756736715e-01 8.468857913795044823e-01
-6.670031213080179766e-01 -3.804902152339125210e-01 6.039025101743363821e-01
-4.871018576122084776e-01 -5.979784614694939604e-01 5.876963289407508562e-01
5.351300135165109051e-01 1.270225561106608052e-02 2.367703531781603365e-01
8.021885482969256520e-01 8.269320370101988782e-02 5.986239024611819115e-01
-2.397328739765162142e-01 5.094128532916478713e-01 -7.366304569507322597e-01
-4.919907658089707203e-01 -3.188940091460967241e-01 8.283932872228015609e-02
-7.777987044434313546e-01 -6.559254301759269434e-02 1.344617467528151644e-01
-6.506203022574686967e-01 -1.263954115879884210e-01 -6.480077762249268902e-01
-5.714316667480785483e-01 -1.594719990686711553e-01 -5.925475675289250121e-01
6.750136530334595042e-01 -1.843860072030832631e-02 8.742498907926322949e-02
6.725341958742008242e-01 5.952874744521488015e-01 -3.583282208347903786e-01
