-5.536530936057463270e-01 6.360822812017378203e-01 -1.710450984739089464e-01
6.403620278297922352e-01 7.192586848947667422e-01 3.427772734029812390e-02
9.104665521113002313e-01 2.496020091925169049e-01 2.387485223617831220e-01
-1.058584371938568226e-02 9.638258209603872695e-01 -2.556020083385556960e-02
-6.804349597768276636e-01 2.701238987483836618e-01 4.035632083076691294e-03
-3.673336212002482615e-01 6.614841119156563698e-01 1.008283359699546772e-01
-6.344579132074331662e-01 3.396437959528579298e-01 -4.998081464969335308e-03
-4.070237753809222148e-01 -8.335257784609859666e-01 2.111760303540319468e-03
-1.159349651029569772e-01 8.179256081143314594e-01 -9.361450052731891402e-02
5.137053351781857291e-01 6.592454497074653474e-01 -1.745838669826517420e-02
-6.383550065955849728e-01 4.529333729753238780e-01 6.653338760318136536e-02
8.624847232728500845e-01 1.423030143044778650e-01 2.631620945221226915e-01
4.319276014893626559e-01 -9.011474120186377945e-01 3.415222120555252939e-04
8.073576182090005382e-01 -5.561592570446060035e-01 1.370006527535482244e-01
7.708918959499424517e-01 3.335300891758201103e-01 2.688186922841303561e-01
1.571367097906458121e-01 -7.009266939095606386e-01 -3.027182020881968166e-02
5.745759514812697200e-01 -5.568184303702186089e-01 -8.521412074616059595e-02
7.185528592472935072e-01 -8.799270028691695555e-02 1.039737958173004989e-01
6.036119077958077700e-02 -8.351546026174083703e-01 -1.946189005058922561e-01
-3.074912978665012564e-01 7.812078341962378492e-01 -1.260952498018688417e-01
-4.216210245643983723e-01 -8.479612563707328299e-01 -1.721930838491206664e-02
-7.138052229927718262e-01 -5.787544749393563892e-01 -1.869513464374017442e-02
7.310781481681686289e-01 1.156508218974713897e-01 1.939380247992992801e-01
-3.043001085777235493e-01 -9.085521846038313587e-01 -1.768397903912516111e-01
-2.406389499007992316e-01 7.037370506652496083e-01 1.082185594342031237e-01
2.888272610045234390e-01 -9.465408510540044285e-01 1.831800014566291324e-02
-6.600275415258287648e-01 -6.234526129270483441e-01 -2.448379251061023332e-01
-1.845894640067538284e-01 -9.119273750667770129e-01 2.687333555401184501e-02
1.571526302681713338e-01 -7.744619155702401336e-01 -1.632337626379742335e-01
7.409644596420631446e-01 -1.615779066094714944e-01 1.919165723668626866e-01
9.539373387091049095e-01 -3.002120683333701079e-01 6.628862992292489098e-02
-7.278221660960996209e-01 5.641888777343545547e-01 6.127389015512300224e-02
4.960848540606102586e-01 -6.837016432929341470e-01 -1.225235705452871332e-01
9.521643810828026022e-02 8.859577301572895136e-01 2.081856019902262322e-01
6.553629479354747822e-01 -7.302847885785342941e-01 1.049933185762776111e-01
8.516790018517224337e-02 -7.118812964132863463e-01 -3.436056619580415972e-02
-6.878011164192824323e-01 -9.456986881932118172e-02 -1.125097145380093977e-01
-1.180662738090315217e-01 -9.612664026373020087e-01 -5.375478608846978416e-03
7.882412106645378946e-01 -1.220852916614238856e-03 2.344151455457370581e-01
-6.426157048177829623e-01 4.273903980343939368e-01 -1.843745494656531536e-01
-8.156201876824227259e-01 -1.355071767421906770e-01 -2.626672667672100836e-01
5.552219138725073000e-01 6.864010353737500791e-01 -1.543225968813999316e-02
5.825050085055042404e-01 -6.190865839745821608e-01 1.730280173832244028e-01
6.865587198880754305e-02 -8.189681805703138417e-01 -1.905015513858568932e-01
5.855735285277249846e-02 8.822478949299019657e-01 -6.792704646411684699e-02
-1.766106569843732821e-01 9.658573682133346772e-01 -1.231244342504871601e-02
6.293344859868039709e-01 6.959396518264855391e-01 2.359520449625288063e-01
-7.764417308836846221e-01 4.206659274044670105e-01 -2.062058384523411669e-01
2.724378886199853578e-01 9.548235949146425261e-01 7.357228757667629016e-02
-4.459177305369160793e-01 7.395353486123823483e-01 1.313711063571084414e-01
6.340089011627437765e-01 -3.542488812829680533e-01 8.305584767374567245e-02
-3.794796384875111506e-01 -9.028991861398238949e-01 -7.725805330912308144e-02
-8.426059413261520747e-01 -4.795479683992943665e-01 -1.070151253280426790e-01
-6.808689696724123941e-01 1.895531461842670795e-01 -4.708625516702725361e-02
-3.020990016293526037e-01 -6.381385448820200423e-01 -1.347931991160023490e-01
-6.779017374737666968e-01 1.696566100237391073e-01 -8.050761591695108910e-02
7.768323369390797151e-01 -5.223982179676999182e-01 1.811969862077924265e-01
-4.718229932041075325e-01 -8.446443832441866695e-01 -1.674282248813518115e-01
3.653555665271687736e-01 7.831193028124873168e-01 -3.424832781851292612e-02
-6.402233148055597178e-01 -4.816677651317935460e-01 -2.642820134116992681e-01
-5.088109837958117998e-01 -8.224763566570996165e-01 -5.907103139984862944e-02
-1.420964677447986435e-01 9.812538304507782971e-01 3.351377097786652215e-02
7.209800752294511783e-01 4.829604318419639108e-02 1.136839268409107900e-01
-8.829152928508465781e-01 -1.345067385677893024e-01 -2.482809194564333244e-01
-8.356773746271516368e-01 3.868804477823145072e-01 -1.927348931804507559e-01
-5.552029004258631772e-01 4.382756821138597547e-01 -8.256210773198786879e-02
3.427440508805841834e-01 -9.190259776333730146e-01 4.864825380502117019e-02
8.064194662693613402e-01 -3.170169880656696915e-01 -5.427036521672710251e-02
3.867528405047336304e-01 8.295537899961576978e-01 -2.098987853342010323e-02
-3.369971290207515180e-01 8.386111048160737047e-01 1.426918596636184700e-01
-2.818663094640656147e-02 9.764017377719370616e-01 -7.151814201947504987e-03
-9.066288282567989132e-01 8.927646698074348519e-02 7.083289652395411556e-03
3.628242133019782267e-01 7.012729402642148280e-01 2.303843887300554005e-01
3.877293536913129640e-02 9.909924007805750445e-01 4.674697322148861633e-02
8.742506891090108256e-01 2.066496551556941952e-01 2.609128630740309984e-01
3.232393189388593768e-01 7.082616229116622808e-01 -1.172628797737847693e-02
6.831222817229145594e-01 2.401886742050252932e-01 1.622515593726884531e-01
-8.637071946334841099e-01 4.553352755286230180e-01 -4.750682391250073133e-02
4.545650998269945564e-01 -7.023431478776718251e-01 1.475416888744315869e-01
-7.460873454949276118e-01 -5.544249343759390936e-01 -2.903299875259613902e-02
-9.552744032084532488e-01 1.836197906410328984e-01 -8.029363743504731865e-02
7.779872334847219850e-01 5.917047509417222573e-01 1.993715197026833252e-01
4.525128369067488165e-01 -8.017345945147185127e-01 1.286146033548608569e-01
-2.119825191866754055e-01 6.872619794251197956e-01 6.506511098662887127e-02
6.733570074733725708e-01 -7.325570821845611702e-01 -1.349255321656769521e-02
-3.263342466995579616e-01 -8.213249582167320151e-01 3.190584039932734678e-02
-8.814792542699753097e-01 -8.220921386406584985e-02 -2.492937474363898509e-01
-2.146358378726548333e-01 7.634702895101772580e-01 -1.002286420671365669e-01
9.375243275914031393e-01 -2.686371672005932187e-01 1.186553219731199121e-02
7.892011889570706984e-01 -6.038902502516714232e-01 3.184618172300944950e-03
-7.488268128749644426e-01 -4.959811291910474207e-01 -7.634709556612803531e-03
-4.072860691504469610e-01 -7.167840206187777730e-01 2.637425396275926495e-02
-6.781864043319282276e-01 -2.311654515459231063e-01 -5.231788806808265746e-02
-2.541684897142619803e-01 -8.518273276354897394e-01 3.866988066423304032e-02
7.015186496324835597e-01 3.492157308824195283e-01 1.478972537464644937e-02
-9.495148889443350004e-02 7.214974718016061717e-01 1.049071032507213064e-01
2.771770976525844143e-01 -6.836901465136309142e-01 5.077593229974108197e-02
-6.562147223995791201e-01 -3.116403393437642833e-01 -2.201062109253784649e-01
-6.996017130670835193e-01 6.834530708096020479e-01 -8.044109189450569797e-02
2.491659518189599520e-01 -6.835086654129468586e-01 -6.498622491785140121e-02
5.806060588685684198e-01 -8.155009469433175395e-01 2.752161801971005073e-02
-7.896234424694983378e-01 -4.324588545701468778e-02 1.368466768897466310e-02
-7.492286627879001237e-01 5.363131604505800842e-01 -1.742102412543748147e-01
4.155975436279986113e-01 8.070592134635310444e-01 2.369882639136173530e-01
4.672332924759580730e-01 -8.592055982369967149e-01 7.566255005914337972e-02
-2.957691413825876414e-01 8.291383309524883449e-01 1.553524093230533309e-01
-2.377680598239129695e-01 -7.309826285297312820e-01 2.029145755213821595e-02
3.197332128322531997e-01 -7.370665370051142640e-01 -1.408061833845973554e-01
-6.052934784169760052e-01 4.039717690685813434e-01 1.618699854090060661e-02
4.647648720229953234e-01 8.749423527540550749e-01 7.619722746658298684e-02
9.744749151633960160e-01 -2.066576277310659404e-01 1.406433355249674388e-01
8.196403774476460624e-01 -5.537815828940270135e-01 -3.130210957052502810e-04
-8.512818804367426884e-01 -3.772968080996224605e-01 -2.277260715527618384e-01
-2.694072069505751288e-01 6.619582496282132578e-01 3.916996578711280652e-02
2.323127170826744803e-01 9.638033927595277550e-01 6.069768325141797205e-02
-3.345054355685366243e-01 -6.175859739547754357e-01 -1.196260465630522990e-01
7.448175577849844853e-01 -8.542079151008875881e-02 1.897444601315378954e-01
9.677328769107687023e-01 1.776683224579342080e-01 1.886731265313203454e-01
1.785563685658867195e-01 -7.716387773670807526e-01 -1.604694914886152790e-01
-6.373995241410380652e-01 -7.036649105735048870e-01 -2.042352486792451960e-01
3.753368738918740066e-02 -9.404279678962643718e-01 4.914984654544767018e-02
4.879184643047667080e-01 8.617902603393384764e-01 1.453522396003358308e-01
-5.888900629025474176e-01 4.140191808563745135e-01 5.250440578914662183e-03
1.055782416402503282e-01 -7.866620259478815935e-01 -1.740174399069460698e-01
-5.609590805850299677e-01 5.607353017725634770e-01 9.041206148748115456e-02
2.355034085949052058e-01 7.048460086564004579e-01 1.770306162245086357e-01
-3.365958638496554522e-01 -8.719814355549492246e-01 4.655429920314813064e-03
5.535673149590737419e-01 -8.102228093320018587e-01 -5.954772382767630629e-02
-7.592698815161768033e-01 -1.202256649144405609e-01 -2.469491590894957178e-01
7.410561127587385055e-01 9.461145364678440195e-02 4.368019908957716108e-02
1.457436853398568211e-01 -7.575870728906131113e-01 6.984057512779612287e-02
-6.679313988449426809e-01 -1.898138112840673519e-01 -1.116217098861449208e-01
7.817511209048336740e-01 -6.075712893570018869e-01 -6.300499978995994718e-03
7.770889647968783455e-04 8.282088080351114323e-01 1.987579235771951836e-01
-4.760386343146394417e-01 -8.368853276995235069e-01 -4.607413504465040360e-02
5.958931836296067486e-01 4.160562541469501885e-01 1.770872631624184901e-01
-3.239447432497212787e-01 6.509505003714383120e-01 -6.336637018912044672e-02
5.747269128069127930e-01 -4.533023226025786889e-01 9.379591035434063639e-02
8.848989726488324381e-01 4.584775011801189848e-01 1.219172293203919649e-01
-7.370710173728321768e-02 8.425390267517904874e-01 1.905307311335618370e-01
-4.377022903146368660e-01 7.165852652640221088e-01 -1.491061144044487086e-01
8.234258811524233779e-02 7.246771052119125311e-01 1.373071439506224137e-02
7.464668577701283336e-01 -6.655804350756241439e-01 7.331854173118008966e-02
-5.378735605012046062e-01 -6.904224804910897850e-01 1.347634699367279351e-02
6.887167434408260069e-01 -7.281779888750455898e-01 2.396479002584204349e-02
-7.712608764231178027e-01 -1.337749094042333109e-01 -2.538719750977128653e-01
3.672857754923044005e-01 -6.691484611705617036e-01 9.900578007370862410e-02
-4.029277746680441918e-01 -6.773838307562116690e-01 1.582601574188576346e-02
2.963314889966936483e-01 9.110230410604323037e-01 4.956753729496130327e-04
5.380658895305890921e-01 -5.357661165665251746e-01 1.296478124677322430e-01
-4.702847438868641428e-01 6.851390810094419859e-01 -1.553392637415742517e-01
-8.254686345344286469e-01 1.559013781740959670e-01 3.678597506087584457e-02
1.752929479365559762e-01 7.523080228953651361e-01 1.982833137159398240e-01
2.452133336607949937e-02 7.221805170108180905e-01 2.073123210593817711e-02
-3.578604862311161039e-01 -7.100275974413047253e-01 -2.397371545848954733e-01
6.554758576413197702e-01 6.850004544201626633e-01 2.045853394826355892e-02
-6.667912775078133070e-01 4.155632775443883764e-01 -1.950238532147227921e-01
6.704031919985362631e-01 7.243126781841725537e-01 1.718227761515203067e-01
-5.178738138702301264e-01 -8.262367228496462213e-01 -8.468100663466070210e-02
-6.672665322069348814e-01 -2.692499114026942197e-01 -2.108586476582808844e-01
5.594932239944090391e-01 6.195920964486516525e-01 2.608532339144948309e-01
6.239058006306614779e-01 7.564728152226812830e-01 5.947320122006687082e-02
2.541880840445792655e-01 7.815172740845934829e-01 2.297004706502336346e-01
7.519715797870089036e-01 -5.939013782434211519e-01 1.553118322716362798e-01
3.733701708184182788e-01 -6.664758825044271306e-01 1.006774889025337794e-01
-5.586535931397645927e-01 -7.968174291406786569e-01 -1.514064800410263034e-01
-3.819554450084619579e-01 -8.987121738556084205e-01 -6.552098292176572469e-02
6.261773065697793239e-01 3.679794673626988755e-01 1.754099186904864438e-01
3.930171623615092980e-01 8.064573270587793719e-01 2.391244998607334193e-01
-9.486303534082061173e-01 2.072503581828281649e-01 -1.324111366829702763e-01
-7.036090332651459001e-01 6.835038472044909774e-01 -6.883091304967385582e-02
-6.619034933558091138e-01 -6.078224047997805579e-01 -3.630383633123342862e-03
2.875504410663103916e-01 9.461705861231397563e-01 5.485933911518833112e-02
5.629059484836951288e-01 5.842371474836978162e-01 -6.213523427346217751e-03
-5.727060144910529615e-01 -7.910981597272441768e-01 -1.290413521844746836e-01
-5.878369480850146322e-01 -4.304701740247618980e-01 -2.201771162700771056e-01
-8.230482274832684464e-01 3.614593752299378737e-01 4.420238643205995355e-02
-3.037274907285983372e-01 -9.349317481041876654e-01 -1.090855637111225324e-01
2.977204838427319755e-01 -7.479773457046750007e-01 1.124551353551839494e-01
9.296432423223541797e-01 -1.533349610362739757e-01 2.189619846072533293e-01
-1.616100063443703591e-02 -7.264699134202234898e-01 -1.277716404683146567e-01
2.193281024102884322e-02 9.535889557870109723e-01 -3.350972198910877331e-02
7.266820202822129593e-01 -5.455759777706195024e-01 -7.763485347688861560e-02
7.803699399402038717e-01 -2.964588082442692341e-01 -4.998657155596007012e-02
7.316477374251000032e-02 -7.838017874670439866e-01 6.958161759467122731e-02
-8.134466599687438793e-01 4.524318310029484258e-01 3.428556793497923583e-02
-3.430212776377671302e-01 7.299864213842963689e-01 -1.280708646473578127e-01
6.119061901313274099e-01 -5.748902565860493086e-01 1.793834783341068106e-01
7.775595397702858014e-01 -7.284398669927362457e-02 2.229542398486628885e-01
4.076144453637817744e-01 7.112880458247102800e-01 -2.327865962381419143e-02
-8.046118869773364324e-01 2.742200964600727819e-01 4.884351386435906162e-02
-2.958931924053913587e-01 -6.437901112967904238e-01 -1.433448670696757798e-01
-7.492668149664888366e-01 -6.121959282347406717e-01 -8.977466378500723043e-02
-6.265879285513061836e-01 -3.102118201140353637e-01 -9.228815927657545160e-02
2.395130020007698035e-01 -7.946846507737053145e-01 1.095474133833436309e-01
-7.738108868693588382e-01 -1.920376764602710340e-01 7.627536515999490396e-03
-7.721669909937737275e-01 3.020529905047188435e-01 5.337955959702740671e-02
7.400061530336208282e-01 1.087940237981170205e-01 4.308854190329859668e-02
5.511967824677821426e-01 -5.243067087423303185e-01 1.340757954017760545e-01
-1.919177490897544828e-03 7.167738759691819617e-01 8.077354977061659835e-02
9.926435025298706583e-01 2.988445498948841608e-02 1.620833175963738437e-01
1.012377859545080666e-01 -8.915452543536117602e-01 8.296828113204951505e-02
-5.290788485997597324e-01 4.676863726614535754e-01 -3.316343413324716882e-02
5.037314410572654166e-01 5.361723028898668364e-01 1.925197143255552856e-01
-3.771739209676409632e-01 -7.757047356536835858e-01 -2.449636016054511922e-01
8.467654192935381019e-01 2.963323661188119740e-01 -3.188647093432309381e-03
-5.441514739687736135e-01 -7.775283914683128739e-01 -2.016500521486142283e-01
-1.896734307625277394e-01 7.475486227979163401e-01 -8.386338011376863466e-02
7.741065017853143715e-01 -1.370403540205810955e-01 -1.225054078290007016e-02
2.897298404277345307e-01 -9.163043133175149402e-01 6.870715495218142344e-02
-9.231970577401061862e-01 -3.000157004083878198e-01 -1.219628454465819384e-01
7.705801246382618652e-01 -4.618574381552151276e-01 -6.825264881316769894e-02
-6.689564238487707426e-01 2.584589955518615256e-01 -1.854364560871684178e-02
5.429663455988854581e-01 7.329465434204427421e-01 -8.566513801468960201e-03
-8.808607892349304969e-01 -3.942417138453482295e-01 -8.999812826417923073e-02
6.301622286364946812e-02 9.911072802477024490e-01 7.218074344130158415e-02
-6.303061841113051234e-01 -3.707104266443546070e-01 -2.250841165050865567e-01
-8.127805441094901884e-01 -4.851466434408543971e-01 -2.102912957262957627e-01
-6.441035094455346277e-01 4.109656259566019099e-01 5.053608282514893135e-02
7.364212112656186582e-01 2.902538958214548881e-01 9.632232391125887874e-03
7.695329902018953616e-01 -5.966394133580043592e-03 2.199997099691990143e-01
1.457811670810171267e-01 -7.352249655311650089e-01 -1.302300370800973384e-01
-6.173816904420899032e-01 -7.326175962877350401e-01 -5.421407409063842830e-02
-1.559208734023769527e-01 -7.449845919192190635e-01 -1.957852336370905499e-01
-7.332045129713392617e-01 5.426940882595576721e-01 -1.784507236251047235e-01
5.923136739330592260e-01 4.143456059719983764e-01 9.726754415372955431e-02
-3.457428550167317427e-01 8.705866682311068638e-01 1.237931034332374475e-01
-1.570003831135764194e-01 8.248847600729000140e-01 1.776756223074003327e-01
4.008120506860727295e-01 9.094905286995442761e-01 1.150658033658452650e-01
-7.172245993698843636e-01 2.302035045171252625e-01 1.898245084082979262e-02
8.859232416352548212e-01 1.414037794153596983e-03 -2.041785219516526612e-02
-4.193229457934444793e-01 -5.890779972646051910e-01 -4.097199952812194401e-02
-6.197531223874273021e-01 -6.763630915825082912e-01 -2.366561546403437299e-01
-2.688321413247623526e-01 7.935539477952401333e-01 1.598626724863092541e-01
9.438634718363398957e-01 -3.152315667570759674e-04 2.284143332975252794e-01
1.446106789258622171e-03 -9.781623145288752541e-01 -1.221371254013736835e-01
-5.388796283956288624e-01 -6.984123346620684236e-01 -2.517323183944581988e-01
-7.785023935242132431e-01 -5.139499886820259045e-01 -2.269499111076583864e-01
-4.879471426085703611e-01 -5.017216303204248273e-01 -1.528171840503160517e-01
6.678053317154093449e-01 -5.483782615333094856e-01 -9.041475991831852965e-02
-2.521733874475147741e-01 9.504137560817298436e-01 7.479323511863004981e-02
6.800813523099028535e-01 5.611188225859559120e-01 -7.648059180115670229e-03
8.383554883082448006e-01 -3.647506545072539130e-01 2.119587948096683938e-01
-7.944822712230649175e-01 1.800115736214718820e-01 3.815155526969397221e-02
-6.210861071753293050e-01 -4.985297629581620371e-01 4.716694757217311865e-03
-6.594987159029372936e-01 -4.389780294678728989e-01 2.238291833628469531e-03
-4.638227891290548910e-01 -8.512586922010207946e-01 -1.626654496179444909e-01
-3.843230905213688708e-01 -8.254129073673521777e-01 -2.271126011187521443e-01
-8.390325779190097588e-01 -1.501983717209582347e-01 -2.618223115356840824e-01
7.252909639067199876e-01 -2.229321347484054458e-02 8.855574315505021499e-02
5.228305306645308903e-01 -5.932969859207231078e-01 1.486060550157345672e-01
-4.492748742078696012e-01 -8.134688290222705787e-01 -3.770775283232227684e-03
6.418022513575274424e-01 -7.449986161543548091e-01 9.864359667351851879e-02
-4.678122478153142194e-01 8.696529128774733719e-01 -1.613756696258290824e-02
6.843287240051192377e-01 -2.458179127730490965e-01 6.525027541677044796e-02
-4.006023121506085971e-01 -8.021613553254846041e-01 1.980282949786587796e-02
2.791961562219412163e-01 9.369117679536391741e-01 1.578413629985460920e-01
4.496028870450945458e-01 7.092323343789167511e-01 -2.398694825863417410e-02
-9.440175467366344053e-01 5.553876499642997067e-02 -1.946089145561244738e-01
-1.443461528540463668e-01 -9.613294236754933442e-01 -1.588188067382752255e-02
-9.386500005076102715e-01 2.434740616323355644e-01 -1.360372464268915782e-01
-4.394559759585235370e-01 5.862400691168389022e-01 -1.007920254191649045e-01
5.030640658064962079e-01 -5.531432525641699627e-01 1.080419383042104109e-01
-8.482608166144623985e-01 4.703670509361823071e-01 -1.223755173894560955e-01
-7.246500414656319444e-01 -4.907513265371992728e-01 2.139554125767519337e-03
-3.695576878653634711e-01 6.143628405960319672e-01 -5.208398851819368014e-02
1.802627000567471813e-02 -7.141028585195979828e-01 -5.184471475945752472e-02
6.411081436228959207e-01 3.890004068833212147e-01 4.433474691135898954e-02
-7.724131370660658469e-01 1.193686216150216112e-01 2.330390527208484053e-02
-4.043391952389269184e-01 -6.204596004899819439e-01 -2.137494529185200165e-01
7.231847878901679350e-01 2.701813334225757202e-01 2.387673826300933388e-01
8.350671088279363330e-01 -5.106303859955009239e-01 1.456554849486932646e-01
7.547876829330184556e-01 5.163842185906784010e-01 2.573697150768406439e-01
-6.784982931735620282e-01 1.976205915990253970e-01 -1.425472472761045717e-01
7.991937826933949163e-01 1.844113556481238314e-01 2.603892755293594763e-01
3.370124411828500643e-01 -8.049914591227913530e-01 1.256480279272269573e-01
-3.112093381389598457e-01 7.080744042089623935e-01 -1.083667126897144700e-01
3.091313003730639664e-01 -6.524132204005592683e-01 -8.362604623681739111e-03
-6.371019857676020193e-01 -3.596952935876694402e-01 -3.581302604802497069e-02
6.925939125899269744e-01 -2.178192418231303662e-01 7.542083934070575868e-02
-7.415534310538322016e-01 -1.016055972441987226e-01 -2.331744884537880480e-01
1.692746018699381461e-01 8.752028165168155294e-01 2.170177024423159684e-01
-5.277832596271325727e-01 -7.614548253309773029e-01 -2.249009024605934381e-01
-2.769078240876221564e-01 8.429936564667608323e-01 1.570070946392316258e-01
-6.346781630371959304e-01 -3.329897425152695822e-01 -2.070114056992574392e-01
8.237750210865036893e-01 1.260190859355655724e-01 -1.175693005013220792e-02
-7.422281459444963758e-01 -4.668503309329427031e-01 -2.621799085727649636e-01
-7.115111386623752532e-01 4.611922797749847674e-02 -1.793269292495772160e-01
-6.850907871852005560e-01 2.621182097190332128e-01 -1.786366469561530834e-01
-4.337982599107447212e-01 -5.495887520470447152e-01 -1.012947244720327489e-01
7.718622497304221675e-01 -1.674847710863722194e-01 -1.776474635942300317e-02
8.228886745584549356e-01 -2.487498286430036287e-01 2.328387483830965388e-01
-4.630567386888773673e-01 5.350254770192354181e-01 -3.056188607396463641e-02
-7.800606569125789758e-01 -2.960851166971572024e-01 -2.683549792888597629e-01
-7.586606622199011385e-01 1.927078275862831591e-01 -2.260673834807275795e-01
-6.463633438363241002e-01 2.695033187726069146e-01 -7.447294058093670288e-02
-3.619601125160373245e-01 -7.951981806774003347e-01 3.034701793494203048e-02
-6.192443908382907480e-01 7.657791031129087544e-01 -4.068043185337164719e-02
8.398873737019840746e-01 -4.024740506396736195e-01 -4.455970167623227868e-02
-6.119859368928258769e-01 -6.780798297396165575e-01 -8.050618322434312593e-03
-7.311029152415131349e-02 7.592009511525793508e-01 -5.671720576260302210e-02
-2.740134043488169358e-01 -6.514992588124972617e-01 -1.303177084429376076e-01
-3.963953798286471431e-01 9.035141312717189788e-01 3.605785102507993306e-02
-4.780411348621576573e-01 -6.777871827101010771e-01 2.089618649916604592e-02
3.456245740774352981e-01 6.781426549697413542e-01 5.665306913737119116e-03
-8.039517919953219627e-01 5.101859303139477664e-01 -1.498242986967387447e-01
-6.648338371171657046e-01 -5.465610343424768258e-01 7.759168380592048643e-03
3.432208832306992696e-01 -7.802670521572657725e-01 1.283790178049409314e-01
-4.845666725364600191e-01 5.155394194927717111e-01 -2.316269753652543811e-02
-1.741682870401178862e-01 -7.070795012451475126e-01 -1.687436077948478025e-02
-3.821110721772915664e-01 8.705175453348997783e-01 1.059545949096715595e-01
6.099852994319880928e-01 7.153928948297572088e-01 2.331540773406855227e-01
5.579414608378704399e-01 4.670917131442767767e-01 7.883822364154208229e-02
-1.539298523645297456e-01 9.550095148050364857e-01 -3.757327763920328967e-02
6.690270876207063955e-01 5.667943111118065591e-01 -8.792995653928659117e-03
-6.013924952704549076e-01 -3.708396868318252215e-01 -1.874916455950950411e-01
5.398360521844204341e-01 -5.083369363286597276e-01 -2.447727858406070767e-02
-3.550713554072525979e-01 7.966605056111182304e-01 1.466755491623442931e-01
1.472908020511067874e-02 -7.248288872420526330e-01 -7.170625861007514333e-03
8.011638591555211297e-01 -1.238925093326295745e-01 2.347270595542308991e-01
-3.298627982573185680e-01 -6.851461292537832648e-01 5.559578680909956806e-03
-3.643437673007762778e-01 6.957784009090137722e-01 -1.250156136411780528e-01
-4.630355541649648354e-01 -8.253611609063654653e-01 -2.012973764712226443e-01
4.577755773465192468e-01 8.152373732837497888e-01 2.249256679040149975e-01
-5.715144177197873931e-01 4.252210170763401909e-01 -9.714349748768946746e-03
-6.898625263521537265e-01 9.576931862706043741e-02 -9.991149128680117120e-02
4.264333979180273126e-01 8.761002403832274243e-01 3.392023710856113122e-02
-1.874422110021032317e-01 8.658505758221841653e-01 -1.012072192022495237e-01
4.592546215946987087e-01 -8.792825999268302217e-01 -4.945414657939793679e-02
-9.362871768817303264e-02 9.862520257185135586e-01 7.061036669495317220e-02
7.554354291808960120e-01 1.402008172618324500e-01 2.298322908177488078e-01
-3.206850753507977658e-01 6.880750801562117713e-01 -1.004689082064061934e-01
-1.004098225344280948e-01 -7.518586275220325854e-01 -1.848481248202973326e-01
2.645505362889384871e-01 6.673321468452048100e-01 1.167614260040863439e-01
-8.808066921211868960e-01 -1.616757091280720537e-01 -2.482196214895258379e-01
5.113624045030131793e-01 8.424710172455577295e-01 1.628203338956568380e-01
2.972733029228956658e-01 -9.439466000853107275e-01 1.987830677271372123e-02
-8.716171984238498816e-01 -3.995646025077864705e-01 -1.875031306669206477e-01
2.948899507516773988e-01 6.757730440994372811e-01 1.755271805044460176e-01
-4.941814656493390134e-01 -8.448923335403387691e-01 -1.188031053921815849e-01
-8.822498848749755762e-01 2.268014289550472351e-01 -2.146909210441411142e-01
6.139567685575639810e-01 5.100656089091319956e-01 3.194242495521572908e-03
6.810531937292346738e-01 5.912859098175690109e-01 2.595943232390700572e-01
-9.486445361812833044e-01 2.125857118661938772e-01 -7.219135480127437943e-02
-7.703649399425739619e-02 9.883760902930693870e-01 6.836254167394466286e-02
-9.071127947403127001e-01 3.600443014301623057e-01 -6.653684286507625945e-02
8.835388971389298574e-01 1.367419673084661336e-01 -1.025595045655018807e-02
-8.468993925644211496e-01 4.777156596580059977e-01 -1.151972048360369594e-01
-9.540945903564513886e-01 1.126361519661994715e-02 -4.576339269751971556e-02
-6.197461231737023263e-02 -8.727614739934248522e-01 6.588129598377746865e-02
8.336817268465783748e-01 -2.278905466663443680e-01 -4.368687716720109915e-02
-7.068465923094319203e-01 -7.978971881250986053e-02 -5.443159940577815131e-02
3.425922375892291594e-02 9.264273408879875049e-01 1.845050469418313965e-01
-6.985575140490115631e-01 -1.696704469983015273e-01 -4.655830268792808535e-02
-7.766096040977467085e-01 -5.570503673300093439e-01 -1.957438456816639194e-01
8.123649463955365801e-01 -7.410655577559444041e-02 -2.081278279505908643e-02
-1.308658011619453533e-02 7.321624094963254947e-01 1.261713451111347861e-01
9.824357766145088711e-01 7.163566442048928395e-02 5.809515764289704259e-02
-1.150528257449497244e-01 9.688403513090126928e-01 1.129793244975194066e-01
-7.193518437906667451e-01 6.611645096881920702e-01 -2.955585962928181359e-03
2.398921296951951609e-01 8.264938568895100479e-01 2.307782928018440316e-01
1.274440386815223723e-02 7.635796564487847826e-01 1.691644121136106904e-01
6.450862390844342986e-01 -3.529585512140278047e-01 1.231672630397990520e-01
-3.087279664947756852e-01 -7.935721784403586554e-01 -2.400754112655594241e-01
-3.871882420653378204e-02 9.127081316549336965e-01 -7.028336864477259527e-02
-6.737076960098825618e-01 2.519613895442835427e-01 -1.598434523649930883e-01
-2.856793792843814184e-01 -8.122975528080103036e-01 4.029159762995393468e-02
-5.672813625453364539e-01 -6.174353044465917817e-01 1.483387187328483008e-02
-3.428503548373995069e-01 -8.446217751449530686e-01 -2.232603709560799510e-01
9.669338118796845238e-01 1.702636134142514746e-01 5.827109370111065861e-02
1.168521882814385349e-01 -9.840080318131279036e-01 -2.217463833033315318e-02
-7.427970069287367361e-01 6.297082348882657721e-01 -9.834592191946912865e-02
9.871825465389139076e-02 7.815175513748829905e-01 1.977742052757955615e-01
2.824851190295251668e-01 8.223135009007559448e-01 -4.297638646818931207e-02
6.894481913218557523e-01 -3.774849040308966841e-01 1.873703544624039929e-01
3.545858454001049598e-02 7.255615949343365845e-01 1.208555460053605674e-01
8.209049563353595369e-01 -6.275936860828001951e-03 2.489465847051122172e-01
-7.242302409622496384e-01 1.630425208193138700e-02 -2.872960106887939569e-02
1.787164796412943624e-01 -9.751864748750131984e-01 -7.274084911186802505e-02
6.699439197397449863e-01 -3.053409687529871075e-01 2.604039388616934819e-02
-7.804389087200099828e-01 -5.126723634044001443e-01 -3.463922773067507760e-02
5.044039159081591811e-02 -9.902756114408010069e-01 -7.018619437402291716e-02
-6.934879332502851268e-01 4.700423979286363907e-01 7.766841276011170192e-02
-1.010530283774266902e-01 -7.286174776823174382e-01 1.139318727786908271e-03
8.495132352849218416e-01 4.651630813261481423e-01 2.156844957040237043e-01
-7.512756036289895967e-01 3.552139050140011856e-01 -2.186073231611465884e-01
3.583770972294240131e-01 -6.536515832186367003e-01 7.662915985895037141e-02
7.164260980430562364e-01 2.067536605987944642e-01 4.974612643732363032e-02
-7.978647838477331833e-01 5.710178837004753483e-01 -6.357861463178704486e-02
8.621125160038274338e-01 -4.251374310513036381e-01 -2.344579585836191124e-02
-1.237859413943102754e-01 9.836071595750823793e-01 5.948913866275157974e-02
3.053119971394893106e-01 7.235158383732954723e-01 2.219558277613808417e-01
-4.655141136526011469e-01 -5.210690626601749420e-01 -1.399470883416310818e-01
2.018173754612384574e-02 7.931048300044670762e-01 1.898610601933856390e-01
-2.449522453083452511e-01 6.734260932122652088e-01 -1.698667977453628686e-02
-6.110283067291850667e-01 6.903879926902025677e-01 -1.490418097072421233e-01
2.302331540592749692e-01 -8.842732628899748759e-01 -1.607127286179747816e-01
5.131693337905627317e-01 -7.856603705763411938e-01 1.276348234373443635e-01
-7.266276022907488530e-01 -3.788142112640530690e-01 -2.688429164906728230e-01
-1.696446569631513135e-01 -8.688199553860354030e-01 -2.189992069756004633e-01
-8.324370449753489831e-01 -4.499567028886951037e-01 -2.104229113752022484e-01
-6.260053511170443619e-01 6.465612932280663250e-01 -1.662291292575175106e-01
-1.643502335317916230e-01 -9.726328495322742462e-01 -6.792523522195029195e-02
7.487837947705153763e-01 -9.726923885081528720e-02 1.952815467547595538e-02
-4.929316440966055590e-01 5.436478219766385234e-01 -1.164875494305575160e-01
3.368340887309859144e-01 7.428077460851141289e-01 2.373763475187623817e-01
-9.036748953125713912e-01 2.581666289989694718e-01 -1.071517894878395473e-03
6.785406722069275975e-01 6.112622813693967538e-01 2.545503906583672094e-01
-8.831691226053863808e-01 -1.628160281059814196e-01 -2.469203439439689729e-01
-1.845729626281484015e-01 -8.905413533518038438e-01 -2.105165383721422367e-01
6.206040515530761859e-01 -4.642725600966664534e-01 -5.192346328616075785e-02
4.018966271115330113e-01 8.977528494752994304e-01 1.575111143140817960e-01
-7.742229325658518402e-01 -1.825678516079836389e-01 7.514486420705040158e-03
4.324149181282338494e-01 -6.611735671252585433e-01 1.299697202738102630e-01
-8.747225639075357773e-01 4.366806617673349433e-01 -9.254846698485424961e-02
7.015756460271200812e-01 1.877966667296732672e-01 9.039108731826911436e-02
-8.739253273519076437e-01 1.028805700898995784e-01 2.389767937199507516e-02
6.987200266751474320e-01 -2.523281121618536349e-01 1.565770650436959788e-01
-8.304100285994656661e-01 7.401069769015304611e-02 2.938876505924091151e-02
-9.604680515353715142e-01 -1.149173013912519331e-01 -8.816958444679340312e-02
-6.961364829196452497e-01 6.143108547711328277e-02 -8.081912892420291261e-02
-7.009124254229687212e-01 2.453929808976782478e-01 1.200201457030765188e-02
-5.762225288474163154e-01 4.046315003711734026e-01 -7.331169408477736238e-02
-6.192760409504730612e-01 5.638970709236695855e-01 9.471976533897991102e-02
7.889860923212348442e-01 4.637500862507470956e-01 5.220057834886195069e-03
-1.524846571273639484e-01 -9.013741220553970201e-01 -2.048481571318944705e-01
-6.407692888668464759e-01 5.266256159944137094e-01 -1.908988529801174949e-01
4.179059002896211988e-02 8.133057807527268590e-01 -6.711708944301307544e-02
5.479035827880699427e-01 -4.757224374736364059e-01 4.551303626515821460e-02
-6.282898834009085220e-01 3.348577219220354451e-01 -1.277327779008543551e-01
8.674909332081004454e-01 -5.039107396465818400e-01 6.786768834237753845e-02
-7.141440983632854067e-01 -1.264338242489487785e-01 -3.616128863716291941e-02
-3.433995957576134184e-01 7.210048671099228423e-01 -1.258766980648902967e-01
-7.366699683501792828e-01 1.621897960459477150e-01 1.247091429609128825e-02
2.594072689411911492e-01 -7.938276348574743180e-01 1.134946581664311310e-01
3.490028947442113672e-01 -8.352597727997616017e-01 -1.467392831169626599e-01
-3.819198946253187232e-01 -5.886886701612080719e-01 -1.344021726793603044e-01
2.313245950584199018e-01 9.630318607185193169e-01 1.177067398119051589e-01
7.089316745533088548e-01 -1.498006998080030350e-01 9.485812590321321403e-02
-3.627067565747020550e-02 -8.492141009549560859e-01 7.116564640488186322e-02
2.930811089176875162e-01 7.553703021013101759e-01 2.310976179679544440e-01
-3.763151384113624931e-01 6.903328146774259100e-01 -1.277675344254166068e-01
3.622317406241616911e-01 8.474330811390603513e-01 -2.039991185166910997e-02
-6.975338942976072598e-01 5.749380787125043524e-01 -1.772248479622321182e-01
-5.327636045845874913e-01 -4.684256976603587974e-01 -6.830447016473664701e-02
-9.723668022086655593e-01 1.612407004948845923e-02 -1.138763463383875157e-01
-8.721855699653056071e-01 -2.611788246629418442e-01 -2.426644428981735435e-01
-7.672796177454214994e-02 7.128506407934817046e-01 2.246172895076675377e-02
9.210529194132580089e-02 -8.135650369313636165e-01 8.474803659944653289e-02
-7.377753794249692909e-01 -2.806186579524088121e-01 2.352178159776854415e-03
7.282760608512799383e-01 2.627375879691572491e-01 2.402604431137063123e-01
5.914419590977355590e-01 4.481778668470477456e-01 5.269541992306243927e-02
1.048002311078742588e-01 7.546185348550545902e-01 -2.739988656383635784e-02
-3.134092617177509227e-02 -8.265834603228545685e-01 -2.061278787459705220e-01
-4.786440930013795003e-01 5.226557685440682555e-01 -1.336108889982982537e-02
-6.476935819331455235e-01 7.330271483575431235e-01 1.176166112049608845e-02
-6.997041927355074353e-01 1.158947353318826035e-01 -4.646101345066222521e-02
6.164365168361390923e-01 5.472817595617742725e-01 2.628177742040833098e-01
8.896159860996888380e-01 2.000863918060699909e-01 2.559194596309000702e-01
-3.782221214678375132e-01 -8.148401405139155118e-01 -2.331998246865435165e-01
8.659943050003244408e-03 9.394813879077751340e-01 1.724809766310925196e-01
4.503367030025409723e-01 8.569253905207386834e-01 2.665116779111937131e-02
8.734222288213545626e-01 1.447517134629389482e-02 -2.110274284196854075e-02
-8.150767972442349851e-01 5.266637453668997493e-01 -1.237793992890022683e-02
4.309262089318454114e-01 6.111392275867990609e-01 2.040665404432531471e-01
5.678842567097738270e-01 -5.566533196413583351e-01 1.604354768672616727e-01
9.420397992063418435e-01 -3.315537091486353560e-01 5.585543862770293855e-02
1.155013194452054609e-01 -9.416413564562039484e-01 5.407899041627166337e-02
-8.701926364110902368e-01 4.137967781198058637e-01 -1.604014822337090918e-02
5.221170071009983982e-01 6.316502124252461048e-01 2.555023319703813023e-01
7.978685915009422480e-01 5.903191373390196395e-01 9.878306099630213000e-02
8.474567970687689744e-01 2.206556298722719689e-01 2.661331944649130699e-01
-8.271138856339650403e-01 -4.154710594037230864e-01 -2.335682961856318796e-01
-4.844383248681550236e-01 -5.812297664762861027e-01 -8.819844390406200718e-03
-7.714247723197900086e-01 2.056593573349340398e-01 -2.304993343722116506e-01
9.415880309242766755e-01 2.858854096089193941e-01 6.827473263351212240e-02
9.085353260324497970e-01 -4.247056542899065867e-01 7.269172643412159796e-02
-5.257104470640102667e-01 -7.766071045837859010e-01 -1.910762093631056258e-02
-6.093527511392240470e-01 -7.473699378855621633e-01 -1.772193359984099437e-01
-7.134677978038230783e-01 2.911176416149990898e-01 -2.065224802276254268e-01
7.331973181310644794e-01 -1.384403413456021248e-01 1.780726467869337692e-01
-8.926436528416330507e-01 3.138514818309457444e-01 -1.762308364680473527e-01
9.065310873664702562e-01 -7.814148736113173122e-02 -2.012647900877824123e-02
-6.900632094878409450e-01 6.459204354130476666e-01 -1.398640932979709484e-01
-5.748234028505956328e-01 -5.749547515325332814e-01 -2.626614169502544116e-01
-5.276090715775469953e-01 -5.062391626314518556e-01 -3.472216862502373186e-02
3.922738853593308317e-01 6.014759131272185977e-01 1.291356669483929021e-01
6.095668690642764842e-01 -5.050089594868116816e-01 1.685800121476682678e-01
-9.443677298966739464e-01 -2.132607929381749312e-01 -9.795521669635322282e-02
2.943058224050124072e-01 6.589203268544855385e-01 1.394736089304504656e-01
2.629546934259923696e-01 -9.442955703395015110e-01 3.590579442525863169e-02
-3.497232624842036564e-01 -8.070900755580093788e-01 -2.382096936336556003e-01
-2.096855245864991946e-01 9.542271806503119791e-01 9.651462452555248372e-02
-8.384525462219044600e-01 9.096156347790852748e-02 3.050846893459060322e-02
5.813516321459183400e-01 -4.957424010854446506e-01 -4.955623540355986317e-02
6.898469473588861867e-01 -4.681294660433173993e-01 1.974162497350218926e-01
2.643582537501121821e-01 8.866647300125688469e-01 2.125130892369471447e-01
-1.824397468760759478e-01 9.346982743693166285e-01 1.351087940467879667e-01
8.231347700121478539e-01 -4.731278172857104614e-01 -4.105309522087863955e-02
5.092239316459414855e-01 6.805813628205290566e-01 2.578292753782022717e-01
6.679250051132311627e-01 -5.832283387865401236e-01 1.842833926493773478e-01
-4.030649015893061349e-01 6.385494037578145488e-01 9.273152314581363520e-02
4.918888713148461544e-01 5.232929325154080935e-01 1.331818812144778263e-01
1.004458073545183155e-01 -9.727461517999882457e-01 1.260368728866760948e-02
-5.654676537819450788e-01 -5.325989661907355455e-01 -7.790717466177022286e-04
5.441965952090113134e-01 5.742313991058665135e-01 2.471336060629198694e-01
1.820267269882797911e-01 7.088606988469574599e-01 2.421171013505878794e-02
-7.772042220578366800e-01 -1.885163857361754070e-01 8.412494969126672537e-03
1.357991163204661511e-01 -7.777796905821371398e-01 7.986588721066881225e-02
-3.745420011917361403e-01 -6.304441399641964594e-01 -2.438440080452048200e-02
-7.353288290756656576e-01 1.347834420954453494e-01 -2.108493900829651047e-01
-2.781451563737701305e-01 8.649930493569485401e-01 -1.055585401993257705e-01
-6.040439777319259740e-01 -7.669007401569443161e-01 -1.151687895694516600e-01
1.948294765507263548e-01 9.550601723539917653e-01 1.538640168773437733e-01
2.009525387526541473e-01 -6.989332968306184446e-01 -7.695357612834576033e-02
1.737781117262010844e-01 7.973108353551350280e-01 2.186982972692275151e-01
-7.051787319532606402e-01 1.952453966599288493e-01 -4.605041458395419535e-03
6.916689791667780529e-01 2.832754836788299868e-01 2.138814953257674734e-01
8.429671920938862639e-01 2.840256559208811926e-01 2.654624475994628030e-01
-7.844844631984667638e-01 -3.480126903190454146e-01 -2.666546284559916380e-01
9.667046933838165934e-01 2.492874052307345878e-01 1.347275279004934434e-01
9.048141268547174043e-01 3.972696533165841482e-01 8.176223416985732573e-02
-3.392241943632992585e-02 -8.470472659485609457e-01 7.142168918965831337e-02
-5.503238995361158237e-01 4.899515917426376377e-01 4.185043449438851509e-02
-4.134492608584144357e-01 6.562921691488380338e-01 1.085617763728845553e-01
6.623085096234465619e-01 3.368712885877394037e-01 2.089937484173282900e-01
5.449234972403733668e-01 6.662193200237515045e-01 -1.763782813722344217e-02
1.647630271823759956e-02 9.770428672831770189e-01 1.278174969422459506e-01
-3.510352230992392353e-01 6.820201121739346561e-01 1.133014971478561728e-01
-4.407010400485583124e-01 -5.445754039134751423e-01 -1.448965341526787243e-01
-9.658320820092630710e-01 -1.038867089107539110e-01 -1.272825508627731250e-01
2.254398407122476800e-01 7.436889586463142354e-01 2.077253196187264506e-01
-6.585213896216911555e-01 -2.973777362114391476e-01 -2.152157074924842539e-01
-4.825547500156455172e-01 7.400532321141147785e-01 -1.485062140402607367e-01
9.657898482250146799e-01 1.927309052315976934e-01 6.532372944511483093e-02
-6.005558117696405684e-01 -3.593045124159024439e-01 -9.163556185530477571e-02
2.228553936120490631e-01 6.891221396123282661e-01 4.846612316832438205e-02
-7.850571244416358896e-01 2.262195761811558459e-01 4.346249366917554618e-02
7.932721845130438210e-01 -6.011237033511690475e-01 7.982321249992183759e-03
1.917000082966812680e-01 9.009041093097583941e-01 2.069587584923845147e-01
8.044397124777327157e-01 5.427792994997233944e-02 2.480522855199213950e-01
5.402318601254954000e-01 -5.007527694055835532e-01 9.723680698957300195e-02
-8.497802241236035448e-01 -2.120125705300913432e-01 -2.585507967639641969e-01
3.747429186282154046e-01 -8.955662756288301773e-01 7.047378300913639815e-02
-2.881119759153248916e-01 -6.494041301519399845e-01 -1.477785989114779042e-01
3.605531512091859209e-02 7.197693997530554277e-01 1.042148415805809469e-01
7.678048598458959706e-01 1.302072658365284186e-01 2.375065744233609000e-01
7.312079878313758607e-01 1.162798237879371366e-01 5.517299639142577566e-02
3.938962031691393695e-01 -8.598214860234405510e-01 -1.201899810671955282e-01
-4.753199473040194967e-01 8.663066096491109924e-01 -1.049916772521194714e-03
-8.382497872367005165e-01 -4.072856334383544441e-01 -2.273099244815876552e-01
4.937014527002277497e-01 -8.526544834116485116e-01 6.714502456737571345e-02
5.854294355914817054e-03 -9.910001467436519995e-01 -5.743962118513169096e-02
-7.734302514418259777e-01 -5.257789671358585881e-01 -3.585617935319374699e-02
-7.735720919189256195e-01 3.145475209441070397e-01 -2.243120053048947293e-01
-6.086962267496076606e-01 -6.223735635280617240e-01 9.216411859703477552e-03
-8.525993056631597788e-01 -1.307864623628122724e-01 1.225323658666099477e-02
-1.502114486342586222e-02 8.794467002367010178e-01 1.966866325695919848e-01
-4.726493827081084120e-01 -8.549962985957754169e-01 -1.371476134268704294e-01
-1.057194296250430765e-01 7.165041401403203780e-01 -9.012311986308869927e-03
-2.816150831457587267e-01 -9.421213313261853628e-01 -1.095072044818705820e-01
2.810011231149515121e-01 6.902085019401269506e-01 1.614644221767516652e-02
-9.100665207047418104e-01 -2.502615919978550263e-01 -4.510756377331975181e-02
-8.288348907970202184e-01 -4.517257040020180026e-01 -4.785177319178799543e-02
-3.774587435386910772e-01 -6.249191762406327566e-01 -1.988967290916350827e-01
7.546153413752000327e-01 -3.753816123651512182e-01 2.143832392861897140e-01
8.670661003532930122e-01 3.778191262364472558e-01 2.393054603004365899e-01
-8.011320144352958028e-01 5.662792016845153986e-01 -6.378055654803670149e-02
-5.587253312889767232e-01 4.489843266606291516e-01 -1.105790707148465168e-01
-5.391561908437867423e-01 -4.458087910752833727e-01 -1.613030932835955722e-01
-9.114796322037297394e-01 -3.342636601220398962e-01 -1.250442735304098107e-01
4.498796932849644103e-01 -6.096634201329271807e-01 -7.396944678345306057e-02
-4.584345708000602260e-01 -6.005134578722718386e-01 -2.318772657483509636e-01
5.833766996007824224e-01 -5.180834994974518048e-01 1.564914978783975008e-01
-5.185401333120421841e-01 6.530783018891591629e-01 -1.647411577961667983e-01
8.313661778444259021e-01 5.126415312820723491e-01 5.995626054170595520e-02
-6.534060616722288106e-01 2.514283543373875274e-01 -7.408048974885950155e-02
4.995410419027248583e-01 -6.054219370935378652e-01 1.406257892864890280e-01
8.587959385897607767e-01 -2.551981822924836441e-01 2.294539793188576371e-01
9.260055462498287815e-01 -3.004900278553815918e-01 6.032360453539888437e-03
6.615540894686426920e-01 2.935877122687636787e-01 9.876692727257836701e-02
-8.793398142576750454e-01 4.269781523468650641e-02 -2.436609400876066089e-01
7.875635511146326095e-01 1.062948670866568912e-01 1.463120490077836648e-03
-4.612570586879670143e-01 5.377842736115603373e-01 -4.580737471330209587e-02
3.530507188445696221e-01 -8.974349685073359506e-01 7.521544110520422821e-02
3.800201404833262187e-01 -9.096521234840919679e-01 4.508686205087403948e-02
6.775460567159964365e-01 -4.974438433176991969e-01 1.944043517869461224e-01
6.291672413620709170e-01 -4.003238507748760333e-01 1.367310253502360406e-01
3.969131232349474847e-01 -6.144310857777275370e-01 5.587282031274082988e-02
-2.366759795671712421e-02 -9.266078829374383430e-01 5.090962012586785351e-02
7.352942722327974190e-01 6.697537317722104255e-01 1.447111743988983290e-01
-7.511678342102424688e-01 1.128566951326920483e-02 -2.868500245256927136e-03
3.675105508484553529e-01 9.221566926664009900e-01 1.213120793428233285e-01
4.257881235693306010e-01 6.270647769756908518e-01 1.789633161003525985e-02
-6.247966019205829502e-01 4.773049924141721800e-01 7.207887948233034081e-02
-5.205936868542985207e-01 -7.693304712597910378e-01 -1.080431894159775662e-02
8.088392055048974072e-01 -7.673246044557358037e-02 -1.985348570238609778e-02
-6.611456676750785411e-01 7.289746908932063230e-01 -2.008263674834685417e-02
4.435425903508827261e-01 -8.865174452792177195e-01 -5.310173932878349545e-02
-2.597154522807015309e-01 -8.308415394563686274e-01 -2.321512140313401196e-01
-4.463537570125810094e-01 6.233264052532903055e-01 9.525544812734061673e-02
1.275528778618035541e-01 7.110605344054696797e-01 3.929221105203268422e-02
4.691079294708764835e-01 -7.611600693545832463e-01 -1.298359559978910505e-01
-8.282696554817973178e-01 3.866805713667324507e-01 -1.971301739675927756e-01
7.074485574159106172e-01 6.233503940469702354e-01 1.901940057786212501e-02
3.896961676247939210e-01 -9.181711322482888349e-01 6.597578023654695166e-03
-4.313915247929910324e-01 5.734201942202289404e-01 -7.168836725391752873e-02
4.755547879574226755e-01 8.615146518968843647e-01 5.672150474981608320e-02
-5.345285004772495352e-01 -6.268059799671725774e-01 -2.607871386672772629e-01
5.690901101993456335e-01 -8.230595787251563378e-01 2.878065225734708840e-02
6.891753796661693743e-01 2.853260181301406906e-01 5.049686231511593681e-02
-7.776119779617681749e-01 -5.811579829557997900e-01 -1.070074734331471766e-01
-6.903632022378760613e-01 -1.661429914519214068e-01 -1.923074635541216493e-01
-2.802686211546523976e-01 7.458423431821875615e-01 1.450275967946301203e-01
7.732260851291635761e-01 1.195398303257984018e-01 9.736775567329223127e-03
-5.970985316362809048e-01 -7.566639783595588975e-01 -1.780006678538911813e-01
-6.051947593970576911e-01 -3.706494137880010920e-01 -6.713481836506933476e-02
8.789279852019007411e-01 4.040043968699325028e-01 4.546688147027072580e-02
-6.292844863922036902e-01 5.137307960081274327e-01 8.466670425491089336e-02
7.460363758076602458e-01 1.451750233925865885e-01 3.006203346350227318e-02
5.810261415170830945e-01 4.935414030985627587e-01 2.712258951089253911e-02
-5.924992634431458516e-01 -6.738601030982104279e-01 1.860975916066514918e-03
2.684262220651828512e-01 9.492111518942901727e-01 1.361280469394111903e-01
4.502008853874803207e-01 6.786125182515052590e-01 -1.715122116062014340e-02
9.141836191724905802e-01 -2.572562802058435127e-01 -1.424977718689784609e-02
4.205994855455124637e-01 -9.062972735455888662e-01 -1.400139321396185821e-03
7.316976258695188085e-01 4.383544658386690496e-01 2.701753560518351804e-01
