1.695261074682531954e-01 -2.983580297174180940e-01 2.717350348370249635e-02
-3.275020142750871277e-01 6.001703382174736756e-01 1.852293644854492716e-01
-1.980839901744365639e-01 -5.765799382516043625e-01 -2.313579302932024517e-01
2.972338302941553989e-01 4.535230514834617255e-01 1.020926605445066360e-01
-1.370483257777498909e-01 2.365214049301182508e-01 3.156382949086702916e-02
1.487064623689796361e-01 -1.450473758762452769e-01 6.874423302024193494e-02
-9.096178486779508132e-01 3.416474833822712998e-01 1.633330689119450452e-01
1.522967125154233714e-01 9.291553168102704985e-02 -2.084143494713606160e-01
4.518533734917420247e-02 1.168099939929122810e-01 -6.419091822594211738e-01
4.145451826549043095e-01 2.194203542019697029e-01 -3.385544347664633524e-01
-3.135956810885353052e-01 -3.563679935095518392e-01 -5.998337655903653726e-03
-3.726399456031492807e-01 -2.830840282148386899e-01 1.340702559480800860e-01
1.515379858369581001e-01 -3.474012346346668223e-01 -1.315592912783842237e-02
2.807262131651738213e-01 5.291416995286160052e-01 7.608290772130822388e-01
1.901129087501961801e-01 1.036628968928436090e-01 -6.451500565502427120e-01
2.211045692899026860e-01 -2.455820700130345591e-01 2.478980614774496105e-01
-1.892197084589652273e-02 1.364798183677713717e-01 1.078624974858687219e-01
6.535767630705899833e-01 3.605821340684782217e-01 6.222269449958817145e-01
3.396703682217193099e-01 -2.345166720324215193e-01 5.314639035424842950e-01
3.709994282987759129e-01 5.460389626702459864e-01 2.227683112824881684e-01
6.524457532819541439e-02 9.716453434358982705e-03 1.425594959474515144e-01
-1.321594974574178127e-01 3.180740353172877843e-01 4.731861862840385652e-02
-1.628439487546884945e-01 -4.548458300607714500e-01 -8.656193341394065044e-01
3.224176697737236585e-01 5.834255428520117581e-01 6.560617734457776518e-01
3.445575577050975780e-02 -7.421487391090891492e-03 1.736480735459111635e-01
4.355371931792685614e-02 -3.113828487687947053e-02 -8.383862935685760798e-01
-9.721405443583583939e-01 -1.300494539509978453e-01 -6.369045583619283024e-02
2.532874324859177850e-01 1.704020731462737304e-01 -2.805224773463498855e-01
4.838173358634170196e-01 -6.106663326334006436e-01 -1.918662217598826325e-01
4.467860275284946808e-02 -3.521667790930295139e-01 -9.095169309766943933e-01
6.936156623230587126e-01 4.350380680205971351e-01 1.889847344781710181e-01
1.862959160138607240e-01 -6.795370315855082666e-01 -3.695554053217068868e-01
2.628382311621730305e-01 -6.300362735847046813e-02 7.765679375329197498e-01
6.962443304349924533e-01 -4.695287464896893415e-01 5.856694523820660941e-02
1.328253307346047019e-01 -1.086337371687526613e-03 -7.154742382670721546e-02
-2.030036408870658227e-01 5.169152142475363920e-01 1.186071094814685617e-01
-3.567193484819884963e-01 3.703720977594210373e-01 -1.546032944672507681e-01
1.885049460185872217e-01 4.781360232078213368e-01 8.378329132985600225e-01
-4.339943537845511456e-02 1.856839467213126094e-01 9.038436963155241366e-02
7.668367006232107430e-02 -1.741041122519537687e-01 4.792709745550622902e-01
1.620420947799755540e-02 4.555079382544163780e-01 1.373266561643681494e-01
-6.023815404396367645e-01 2.876056165668980924e-01 7.237579988115880880e-01
-1.406460342269269248e-01 -5.139758808440118010e-01 -1.671901831217086909e-01
2.387626566278631957e-01 -1.533313145389745003e-01 6.662521583890815835e-01
-1.385270138299392884e-01 -1.559080066094604977e-01 -6.045798601953382423e-02
2.660018259959617271e-01 -6.823533822834162432e-01 -4.189859537589293303e-01
-6.610719608772576139e-01 5.151263057524740896e-01 5.029424318727243604e-01
3.731554028814392798e-01 -3.573030056282475719e-01 2.583670298704740520e-01
5.430955829501410426e-01 1.089837028350334330e-01 7.705970892220393997e-01
9.955382149365694933e-02 8.700320916683716710e-02 8.869615728222476347e-01
2.382663111886757501e-01 -2.555662123505506589e-01 2.875410670165762794e-01
-2.220268736213629884e-02 5.267330074365594861e-01 1.789318274055652358e-01
1.317437156822149902e-01 1.382592251301832109e-01 -4.059061216244046477e-01
2.691996661449276296e-01 5.617561658809147040e-01 2.358356588421040290e-01
7.068096624735077382e-01 3.125602181210374586e-01 -1.136566661976133041e-01
-6.132654326667978939e-01 -4.742581289305746184e-01 -1.246225351568442247e-01
2.115315540366360381e-01 -2.129160752181484539e-01 4.984305812566338645e-01
-2.242688646706028910e-01 -6.276587164075634329e-01 -3.207561346282977177e-01
1.940277729263288342e-01 -2.831470388287973261e-01 7.399411678058098740e-02
6.451905739921112160e-01 4.370762314679723093e-01 1.134193968168207139e-01
7.042649332422298292e-01 2.169202871597831761e-01 -2.859711295052484448e-01
-5.523351992946635702e-01 5.913467371601800471e-01 4.941266811745960164e-01
8.659038648434038699e-01 -2.136402005623215528e-02 -3.471855204828031005e-01
-4.607653552502121580e-02 2.559533005718555576e-01 8.169061194270564596e-02
1.232046307031835208e-01 7.213422686591229593e-02 -2.101787739657410836e-01
-5.123035420872860124e-01 -3.212549202599474518e-01 1.703558316445158982e-01
-8.784098849223752337e-02 -2.805362898692064788e-01 -8.164548233807643329e-02
2.352699992346807267e-01 -3.023059362416457008e-01 1.335838881605982964e-01
2.859589774477726554e-01 2.036374612485347124e-01 -1.939963574120859569e-01
-5.356565133558642833e-01 -4.142979661825159643e-01 1.399519709599989122e-02
3.468625821490788907e-01 -2.885565537026018035e-01 4.003503950010299794e-01
-2.673347268384738129e-01 -2.383056839003396821e-01 5.375019185959395429e-02
-2.468563759534331825e-01 -1.660138559705064409e-01 1.180415061678918853e-01
4.082667762830737845e-01 -4.366514749329986761e-02 -7.510347020540093510e-01
-3.592864941029019765e-01 -3.741021432663959589e-01 -8.465224405454441214e-01
3.077367371338324276e-01 -6.774729986810750226e-01 -4.363913236699096809e-01
-9.788711261617801807e-01 -4.611114100411038697e-02 -2.098176395080541268e-01
1.310848970837600047e-01 6.597984808569993254e-01 4.344079851924504410e-01
-6.032974499220244979e-01 -3.064638255224919061e-01 2.102760311475851962e-01
-2.249346349501106235e-01 5.500810779022412556e-01 1.441066298747654961e-01
2.677823171496926946e-01 4.438748065195026182e-01 1.005330675580248939e-01
-2.551325866120192631e-01 -6.538669688270040137e-01 -4.279124825697135925e-01
-9.711441771577682402e-01 2.147695983249228446e-01 9.874167361501087758e-02
4.133680498065670644e-02 -5.030212929119611820e-01 -1.403014004589825670e-01
-5.396883697398581203e-01 -4.936977808322666750e-01 -6.443607389572513222e-01
9.280564228711218888e-02 1.403941646758228856e-01 -4.696322545022381667e-01
-9.949978344073300285e-01 -3.664016453137806245e-02 -4.820683200019059561e-02
5.639221508337199928e-01 -2.372888146196432124e-01 5.228749685422078297e-01
4.579389354946790669e-01 -3.481475645682814424e-01 3.405631070709365105e-01
4.471252978592895298e-03 3.599006297042386948e-01 1.006641797617435635e-01
-1.661694628029372622e-01 4.719540250307446144e-02 8.458872514721761382e-01
-5.273832901404066353e-01 -4.574530758867159652e-01 -6.978756666914458506e-01
-3.082138600803563389e-01 2.905610605462710105e-01 -2.378292617251212271e-01
1.455069993449492893e-01 -1.249254894201983074e-01 8.155191461618443993e-02
8.399771807682205882e-01 -1.732955738834054404e-01 -4.363637312574380478e-01
8.456296227171614110e-02 -2.220066568883285324e-02 -1.312134742898249939e-01
-4.306442792898719785e-01 -5.837913568188752844e-01 -2.951682707066962119e-01
-4.568163392201394224e-01 -3.938319536589536263e-01 2.840302239240991358e-02
-1.443262952114388598e-01 6.351164505952666683e-01 2.877501028369853775e-01
-1.058637269926555879e-01 8.604529815960243466e-02 8.769847227668806644e-01
-6.067104247854613330e-01 -5.312958744194152816e-01 -4.188438973760399420e-01
1.263662913984920366e-01 -1.357491092273388211e-01 -8.820241605891386838e-01
2.123190005272276304e-01 5.206156879358969647e-01 1.825747804287337350e-01
-9.707488570225690783e-01 1.750803655287932747e-01 1.768327962053279356e-01
-1.116753593546331025e-01 3.340209120914684471e-01 6.267135885018586261e-02
6.778386910598054316e-01 -1.835433070252928678e-01 -6.339904930852198195e-01
-1.628876446467147354e-01 1.674292569403230124e-01 -5.731983300088707746e-03
-7.045159795996835950e-01 -3.708779401609278437e-01 4.485312794423303856e-02
-2.330565082767747376e-01 2.591290375343139329e-01 8.954945287233361251e-01
8.408624168547573774e-01 2.510746445694833073e-01 -4.117891225433058244e-02
-5.416566753410710922e-01 3.375155066415878591e-01 -3.515585177241453141e-01
-5.140874529808394655e-01 5.583283831030136923e-01 7.948671288433804827e-02
7.059374262959046131e-01 -4.186384203435313811e-01 -5.304989988452569749e-01
-2.313964450721902877e-01 -4.482586586742254298e-01 -1.085503421981089400e-01
-4.705053851095317152e-01 -2.398500527559102036e-01 3.287644058302452987e-01
-8.807398539714503261e-03 1.079813036633726214e-01 1.186261113432292152e-01
6.333927008615412024e-01 3.196217277056401240e-01 -1.469185458133576705e-01
-1.512116306668049581e-01 5.001022352129733811e-02 4.850509259146888047e-02
-5.029696745517608925e-01 -4.609681392428865432e-01 -6.481198269316873484e-02
-1.093680510017125129e-01 -8.935400746641626590e-02 -9.499974731798879746e-02
8.583928145191728198e-01 -1.836584468582292198e-02 4.375310210456966331e-01
8.186563266535880068e-01 -5.911254793323288473e-03 5.003606013949835063e-01
-5.202285836939686547e-02 -6.879296706214151902e-01 -4.782132597821833753e-01
-3.688710723449543927e-02 3.735523302625827213e-01 9.804273941181798624e-02
-9.926195898605640888e-01 8.822326286274308205e-03 6.643915498270905329e-02
-1.872831674589262585e-01 -2.234183827358428021e-01 -2.749838128745638044e-02
3.739761295837257943e-02 1.240242097583531822e-01 -3.779911407890328978e-01
4.248316423263413522e-01 -4.092822066317402530e-01 -7.833200313065629139e-01
-1.552307082278490680e-01 -5.742454636464593837e-02 -5.008801007316826537e-02
1.175771362758735450e-01 -5.133917602157840945e-03 8.598698772061061368e-02
-5.590919873641618520e-02 1.326094109128048981e-01 -3.666131431805393359e-01
4.536186021566600002e-01 4.189843302939847414e-01 2.020362791902679395e-02
1.144304426519862222e-01 -1.186553576884575578e-01 -3.161111259668852175e-02
-6.638797751721532414e-01 -2.800977557460010425e-01 2.427171401836359654e-01
1.639975389557564445e-01 -2.661569900915739528e-01 3.512130245650809529e-02
-2.118747244803703689e-01 1.836674532823944495e-01 -5.430152825636033187e-01
-1.733352295887148620e-01 4.095398313045202077e-01 5.668002705997379764e-02
5.632848023935247417e-01 5.234759291221959820e-01 4.684932791423063181e-01
4.643800488608348931e-02 5.763014653580681435e-01 2.363895709348066143e-01
-1.771359207913483225e-01 4.533225804198338649e-01 8.056427795380560752e-02
-2.753116070782245517e-01 2.392580425501798780e-01 -3.639157265171633071e-01
7.643880327864530089e-02 1.150032352953902215e-01 8.986584389553886609e-01
3.793873740310321208e-01 6.043152276750923813e-01 5.088307068738914252e-01
-6.213533431203080992e-01 -2.777738570088529937e-02 -7.108801507089540506e-01
1.030390953534990744e-01 4.193594342441469558e-01 1.190064169177175862e-01
-1.983847577571360987e-01 1.900783460981174677e-01 -3.058480590012779832e-01
-5.889364380274303423e-01 4.011666691322991474e-01 6.962595305147364355e-01
-8.789375587743425422e-01 2.588251029353353869e-02 3.869483743670564801e-01
3.475620858307701400e-01 -4.206540653231621851e-01 1.173009076966758518e-01
1.988959249779842231e-01 -3.372329772761733513e-01 -8.880086022423221426e-01
-6.208597336640160336e-01 -3.452496060543048806e-01 -7.000382765986994382e-01
1.193113797833231376e-01 6.661556077446014745e-01 4.717372940155636352e-01
-2.600674137506985839e-01 -1.681733482770083055e-01 1.941234072639925479e-01
6.130074739539241868e-01 2.417596678844740332e-01 -2.981268970152420872e-01
-8.845741749131543763e-01 3.759396869238277317e-01 8.293851196581063234e-02
8.568330243974677796e-01 2.559908295213739748e-01 1.795405900651490458e-02
-1.534374457855134932e-01 1.276734447586158894e-01 -6.697637272932785990e-01
-1.740502472218315860e-02 -6.195512994075732527e-01 -7.351007099713803283e-01
-3.210706099496676291e-01 -2.640404301399822962e-01 9.820275723109075927e-02
-3.297603912590748587e-01 2.411539044989922109e-01 -4.584594308328924783e-01
5.355729188911999561e-01 1.302192640051834382e-01 -5.129700411093685020e-01
5.680235287763267804e-01 3.591937010530322771e-01 -8.906340342719160086e-02
6.216828341980707578e-02 -4.552223135245635488e-01 -1.066411698378538497e-01
-4.883914327460061044e-01 -5.552181577102065502e-01 -5.941356537157116424e-01
6.859425833428877128e-01 -4.201845233323098783e-01 -5.563425680837854603e-01
-3.325725335811651195e-01 -5.837826164190594858e-01 -2.572828455778446433e-01
4.446010936666192070e-01 5.592826632232474893e-01 5.819426280448688482e-01
1.727928971773687594e-01 -4.392874004693813061e-01 -4.685438187076864519e-02
1.576004374688348350e-02 -5.101671262348516089e-01 -1.507902418817512746e-01
5.809845783484729465e-02 2.459959844815038654e-01 9.234658726483871982e-01
-4.518513629359680595e-01 -2.205723344822967391e-01 3.708849730297521519e-01
1.507210520249856467e-01 3.983647584545808862e-02 -6.187375415099666265e-02
5.817839908206793448e-02 1.061448678344554392e-01 -3.256442195734983169e-01
9.430868566813132015e-01 -2.242595098538928688e-01 -3.244709652394420218e-02
-2.004418379166563249e-02 6.148659778977777490e-02 -2.492729832243303634e-01
1.468889469086618049e-01 -6.577730719342067545e-01 -3.050756965454163305e-01
1.067513255881927942e-01 -2.472788253413247053e-02 -1.024095233582001663e-01
3.962512966297446759e-01 -3.229121119420466646e-01 3.584066081915530666e-01
3.812694386110188627e-01 -5.506350128145551803e-01 -5.580707789274901021e-02
3.613563436636453852e-01 -6.658891647198413866e-01 -3.720421114971489418e-01
-6.297094077105384879e-02 -3.311025614785355620e-01 -8.977280164418108277e-02
2.057823170672785917e-01 6.523664220413251114e-01 4.833274084603702003e-01
-6.863410023121082615e-01 -4.833254725493611459e-01 -2.873904804375530531e-01
-4.128060079019729156e-01 -2.248089146889411527e-01 3.341971294865431763e-01
4.394140369847782113e-02 6.757205411196871570e-01 5.346777146063269592e-01
-8.376496487919972145e-01 -2.595806414834281317e-01 1.146874855486842981e-01
-5.586281797041540154e-01 5.855010211445812462e-01 5.017814083200369257e-01
3.853066756490798883e-01 1.326112559180545915e-02 8.048206099953588710e-01
-8.723820725871593851e-01 2.001272651647377221e-01 -3.201826450955729264e-01
-7.986787567437775293e-01 -3.590738741959649816e-01 -4.340224275200600945e-01
-4.218504677562792682e-02 2.663516869442139612e-01 8.257508423228146488e-02
-8.260745178130716182e-01 -1.033721832423571858e-02 4.392329728520530940e-01
-1.071925182673788696e-01 -4.093496544496689343e-02 -1.163258528957550608e-01
-3.695183886995695999e-01 3.434489898394573748e-01 -2.216604729170959798e-01
1.252927308458625100e-01 -8.789562504473602544e-02 -1.961146689436994717e-02
-3.264974473197164440e-02 2.753865026891607615e-01 8.484018352672008378e-02
-3.545489875225242282e-01 -4.319387786489100045e-01 -8.217957393977212144e-01
-8.992499651341866185e-02 -1.399973377967272392e-01 4.031057730310034226e-01
1.523771927539517568e-01 -4.968914487550830233e-02 7.949747937303084377e-01
-3.449285684437879418e-01 9.649950945046739670e-02 -7.239873719896806614e-01
-1.719880705052961867e-01 -1.423836272218975407e-01 3.604052875010380630e-01
-5.076395449830940487e-01 -5.776837458801236114e-01 -3.739528496097311860e-01
4.080512954045292795e-02 -1.401455885107918409e-01 6.441906549160061335e-01
-1.920874290472069923e-01 3.226365506645707815e-02 8.308962245819970782e-01
5.208388083625400261e-02 -3.354833757988359144e-01 -7.043441966709934610e-02
7.011197524140850845e-01 -3.464769606273310765e-01 -5.860447414668105148e-01
1.455012928600068756e-01 1.434444356184259028e-01 -4.588549671565873567e-01
8.822219482041850913e-01 1.085640533464269086e-01 -1.977815016983326957e-01
-5.300383776387543877e-01 -5.692838169475162857e-01 -3.793874130040646997e-01
-6.974152104916024608e-02 1.410914194538731570e-01 9.279595622510845854e-02
3.926316480963558120e-01 5.748194784935781732e-01 2.969141185623347945e-01
7.037578448568854173e-01 -1.066815608396311232e-01 -5.910887605398345013e-01
-8.289723251067250276e-01 4.394423550660704336e-01 2.360698990309673118e-01
-6.093454237926841932e-01 5.541604520906114884e-01 1.059163724812421797e-01
-2.423218140368102735e-01 4.596139013859423250e-01 4.889473130578945309e-02
1.479589623197997417e-01 4.184308174098962801e-02 -7.525450311002545023e-01
6.582300252669947005e-01 -5.588925277615265363e-01 -2.409383937339849013e-01
-7.335442071888914617e-01 1.685161513972465719e-01 6.123954962370548039e-01
3.270623792791563234e-01 -4.165408066194403180e-01 1.036260931496747195e-01
-1.462771527778077563e-01 6.722096714579324506e-02 4.898512840505346577e-02
4.427019039175016935e-01 2.533296153772536252e-01 -2.679443664759557642e-01
3.003802953021211253e-01 -5.514282344700387473e-01 -7.498952285502146209e-01
-9.492578575425871801e-01 2.002309202820336809e-01 2.491090215104491690e-01
1.163110155708678706e-01 -4.154949011513022969e-03 -1.077487913395257790e-01
-3.894713354222774648e-01 1.847781514055650831e-01 -6.055813800361345978e-01
-2.091829292623650638e-01 4.308878687017771159e-02 8.344888341060850978e-01
-3.342757496984349874e-02 1.399115096430939009e-01 -5.898854721238097065e-01
-1.781675809826940016e-01 2.991995599115451765e-01 4.950939895963581659e-03
4.937889071923352163e-02 -3.755659099205990170e-01 -8.021090510309114574e-02
8.913052506657280771e-01 -2.150410767094437514e-01 2.270719910692176879e-01
-6.919990711373554815e-01 -3.992494762490311766e-01 -5.773477242067245330e-01
6.766382002890845848e-02 5.138676067669198377e-02 -2.249940919548771845e-01
4.490571620448303158e-01 1.772967492829397307e-01 -4.521062111584653320e-01
6.420883485882985520e-01 1.124205798763903696e-01 7.048493963375607185e-01
-7.939726112935938662e-01 -2.133828625447216354e-01 -5.692216181916244233e-01
1.782487889021541205e-01 6.088106505229159415e-01 6.958454287668406346e-01
2.710540673619089014e-01 1.657364989927005428e-01 -4.238730051864992299e-01
-1.904642410320534218e-01 1.500269473785227348e-01 8.878053698166010754e-01
-1.536273288183818142e-01 -1.091162291464747164e-01 2.709577982982208089e-01
2.264146520629768400e-01 5.691317655880928639e-01 2.432313160441102462e-01
-8.596645057787197786e-01 2.937433580972337310e-01 4.190012448066969264e-01
-8.798795626049862872e-02 1.532422028535673775e-02 -1.687482398757166324e-01
-5.419022745498049964e-01 3.292764216519739606e-01 7.578933009510221419e-01
-4.210261568007087063e-01 1.805177006662922745e-01 8.238947887090013467e-01
2.216968244609003880e-01 -6.763357301261715970e-02 -8.293786267310836458e-01
4.172111985725924233e-01 -2.432762622235259964e-01 5.327183826564330094e-01
-9.989147333095882431e-01 3.555111993087208683e-02 2.667016506342015369e-02
-5.724257990427195075e-01 5.417452641330839924e-01 5.770614659959997228e-01
6.485315093377743700e-01 -3.309675574351446659e-01 3.556097636614444224e-01
-2.209679782911815882e-01 -1.531617341804710763e-01 3.279350335585737852e-01
1.168807034279160662e-01 8.344237067947590791e-02 -2.400307788562845435e-01
4.600703984454104778e-01 -6.304886336725677998e-01 -2.548377066544934011e-01
3.461141485111794425e-01 3.107020405450915956e-01 8.601385050443590696e-01
-8.326811911095814700e-02 1.166070634685264541e-02 1.579287209824443705e-01
-5.935792148674854385e-01 -2.969594235140533556e-01 -7.429107984511216234e-01
7.831616522981359463e-01 -2.445283296244874782e-01 3.646279770608132909e-01
-2.336434842962665792e-01 1.830646196133275672e-01 -5.625224778497837086e-01
1.420138961774946862e-01 -5.089139093024155347e-01 -1.118606723178609125e-01
-7.570323222776339511e-01 -3.233121939080895180e-01 9.618234767104111294e-02
-2.096209767482168640e-01 -1.618254574926334954e-01 2.427831823390493027e-02
2.691324242158735225e-02 -2.470793595308316479e-02 1.913098152563833532e-01
-8.763248393722905538e-02 -5.791388338870914199e-01 -7.802107284777509699e-01
-6.370442842945308604e-01 -4.073367743161888099e-01 -6.384875159694313185e-01
-2.501458541246797118e-01 -1.736628012276266453e-01 1.095860691234974843e-01
-7.681626828938172002e-02 -2.211438991036455692e-01 -9.172855042391157010e-01
-5.662903876819550542e-01 5.206337259454634214e-01 6.142477496697066330e-01
3.048310939960450772e-01 3.636969893094870176e-01 1.341261739781680375e-02
-6.929795783025731737e-01 5.255493712715850751e-01 1.069739733957395661e-01
4.529022254033670536e-01 -2.447346513624643338e-01 5.319726233692257944e-01
4.893254863876919658e-02 4.520462265489695874e-01 8.762726165713667914e-01
5.632315879518023233e-02 2.961496148897606595e-01 8.858182089397012571e-02
7.813070593002596764e-01 2.020802499990675960e-01 -2.315125985230139793e-01
1.504369960646594409e-02 2.192648085443559547e-01 9.135148654528714440e-02
-1.165833928033459116e-01 -5.193715389035089558e-01 -1.713171985217376292e-01
8.998845309316069740e-02 6.030972371129189602e-01 7.345602666615096421e-01
-8.564472967736580511e-01 2.074004520616078151e-01 4.584683854398049485e-01
-1.474204753605891927e-01 -6.667324422335089151e-01 -4.062003343558118762e-01
-4.963413156920411934e-02 -6.836601154031622662e-02 -1.333635479941324142e-01
9.690090979180840947e-01 -6.224397786216231271e-02 -3.565892606075044685e-02
-6.754107592991642761e-01 2.231461151208137539e-01 6.698320542981349712e-01
-8.864097954427813120e-01 3.652033005124407095e-01 2.356712872608661968e-01
-1.426930638509367466e-01 -1.141845334398148282e-01 2.945172473443223304e-01
8.732417861689489857e-01 2.485621407119529835e-01 6.210811868734349844e-02
5.322573003390590474e-01 1.896486632392238858e-01 -4.160889080968155351e-01
-2.218412679976544122e-01 -2.822992122304827656e-01 -2.144642932839033872e-02
-3.695958089548515568e-01 5.373063927108274740e-01 6.974333344530872503e-02
3.485981356677587684e-01 2.910483164869527850e-01 8.631113837384428722e-01
6.687442603879131253e-01 1.977361527134878783e-01 -3.419587160031437589e-01
1.314463307611083986e-01 -4.507727527680168156e-01 -7.660585492469618174e-02
3.034448823035589271e-01 1.487251821044953404e-01 -5.165108691686025599e-01
-7.294693070904948451e-01 1.430583095454061697e-02 -6.148669981852828981e-01
-1.311478837902220473e-01 -1.427026681115726725e-01 5.739130200012892979e-01
-5.521782516406478769e-02 3.705200466523336789e-02 1.500584708228998865e-01
3.029009118308111440e-02 -5.980959026186839778e-02 2.242184269672088948e-01
1.546819273228461078e-01 -1.888548148379139424e-01 5.601951751114241790e-02
-5.274123665859593579e-01 2.044400080683643484e-01 -5.664760722875069598e-01
-6.388489382964417374e-01 -2.955875144685494726e-01 2.234222779670437253e-01
-6.867817315712552162e-01 -3.458138615203316113e-01 1.079872682950273610e-01
1.563093083396758787e-01 3.504037439127014042e-01 7.710210138360368282e-02
6.102382067749202443e-01 4.095790332713674653e-01 2.120867397155376533e-02
8.382297910065343582e-02 7.377958296401654348e-02 -7.212314165165194524e-01
7.570741507570515338e-01 -4.383682615638561653e-01 -4.172648590022236537e-01
4.402829140876643454e-01 -4.258983064116710349e-01 1.803817509759829685e-01
2.819545967597458236e-01 3.101295995055908250e-01 -2.049380519578463192e-02
1.349919352648768500e-01 -2.524208711841962050e-01 -9.046935976475545260e-01
-1.786387207416919587e-01 -4.586979044547481732e-02 6.566202424924538761e-02
1.436783013593508629e-01 -1.871062364112778820e-01 5.332086577004185868e-01
2.720087993554027792e-02 -5.942600927030423641e-01 -7.689501941573831933e-01
4.565077942768782648e-01 -4.680819346004470860e-02 7.458776359103103104e-01
-2.112200683741868867e-01 -5.700415657324333640e-01 -7.618752860623403400e-01
-8.077635903113776772e-01 -3.842011673909492275e-01 -3.186130214555916162e-01
1.778662529469716147e-01 -6.869494438754193411e-01 -5.361940262346280850e-01
-1.770023727464480334e-01 1.240358788526441519e-01 -1.158992738618975782e-01
5.506245555349475324e-02 3.090027665816290625e-01 9.049833586588017231e-02
-9.765281848181737168e-01 6.625040261769099548e-02 -1.999064184042623760e-01
1.172139268611812890e-01 6.639362957136848431e-01 5.620546061093193435e-01
-5.177273584043160515e-01 3.732805487268261446e-01 -2.789122941340964057e-01
2.465829073037950625e-01 -1.830116906828158085e-01 -8.694307788074161492e-01
9.286786823591702822e-01 -2.616730199007043511e-01 -9.617056222314288028e-02
-1.954249087644271410e-01 -3.149865936870847594e-01 -5.104507015741518300e-02
-1.378500986450230947e-01 -6.140559375750271887e-01 -2.779338405613885343e-01
5.101326274074993172e-01 -3.612492436909238713e-01 3.300595794954557238e-01
-2.839104378386831384e-01 -1.178044938849190509e-01 6.292766542548232644e-01
1.054035500019502442e-01 -4.975382191290205619e-02 1.396868113379437781e-01
4.279560258274510698e-01 3.581463027266179044e-01 -6.215155725841487594e-02
1.567122325977545472e-01 -6.466278130824678616e-01 -6.722042468167264140e-01
4.960134058999050577e-01 2.914274589817029137e-01 7.916705662140730571e-01
8.410500730410072068e-01 2.950385868404154510e-01 3.154106720512013795e-01
-2.566579120028351091e-01 -5.892377894294411611e-01 -2.547333930510083388e-01
7.764663500451493006e-01 -4.238879502089774043e-01 -3.973254346525568192e-01
6.386271861430321550e-01 -5.424231860089023805e-01 -4.475730458131333411e-01
-2.840813514561793540e-01 -1.852243427578689483e-01 2.243308322744191619e-01
9.155226849371722944e-03 -1.438467183093564486e-02 -1.735925616741815225e-01
8.763307553614484158e-02 1.571697176176477251e-02 8.483539447379541132e-01
2.001316666106176673e-02 -2.378452627942498898e-01 -7.828092790358420761e-02
-5.702037302108127204e-01 3.241540196068992130e-01 -3.761726556486879591e-01
6.423621483846769786e-01 1.485147058770825423e-01 -4.309812296649438990e-01
1.370024166354457951e-01 -7.376126213478296015e-03 -4.293988138084370298e-02
-2.832009084848116642e-01 -5.187759384201564572e-01 -1.627597729107150004e-01
7.623250501740000962e-01 -3.434396353433756266e-01 2.467054559328984431e-01
-5.983716013760331798e-01 -1.936358097900912068e-01 -7.567190966635584104e-01
2.074648473537714366e-01 1.363582065882569805e-01 -1.609509930193303573e-01
1.352408107553992045e-01 -1.854316052755441424e-01 5.306084387578212658e-01
6.628615142589737719e-01 -1.291363140211989058e-01 -6.353961241128951443e-01
6.575373619509095047e-01 2.378415247115875097e-01 -2.836761513349614350e-01
4.154233467922102130e-01 4.509033527815310416e-01 7.595247296603958587e-01
-7.091056346986790437e-01 2.952297212099648238e-01 6.288083134686340836e-01
9.665638995328620572e-03 -5.167654004743011363e-03 -8.220262639762782042e-01
-1.531561713722766060e-01 -1.416565618489525891e-01 5.755376398148682737e-01
-2.756024314897668748e-01 1.966854875657914059e-02 8.016214239898077354e-01
7.106775935614030593e-02 -2.154550707849502145e-02 1.593771349858799091e-01
-3.156464292973112373e-01 1.925606229004391823e-01 -5.778944702408560508e-01
-6.497178480327053807e-01 -5.028066936029577105e-01 -4.294262103972746325e-01
-6.123161984820453541e-02 2.968919274299153602e-02 -7.964382616744010157e-01
-1.677782348852686622e-01 -6.838913506748686699e-02 1.624917185589124513e-01
-5.450751379769345206e-01 3.329382205533421568e-01 -3.602532364553788780e-01
1.860818673214492680e-01 5.678709719200049078e-01 2.383903767209901436e-01
-4.120787672057886486e-02 -5.880337458566409214e-02 7.716904962000789014e-01
-2.361712953592455880e-02 4.092056950277807581e-01 1.118818912231020479e-01
4.091669766649991269e-02 8.162787206176135013e-02 8.854575070063758213e-01
2.732355345579636219e-01 -4.322833720484991482e-01 3.414482015287684941e-02
-2.830232543074275853e-01 -1.914264544726432815e-01 1.778283884420949201e-01
2.415576968731801000e-01 5.034030393209720788e-01 1.623301391554974327e-01
1.957564778707091280e-01 -3.982180701523619915e-01 -3.582902729628466374e-03
4.238727264179549259e-01 -3.942751720445910601e-01 2.288107446832568781e-01
-5.020675127427343121e-01 5.138101673234960476e-01 6.788436863954552258e-01
6.449919937251766822e-01 2.696821976254317743e-01 -2.344086439951438561e-01
-2.665748043245741439e-01 -1.474330237289677714e-01 -8.840341075381168423e-01
-9.368723904015770210e-02 1.010431519485318896e-01 -2.642215127975325872e-01
-1.525099554227815901e-01 -1.375857217103035844e-02 -6.619889887971666664e-02
2.971365392074639539e-02 2.756216471588750563e-02 -2.096749906707450206e-01
5.460418754318155932e-01 -6.128789689513138850e-01 -3.648373688308915175e-01
-2.545982806263417109e-01 -2.742157790811466378e-01 1.054455531928680245e-02
7.792650666105180313e-02 1.585581038508191917e-02 1.282701530766431341e-01
4.281455781860661614e-02 1.318849861169877347e-01 -5.905530023906268022e-01
-7.693794111989036427e-03 1.627344537969726279e-01 1.010456357698754498e-01
-9.036658478748409440e-01 1.663784299672441125e-01 -3.026135402161426180e-01
-1.370189485103036342e-01 -6.046433271447896329e-01 -7.387154781703036965e-01
-5.059007885509267943e-01 -4.604479796933839686e-01 -7.126587965189409291e-01
-7.208278693405825166e-01 3.867316648527243106e-01 -2.142324677332268223e-01
-5.831669843448872292e-01 5.999639511374107448e-01 3.046556121205437617e-01
2.684069630576995658e-01 9.648645367323075567e-03 -7.578921465412282732e-01
-3.223266754319287219e-01 2.880752149473944645e-01 -2.794437722167107951e-01
-1.989157485936086378e-01 -2.954837086850004013e-01 -4.195319840577428627e-02
-8.687615589976861730e-02 -1.462286983906400939e-01 5.660745913352214220e-01
1.012074114455176199e-01 6.596647404098836542e-01 4.139468432785557428e-01
1.864952126583273861e-01 3.413391433529906482e-01 6.095054621214330420e-02
2.863580201195951580e-01 5.922503788466743080e-01 2.950312108583914572e-01
-2.351735666206359321e-01 1.993875839117069393e-01 -5.023976881496434732e-01
-7.996970666666294303e-01 -3.947652200262453670e-01 -2.992354373071224316e-01
-1.456741934679922079e-01 6.759499350665010287e-02 -1.428652338220782747e-01
-2.103069702843820277e-01 -2.716081409129335045e-01 -2.538381804617880974e-02
-8.862530991572593608e-01 3.755480524443453039e-01 1.767955597886739505e-01
2.780316941532594011e-01 5.375287599933034066e-01 2.010728312634012804e-01
-9.535069143544846471e-01 -1.661821037685619618e-01 -2.517501416920519750e-02
-8.490154835608254569e-01 -3.377134801766071281e-01 -1.391460243926188611e-01
1.564982696149158359e-01 -1.577892213569085378e-01 1.136713123125996788e-01
1.043672280632526594e-01 -5.877072890944835121e-02 1.499171349847764900e-01
-1.777459421281497864e-01 -4.317558002481227536e-02 7.667729163907128775e-01
1.567928662901018066e-01 5.591991813770555431e-02 -5.500357359326931567e-02
9.557396990975237649e-01 -1.808511003601304679e-01 -1.876003574123784323e-02
1.295381441175543213e-01 -6.265048983684241846e-02 -1.904067572239518530e-02
6.950271108802140961e-03 -3.472080566933013479e-01 -9.126069570677940446e-01
3.068294944578222050e-01 1.696067679702967235e-01 -4.388759707465165749e-01
-1.620959556171530092e-01 3.153547228881334059e-03 5.932107627388903681e-02
3.166060511464537930e-01 -4.736732998415758011e-01 2.059497150369105078e-02
-1.778415730808042550e-01 1.308403641534300332e-01 -1.379287874039214490e-01
-4.944758520939698809e-01 -3.540303047262983727e-01 1.050197453661667335e-01
-3.292063881031522254e-01 3.180924070064157783e-01 -2.125017990361751374e-01
-6.733334691741205136e-01 5.391702360203751848e-02 6.284556853961961176e-01
-1.239357063374052319e-02 4.075359900461996698e-01 1.129979767850186889e-01
-1.042005643197555093e-01 4.496972448606995076e-01 8.750327102954054137e-01
-8.780170739091985865e-02 7.119551865268182456e-02 -2.261131712604682320e-01
-9.286834961380906195e-02 2.914676265031569957e-01 6.510326173154938612e-02
-8.604534739592926140e-01 -3.040541912320270379e-01 -4.512064684075174636e-02
7.295638580115949567e-01 -3.060773186040292027e-01 -5.685925178823655335e-01
-6.105384933615292109e-01 3.220472994010963319e-01 -3.740650859533927730e-01
2.678779612644093255e-01 -6.637532250235254061e-01 -5.803684260875378031e-01
-6.557858104275559041e-01 4.876092789152558504e-01 -4.357532208802557261e-02
3.494816185026766719e-01 5.956572501304049361e-01 5.999035451968756094e-01
7.119085311470861877e-01 -5.211574835737944333e-01 -1.656299760708747626e-01
4.669121901853779955e-01 -3.346759408135066560e-01 3.705318669506725282e-01
1.409017385123127741e-01 -3.454187861271555415e-01 -8.986208669371111846e-01
-6.232388474297765324e-01 4.767140643600812355e-01 -8.264930682231667880e-02
6.894302823180533668e-01 -3.648025949212341801e-01 -5.903991848492383676e-01
5.985718094134481193e-01 5.625427332254639284e-02 7.241544673751000305e-01
-5.788794775229118006e-01 4.169987949693886864e-01 -2.069296341588305055e-01
7.371037498204739968e-01 3.898930263947731345e-01 4.355778828068287978e-01
5.714054818930280888e-01 -4.790616534665990689e-01 1.081539193090936546e-01
-4.780436923808556449e-01 -4.169739215616570793e-01 -7.659079869060608781e-01
6.558951600240902069e-01 3.715606223620339654e-01 -3.206672376397106533e-02
8.663007081033460288e-01 2.362156323101533284e-01 3.448287501573021330e-01
1.762580833044417872e-01 4.437443996197291685e-01 1.218542691624582008e-01
1.214492295592464605e-01 1.403356809347957590e-01 5.418248624480350578e-02
-1.940479949977044205e-01 -3.311125110711660158e-01 -5.786138505860202036e-02
3.808290493829773471e-01 -4.679680501165138784e-01 7.227766039801671039e-02
4.154029798094950876e-01 -5.534075209567481668e-01 -5.092357021962875402e-02
7.341772741061853846e-01 2.592504217284870467e-03 5.992425401580411259e-01
7.457638159136700806e-02 6.329024311445404782e-01 3.280344524405515716e-01
8.832500078714555780e-01 -8.669730076395466833e-02 -3.454121103643711388e-01
4.586306281063206591e-01 2.373603923987627762e-01 -3.133149954080857169e-01
-5.533605190114748718e-01 8.464849718066823347e-02 -6.809625523739433195e-01
3.153468701856151912e-01 4.918799748208146916e-01 1.410212738258604936e-01
-6.294273963054968224e-01 2.022363068938843322e-01 -5.346339764998103705e-01
-4.072098804897335278e-02 3.007035530256191302e-01 9.214767575200211169e-01
3.072834189891919809e-01 -5.253626448336189414e-01 -4.980614814538739804e-02
-9.110838872714990821e-02 -7.110195893749536589e-02 2.457720658777738654e-01
1.560775203484482399e-01 2.511768595465858622e-01 4.332321271072603341e-02
2.033289239418969718e-01 -2.227801778243556352e-01 4.037793983326564695e-01
6.349620697705669059e-01 -5.520836346162699693e-01 -1.219075893675941602e-01
-1.713054291665336848e-01 -8.466342218834635447e-02 7.126579022255383755e-01
-1.775481876320555430e-01 -4.105782663044315467e-02 3.651341475167562550e-02
-8.356540377170333933e-01 4.356669394669480666e-01 1.848345918815206268e-01
-6.418117112647384048e-02 -1.458153230012384227e-01 4.312945867429293090e-01
1.337849966249519684e-01 -6.731320447399473661e-01 -3.489620585148379139e-01
-9.781531230639308738e-01 1.608167134092316208e-01 -8.809444001326451057e-02
-1.548985356063270480e-01 -5.058996936800290722e-01 -1.605258430687493687e-01
2.928471688227438641e-01 -5.178212967082148621e-01 -4.770641273184460240e-02
-8.932280326166178730e-01 -2.798418463090840969e-01 -9.821903135679994901e-02
3.962517256380805875e-01 1.996737906383186933e-01 -3.856352982824384212e-01
-7.295611291612780214e-02 1.293437241427766553e-02 -1.769918908666999469e-01
1.257121383491884292e-01 -6.664201485709007056e-01 -3.303440481863413325e-01
1.917692752960835356e-01 2.177997778712460197e-01 4.372422752875848953e-04
1.125395411480286101e-01 -1.517275336167276945e-01 -8.897082020971295302e-01
3.218818309865810467e-02 2.374825099952083962e-02 1.530896815832977209e-01
-8.129243992941921348e-01 2.016786339784437387e-01 5.230071735673850197e-01
1.555441144547932419e-01 -1.595488393543807448e-01 9.317219719000380262e-02
2.131664495295740314e-01 -2.280929031793117456e-01 -8.862129772633595692e-01
-6.698196427874674175e-01 -2.877585306520555677e-02 -6.790895357877648753e-01
-9.855591314621581223e-01 2.839494344543928156e-02 -1.789982524511150863e-01
7.472209550923535060e-02 1.290445158229287792e-01 -5.929277166986400838e-01
-8.613702343474231027e-01 4.074789237619619309e-01 1.391991808121037788e-01
-7.531695724971652905e-02 -1.024824109561291163e-01 3.033462245298713666e-01
7.826059289638789829e-02 4.873689412299408996e-01 1.592020516252004025e-01
2.005098122498497615e-01 5.085520863969699157e-01 1.711105578626127555e-01
2.540593227333283813e-02 1.238348215431365751e-01 1.093512536579142880e-01
-2.143014338972682176e-01 -1.183115804355268363e-01 1.240685432701264940e-01
-2.914381641165861292e-01 2.453757520173800444e-01 8.794013732452355958e-01
-5.626622029652093016e-01 -5.552857822243325581e-01 -4.106376236437030425e-01
1.550335218560209005e-01 5.789392428428694060e-02 -1.014789265195835816e-01
1.613790278796495559e-01 -2.021273775381794979e-01 3.928924404283642424e-01
-9.189483469868995336e-01 2.095451590515771956e-02 3.126871961896862118e-01
-5.697537676265335138e-01 -5.284584922750727998e-01 -5.376755611918934141e-01
-7.812858571894440995e-01 2.837587139091554689e-01 -3.298640274133262662e-01
-9.491248836893604324e-01 2.053846697785509101e-01 -1.422979142328320012e-01
-9.413629725407839099e-02 -9.951025238687506713e-02 -1.015845148271626169e-01
7.356580433172460465e-01 -3.623024624969597429e-01 2.425969009232361584e-01
6.147347183800225823e-01 4.522324227705694089e-01 1.233498549357131130e-01
3.196561684227605671e-01 5.879451317252497589e-01 2.963044358037628667e-01
-4.869741506059969277e-02 -1.167351758003686985e-01 6.773473384001816866e-01
-9.778170045668417298e-01 1.956835534259811771e-01 7.766333240248177172e-02
-1.607746414589399098e-01 -6.394591268091103231e-01 -3.300781316097813889e-01
3.183116990062576090e-01 -6.756221625976611689e-01 -4.205647228987797193e-01
1.135919616146826155e-01 -7.058054231028880465e-02 -5.520644382424905183e-02
-1.594138284464907129e-01 8.871420030956611580e-02 8.700023481044489859e-01
-2.780554398613625522e-01 -1.042682013195208868e-01 6.567693206511072690e-01
7.847527444850969092e-01 -3.956675995917054434e-01 1.147863234381186759e-01
-2.854485848189123876e-01 1.604570704400734849e-01 -6.346054530368282487e-01
9.436364687741004564e-01 -2.095055645481991302e-01 -1.224997239763647161e-01
-2.241349978290514411e-01 -2.166537342226918794e-01 1.308302729990858636e-02
3.019852307775556244e-01 5.060899231952850075e-01 1.596694231346051096e-01
-7.626008906955918099e-02 -6.819014198344879318e-01 -5.638192111036237630e-01
-7.255488608839368858e-01 1.916161693014760137e-01 -4.881200874347199070e-01
-5.888776423525081405e-02 2.367165642808565992e-03 -1.757580804133951902e-01
-3.757966731312777781e-02 -3.798094967380720444e-02 -1.538890385947655759e-01
5.049183175874397689e-01 -4.143809341719034700e-01 2.288615166840253234e-01
-9.270183588835387289e-02 2.546684529945266173e-01 6.326516988249562823e-02
-9.058312866711959455e-01 -4.094072002643672076e-02 2.948444133712674331e-01
-3.590021033686179724e-02 -7.492422674397863913e-02 2.615895388768265106e-01
-1.000000000000000000e+00 6.005858700058479965e-02 1.131767029372665427e-02
8.730203443513834261e-02 4.146834680894361247e-01 1.183230278051083939e-01
-5.104282598259244352e-01 3.470130674581718977e-01 -3.272155296493234888e-01
-6.188499275089253127e-01 5.694864031046696917e-01 4.402420436267373560e-01
-1.145421527556860081e-01 1.658855387159877681e-01 5.666119585745480608e-02
-9.090832403688129393e-01 -1.854356569134261168e-01 -3.698106675910098340e-01
6.856180019553200777e-01 -3.136478241305021286e-02 -5.713700358516584643e-01
1.670787917021056557e-01 -2.025169384977243692e-01 3.473310905332691600e-01
4.707349628832379063e-01 2.838709876022629253e-01 -2.150480267423978686e-01
4.426101615751583673e-01 4.782329377294439188e-01 1.133909111269336273e-01
4.068414621210921234e-01 -6.573272154615364959e-01 -3.765211621886995763e-01
-1.838419207790684407e-01 -7.465560691635436674e-02 7.252665823555497493e-01
-1.912131076617817338e-01 -7.963716174581864093e-02 1.044613943839752396e-01
-3.740022475410278435e-01 4.140625384108141405e-01 -1.052664823826730128e-01
5.009992968003306596e-02 1.391474030831703346e-01 -5.425105061376279680e-01
-2.033024401144762072e-01 -1.567261412655214514e-01 4.310949685832048406e-01
-3.268452868773024655e-01 -2.981377857737482762e-01 6.146210884722547174e-02
-8.565008530172623091e-01 2.621957295136118637e-01 -2.664986910430983125e-01
5.869036184345196444e-02 -7.668661991808124745e-02 -1.121088408954079851e-01
2.200866371940015109e-01 2.946699676931512427e-02 8.483402271528739380e-01
-1.001485208200614679e-01 4.892828849689082049e-01 1.340428484188928016e-01
-6.719892543078263003e-01 3.829252721126763515e-01 6.301095754024849116e-01
-1.481611315661382211e-01 2.399129866400033784e-01 2.116132902109805689e-02
-1.737680111712306685e-01 1.234740520002315101e-01 -4.995142114740260680e-02
3.310678045569090955e-01 -4.171790310232934007e-01 1.066458601138011025e-01
-1.211250475593474672e-02 -1.572605558871178755e-01 5.137215266498094124e-01
-1.798203159996303591e-01 4.672216826142724377e-01 8.868672028154525599e-02
-4.160229764119934281e-01 -4.821980279893875454e-01 -7.552730881083774550e-01
-1.860763606268883985e-01 -6.521924729885562877e-02 7.031952485288173182e-02
2.257703707309406949e-01 -2.341790853882075585e-01 4.008059127320388604e-01
4.313184906760811899e-01 -5.542528712418468562e-01 -6.717760198311608644e-01
-1.020818176267247746e-01 5.545086091969401165e-01 1.868884683468866048e-01
9.506226835067426162e-01 9.468007879096913826e-02 6.102756002807929736e-02
5.695229741035348070e-01 -1.356320679860864575e-01 6.306530795206256590e-01
-1.523779630287924458e-01 2.113786492387874361e-02 -8.385573542210816855e-02
3.330220213338283552e-01 -6.299850287231536505e-01 -2.183970600908792248e-01
-1.655006879408389975e-01 2.880456107394457343e-01 1.375096843095205239e-02
-1.807210628865535962e-01 -8.421563489329106367e-02 1.663144622270520123e-01
-9.552816270389541398e-01 3.554019188280952563e-02 2.347816164051928500e-01
-4.369620070796630812e-02 -3.855414863465750352e-01 -1.012845567585593104e-01
7.516860934488763801e-01 3.977569596512763872e-01 3.493983849263010977e-01
-4.073628162332904590e-01 -1.544598941407535897e-01 5.330402486632427328e-01
4.640727991309254730e-01 -6.220062859726448456e-01 -2.217558614123709138e-01
1.317520136963421518e-01 -4.336360644800699160e-02 -2.452339358767810160e-02
-1.200554562439249823e-01 -1.652285673150109824e-02 1.575502292254215286e-01
-9.878080647989389007e-01 1.562135541017139681e-02 1.020207879931126910e-01
-3.599782370644080687e-02 6.537337509232982180e-01 3.503855969406981519e-01
7.620916382343524420e-01 1.693239685776700976e-01 -3.019901546486779553e-01
-1.873903242960156257e-01 -1.525841814404896857e-01 4.077320143419189691e-01
7.612526368486176309e-02 1.405242103160190548e-01 -5.056694577964245818e-01
-4.432827172716425346e-01 3.349471692158186853e-01 -3.181981031249987435e-01
8.528946002483915878e-01 -1.063418333442318620e-01 -4.058264254554265205e-01
-1.140576357650258943e-01 6.732050385490274680e-01 3.968919935441348468e-01
-5.678954400483887666e-01 5.991834125649621035e-01 4.297754819498794676e-01
-1.534962343803761842e-01 -5.171971079669489546e-01 -8.271434511178631377e-01
1.287882866247917479e-01 6.098949674305409463e-02 -1.811970537725822172e-01
1.852072690899825014e-01 4.077317535096231654e-03 8.364347782649037555e-01
-1.434193401177826233e-01 1.014082478659434766e-01 -1.948967353454957308e-01
6.718162215962558692e-01 4.002874603038115153e-01 4.610458248068424747e-02
5.527175386042005867e-01 5.128657582075439869e-01 2.397018622686985512e-01
-4.393462247672721976e-02 6.827679443923430069e-01 4.943989517541858558e-01
2.843339098806451082e-01 4.810857491245293938e-01 1.332600920779317133e-01
4.138016450027770521e-02 4.395107402316668077e-01 1.308623608362713409e-01
-5.036682759600519255e-01 7.390321540137283207e-02 7.474432743079505448e-01
-7.471122100393501331e-01 3.288922400712669392e-01 -2.935304366315589220e-01
5.660001264177869640e-01 1.112478519179717629e-01 -5.245975548548117429e-01
3.119787095458819159e-01 -2.237028484536471573e-01 5.445062081224059103e-01
-6.632434999546927834e-01 3.622036706646276083e-01 6.498040733904768551e-01
-8.958871774916494779e-01 4.213300128822803498e-02 -4.062305486656820341e-01
-1.167490332717585899e-01 6.112868629240822971e-01 7.327791330916181289e-01
1.892848066830850606e-01 -2.313251701030765162e-01 1.236458282274001952e-01
-6.386485758346086006e-02 1.539361317398054707e-01 -4.689986432798993188e-01
1.306179187649040285e-01 -2.669580297188474047e-02 -4.653483830465773852e-02
-5.835829274296816874e-04 1.362399939922114556e-01 9.055271602484249449e-01
1.477843753269788840e-01 -1.370383407877706072e-01 1.318702260140330873e-01
5.423132075302961042e-01 -3.850050150536396543e-01 -7.180215641323229869e-01
5.213737501010907716e-01 5.430547297550055719e-01 3.200448430541373845e-01
8.538180129449974842e-01 2.902687529579970893e-01 2.437341454330451129e-01
5.725104227254365075e-01 -2.728404725775868678e-01 4.716790303181350175e-01
1.120762890558785196e-02 3.163146798454460895e-01 9.309714765132696968e-02
-4.126583017509267703e-01 1.847430464991831056e-01 -6.062306380836233188e-01
-4.321962307810015558e-01 -5.503206706324647035e-01 -6.628697707138727635e-01
3.802496215761719256e-01 -5.100930796526331745e-01 -7.473037165538461979e-01
3.572645931376486894e-01 -2.092861898942105781e-01 -8.374228417036996275e-01
-7.249022163081062509e-01 5.260954979752594518e-01 2.723848590070625519e-01
9.900328566684393761e-02 -3.031408852302161505e-01 -4.067315509229206538e-02
-1.692165170810327746e-01 9.641881394494582203e-02 -9.835990933695731853e-02
-2.108610129909233855e-01 -1.409832952317401911e-01 2.814018263274774556e-01
1.196129513390865318e-01 4.874155311949073810e-01 1.585396918009295830e-01
-7.691328798051840776e-01 -3.602993108327858240e-01 -1.715933551242363386e-03
-1.159167200784026741e-01 1.635719355153505694e-01 -4.223898176239750946e-01
-9.169060351511708618e-01 1.833744369844433619e-01 3.470624329759880444e-01
-6.284055320375793174e-01 -1.752968827532546681e-01 4.357929912861099875e-01
2.870564289510503519e-02 5.616631810691438131e-01 2.180807529534869449e-01
-1.459286820224957315e-01 -1.410149110536513262e-01 3.813089376057952062e-01
1.052988023925180150e-01 -2.476790926235339363e-01 -2.958761205075810183e-02
1.751339679814495343e-01 1.781103623205603781e-01 1.570376302227626452e-03
-7.610007782494297990e-01 -3.465742664324187872e-01 -5.298182912347136897e-01
5.808619556209640988e-01 5.035129133574496318e-01 5.046510540384729904e-01
4.515875809503420296e-02 -1.379814542105911868e-01 6.514161802216745789e-01
4.720632164499340422e-01 8.384827062073060833e-02 -6.031849753014354443e-01
9.066874491576540351e-02 -6.522958905919117034e-02 -9.184396851325923872e-02
1.800024763620919899e-01 -2.030285269183120522e-01 1.565795119020471915e-01
-3.548991057430846835e-02 3.163102438973428715e-02 -7.922606703089408731e-01
8.943522311403095948e-01 2.100062976874922105e-01 3.190292920693577755e-02
-6.302976352109851410e-01 3.652770013275435934e-01 6.788291224970635085e-01
-8.446329568780185371e-01 1.031149794270399406e-01 4.692193056374356352e-01
3.604823373279779641e-01 3.123749369109217189e-01 8.541294059891072488e-01
2.399973432594519895e-01 -5.010458140395517290e-01 -5.779751625087045652e-02
-1.249661068702142275e-01 7.364470193350414196e-02 -1.873209083708677058e-01
-3.139659325189134709e-01 3.176066879052848457e-01 -1.847982309249432964e-01
-7.615158189366779545e-03 1.292509550973671706e-01 -3.857652699063516821e-01
-2.051745817506415437e-01 -2.085576105383750989e-01 -5.212625423601060723e-03
-1.590580698437528973e-01 3.733497268081637510e-01 4.813524457190038880e-02
-1.353655886234197414e-01 2.285264089557475786e-01 3.270215757381209759e-02
6.578897844034415909e-01 4.480300983348250998e-01 4.900962745931993214e-01
2.480261843770623642e-01 -5.563023909683663115e-01 -1.153087559001216428e-01
4.946651298045605105e-01 -3.426937526775458015e-02 -7.035708925825296944e-01
