3.731179402232516762e-01 6.942627232555075023e-02 3.920614476749371136e-01
-1.769154438824977471e-01 -1.703400315930235498e-01 -6.537830680680605244e-01
-6.156858604410221369e-01 -2.534751105539269633e-01 2.163222049471807407e-01
-1.296515638345517030e-01 -3.663993317045791120e-01 -1.079430655874256094e-02
4.376535902908857412e-01 -4.988095093351058162e-01 -7.099852981767145188e-01
1.044679898207004076e-01 -7.443090917042314292e-01 6.660720878095887088e-01
-2.236541339963258046e-01 -6.880760915688304002e-02 -7.045974994562974325e-02
-5.583852974502094835e-01 -2.290841267155982464e-01 1.229204589485167892e-01
-3.513420888755402344e-02 -3.729194752998140072e-01 -3.929844399941720412e-01
3.765301653550649497e-01 2.774452171997739969e-01 -1.001997495153475332e-01
2.482766669481508426e-01 -4.633342588613453827e-01 -7.191263192399842685e-01
-6.747616146665368353e-01 -1.471093526214279912e-01 6.866608147442502252e-01
5.126199369301613629e-02 5.966596571873614696e-01 5.474869749243409245e-02
-1.777045449481705619e-01 -3.189080969990709669e-01 2.559026155763128793e-02
-6.901490092898669992e-01 -7.672743165034855151e-02 7.032526098763712818e-01
7.656675378459819326e-02 4.841947724067027087e-02 -5.824354226042748744e-02
-3.573313473051759614e-01 8.373486206542255506e-01 1.315946682287432445e-01
6.969108335698641354e-02 2.634899326282779120e-01 2.049380483839575440e-01
6.125865809350236058e-01 -8.768147178211500858e-02 4.001078102137584636e-01
-6.203899607911036451e-01 3.048308654615485835e-01 7.420734547360118283e-01
6.671511084657351376e-02 2.417503444218244840e-02 -9.781955350993036813e-01
-5.249668392581372522e-01 -1.875795444394252609e-01 5.192392980685236331e-02
8.122386346633958532e-01 2.675225650886151659e-03 -1.262396466331774936e-01
7.112677252612310819e-02 2.572533556321656700e-01 4.749249605192844975e-02
5.464262821726170172e-01 -9.480367764354481752e-02 -8.865575081220689047e-01
1.592773549212977147e-01 8.900877769086185110e-02 1.864104663925358896e-01
4.582205120583425773e-01 -7.235653261477473785e-01 -4.162529122303853524e-01
-3.319090920217476759e-01 -6.959623998544525736e-02 -2.486950656716781227e-01
-5.196677543275690647e-01 -4.044073902548412369e-01 3.220303058727886358e-01
6.032701863692991884e-01 1.228364585915936030e-01 -1.970458092940780351e-02
4.784225985694529615e-01 -1.080759648313666665e-01 6.309804481152688771e-01
4.222381988946927178e-01 3.097613916913466992e-01 -1.381117588992133716e-01
7.521966923011755846e-01 -6.854820488539469236e-01 -2.015337122653601265e-01
-2.322283014411891111e-01 -4.447236094612989077e-01 8.770554610739265955e-02
-2.020046373476136192e-01 -1.661646235522608039e-01 -5.872798361487764351e-01
8.968142648656586280e-01 -4.380154299349486302e-01 -2.081391365617670797e-01
-5.045707694724960168e-01 6.608977386528573916e-01 -6.092181430435149592e-01
-2.423594412726589875e-01 8.100056721074737620e-01 1.409637053088990954e-01
-8.443343960452039942e-01 1.371280088605043301e-01 4.708866408556745542e-01
-7.330309660891923818e-01 7.741566746733367921e-02 6.828281350213804002e-01
5.995880577798800015e-01 9.213109251301970781e-02 3.354304575877838784e-02
8.429769767431449790e-01 -2.153591853673870460e-01 1.215868174833637239e-01
-4.743091673062148073e-01 -1.275880213488755355e-01 -4.502211535219957650e-02
-2.229105741495125137e-01 8.820895901171830200e-01 -3.209233976042500380e-01
5.815736792330196414e-02 1.196430344869333501e-01 -3.848299536992435405e-02
-2.419669743465946085e-02 5.944838509415495409e-01 2.159250987967197000e-01
9.322393185364827306e-02 2.589753721600268066e-01 1.266665314431569649e-02
-2.662833246227566675e-01 7.525760003445776392e-02 9.437107756470263231e-01
-5.227068660194066768e-02 -7.017749104479441280e-02 3.134491802860273763e-02
-8.188585055648002209e-01 2.997741455505072983e-01 5.129564057328014348e-01
-8.764830058524074596e-01 3.803612767242159354e-01 3.033198236722865482e-01
-1.039641163971505161e-01 2.738644965012557164e-01 -9.628081864862979566e-01
5.028122986315777254e-01 -3.952142833261441668e-01 7.125540906220745319e-01
8.281743414669368031e-01 -5.354218874206402301e-01 1.831072747319384408e-01
-7.427485893184108956e-02 -1.743992077418011211e-01 -2.298454554101965752e-01
5.780090044583495734e-01 -6.130367877852471725e-02 -8.715277783003048118e-01
-1.807572460006183837e-02 -1.652531247516439983e-01 -1.022084100672399909e-01
8.081669892007048439e-02 7.749060434126239794e-02 1.352308124719183435e-01
-7.109270086634519314e-01 -2.115726446996695209e-01 3.640813395805880259e-01
1.403021791549511066e-01 1.334268046057079105e-01 -4.315200109625833003e-02
1.565831380489124680e-01 -8.424488907379767966e-01 6.823011736345666045e-02
7.973428098237631545e-01 -2.481152027000322891e-01 2.588000437725262448e-01
1.272970648721040605e-02 4.381001669950132515e-02 -7.141633307809187869e-02
-3.690503325548236124e-01 4.672155274829814520e-02 -7.072929227978036471e-01
4.940283237769931002e-02 1.964655593548165768e-01 1.218514282582950220e-01
4.077541253600306392e-01 -6.057913940112600315e-01 7.088069560404323122e-01
-1.367412518883066308e-01 -7.802517441143409782e-02 5.512119659233367767e-03
-5.151920861592611534e-01 2.809918391317719477e-01 -6.982242989723361770e-01
6.077125029651868626e-01 -5.110105114520286929e-01 -6.401409060218575808e-01
-3.344214246485369690e-01 -1.037386049204171712e-01 -7.595142287855596863e-02
-3.398868536166048671e-01 8.727678222188871571e-01 -1.125396247432316164e-02
-6.548631573328144162e-01 -2.294961995287488343e-01 6.461959728787914914e-01
-1.922824145049107855e-02 -9.439244136758682957e-02 1.704252144372033970e-02
-4.250598953540459801e-01 7.411408961183021393e-01 -5.893682030456380838e-01
1.029879147976102000e-01 1.081307611033114624e-01 -4.747853738816092128e-02
-4.780734331715066898e-01 1.299165490702517411e-01 8.802485282847027914e-01
-2.622917636375842604e-02 3.992672240789434807e-02 9.264720909546547700e-01
-4.305216470476450064e-03 -2.792352663867349039e-01 -7.435635004105815016e-01
6.123594319871337177e-01 -4.271615153812848009e-02 3.124213374351217376e-01
4.911704922831318654e-01 -2.074936800927961733e-01 -8.825513194692775620e-01
-1.679380354096310091e-01 -3.311560973311387102e-01 2.014554460890723847e-02
2.463942516875752553e-01 -4.038509067571884881e-01 8.749557716547881059e-01
-4.440646698330286309e-03 -1.227836481050696982e-01 -2.382803184871885860e-02
9.500792120937628926e-02 7.741759960452469780e-02 1.430518112704305123e-01
-7.411494174811741886e-02 -4.021149122527061803e-01 -8.942958111737220328e-02
-8.127643981297276443e-02 4.392089849971375637e-01 6.162911034239534347e-01
-5.492555821337732347e-01 -2.398775422197816365e-01 1.291114491153688704e-01
1.377631668321299407e-01 5.429166474023053995e-02 1.324167838209465986e-01
4.840708351912951235e-01 5.023421297568185784e-01 -5.366729330112034457e-01
-9.004542504853474405e-02 -6.041025724958603016e-01 7.991955596663197214e-01
-4.570906656758020326e-01 5.664873873907982915e-01 -7.141018336884973339e-01
-8.532397976357823932e-01 2.200404207785343069e-01 -6.929116909628971199e-02
-3.189785232251667328e-04 -5.293992948974188817e-01 -2.173385895724420369e-01
6.500791381208124164e-01 1.420162786749773476e-01 -8.928083083904032879e-02
4.411946119530455457e-01 2.315951816967132260e-01 -8.365305637741708711e-02
-4.040215615643363151e-02 -1.165789503933245957e-01 -1.595943183249289854e-01
5.517759276491889658e-02 6.623886315165649075e-01 -1.816031128995671678e-02
6.686958321242415515e-01 2.419262770360697812e-01 -6.649427410237075398e-01
2.044954761366460094e-01 2.903159785242193092e-01 -5.492173219676808882e-02
-1.950624250838091933e-01 -3.337365703877602785e-01 9.424987370944154508e-01
-6.698717568855641069e-01 4.152879386214868296e-01 6.392913832004536445e-01
-1.629019249735364329e-03 -8.143537505407821842e-01 3.795638049360813837e-01
2.089136205224043363e-01 6.845040732414844342e-01 -6.427470514534041612e-01
-5.239130531440364669e-01 4.018328599898428610e-01 7.392330720299454816e-01
-8.853341951404636312e-03 -1.138623290627094053e-01 -1.152110011239607934e-01
6.416873496330631754e-01 -3.870499354720133289e-01 5.651087761618833749e-01
3.694941698836602950e-01 1.697349016923636877e-01 -2.279173039713172991e-02
3.592048566083911876e-01 4.627608039234150095e-01 -8.322096883125510436e-01
7.158370895137670109e-01 -1.842893883120814147e-01 3.566726603640228421e-01
-8.424770026432253089e-02 -2.619594022806991940e-01 -3.345646115325602576e-02
3.889509196106247235e-01 5.262096535000106989e-01 -3.130301301501207112e-01
4.300999743540649956e-01 -4.170818724729719040e-01 7.685623639962402276e-01
4.747115807973620871e-01 2.622720138760391562e-01 -1.222662649207469920e-01
-8.924634735702728916e-01 2.082686435366813693e-01 2.123174647137129889e-01
5.874475077046917848e-01 -7.713792431631200097e-01 -2.547688026434909436e-01
-4.653956010615936667e-02 -6.312847184918357613e-01 7.831350081510067840e-01
6.636429150631500962e-02 -4.891591653950785323e-01 -4.966003835906668828e-01
5.931913383145427307e-03 4.497715539446306976e-01 3.947872117856475738e-01
4.483644033413251573e-01 4.237980471977279562e-01 -2.546446327900435680e-01
3.381547205298438552e-01 8.842967416022495808e-02 -9.812804010920087583e-01
4.527821186135871923e-02 -5.637595826450644276e-01 -2.962000397190696632e-01
3.964288720277071160e-02 -2.080665469176292137e-01 -8.509890160083382060e-01
-2.718055710470867331e-02 -1.009450896200583814e-01 -1.410889881027969917e-01
-4.623113850101141092e-02 -3.020799058822422056e-01 -2.066761293636005248e-01
-2.076068029721110653e-02 -1.710074006401275659e-01 -6.958356108721491795e-02
6.280555754543257208e-02 3.046779709809481762e-01 1.910073080801278911e-01
-4.364539706921138351e-01 -4.337227105637511126e-01 7.457261220095995347e-01
-1.138189407327648006e-01 -8.703139330609569596e-03 -4.586813612861388723e-02
-2.324544873543069046e-01 -5.581834328554009517e-01 1.568139364583119588e-01
1.770540439269581989e-01 -6.308907006848650800e-01 -4.281601212414803959e-01
-1.173254248814122741e-01 -3.698808577544882015e-02 -8.760401153015129339e-01
-3.089287683440746640e-02 4.766642705250680456e-01 4.565499704126535496e-01
-2.629853618298772511e-01 -5.059785011624764461e-01 1.473516743905197712e-01
2.576060862209215707e-01 -1.780136591923033029e-01 -9.314469864913961228e-01
-3.128864996135812815e-01 8.766363299674152509e-01 -4.249099197618034368e-02
2.317873205405703851e-01 9.202236067701634326e-02 7.440278363793281780e-03
1.342253692003372301e-01 -6.188044457130995601e-01 -3.878675835205278033e-01
9.792695946453315592e-03 -1.113814000128922066e-01 -3.960135891775748429e-02
-1.246068116853563390e-01 6.525922528528267375e-01 3.189813864295543699e-01
6.462357443864175099e-02 -4.898361325973570879e-01 -4.912530366273379911e-01
-1.866916125596478349e-01 -7.175495549957915387e-01 4.193395629028427440e-01
-8.281270422295389233e-01 1.154243776815071371e-01 -1.211939546427877497e-02
-1.018495464878019785e-01 -6.821488345898877800e-03 -8.704039152017817305e-02
-4.768893116411627164e-01 8.619409990976877323e-01 -1.663571137039129844e-02
4.537634020046438232e-02 -7.790304869605110261e-01 5.720320253145200901e-02
7.799455541160477123e-01 -1.246382260137311321e-01 1.614538505628154985e-01
-1.321375695650547077e-01 -5.410669486434316333e-01 3.081624089238205882e-02
-4.717839424140845006e-01 -3.218353406319428012e-01 1.623845001802697308e-01
-5.500856217086933508e-01 -1.546425155056967704e-01 2.253148467051990442e-02
5.396975838650222013e-01 6.460819933788294889e-02 1.293533026103987071e-01
8.313927938508218485e-02 2.323881860066269733e-01 2.264732918724832178e-01
-5.943872379959214136e-01 2.982501796786252712e-01 -6.128158159092860213e-01
4.425289654107231185e-01 9.810591562890959294e-02 8.546352306260121545e-02
-6.757841694806133725e-01 -2.450704143340780572e-01 3.254084617495930920e-01
5.657113315634527961e-02 2.373264544478890792e-01 7.351245364643314850e-02
5.738203920060915703e-02 -6.284888404582465379e-03 6.614119801874614180e-02
-2.112838299864774061e-01 -6.821444601100122573e-02 -7.680418149376874171e-01
-7.014890101643134201e-02 -4.599522411865016314e-01 -9.014205824173208981e-02
-5.391913504676467683e-01 1.386112492024154687e-02 -3.510955903611930884e-01
3.759814400150955915e-01 7.023095275404625526e-02 2.116773614269263915e-01
-6.615647713515910855e-01 5.441352744809809794e-01 -5.101397374686872377e-01
1.514853752066011305e-01 4.366467623673389586e-02 1.136985559434094545e-01
-3.999972734775351091e-01 6.195344983796947647e-01 5.546499544422890393e-01
-1.374874842549097809e-01 -1.280235254816568524e-01 -7.823546069286241300e-01
-7.186382353628893993e-01 1.456439644841168481e-02 -8.756072995674313297e-02
3.751848871330606960e-01 6.921563756419446545e-02 3.515277324414500804e-01
-7.340805967752584982e-01 3.109194439617082861e-01 -4.111555474595685045e-01
-1.752076745875539576e-01 1.523812529210125666e-01 9.128486050170785404e-01
-6.403903115533571277e-02 2.919785205465326786e-02 -1.067613633831795972e-02
3.453542501815650145e-01 -7.208347115225332002e-01 -4.050182860581378885e-01
6.613459391364925333e-01 4.866099420776619222e-02 5.491400004944640978e-02
-7.751992348669131117e-01 1.211235958960868858e-01 6.219256802195680667e-01
-3.948697388936007746e-01 7.504425928223580344e-01 3.473873418845542793e-01
-2.748825125026110178e-02 6.365554012507251835e-02 2.324507996918026564e-02
-6.641355668523492017e-01 -9.781065344479893120e-02 7.298599946659155568e-01
6.157756127573384974e-01 -1.346592077264125061e-02 2.404461284780899100e-01
3.358798806495754130e-01 1.282679146320329089e-01 1.454468940563790301e-02
-2.902700506758546517e-01 8.903460919390876471e-01 -1.964111722938756688e-01
-8.727472853182834944e-01 3.050427756541330138e-01 -6.269644165017924931e-02
-4.148776288268760798e-02 -2.488504438770898219e-01 -1.268697451479326721e-01
-7.284996752668010563e-03 -6.320249238383633950e-01 -9.231226516431387252e-02
-4.818314409479486637e-01 7.080866536626647667e-01 -5.826016569273431145e-01
-4.016014691329994890e-01 4.554271460424020868e-01 7.287798725614831330e-01
6.121096639227369129e-01 2.715519530643189516e-01 -2.381634755223261679e-01
-4.849700906070343598e-02 -2.311314710374486603e-01 -1.979271800001658754e-01
-3.630096664939863604e-01 6.740176211191321043e-01 -7.017777194875767233e-01
-2.115490310801200480e-02 -2.002606708632099219e-01 9.699760695940020661e-01
4.413796576854376874e-01 4.932840897010191683e-01 -7.054308551465153787e-01
1.665684370536810455e-01 3.451820271227176024e-02 7.293104231438174434e-02
1.417126335410300308e-01 -1.276508691619222535e-01 -9.392431155043877711e-01
3.084367567391323867e-02 -8.277981707820261104e-01 3.172321187906182449e-01
-3.255859098449373490e-01 5.314965335451452555e-01 6.514231746213084984e-01
6.082638290728852315e-01 -1.079249184419644875e-01 4.393995005728998371e-01
-1.315331767126218243e-01 4.428294360076831526e-01 -9.237962704638039702e-01
2.007514136850657993e-01 8.927802026904151089e-02 -9.372327613428849125e-03
-3.543255382368656337e-01 4.137455152922437929e-01 7.652620294938752288e-01
-2.091378770403352905e-02 3.466657749426198254e-02 5.159045478767322612e-02
-1.565669018085854569e-01 5.443739169738457395e-01 -8.729675570270912788e-01
1.257218977529899751e-01 2.325227139551005184e-01 3.319362004774769059e-01
2.984998181090952468e-02 8.017958278131086525e-01 -2.664000410787447648e-01
8.988131015344278385e-01 -3.180078449537889207e-01 -3.440137345419862491e-01
1.527985567479764883e-01 -6.870832611861388273e-01 7.371091731970671468e-01
-2.025320427934311496e-02 -1.433325108284304317e-01 -2.521056899686819480e-02
8.149633599567721043e-02 2.671622413472268809e-01 2.527929851336845890e-01
-1.363730638791219030e-01 8.495201255330780965e-01 -1.158655382715012006e-01
1.582346705699927691e-01 -2.571576270492137994e-01 -8.682125662591407833e-01
-7.869942569121246567e-01 3.685844397468507339e-01 5.324609312672579087e-01
5.041835308773306989e-01 3.278856639981058141e-01 -2.025769084675247134e-01
6.546991624375123053e-02 2.781853608478582207e-01 8.407138170495641327e-02
-1.920151069148782474e-01 -2.377792945686827419e-01 2.693701693241231168e-02
6.032192965254982164e-01 -2.623040957355144975e-01 5.833296998249178911e-01
4.575934189799255591e-01 1.810270380031492321e-01 -9.228420854441485854e-01
6.330745010152792895e-01 -7.282932338998128197e-01 3.613430578632936818e-01
8.726684776772970498e-01 -1.716679785001123393e-01 -2.301138285624372559e-02
-1.991163306964848778e-01 3.959049390733295204e-01 7.517971196277213330e-01
6.165842263591068129e-01 1.846594691291114643e-02 1.658963353651840000e-01
6.780496166320629237e-02 3.178257763900371180e-01 1.048833080657232963e-01
2.395307975330178141e-01 6.485248130008065826e-02 1.391176648953288131e-01
9.776448738666433658e-02 4.020703953928422281e-01 4.928189414156283754e-02
-3.688516739550554702e-01 -1.338574727550131405e-01 9.384802895457416971e-01
4.978627929815282460e-01 4.886685150062500260e-01 -5.460290251098240955e-01
-4.485662618473552909e-02 -7.169557070244820807e-01 6.687769243991116275e-01
2.723754516873068132e-01 -8.744223367764204502e-01 3.369266418430804655e-01
1.838815728113849524e-01 -3.418692110660629946e-01 -8.107603840279851148e-01
-5.873214590141264679e-01 -3.529129929238002394e-01 6.020398138116646036e-01
-3.502268422961892225e-01 -3.366656461372912745e-01 1.073507803817863870e-01
-1.937057758876550295e-01 7.588519899929314638e-01 -6.705994713307921185e-01
-3.450034354183452792e-03 1.821700210207285453e-01 8.367007347670631923e-01
1.872689684505061403e-01 -4.819920223724714625e-01 -6.635334828302806853e-01
-8.075520263377543584e-01 -3.050323453787433595e-02 4.591417608921992133e-01
-2.848377095349359164e-02 -1.962444229938992701e-01 -9.764763620396210708e-02
-1.146434130476616658e-01 -2.085014090124640285e-01 -6.982840542678793172e-01
2.596285333778897142e-01 7.436704864100007750e-02 1.826853266432783007e-01
2.540348364430725092e-01 1.860506041556991563e-01 -4.374802358392478746e-02
1.106047494153289401e-01 7.491757962717005004e-01 -2.629716937225177742e-01
5.688112898198358636e-01 -3.037816547820885171e-01 6.388748186393131689e-01
-1.209095469469196188e-01 -2.011161855547126120e-01 -3.365672686066594754e-01
-2.247317237866747891e-02 4.244217236993750447e-02 4.782206242267069557e-02
3.627164864691706514e-01 3.689478090844044433e-01 -8.986154311878262746e-01
-5.899363382477607054e-01 -3.545324558127328496e-01 3.706232659258668627e-01
8.824361646086270605e-01 -4.849190458978949736e-01 -2.049756388350285063e-01
-6.333595707667789565e-01 -3.199393484346716443e-01 5.009528720905934707e-01
1.663008491482288742e-01 6.497997137591735028e-02 -1.328674167894870056e-02
6.795839727748428372e-01 -6.597957005122567840e-05 1.243986641259765547e-01
4.747477147094108507e-01 -6.547523149819673982e-01 -5.237827679417013105e-01
2.783434584668998402e-01 7.010597592751029172e-02 1.307302903967267615e-01
-1.599680504261892233e-01 -1.447343815508438380e-01 -3.112483327155781687e-01
-3.491074084110967202e-01 3.661711524966122511e-01 8.010714104367062660e-01
1.249991267512509108e-01 -2.035108920101973140e-01 9.343507399818473669e-01
3.064884499172688126e-01 1.481449329564993034e-01 -1.352113485011671029e-02
-3.159635382193322628e-01 -6.094753023547119231e-01 3.592207790362074160e-01
-1.450911243391255490e-01 -1.522796505552281021e-01 -3.037625783519792289e-01
3.184296549254865827e-01 7.381565338515659602e-02 1.706105114134894851e-01
-4.026085940379351552e-02 -3.568387733552880192e-01 -2.640471807819169126e-01
-7.898481072182076401e-01 -7.972521040992493202e-02 4.421701721825477827e-01
5.015273889622848813e-01 4.264153758654814497e-01 -3.231788267772096601e-01
1.539139444489960769e-02 -3.994830231389288194e-02 4.491700576658440303e-02
3.071324252245229425e-01 4.186735350469374395e-01 -1.418543822502734142e-01
-8.446506382385999823e-01 6.374356157815937174e-02 4.188473913975215845e-01
-1.156717663280378144e-01 -2.897601187943115164e-01 -1.285223516184288983e-02
3.938724385167424735e-01 -2.709010159738312398e-02 -9.589421434118235998e-01
-6.322991100282447652e-02 -3.376418793794059292e-01 -1.032868026308379344e-01
3.313513283995679903e-01 -6.862801859123430770e-01 -4.588644263621308728e-01
5.246353352714976104e-02 2.199078669612772596e-01 6.362801840222732930e-02
4.473624315247545780e-01 -4.307455870052933622e-01 7.534947816329253811e-01
4.904623421012201390e-01 3.044772739530282601e-01 -1.696191408545444368e-01
-8.724565167342632765e-01 2.312334279484237198e-01 -6.376460226336598362e-03
3.453425710169637508e-01 2.189228718873859059e-01 -5.963175382706305261e-02
-3.552135161801762697e-01 -1.430056328188342718e-01 -2.631767232787718055e-02
-8.589751993720797785e-01 3.616052654870199889e-01 -1.332067402482022267e-01
-3.283761246006375867e-01 4.365657057386460038e-01 7.452585530696973493e-01
-3.339349424116119236e-01 6.135181964246216868e-02 -7.617363407384969420e-01
-8.505381308115447236e-01 4.641509624052403415e-02 2.697022618303918096e-01
2.013989222276278968e-01 3.772493509473954787e-01 -6.059035629150723995e-02
1.567072743565650350e-01 4.891476319742709133e-01 -4.276336848868154961e-02
5.347731579240164734e-01 -5.161172129494389083e-01 -6.704589753936343044e-01
5.275442294909069574e-01 -7.794635147195322356e-01 -2.801869321389612866e-01
5.711337010500242700e-02 2.481304598943392392e-01 1.313939786019888978e-01
8.146517814562276305e-02 2.111511455335244314e-01 7.410635764391479974e-01
-6.126148144388654515e-01 2.282257440670766302e-01 7.783828108078943986e-01
-3.914227585310872670e-01 -5.403528991417103078e-02 -3.468969798266988702e-01
3.024417900517131219e-01 5.722258068516430374e-01 -7.532450474312677446e-01
-9.527035906913483565e-02 -2.646467127926322993e-01 -3.873854915263830190e-01
-4.142109927540214565e-01 8.822920631096902166e-01 -1.791679387886296604e-01
6.241994006045975540e-01 -7.107616363457801567e-01 -3.587025107394811174e-01
2.261000991407737248e-01 1.659914071406559666e-01 5.388782934857641038e-01
-5.713871204856287023e-02 -3.308768849846242532e-01 -5.013061596734924574e-01
5.704870394546730505e-01 -7.984150677456711698e-01 -1.918923233071171963e-01
4.524711629546360192e-02 4.669838880615861387e-01 1.655313040305715355e-01
-5.584766184445646431e-01 -1.867827172355592813e-01 7.003297712404298048e-02
-1.162223232739856144e-01 8.638670827572240141e-01 -3.381969746863803250e-01
1.930005626612543365e-02 -7.139860867286712542e-02 -8.519845559181635219e-02
-4.030375339072499175e-02 -5.044787435904837247e-01 -1.347752070948641800e-01
-6.826936951060864622e-01 -1.697455690561146813e-01 6.541491113011573821e-01
-7.074801433910065107e-01 3.064638109120063625e-01 -4.545242196578377358e-01
-4.183900342478834578e-01 -3.812437034711901318e-01 1.787653130256794398e-01
6.170699088440443347e-01 4.846258907022362589e-03 1.962114112605884975e-01
-8.561194978505871911e-02 7.956241352222881424e-01 -6.050447581680374887e-01
-7.263721336735882161e-01 -1.070014771724114994e-01 1.434320666493917318e-01
-2.472555733195498998e-02 -1.725701360735847067e-01 -1.260916411897677891e-01
9.035668087103632118e-01 -4.212094049657620354e-01 -1.688654530156193101e-01
-1.385109088931513466e-01 7.308616169324634315e-01 1.961559547310649798e-01
-8.956385687500043602e-01 2.457065818947516134e-01 1.425183215074311283e-01
2.946213858895642690e-01 -8.852157975717406257e-01 2.396477496329176560e-01
-2.891357534482658087e-01 8.382346606976168735e-01 -4.982838093435660864e-01
-4.409562023376194240e-02 -2.040956567559254475e-01 -1.801628049869743731e-01
1.055730367926995400e-01 4.610765533526600124e-01 3.139610073349273500e-02
-2.476500051878668673e-01 -8.115066056207519141e-02 -2.520070310655144197e-01
-3.983268396909361159e-03 -1.186630296580053340e-01 -1.031839861370508621e-01
1.517316456563819194e-01 1.455091157471296581e-01 7.422520567374498723e-01
-2.585097798558251836e-01 -6.288475766639751718e-01 2.840110626800743665e-01
-4.748440326909346421e-02 3.936387610770080564e-02 1.273912995800219501e-02
5.310783180191794850e-01 1.158511793997981099e-01 3.141802093355838821e-02
-9.272822098877309127e-02 -2.815720252564118398e-01 -5.478494168972229961e-01
-2.635439643693935907e-01 -1.011299466007105352e-01 -3.443155264538146354e-01
5.930744903866227687e-04 6.177364737343657985e-01 1.308226391035400282e-01
-4.317037629807574661e-01 7.907389841990739576e-01 2.620231122874647212e-01
-5.211704580727795078e-01 1.859793011675096863e-02 -3.966199048065259802e-01
-7.406763100364687283e-03 -8.447275069434875827e-02 -1.173439203649312979e-01
-1.595346504697942314e-01 -7.073937605949692786e-02 -1.954343132809068795e-01
1.622438322986027581e-01 -8.478519786967368965e-01 4.371433500363682279e-01
3.484830010212623952e-01 -8.634054181030394182e-03 6.883644947350064935e-01
-3.223603858616747031e-02 4.165871743472009947e-01 5.823856548554944279e-01
-1.084391952813563847e-01 6.487061583802363751e-01 2.993846771735060308e-01
3.090545882890194385e-01 2.775887804110432344e-01 -8.332171513089060844e-02
-9.881350986659423116e-03 9.168525596532645094e-02 2.376196030577389789e-02
-2.919705744515123658e-01 8.447263614399497245e-01 7.902379890698271736e-02
2.715234763319875344e-01 1.320571093774577931e-01 4.650000211038188835e-01
8.860947695091381249e-02 -8.344294277389563419e-01 4.422208288701331980e-01
1.063575523965345528e-02 3.366835360688990031e-01 6.515828810019727024e-01
-1.217158221339958851e-01 4.125405378470440865e-01 -9.356559712447416466e-01
-7.695782421371423210e-01 1.543553557868640458e-01 -2.105824497629877334e-01
-2.489014705290636120e-01 -6.579981433485019293e-01 5.901590200802937503e-01
-2.591547926668671398e-01 8.343772826394075803e-01 -5.173708852490879195e-01
4.167967795488295574e-02 -4.850882781016327416e-02 2.542546545460773466e-02
1.023782412432877598e-01 7.681615669628646392e-01 -5.283775564728079299e-01
-8.718737979615459599e-02 -1.266290259353572978e-01 1.803104823295181153e-02
8.866239805392640561e-01 -3.650083639270287894e-01 -3.629156075103391887e-01
5.968730565171415092e-02 1.041659613542276486e-01 1.325858715596754112e-01
8.844913923401057643e-01 -9.646975645958054402e-02 -2.839293742148162325e-01
-5.828693146456769281e-01 6.858260445878269218e-01 -5.006015758855463238e-01
-1.011167494516765214e-01 1.297206311429454362e-01 9.084771205455809406e-01
4.718417839656476875e-01 -6.879178894374700370e-02 -9.261926287503660093e-01
8.260607213427121343e-01 4.597492340984046799e-02 -4.355639746972985726e-01
-7.590703961481186646e-01 -1.321863755596581202e-01 3.077984492176475961e-01
-8.744895368800968960e-01 1.520761580990647732e-01 3.466726534878935562e-01
-1.283395530984327015e-01 -2.145669420940629069e-01 9.989225094852383774e-03
7.195538063027624720e-02 2.772560968076484000e-01 2.254876294567929595e-01
-3.589751440010884309e-01 -2.219012758491564208e-01 4.110288755321387516e-02
-1.061132547212427849e-02 -6.085494894143721467e-01 -1.114923630359607037e-01
-1.572438775601490424e-01 7.970060144042813155e-01 7.908079087436049870e-02
-2.458085413551371334e-01 -1.509722256256894601e-01 2.616049521986513974e-03
-1.364294692894329752e-01 -2.174570203131189483e-01 9.748443290476899170e-01
5.043587624959094962e-02 2.652255766574971446e-02 9.055265634703432709e-02
-7.646777183278207213e-01 -3.879119794611735061e-02 9.569216793338397586e-02
6.306636107115851653e-01 2.028106507906659028e-01 -7.645251992017519926e-01
8.224682195390879691e-02 -2.097912259948337133e-01 -8.718258442128417052e-01
2.089214018045872645e-01 1.681384242154467523e-01 -4.156329002866906985e-02
-1.324900977984312389e-01 -6.710316349730841012e-02 -1.828511582962775717e-01
2.449361345378641142e-01 -4.893818027902862022e-01 -6.887232160513943047e-01
-5.435982178295803990e-01 -2.928696312247079381e-01 1.886094281826575791e-01
-5.736004014098798898e-01 -2.660316572350307496e-01 1.837390053609945784e-01
-3.429372114449392162e-01 -5.735932229370376279e-01 3.286416370752329175e-01
1.607462649560992551e-01 4.459060361810437273e-02 1.125807845238723237e-01
-4.591440612614157701e-01 2.942649281956878915e-01 8.260835289592275421e-01
4.915402479232238164e-01 -3.630316344434981746e-01 7.233833598586056901e-01
-5.401113499020419040e-01 3.356664533466890542e-03 -3.189057280087396196e-01
-2.101824642855140424e-01 -7.431756362759896206e-02 -2.151656511920243542e-01
8.536155552385906245e-03 -5.755366975667964846e-01 8.407830575018230279e-01
4.518731813883729992e-02 4.474745962671281552e-01 1.816265125331147923e-01
-1.086832297168613820e-01 -1.618525762054458250e-01 -2.683221316740793116e-01
1.406830691090406593e-01 1.109730235009360189e-01 2.022617632119272091e-01
-5.567632544652853510e-02 6.039474443967395301e-01 2.735959659139082789e-01
-3.284542675823515778e-01 -3.467793251921013620e-01 8.924913983933623340e-01
6.397046905900353186e-01 -8.026796371847394473e-01 2.554862287758662143e-02
6.215161898033971788e-01 -2.374993634493118566e-01 5.463576405852609286e-01
2.305689381943648586e-01 6.879703397693494038e-01 -3.580476132558846336e-01
-4.166387828378760594e-02 -5.454490253526644850e-02 3.657868469547444212e-02
3.880761631848363424e-01 4.592555620782007297e-01 -2.326037932072944070e-01
-2.607381308244675622e-01 -7.139907189224485584e-02 -2.137324226803337668e-01
2.154775213668350120e-01 1.391963437412823690e-01 3.222916961815540660e-01
-4.380641156683520165e-01 -2.032700123661048686e-01 3.865975887774917436e-02
-3.363367957271117259e-01 -7.421795061100620872e-02 -3.562598401347349397e-01
2.827921305614491954e-01 -8.821359302810511949e-01 2.781838677554535066e-01
2.679487639923012754e-01 1.265294552576107512e-01 5.602906521991507516e-01
-1.247116958800648101e-01 -3.775004785822971831e-02 -1.033299174845283760e-02
-6.062352221599696112e-01 8.117327831643366132e-01 1.423127917534681638e-02
8.212192758818361860e-01 6.667813481654326531e-03 -1.636489702611361730e-01
3.324835081096197409e-02 -5.792261545277842538e-01 -2.418349858165236010e-01
6.445825147996611104e-01 -4.062754845544242488e-01 -7.010982438209156786e-01
2.394388328442775549e-01 6.633167379849308487e-01 -3.091248464045456834e-01
2.125351466609304851e-01 1.393875119036727672e-01 -3.211353815390878552e-02
-3.217855539662405340e-01 -8.088983874982649813e-02 -5.111682376450390475e-01
-1.359423161570426364e-01 -1.276630360720230617e-01 -2.608561500538968403e-01
7.920060894052032008e-02 7.553830723169582262e-01 -2.145967818429949103e-01
1.591708910650660447e-01 6.401162039842749341e-01 -7.652363300806241941e-01
7.834314900921534042e-01 5.177155150094635977e-02 -6.004404691413229855e-01
-2.178433304736881182e-01 -6.401151340938807111e-02 -1.815843950117068950e-01
-1.647385553014182047e-01 -1.629055209605612675e-01 9.773547068647644442e-01
1.451436185129886813e-01 1.289633652864453917e-01 2.262664170981179557e-01
-3.675373961996085681e-01 -2.202925614906362239e-01 4.103278627896238262e-02
5.991951869144269693e-01 -3.157261638612213206e-03 2.391473543355574494e-01
-9.881898530035393424e-02 -1.655594744824430073e-02 -1.093731115946228322e-01
-2.908250903054382941e-01 9.252667735408280636e-02 9.369824249805580596e-01
-2.600865769707328967e-01 -6.537396829982043966e-01 3.514949487333707268e-01
3.098046836201742357e-02 2.543498278260204401e-02 8.337904823771537244e-02
2.099508867132145878e-02 4.123835465596420446e-01 4.437353998823745371e-01
-2.961863358973490512e-02 8.292589736486324359e-01 -2.495321495231136721e-01
4.231655993445035402e-01 -9.672404993171826448e-02 6.881438593399529235e-01
7.199484993615024031e-02 -5.037508777707990770e-01 -4.800798945381860583e-01
-1.172900569916861535e-01 -1.360738835878715636e-01 -2.520024077290190512e-01
-9.057370998693355102e-02 7.944918014405794038e-01 -1.122225500041427494e-02
-1.247871029259738501e-01 -1.051865464847001608e-01 -8.180957907479977642e-01
-3.366683118234647248e-02 5.707869775947795737e-02 -3.184430160682821115e-02
6.574753776495829982e-02 3.554071554956568790e-01 1.275553421335434423e-01
4.318710683463035105e-01 -8.005615652439668217e-01 -2.557279685576841488e-01
-2.189858310714702938e-01 8.217228032379110259e-01 8.699268058067970155e-02
5.101523385747394057e-01 -7.604967112161540310e-01 4.698879165779105138e-01
5.291945667535783437e-01 -8.459053349819967149e-01 -3.225629743191919807e-02
-2.819767898094241998e-01 -1.736659170034222932e-01 9.973080314326400464e-03
-2.905028194941248754e-01 -6.224137550986669210e-01 3.338088399785517635e-01
2.909235599653687832e-01 7.182066616455383412e-02 1.447407872604580537e-01
-6.900194500073839610e-01 7.085398341543404366e-03 -1.188294852023398795e-01
-1.653820579496679544e-01 -3.762316954787215395e-01 9.324649869993515416e-01
-1.773427024123893359e-01 6.649964457052259803e-01 3.693135063156031683e-01
-6.441923317446691666e-01 -2.951864740251418096e-01 5.534320314491540937e-01
-2.321475438604543307e-01 -6.519694333254820451e-02 -9.255337001958054144e-02
-1.663630994236299510e-01 1.090183537304826311e-01 -9.156791018198302545e-01
-1.404993726991716763e-01 -5.172322588203882854e-02 -1.603285152304247119e-01
-1.504860457976710530e-01 -5.335370434591125699e-01 4.884773862948058043e-02
-3.148220645887119806e-01 -5.886862248213193816e-01 3.065966644871500058e-01
5.796581963933007398e-01 1.876301546612548291e-02 2.087847621477276483e-01
-9.737638438675519370e-02 8.228843348076440023e-01 -8.069486498749606218e-02
-1.609944883122739478e-01 -2.228025031194325323e-01 1.905642890978115692e-02
6.307385357722226082e-01 6.299176581324328339e-02 6.014439969604939290e-02
-9.128450848347248112e-03 -2.968374184678782557e-01 -7.134670230696452675e-01
-8.986356208185329597e-02 6.297572922349815583e-01 2.993622693508520838e-01
4.337152004777927172e-01 -1.018399498032637601e-01 6.802901284989758546e-01
-7.465224779382573228e-01 6.438846452834422474e-01 2.711983637835362893e-01
5.953423729102851336e-01 1.237506326286805236e-01 -1.558124910386969597e-02
-8.489833058932209076e-01 7.423527955645584098e-02 1.479168135384002769e-01
5.514816469213693756e-02 3.008337630846745839e-02 -6.762143614176724382e-02
2.266449993606032554e-01 1.380768406562370709e-01 6.392385015804716852e-01
1.415766590139636016e-01 2.934585898235215762e-01 -2.052234753168785675e-02
-3.173889172760123167e-01 -5.633182608518956247e-01 2.675595137838349125e-01
-1.106420960541059095e-01 7.801997320844358264e-01 5.334553569115441096e-02
-4.237285194615622030e-01 -4.813088257980867590e-01 6.968800484791579652e-01
-1.781520606432737130e-01 -5.304194945520173121e-01 8.364269132280476304e-01
-1.555592726766896056e-02 6.094875364071080659e-01 1.754610789427906992e-01
4.390613689111695361e-01 1.729057311967049371e-01 -2.699554412177358059e-02
-7.367173723154673004e-01 2.492381691921181364e-01 -3.708517331794236593e-01
-4.377361488219010943e-01 9.687868609041348777e-02 -6.735360945669615074e-01
7.626783584127921900e-01 -1.330268158372166221e-01 2.077686058534642111e-01
-2.367239410304453340e-01 -6.164852844421255668e-02 -1.480029057486038913e-01
2.014213477901651006e-02 -9.820156380359254533e-03 -8.910608036641676222e-02
-1.400315922164115448e-02 4.518031308579455174e-02 5.619519094291061667e-02
-4.510841808469636671e-01 -8.478726861772474532e-02 -1.300099704292021485e-01
8.745923873944808080e-02 3.919579079438930691e-01 6.830101671280688902e-02
5.410719948390826373e-01 3.421570319479367850e-01 -7.658029368848791041e-01
-2.237976044807457043e-01 -2.696767041774523754e-01 3.921086706392618026e-02
6.904084064147746336e-01 1.488450836209704864e-01 -1.487657871302265622e-01
-6.787495411100127329e-01 7.644544157095675141e-01 3.715060557027276972e-02
-4.936633905603082795e-01 2.175094476631137669e-02 -4.579103250963711957e-01
2.010971601210772841e-01 9.341579266612579091e-02 2.144784390607430424e-01
6.752324933002133711e-02 2.011308155266157971e-01 1.730256209071116824e-01
5.060108333016341553e-02 -5.424339203341226739e-02 -3.802452999056642191e-02
-2.966428932962804077e-01 3.777839871988969978e-01 7.906051133928114760e-01
4.906502474256322910e-01 3.913106287748658318e-01 -7.776822712348252509e-01
6.548734715127324524e-01 -5.122837636906985015e-01 -6.065298556574909572e-01
9.194600212817474749e-02 -6.510908219120123963e-01 -2.564648984179988545e-01
8.011049107008578751e-01 -4.051643854291386848e-01 3.082395962270151335e-01
1.579545436839110140e-01 8.234288851716350943e-02 -1.000000000000000000e+00
3.287474444697532361e-01 -6.296719524121133782e-01 7.355935877991914840e-01
1.342381974108334264e-01 7.530288030924666698e-01 -3.415413195687832526e-01
1.340781020782252642e-01 3.794335636212288199e-01 -2.455201081610012322e-03
-4.461055617807544588e-02 -8.277915529339910719e-03 3.951331288675820341e-02
2.780968355088584421e-01 -5.084212721800724921e-01 -6.809660968524007263e-01
-6.285739993645081958e-01 5.909000046050892907e-01 5.073864180500029519e-01
-1.377560135080342085e-01 3.912357812232622467e-01 7.258184594218023422e-01
4.958463627624789538e-01 1.169657515899617528e-01 -9.144713235141093133e-01
2.453189446002196628e-01 -2.587023179281344176e-01 8.868477090431741150e-01
5.729185842858666167e-01 -7.296981445508654573e-01 4.457103258873103546e-01
-7.371429983451266432e-01 4.402937724299283567e-02 6.725859996941810914e-01
2.701399298790792547e-01 -8.239805688965909924e-01 5.089834012125916685e-01
-2.227831963682466720e-01 1.972729169230005020e-01 8.971381132239200085e-01
-5.902718029080492590e-01 -4.799559670248384341e-02 -1.307716928722990335e-01
3.349454983348070236e-01 2.852684160774824895e-01 -9.321915900904803598e-02
2.176976932115635630e-02 6.305316675431456019e-01 -8.209545497571982819e-01
2.841955064536670628e-02 -7.709057805368059180e-01 5.991048909392650001e-01
2.373180882023891852e-02 -8.116832686361818983e-01 4.705762972950806033e-01
2.912519986717081871e-03 3.152434972303699151e-02 -7.836888538890772471e-02
-1.385169631725697015e-01 -8.507342437791090561e-02 9.749506182341104443e-01
2.219694452363587811e-01 6.956036232643582340e-02 1.644216413234349250e-01
-2.093100725649794935e-02 -3.835692090729870829e-01 -4.807767849680171235e-01
2.987989613768575192e-01 5.707410878101669693e-01 -7.587960616489367593e-01
-7.570557567498573115e-02 -3.433349314602452962e-01 -7.774018592202547318e-02
-4.320236151010852649e-02 5.196390386887460994e-02 -1.475323502270193404e-02
-2.218563451539647124e-01 -7.746979174476602281e-02 -5.183844857889879226e-02
-7.676810375119333396e-02 2.935297272970309110e-02 -9.318961558324321270e-01
4.931612342842486285e-01 4.793546197858863933e-02 2.159675252579591476e-01
-8.349443130167278904e-01 1.185853348182061735e-02 3.752241228087150882e-01
-4.055238401053825603e-01 -3.188625325666665788e-01 1.214634520925155642e-01
5.319413309340091933e-01 -6.224501769616596070e-01 6.012273183547133248e-01
-3.045150175142957161e-01 6.055772891599459085e-01 -7.846782947241105477e-01
-6.302104804081336553e-01 -3.214049413679244127e-01 4.187544884299325143e-01
1.122172619745027689e-01 -8.230846198666467162e-01 6.977147677013378901e-02
-2.358262559554952509e-01 -6.683973846483369508e-02 -9.172129357448731424e-02
-7.002651891666000772e-01 -1.344852039674203914e-01 1.452037113925101208e-01
-1.640871291456249825e-01 7.954340111089073240e-01 -6.135985340139303856e-01
4.594436060348716100e-01 5.100223374224747974e-02 2.428247039076109892e-01
4.189917376692298689e-01 5.301149422277431356e-01 -3.722944571637717970e-01
8.793673401252327659e-01 -4.445448760562618062e-01 6.710972708606377513e-02
-8.783218988773038305e-01 1.976266277255852299e-01 6.631382384179551615e-02
1.088461039604868841e-01 1.024065601770128703e-01 -4.746266618997705550e-02
2.908465051048739203e-01 6.452385015114552314e-01 -3.772179623782191960e-01
7.372224178017540430e-02 3.065950322251164151e-01 7.651311858463172300e-02
5.592307478853016933e-01 -2.271447853616755941e-01 6.202976543376668150e-01
-2.096004499789149156e-01 7.151361136556732001e-01 3.138293660109326422e-01
-3.210339754142821356e-02 -7.930858392311495031e-01 4.684593318408621920e-01
-3.799103261100858497e-02 4.802759377784172196e-02 2.100230546594927805e-02
-7.685692545996897218e-01 1.571077373674638900e-01 -2.161887467393346085e-01
3.660370063984785816e-01 6.006110898971489531e-01 -4.520834414490861874e-01
8.755355899618704196e-01 -1.862904362829006788e-01 -4.581664422123189473e-01
7.010993622437499129e-01 -7.586877875667815685e-01 -3.106816817836823355e-02
-4.512156580932458194e-01 7.424982591147976096e-01 3.614769822205927130e-01
8.525283037958570898e-01 -1.984873524943733536e-01 -5.246423184931482409e-01
-4.422320800267987018e-01 5.713247899593384416e-01 6.107396808479321759e-01
-7.289306198988985963e-02 -4.516785828056981145e-01 -8.684980664357870583e-02
-9.420217552858265288e-04 -8.449207746513147377e-02 -1.094786654019480332e-01
-6.741987999734710968e-01 2.494841715748473965e-01 -4.770422855454524158e-01
-7.048448660951141601e-03 8.329818628591098562e-02 -2.541360506041571640e-02
-4.038329592720550365e-01 -4.114313798234993658e-01 8.008661052244837597e-01
8.406896861201582083e-02 -2.036642675060128423e-03 -4.011269161051535248e-02
2.153909854202569821e-02 1.242283996978010147e-01 -7.108130150928888141e-03
-4.539613239981000747e-01 -1.801688032064478195e-01 1.839424380678987558e-02
1.601894912052898579e-01 -8.670003518757848360e-01 2.289516783158994095e-01
-1.431122125808883053e-02 8.418789066702403456e-02 -7.071910600249704804e-03
-4.181383101389653245e-02 2.752587502196180980e-01 7.806903802198684739e-01
6.949497934299884161e-01 -9.634646945640105986e-02 2.766032893496246925e-01
-5.720578552660935401e-01 5.555855311037289912e-01 5.847895908138642795e-01
-2.186436594783788129e-02 -1.258226387365840027e-01 -5.628027746502356314e-03
-6.811666842012503720e-01 -2.569039265909929259e-01 4.917103815094824304e-01
-5.080904563559929255e-02 -1.521863816088810800e-02 -1.137902178712918988e-01
-5.037186276825982301e-01 -4.251477910132725468e-01 6.559639593492846421e-01
3.525623080922076769e-01 2.395587945883722036e-01 -9.566147872601646895e-01
-2.687485759770965599e-01 -1.572363598902617177e-01 1.825665266813974097e-03
2.729118919919971131e-01 1.526783107232112524e-01 -2.460864316297338428e-02
-3.993077178421540196e-01 -4.625240040790302709e-01 2.416733359120758762e-01
-4.496380108330256253e-01 -5.162739371703589653e-01 5.008150041887172721e-01
-5.954953502340633309e-02 6.708948104719075767e-01 1.736279411285883423e-01
-2.367111120613806796e-01 -3.259303560618273532e-01 5.513671069113529333e-02
1.392212719077266514e-01 -6.139817260449998981e-01 -4.043363308392272093e-01
1.466470162434863056e-01 2.818409621288775480e-02 8.492540121748098914e-01
7.101166212004252076e-02 1.415892333968785943e-01 -3.221366979191429142e-02
1.013476701168600780e-01 8.005350002954324251e-02 1.484774159049272180e-01
-5.106723792868530509e-01 4.941441322381540102e-01 -6.993734392998629534e-01
4.392354140364327503e-02 1.718231810170295082e-01 1.636652936480992651e-02
-2.376685295618271021e-01 -4.691189043701999295e-01 8.597668833710723213e-01
5.287121804390016999e-01 -3.942416861658934457e-01 6.888734014983048937e-01
-3.439970554030335470e-01 3.623645346043879306e-02 -7.268217357456926431e-01
-6.652873048528777922e-01 7.036875464157735793e-01 -3.486644693507286452e-01
-1.556028966332823893e-01 -3.201729089995068722e-02 -8.043959598108463283e-02
-1.120190818857096926e-01 -3.934767330199515079e-01 -3.099221352753222039e-02
-1.922913893347394376e-01 -5.054520805759411123e-02 -1.363029789055862362e-01
1.963145042923645361e-02 4.400905474160992092e-01 3.492093797281211609e-01
1.570934052318814778e-02 1.334601255314434853e-01 3.451092778535153754e-02
5.553863865430119784e-01 -8.244839135191834867e-01 -1.093576294413015348e-01
-4.358237344026361648e-01 8.698034596375801009e-01 -1.986895805935072479e-02
1.460854063054772278e-01 1.534460554198598392e-01 -4.271464857838143392e-02
-1.715225783710016549e-01 -1.400130034063807871e-01 -3.179128837503579219e-01
-3.559591454442917469e-01 -2.409603897427595176e-01 9.218162688975198860e-01
3.637781758615088457e-01 8.287296080497513762e-02 1.200298955803844048e-01
5.216421729847835892e-02 -3.452451482231214813e-02 3.644769322367717723e-02
-1.834658417845536627e-01 -1.651417000467405027e-01 1.682203119923469936e-02
9.495202786953756136e-02 3.589733042195682872e-02 1.065674870937455693e-01
-2.311842799686817940e-01 -6.452369207677199903e-01 2.672715564737846994e-01
-8.987816243068992572e-02 -7.682761862386241480e-01 3.231592045227075771e-01
8.487318579467363344e-01 -1.226476539693643203e-01 -1.134856440705072148e-02
8.634508059609973252e-01 -1.106704651821518864e-01 -8.319933242621871394e-02
-6.954615258251344023e-02 -2.526380019025623591e-01 -4.704811539677225540e-02
3.322137351392092514e-02 1.068475095669545599e-01 -3.543827074803243549e-02
2.564320781494210388e-01 -6.116320044221171814e-01 -5.341247746821474740e-01
5.936052493176929845e-01 3.509634751122847618e-01 -6.649353774498448777e-01
1.219895574367572816e-01 3.300223390173265825e-01 4.468663553046115303e-03
-2.852126042307607801e-01 8.890394349281239839e-01 -1.686549062274519117e-01
1.716974767110298894e-01 -4.903527976215266704e-01 -6.403618494981995202e-01
-7.341376074232641713e-01 2.477828833085773952e-01 -3.745083843343799956e-01
2.012812369203395013e-01 1.152836528187185933e-01 -2.510789391775299084e-02
2.768783785858728863e-01 -8.254540327656215704e-01 5.037849071168297721e-01
-6.396970007539691527e-02 -3.184694725890995781e-01 -3.892135881034989864e-01
-1.042254925141463014e-02 -8.005012252705601128e-01 2.427727437252927556e-01
-5.486685146687984016e-01 7.752653089596905911e-01 2.492994019354647928e-01
-7.732856740841069776e-01 2.093617426604707787e-01 -2.649075731082172758e-01
-7.147024803984548813e-02 -1.681251793634096769e-01 -2.217427414273615283e-01
-2.157555402132105560e-01 -1.178865843575123834e-01 -8.312340569241988275e-03
-3.177177099307877950e-01 -8.024567782464903098e-02 -3.453013541272459963e-01
-8.504058096928630850e-02 -2.261416608125276645e-02 1.467969570237528422e-02
8.041615674818270998e-01 -6.188015159007966837e-01 1.378975133736249636e-01
-7.664018587155254636e-01 1.646268102368116659e-01 -2.300343387932836936e-01
-2.381910715930924960e-01 -2.974139193752283195e-01 4.930117363102897582e-02
4.597173559430713791e-02 4.930068336382653071e-01 1.443732002114509194e-01
-6.786107340176515679e-02 -9.079986184773430891e-02 2.542554026544789972e-02
7.028219406784243228e-02 2.918764806661259259e-01 2.325144946644380484e-01
-5.928559529413163220e-01 1.247768815673930831e-01 -4.829347946215156173e-01
-8.908527465152101810e-01 4.117002928884563318e-01 1.057746375526611438e-01
3.017464186113721913e-01 -8.444454361792785857e-01 4.474317818253790158e-01
6.372357111381131249e-03 -1.013244321136143461e-01 -9.550184483515411493e-03
7.866482118686860536e-01 -5.516955317596631270e-01 2.818391847498342151e-01
-3.726833474836110938e-01 5.639354413128796484e-01 6.211269166036859080e-01
-8.922762002843184215e-01 2.565471604534230732e-01 8.495547367123151838e-02
8.686814345053890385e-01 -3.142865484619580818e-01 -4.523444285511369345e-01
-5.400866929651264581e-01 -3.318411370490504941e-01 2.357570308974794582e-01
2.012923797259465186e-01 -4.763370765526042105e-01 8.694748192338002113e-01
-9.392938729658718844e-02 -2.729893852892953943e-01 -4.069759206411782682e-01
-5.026637825026376571e-01 -5.092395283616255042e-03 -3.548916932227615950e-01
1.291901951579649543e-01 2.061125974181963472e-01 2.978527195063360722e-01
-7.088029973477414369e-01 1.057805091477299897e-01 7.142573360172969066e-01
-3.791414209261283474e-01 8.666562653764381396e-01 -3.557217444436944764e-01
-5.042317279738002533e-02 -2.371227564352273443e-01 -7.001472618227434774e-02
-7.471119090789331008e-01 5.084607738166689872e-01 4.741541317059612681e-01
-7.690956895255095516e-01 6.694819050364345658e-01 1.173862934692193744e-01
-2.512155323791315786e-01 2.334712090068716550e-01 -8.979612897958364481e-01
-5.128451081477652940e-01 1.219586635990907858e-01 8.660542491081577587e-01
1.287073928361809061e-01 7.231089478934782377e-02 -3.924866372907900164e-02
-3.842098144841447072e-01 4.761206109330105574e-01 -8.020314980972524932e-01
-1.724483624294794737e-01 4.105413672913101573e-03 9.621139537674229247e-01
-9.519098935853571863e-02 6.818541331553172880e-01 -7.753155484925703389e-01
