-8.695617116966611326e-02 -1.614346871756992541e-01 -1.933108047724850231e-01
-2.891714750845655879e-01 -3.562866505239195569e-01 -2.453387819079166088e-01
5.277400987231556373e-01 2.217450815830830368e-01 4.359544842254242658e-01
5.426187199724479271e-01 -3.192849692082451174e-01 -4.313412792750179747e-01
-1.185601669763538951e-01 5.116197045025229206e-01 -8.402690622709345636e-01
-2.922185701517269196e-01 2.068957240341740556e-01 5.066222410885953265e-01
-2.840536428388072965e-01 3.139682882807213193e-01 3.524091068742262189e-01
1.145891774809151484e-02 -4.357486701584371847e-02 -7.089483620322677149e-02
8.537545559451575894e-03 -1.875755738812943385e-01 -1.138538027803934344e-01
-4.559739146621486494e-01 -2.875415362904296668e-01 -3.806348898420277571e-01
-7.085600729139518439e-01 -5.019344873501825344e-01 -2.883077507462773401e-02
5.281024900267122096e-02 7.203260448513464365e-01 -5.988805389551263986e-02
9.238520753141730157e-01 1.062152416414374051e-01 2.180617035089522648e-01
1.096261063068883074e-01 -2.896528837503761777e-01 -1.967689761911540214e-01
-1.047494222768724330e-02 2.205510733042186367e-01 1.012730777324416104e-01
1.552203548354232077e-01 -2.995313055342879172e-01 -2.428115931547250583e-01
-1.349574651912381906e-01 1.733405698016185215e-01 4.712033455676147842e-01
-1.126849849992539315e-01 -2.650087347412024008e-01 -1.675099496886680028e-01
-8.498975819050496039e-01 4.113213864541048759e-01 6.250309621533400861e-02
-2.064039097891137986e-01 1.928532080594691778e-01 -8.299430403209546725e-01
8.724327218521543692e-01 3.563576335571075338e-01 9.627014860988290790e-03
-3.740433188703754484e-03 3.827251378367141355e-02 8.486192137899181698e-03
1.665719046665107769e-02 -1.811199994483383147e-01 -1.151668575801659544e-01
3.124234493861309248e-01 -4.931603942280669839e-02 7.204653817312900443e-01
1.252253086128765278e-02 -2.189988385709668375e-02 -2.726081344929507169e-02
5.094585482814967259e-01 2.634641047309053685e-01 3.930647219915013313e-01
-3.308474269553050018e-01 -7.630175262578566819e-01 2.064721363439057655e-01
7.747391186903622093e-03 1.169841726878158988e-01 5.474281595465760875e-01
-9.269038190587469694e-02 -1.618881712837155207e-01 -2.184629407107135934e-01
1.160008628469269380e-02 4.344387959696801096e-03 -7.402431563725700991e-01
8.901580621295953621e-01 4.754901743875957626e-02 -4.259301178474957372e-01
-4.219253749768170914e-01 7.756877485703017605e-01 -2.977413513021551772e-01
-4.416543935240950514e-02 -1.235634980587979326e-01 -2.105925250295435092e-01
4.172216634147524195e-02 -8.029638635578728589e-01 1.764429371312630779e-01
1.524196110834614287e-02 2.985972703470061301e-02 3.584042805400367016e-03
-1.482622336654420836e-01 6.358838657786081150e-01 4.030587290142447626e-02
6.568113444556799019e-01 6.277422265683526570e-01 -3.041836382989488996e-01
2.259830348232531316e-01 6.391949811309268759e-01 -7.514287506721826215e-01
-9.240984364074790181e-01 3.398719036618325084e-01 -1.468415518600476033e-01
8.987150123754537034e-01 3.371380595722647810e-01 -2.884671549251568434e-01
-9.127764105901762237e-01 2.952719957096394121e-01 -2.888713276949623765e-01
3.635570080470277854e-01 5.542148829515577413e-01 -7.606861989772267796e-01
-5.791909243030721882e-02 7.319533982913170034e-01 -6.444433886996679683e-02
6.948829724429416155e-01 -4.462717759815467561e-02 -5.883388745139246367e-01
3.019355404837733778e-02 -4.372085765373968647e-01 -1.315206785022745295e-01
-7.799890812976369159e-02 -7.848861579900753838e-02 -6.275187733119041988e-01
-4.039287344519104650e-01 -2.896192101077030290e-01 7.899125941793172512e-01
-2.390879622005872285e-01 1.020554575386860424e-01 -7.846910009633458749e-01
1.602255468141852712e-02 -6.556762440625790722e-02 -6.605269112585586411e-02
2.854250779746041883e-02 -1.099762705004734137e-01 -1.103214147974404674e-01
2.995890686048884310e-01 -2.751930546668620581e-01 -4.244878430154548354e-01
9.543280849169736291e-01 1.668772633891388024e-01 8.206185394866984117e-02
5.866748766938616466e-01 -6.937513333974499874e-01 1.931490781898593800e-01
1.265857752707593223e-02 -4.579478687996269871e-03 -1.036030534932361885e-02
-8.073772694435615849e-01 -1.961047460140172283e-01 -3.205435361982907350e-01
1.393155773468821197e-02 8.568013328330818801e-02 3.784584719210138531e-02
1.585992753540500788e-02 -7.080818429327316588e-02 -1.021300444456606227e-01
3.449558765804619509e-01 -2.358346314648383235e-01 -4.999689956938342394e-01
2.779840450396725213e-02 2.288468482514416091e-01 9.799609192808665659e-02
-7.474010918187656838e-01 -4.672211831180897446e-01 -4.070686803217998112e-02
5.242428045108815660e-02 3.494585961899683846e-01 1.129483357194377563e-01
-5.571793947972049077e-01 2.163001713804320325e-01 -7.131892056543159830e-01
-3.095309211660339233e-01 -4.958844909021012382e-01 -1.488855282162379057e-01
2.650684645126254527e-02 -1.446936454700168406e-01 -4.631939562084491091e-01
-4.185960960047080404e-02 1.615233657514263399e-01 1.284495365350714624e-01
9.289055567192974205e-01 2.120970727863197569e-01 9.959213773911784751e-02
-2.983678992933904914e-02 -2.769480588013258915e-01 -1.315384987054871724e-01
2.314308612091459799e-02 9.496075883078364255e-02 1.236201977648532235e-01
-5.084683014040850546e-01 4.158258156578747422e-01 3.140061459897555141e-01
3.982093655753731753e-01 2.800827860285350912e-01 3.597532567379684298e-01
2.600704882743080648e-01 8.042193714618253164e-01 -4.428471645237344045e-01
-1.587771510521802654e-01 1.648070944435344187e-01 5.089878118144379737e-01
-6.465931421746066166e-01 -3.487636305500202427e-01 -2.845298866685097572e-01
5.749615283577670655e-02 1.583298903054338180e-01 9.840580190436404306e-02
1.594939322428499950e-02 1.475908948374138677e-02 -5.892579912905043663e-04
-9.597141964765437683e-01 1.126948524237690596e-01 -2.285080181588560466e-01
-1.299444526609740691e-01 -6.152127556331136171e-01 -4.830610604135340824e-02
2.012295514511313610e-01 -3.776093745583846695e-01 -2.344886375193005190e-01
4.239809344686569781e-01 -3.430423082270486757e-01 -3.985118416964641419e-01
-7.650905632568696380e-01 -1.969654338570769880e-03 5.297774496101951280e-01
4.109164670924791429e-01 -4.837675763391852124e-02 -6.930216968329961924e-01
-2.767212618905728547e-03 6.018549206220766973e-02 6.423105428995144750e-02
-4.314476259242003113e-03 -2.363609643397297701e-03 -4.993270583819794765e-03
-1.696132834406424983e-01 -4.909063460092135123e-01 -1.229967714650149341e-01
-6.229893980868411729e-01 6.673343529327100399e-01 -1.565074737290837459e-01
1.221259892434157709e-02 -3.551714170059567799e-01 8.538088930008603805e-01
3.940949562719376353e-01 -6.609309773731031346e-01 6.266265847969342273e-01
-3.097636261673942723e-02 -1.221410426506155389e-01 -2.218447851385178526e-01
2.662759105869851317e-01 7.117475121368446178e-01 -7.640675778830181841e-02
1.768011660645430194e-01 7.386504822118908908e-01 -9.843735566541343684e-02
-1.329031783861114313e-01 2.177019149892737426e-01 3.271358691487114001e-01
2.211430814108202580e-01 -8.224390395924212616e-01 3.325983175550090154e-01
-2.948100416140999047e-01 -2.689088894260571738e-01 -3.398081921708153152e-01
3.863024609220922501e-01 -6.227890688940675989e-01 -9.571239428206940181e-02
-4.157172822018057740e-02 -1.044584153891670447e-01 -1.202572428117221759e-01
-1.340633916544586857e-01 -2.248317168750277317e-01 -2.095926390007848694e-01
-1.854589580510868363e-01 1.189270252523900485e-02 7.169394450900810067e-01
-3.277555934986657871e-01 -7.823639549307346286e-01 3.460142265099413472e-01
-1.800580056186736055e-02 -5.141890485738761368e-02 -6.010198320663012045e-02
9.601632015065589831e-01 1.628285398391382255e-01 6.636920588759306905e-02
1.698384859699347271e-01 3.199632561087970006e-01 1.661713297726183092e-01
-2.230937082894926538e-01 2.233378748795270263e-01 4.397362665138963012e-01
1.065228367020286220e-02 -6.438588374690609739e-02 -1.009178191526100138e-01
-5.505684361600773034e-03 -3.562595313807435660e-01 -1.356551135475132230e-01
1.628316048979701891e-01 6.703752397477756586e-02 6.286504506016484806e-01
-5.889521491423660438e-01 -4.440347175181620920e-01 6.538412648410869554e-01
3.033982267609593442e-01 -5.222112827105700461e-01 -1.834844823171820904e-01
-2.193936444703765420e-01 4.505188779537233623e-02 -7.516502250089106552e-01
6.293294874697793473e-01 2.944320303947627893e-01 3.361367254872184018e-01
-2.691460682299200505e-02 -9.664730416403689850e-02 -8.430130734053806196e-02
2.932112636106314605e-04 4.035756138323746967e-02 6.601117747371657712e-03
-4.702473123239909181e-01 6.687485617604073118e-01 -5.861066644840082773e-01
7.561510622117628699e-02 -5.362801157584499157e-01 -1.074598751297979188e-01
1.080630273850163208e-03 8.323781958989480145e-01 -2.799229253494918690e-01
-5.870930777129900191e-01 6.986047991841423110e-01 -2.427575967085711939e-01
2.618471326263657750e-01 -8.268983950135573233e-03 6.993652132312132563e-01
3.071449668857081927e-01 -7.786612965931283270e-01 1.581939284663700374e-01
1.370582660370898154e-01 -2.349640035404432226e-01 -2.855696140192144905e-01
2.497541726640920834e-01 5.461728512674858538e-02 6.398970081682147093e-01
1.838705950701154113e-01 2.496187003309978947e-01 2.288580990602674670e-01
1.052653232947188405e-01 3.052838603917839011e-01 1.302171198141142683e-01
-2.719353853978482283e-01 2.471233740520078770e-01 4.369173674663570095e-01
2.140392144002627867e-02 4.440885782573171514e-02 2.742802087414033044e-02
-6.169174174965535995e-01 6.508625295737138217e-01 -4.271617864955231103e-01
1.938001938353343667e-01 2.353974141669375186e-01 2.631360743100809585e-01
2.888050527853440186e-01 -6.371387872624940663e-01 -7.482176702168348570e-02
1.602107330966005272e-01 -1.295235815707079519e-01 -5.853304728212551655e-01
5.253068271893972241e-02 -7.602172278558709806e-01 9.078922226836953768e-02
-6.098594009764568558e-01 3.806509812396571824e-01 3.346612985779211513e-01
-7.300801871398790444e-02 2.800355844195981381e-01 1.484156070199853239e-01
7.606663085336852204e-01 -2.969092201320644997e-01 5.340233476810878344e-01
-2.022899347748697840e-01 1.054970465921932776e-01 -7.929820472163728873e-01
-3.875615999779858378e-01 7.493913322672227650e-01 -1.286934385230405764e-01
3.468588181645059221e-01 -6.463307927616197546e-01 6.681364506588828300e-01
-2.590749161092537577e-04 -3.656871654264302052e-01 -1.358405874534367175e-01
3.103311269667291625e-03 -6.083723258540053858e-02 -1.020805463440826177e-01
2.093130865835876250e-02 -4.760281172953979567e-01 8.350432809799235301e-01
-1.126437242184036812e-02 7.480395896631917285e-01 -6.733764754618620785e-01
-2.657887304328445180e-02 1.087357864491138720e-01 5.734980989456790468e-01
3.748899285851997054e-01 -5.296485806566129106e-01 -1.948533158522039177e-01
1.736943458509830271e-02 1.498743354930253957e-01 4.178046008560878377e-01
1.035274350490399259e-01 -8.123727613879587750e-01 5.008422842831029564e-01
-1.313292206663578821e-01 -2.142317422893808554e-01 -2.157607542140149159e-01
-4.533382067853719902e-03 1.011680291060828851e-01 1.293167318373020236e-01
5.977778225584473581e-01 -6.312593933084442721e-02 -6.302377292499026229e-01
-5.324231929409963815e-01 1.177088224899889429e-01 -6.999019417854985825e-01
6.613923383385637012e-01 -6.457574496706131040e-01 1.621905755953375328e-01
5.274791046761252433e-01 3.159347230706390786e-01 -7.604781736319928820e-01
7.535694868430814486e-02 1.822187478978060382e-01 1.186957880491917305e-01
-6.858178039804658198e-03 3.076042955703781057e-02 1.973023155552404082e-02
9.875814171317430779e-01 1.292996732968705320e-01 -1.165801525788976861e-01
-1.733428978468706527e-01 2.907851943603733669e-01 2.652074182479763342e-01
1.723291414418642586e-01 -2.527264313515487082e-01 -3.210490280172409450e-01
3.243341817887075186e-03 2.940162540264340887e-02 -3.654141710483879701e-03
-3.308982164938020221e-01 4.453324035445314633e-01 -8.076605627430343270e-01
5.974601847129497149e-03 -2.689488992764892811e-02 -5.747034293246449516e-02
2.906873343128402176e-01 -8.094132485723258830e-01 3.311000963438826550e-01
-3.515927207630892282e-01 -2.457866266833742264e-01 8.041669390818301233e-01
-1.595934767618878980e-01 -1.866127288371934589e-01 -3.420883586171356017e-01
-9.133766815013856233e-01 3.538971891087709376e-01 -1.904437760203777641e-01
-7.253839924595032462e-01 5.201637025898998568e-01 7.266916677042049855e-02
-3.814180114638047181e-01 4.013865786498499455e-02 6.837950990902179615e-01
-1.682948505418667973e-01 2.887135467329724481e-01 2.606835234823486336e-01
-1.407896752076375213e-01 -1.727320940850170516e-01 -3.622866178128619774e-01
8.417315010381398732e-01 1.808338578043889033e-01 -5.034652629609219776e-01
1.419592446790013396e-01 7.136595421714382326e-01 -6.076202681934948779e-02
-7.987358706292360111e-01 4.888130470910006520e-01 1.123889120476500268e-02
-4.771008111678613495e-01 6.290834531755105097e-01 6.025884965044116942e-02
7.607210525620278219e-01 -4.360858017246923013e-01 4.707988042102574378e-01
-7.383453640821890929e-01 3.772880159671951339e-01 2.660426001800833551e-01
-2.442383786733197046e-03 9.198605186610232798e-03 -1.971742668076405594e-02
4.266718732754145038e-01 -2.567740818575725559e-01 -4.952915893302113903e-01
-3.878688019005007703e-01 7.860417557065212391e-01 -3.717458936418754356e-01
-1.254652019172073918e-01 -8.093031368311902618e-01 2.299441448132190369e-01
-2.539331683460042677e-01 2.282980363920307232e-01 -8.300536413956218773e-01
-6.765265218897658084e-01 -3.657922118011280865e-01 -2.495519103317789811e-01
2.061583621529748320e-02 7.500919077013536163e-02 -7.968163523959086447e-01
-5.141948775221981682e-01 4.227970591663087196e-01 -7.266826835594171197e-01
-1.510931227500413032e-01 -4.742533270091098263e-01 -1.268489009170802873e-01
-1.081277822245418083e-03 1.524201362453401522e-02 1.415319112016132259e-02
-7.015906442024758549e-01 -3.435386209154976944e-01 5.969100512163965089e-01
1.207666134397962325e-02 -3.762686604990891220e-02 -6.224384808403252839e-02
-2.010517425228859900e-01 -2.651690441888662209e-01 -2.565354305140933322e-01
3.771389111509301229e-01 -5.318575629981854291e-01 -1.931004032771296841e-01
-8.885275828817107424e-01 -3.609846610197084971e-01 1.800621138746936745e-01
-5.380092546359266370e-02 -1.241981532222686813e-01 -1.410584643392621129e-01
7.086209841424752076e-01 -7.487453108360443699e-02 5.604461058872046708e-01
3.714033519207408929e-02 -6.465752427694587690e-01 -3.460301903927458927e-02
-7.488909803353122063e-01 4.312264917211974802e-01 1.879441972645660985e-01
-2.158828147014331955e-01 3.326362235101277265e-01 2.703479568453256432e-01
-7.101415758860230021e-02 -2.012938846325176001e-01 -1.414365449062092439e-01
1.764688543432713919e-01 -2.222301151709986378e-01 -3.910408120342090954e-01
-5.469099515947375423e-01 5.166706086930457076e-01 1.938260609145757707e-01
-4.622769950064046784e-01 7.134931552430082147e-02 -7.087416397833650183e-01
-1.402943679287477485e-01 5.765929030153491563e-01 8.133933428077894101e-02
2.496679103047025339e-01 1.219945820986401974e-01 -8.150038050521959399e-01
-6.770423233762723481e-01 5.511931118244886019e-01 7.101446516304139867e-02
-4.013953216310368610e-01 -7.325199785255229190e-02 7.442928305820472046e-01
-5.233174331715338967e-01 -3.352350025042063475e-01 -3.305379381128014660e-01
-3.012718093491423277e-01 -4.471349273055574280e-01 -1.825153991214326643e-01
-4.008663753674687746e-01 5.253200211820726606e-01 1.880873059679624149e-01
-3.624257228392616104e-01 3.156268841865238206e-02 -7.148441450238622874e-01
9.078403426939017917e-01 -3.792824758652417194e-01 7.501644875838262005e-02
7.729387439790059711e-01 -4.049222548310030256e-01 4.752058846616457055e-01
7.961282942736179757e-01 -5.322714662871119717e-01 1.517543527671942616e-01
9.832602672271963939e-01 -9.654401900351733401e-02 1.421974803863990111e-01
1.387313962584590249e-02 -1.751234599853206120e-02 -3.021079899950118719e-02
5.299182481051389892e-02 6.836748310498351744e-01 -2.182885368232719003e-02
-6.625740489077916809e-03 -2.955867597232715929e-02 -6.024600935752781605e-02
1.056908319881500954e-02 3.820511626306068859e-02 4.127656979898371159e-02
4.622727973706878823e-01 -2.343480533334805008e-02 6.643212460080543114e-01
-1.708051506151753163e-02 -2.096403837713802509e-01 -1.176183303929835833e-01
-6.645954630302762789e-01 4.119422311065576991e-01 2.761790353692497035e-01
8.027032393020857581e-01 4.167760792367387612e-01 4.470036235850949335e-02
-3.514192139404003212e-01 -5.219441413567648125e-01 -1.338953600694614554e-01
1.329719854481436342e-02 5.746735355468406137e-02 6.573327632902466189e-02
-3.674431752498716341e-01 7.667718567465909851e-01 -4.970741368252880044e-01
-1.551713720894000448e-01 -1.716298291337050030e-01 -3.933734738293474531e-01
2.977390644572221190e-02 3.163905407184068874e-01 1.109177659020050138e-01
9.848350649555714931e-01 1.458940353125910416e-01 -8.712343902675816210e-02
3.009063711285256959e-01 -7.095543726709687693e-01 1.560169845169626611e-02
8.245599329895726415e-01 6.612001835077618850e-02 3.886767857854553920e-01
4.523564633551771519e-02 1.608175248157273918e-01 8.676419330463405744e-02
-1.144815447931891439e-01 -3.085344573113497635e-01 8.504274136204875711e-01
-2.846177066525840682e-01 -7.237584330232970098e-01 5.983702567713370390e-01
7.360862239266467988e-01 1.694150641585210892e-01 -6.192786236138394518e-01
-2.742696550493141094e-01 -4.673190475983740599e-01 -1.608415933231875372e-01
7.701935373795433248e-01 -4.853819106364438141e-01 4.058354023260871690e-01
8.074425616960952956e-01 4.895009907659179649e-01 -2.077680004074715647e-01
-8.023192054611356927e-02 -8.214826160839677760e-01 2.608065494858531341e-01
-4.384193245414010343e-01 -7.055635619773066303e-01 5.025116691826603255e-01
-9.917619839293423736e-03 -3.983542499494978351e-02 -3.846318792578289070e-02
-2.688897450813219625e-01 6.837186238166497176e-01 5.427830704134253316e-03
-3.018079698266968453e-02 -9.373507944658279745e-02 -8.936386247700808805e-02
-2.579445436478289624e-02 1.321379359989230395e-01 9.505692866532841623e-02
2.283348349812322053e-03 -1.696969623986374631e-01 -1.058959100701993561e-01
-2.442760015333371726e-01 3.303472869841260207e-01 2.997248565709111356e-01
-3.717567117249011566e-01 -4.278468107410314802e-01 -2.181387776818699553e-01
2.743073923327424279e-01 7.617780829109231933e-01 -1.671149923087976719e-01
5.076141912414712243e-01 1.458240075923613321e-01 5.161184071552173958e-01
-1.608001182835837040e-01 2.132691877195469765e-01 3.927194486338434487e-01
-2.170454159804640903e-01 -8.028840299840738215e-01 2.646256015319652932e-01
1.711115116246354761e-02 1.160533700913965599e-01 1.711982512171538184e-01
1.062368491038032103e-01 -2.002193086153887802e-01 -2.873085942922904423e-01
1.469929757613044723e-02 -3.939214128281079419e-02 -5.067310841300422947e-02
6.590950282134540039e-01 9.310416159280977821e-02 5.024845817164801387e-01
-4.382207833372055161e-02 1.579113034418290484e-01 2.235303761822961532e-01
3.049122268209803477e-01 -4.438926514591094996e-01 -2.490104579260883078e-01
5.594832076950635447e-01 -1.287468967041845436e-01 -6.004472462354115692e-01
8.458798077281777239e-01 -4.644552835787215117e-01 4.992956457046978519e-02
-3.174622879645324081e-01 -1.241842493357283445e-01 -5.674615983960095145e-01
4.248475302717220903e-02 -1.863125609511149250e-01 -1.372239358112204155e-01
4.957091098978896188e-02 -1.578183342009581158e-01 -3.142761195980270372e-01
9.058613440487530699e-01 -3.439907294417892669e-01 2.453972169159622241e-01
6.705409998661091553e-01 3.095444624760233521e-01 -6.656949167619620189e-01
4.648216408592045212e-01 -6.758777558956211573e-01 5.543956312538755871e-01
6.011321464592306492e-03 -1.808853472149248853e-01 -1.108594233698809300e-01
-8.754503131781258274e-01 3.611042269251432679e-01 -3.307219303435279811e-01
-7.932989972477494378e-02 1.986900231083370549e-01 2.066324494738597251e-01
9.628325208917124511e-01 1.324618578534161352e-02 -2.717504917790157792e-01
8.159207293141260697e-01 -4.684478666532226887e-01 3.266210328088031134e-01
4.434944165238916547e-01 2.566370877694528208e-01 3.980171401942889098e-01
-7.427524564592461777e-03 2.905116418353721405e-02 1.282626325966807097e-02
9.943832951485734872e-01 1.590926820405955816e-02 -1.487861501028596711e-01
-7.972758858900287349e-01 -4.318908296203429198e-01 3.929242995096083324e-01
-4.065345514523311943e-01 3.378918074483346912e-01 3.852786563893249028e-01
9.271893394606137706e-01 -3.262790947605580527e-01 -1.988029075148798480e-02
3.144618945673693933e-02 7.792698704123817155e-01 -1.418370432025808647e-01
-1.114123103919997804e-01 -1.566489338513891161e-01 -3.994733276029173719e-01
2.101909032349984496e-01 -5.918344607127666857e-01 7.595283661989584711e-01
5.817612657485971700e-03 -5.308395261862262383e-03 -4.260493208004227303e-03
-3.836962602750360607e-01 1.635895609994238165e-01 5.762226672316889120e-01
-8.386485224602636956e-02 2.435844842522043585e-01 1.704119883627847609e-01
8.710303577233789729e-02 8.201993177366637688e-01 -2.519434552775745573e-01
2.015153860801708330e-01 6.494485055823544517e-01 1.377499124100389381e-03
7.482029871860863823e-02 1.460723371070886123e-01 1.535328249297349956e-01
8.563329541304636194e-01 2.040010909724572219e-01 2.443453421377663193e-01
-9.727004512608550257e-01 -9.477105508263732048e-02 -8.756928118470623523e-02
1.797413310291958444e-01 -1.663929038065859456e-01 8.054066665950563308e-01
1.449513523234876970e-02 4.804074644987045561e-02 1.445393863284396771e-02
-7.213768010483810611e-02 -1.922782041971021760e-01 -1.432622572461807742e-01
7.781219375032129015e-01 -4.726034544678598959e-01 4.065637130647739572e-01
-1.442288021844551071e-01 2.237896931438554671e-01 3.342903491714218078e-01
-1.461957125521761158e-01 -2.712321078192999058e-01 -1.942404361727155804e-01
-1.655309840616931566e-02 -1.836175665200793228e-01 -1.098893692698155733e-01
1.533675775213542980e-01 -3.013640446941296402e-01 -2.393258474649421486e-01
-7.222875531586682440e-02 -1.478817274611615717e-01 -2.834024689524958784e-01
-1.517651323714177547e-01 6.474942295628752786e-01 -7.603990697892593076e-01
-1.144387215570957274e-02 -5.492516475723641101e-02 -4.891440433448557973e-02
2.919180687310331604e-02 7.056557946697666894e-02 6.334828948510484725e-02
3.199226131616507707e-01 -7.019790915769362483e-02 -6.830882390871525489e-01
3.173579750008082706e-02 -1.146882789170571570e-01 -1.544135043144267971e-01
-8.761553905534202880e-01 -1.958979998778098142e-01 4.130422090416236980e-01
-7.228761649015978952e-01 -5.470905816448738967e-01 3.477428081822049322e-01
-3.634729049456345007e-02 1.578450992220734039e-01 2.584102616373448735e-01
3.804964648576207864e-01 -6.340388716506434319e-01 -8.202847700298569744e-02
5.757757953572485016e-02 -4.428140758410069044e-01 -1.363698048467761881e-01
1.485991789142700192e-01 5.164897690119221035e-02 -7.835265262686229581e-01
3.769360192533177112e-01 4.089977876317004157e-01 -8.130224628938562681e-01
2.711006838494458074e-02 -6.930602817909867763e-01 7.918563753170538080e-03
-2.321571943031443264e-01 -1.202312311297994152e-01 -5.633389271462097003e-01
-4.154374005781653612e-01 -7.504769094109869920e-01 2.970314860945499902e-01
-5.613831052104296671e-01 -2.558516876817936228e-02 6.691838184898389885e-01
-2.376153362237769240e-01 -7.796428073023220495e-01 1.908375229082679703e-01
-2.206200480754495208e-01 6.514368099244841614e-01 -7.400051110271367305e-01
3.055488715358122276e-01 1.065109712443278872e-01 5.752106358141394482e-01
-5.604383375245555188e-01 4.394304647093513205e-01 2.822853905796798846e-01
1.058375079951743430e-02 4.162646772479765278e-02 4.555154332767612918e-02
5.971701118745150749e-01 7.227860617901371576e-02 5.483873179278708765e-01
-5.107506293867707103e-02 5.511496255278626188e-01 7.702680682010518143e-02
-3.611270865733519075e-01 4.991388373624061625e-01 2.055502064643936200e-01
-4.454339190181693664e-01 1.478030117551343836e-01 5.892002070187020157e-01
-1.187330805118012311e-01 -1.542192270811465760e-01 -4.243005561329075137e-01
2.091098187841644862e-01 -6.980475449620578976e-01 -9.458548018320417231e-04
-4.349736314606619247e-01 4.340541938560583124e-01 2.885087200843660660e-01
1.136972910175477608e-01 1.841201222644179847e-01 1.980697157019355725e-01
-7.857555045646848202e-02 6.161502571331126665e-01 4.420613643699330270e-02
1.889614758987428755e-01 -5.997007561466138198e-02 -6.873774910883249101e-01
-6.810319644563072039e-01 -3.303675968509017791e-01 -2.870485689205982682e-01
-3.609908600333561896e-02 -1.281827553049855462e-01 -2.390244405911635950e-01
-5.304905291927809463e-01 -2.320032589197366935e-01 7.341842837369091379e-01
-4.362179114857562268e-01 6.408964712474074510e-01 5.219049442749933848e-02
3.082707816084448993e-01 -8.855017806649836953e-02 7.447497019767256310e-01
1.139021366440372829e-01 1.655438322360089920e-01 3.476306864771299687e-01
1.964628539287158748e-01 2.372405587135486826e-01 2.639771739631804892e-01
4.942833876063316145e-01 4.627335090321442745e-01 -7.408806687934323953e-01
6.507358458659309175e-01 4.061098738376541645e-02 5.424423533844137113e-01
4.152224284229474871e-01 1.943268018049890966e-01 4.699670571881544578e-01
1.185989338182159569e-01 1.494714937908927233e-01 4.466543821457801822e-01
1.506784854195314903e-02 1.396913291547570261e-02 5.570663097773079567e-03
-9.397273639516892096e-01 1.963343871992991596e-01 -2.710010235356637431e-01
7.261522492659504557e-01 5.897827955271060622e-03 5.118739494671509238e-01
-3.694729743331234828e-02 1.575689142197141401e-01 2.539144711302642743e-01
7.803985502566772592e-01 -3.238618898519586287e-01 -3.100098659668231171e-01
9.267416113898804264e-01 3.101580064391121216e-01 -1.489856741487027292e-01
8.199399875731359089e-01 -4.352638578040810557e-01 -1.049938902863344070e-01
2.951788289921295494e-01 5.022167772344374725e-01 1.216476419351116833e-01
4.578499936231605338e-01 -1.374121059655175892e-01 -6.152124714366625780e-01
8.092139657154805432e-01 -4.983293237779307661e-01 2.810579139260229176e-01
-1.304516628073217888e-01 -1.929667157283710133e-01 -2.488410631259237171e-01
-7.629044451063133891e-01 5.329237608514231922e-02 5.081721532068064207e-01
2.740687893334884384e-01 -8.264028384054056264e-02 7.487479215244979835e-01
-1.229239260619121622e-02 1.419774846983929972e-01 7.739304566254055773e-02
-3.212298355659118920e-01 -9.653960294635426098e-02 7.717717190891544288e-01
8.101754030596838296e-01 -4.237093739376842638e-01 3.988655055987364584e-01
4.595290026250397619e-01 -7.007099835349407391e-01 5.188017147762977732e-01
2.788475603105048939e-01 -5.364790411646638141e-02 7.299931070583833836e-01
1.381989524596338725e-02 -1.646957516559516554e-01 -1.082257370381282668e-01
-7.866783022578224469e-03 1.561706245614989386e-01 3.420676327416438123e-01
8.359813903068377683e-02 3.946388478173700198e-01 -8.738702386992576177e-01
8.414131782765755796e-01 4.479224969219838259e-01 -2.163373629251943431e-01
5.361135116482383667e-02 1.274882216490104414e-01 9.787970595576572785e-02
-3.485373699419461735e-01 7.598414941835072156e-01 -5.332462315123236429e-01
2.856460171607465570e-01 -1.720091698417975656e-01 -5.645782568895474363e-01
6.925881759550066574e-01 4.971147910882891402e-02 5.110802974293395806e-01
-7.542467391651768160e-01 -4.230700701001711139e-01 -1.075073460783047413e-01
7.323370714164192941e-02 4.016647569594230527e-01 1.108900563599221067e-01
1.012571893516932622e-02 -9.142593905871704979e-03 -1.093645535335529585e-02
3.444140312036007567e-01 -3.370396796894470359e-01 7.955534593139544919e-01
-1.201742102261047496e-01 -1.919151595899057650e-01 -2.253941428036838335e-01
1.745334825153590716e-02 -6.324348762650122691e-02 -7.111113681375813567e-02
2.950294569273059220e-01 -1.545703548579388520e-01 7.781456023546265977e-01
5.483574332465790749e-03 1.025070867386395079e-01 4.766550374142942276e-02
3.433035519448066619e-01 3.045442166178957133e-01 3.069428717083267921e-01
1.142097023092693564e-01 -1.572839862162542512e-01 -4.970912522088218322e-01
7.312100177352316432e-01 3.311456153201696728e-01 2.409863821388477378e-01
-9.961292203664976475e-01 2.659417549090858923e-02 4.080226064161585064e-02
-1.734421025353435550e-02 1.137365053298258211e-01 7.438110049505357313e-02
1.383850851352580180e-01 -2.502559976937210884e-01 -2.647726942286617868e-01
5.265906477964097387e-01 6.447813776383219952e-01 -5.590258883267679169e-01
-6.039934250632039703e-02 8.304871469260752814e-01 -2.680829177518558870e-01
-1.060698792191280548e-01 -5.917357879452671554e-01 7.799365205530803813e-01
3.563904152084043653e-02 -1.546153713385312878e-01 -3.785109655547557184e-01
-4.696454987231668543e-01 -7.154914389330672142e-01 4.225165258198154694e-01
8.461582589406091426e-01 2.623799471789579063e-01 -4.784627314183075852e-01
-5.416261939975820089e-02 -4.340600169716953838e-01 -1.262282348499227935e-01
-3.986868266232830452e-04 1.128223795489962239e-01 1.575074028456096009e-01
7.102650967504899049e-02 -3.203925585988209312e-01 -1.606586021191002134e-01
4.021999512704257929e-02 1.002339735083088157e-01 1.116714009010742609e-01
-7.077311459677874117e-01 5.126538142964854883e-01 1.065142202720031211e-01
6.241736982078851526e-01 2.238218899152615571e-01 4.085656075578907309e-01
-1.054299550579944206e-01 -1.674568852078918424e-01 -2.594038104903068076e-01
4.896066925615086829e-01 7.089611257052275128e-01 -1.973060674410615500e-01
-5.501103840251653221e-01 -4.102889522290890656e-01 -2.461733836770912121e-01
-7.758901586908052428e-01 -1.699933500438188527e-01 -3.743894112486021442e-01
4.417916541818938669e-01 6.300375026851856575e-01 -5.713845853299840023e-03
8.587218781191897909e-02 1.588828315571507721e-01 3.245913734311446364e-01
-3.700176249875996443e-02 -1.171290270262910910e-01 -1.991785317811602951e-01
1.841456505456132153e-01 -3.717531452628544675e-01 -2.250034612575694815e-01
-7.349256880661301228e-01 5.515700586585604581e-01 -3.943748345220934315e-01
-5.437215256529577267e-01 7.139576524639552613e-01 -1.873862566843672861e-01
-1.958713099077312725e-01 8.111813654889629133e-01 -2.213715797133627428e-01
-1.207097055134589980e-01 2.784554548366910409e-01 2.032950240040574952e-01
-3.004788725829812268e-01 -6.216192697645253062e-01 7.089339182429978958e-01
-4.485612927675766692e-01 5.088939414217608093e-01 -7.325798305691781920e-01
2.293347911540578529e-02 5.558974713061450718e-02 3.144768970492011623e-02
3.330168870412866669e-04 4.407070244194151443e-02 9.593578422599108660e-03
7.358346011158942157e-02 1.797203552291792850e-01 1.168552743290530993e-01
-1.052435575083358332e-01 -5.943791415149255464e-01 -6.255920823101039641e-02
6.204615522418116536e-01 3.122165826328015537e-01 3.206766316768726033e-01
-4.492637823750316173e-01 5.902747523082119141e-01 1.171145497466823809e-01
-3.134307233218452948e-01 -6.417587483578935936e-01 6.851920159880906525e-01
-5.399230196799974513e-01 5.912365249455943106e-01 -6.125688698132399912e-01
-7.121785849271302649e-01 4.641410447250191584e-01 1.767865289844797183e-01
8.173955932270200453e-01 -2.269957390596991365e-01 -3.666989908057194381e-01
-8.556467258980888779e-01 -4.126880430406175138e-01 1.913106526462456658e-01
-1.644208866576312988e-01 -4.098821212652507540e-01 -1.546732995763227814e-01
1.003010794109927134e-02 -4.262004140886262171e-02 -7.190022419119652952e-02
3.955109340610977742e-01 5.414849793571810954e-01 1.009363193284199128e-01
-9.776369808126728067e-01 1.838506885598629736e-01 2.387171684910520278e-04
9.047112527397614956e-01 -2.411261500029898974e-01 3.317831532081836343e-01
-2.154024206320765966e-01 -3.399096334328123303e-01 -2.115938142739118843e-01
-3.306624416780922227e-01 1.650237819121908867e-01 5.698027613810644487e-01
4.356159069631383440e-01 -7.439597052644830733e-01 1.395830573457000068e-01
2.250683570633791111e-02 5.387545970107341514e-02 4.959774197410958541e-02
-4.833613481003546375e-01 7.453886289891806793e-01 -3.842730176821068100e-01
-1.861767264603848490e-02 5.233111900554743290e-02 -7.786971178657154935e-01
4.255549302109708498e-01 6.110202717097052982e-01 2.314587496414533332e-02
-2.511429113416768083e-02 -9.727107570588100494e-02 -5.965904846618854673e-01
2.660197726971944704e-02 7.069095525521422452e-02 4.278395716387550785e-02
-3.606866930252994874e-01 -5.364877365179130386e-01 7.425041792825285425e-01
2.007531323216782126e-01 -3.943313728875700863e-01 8.298636326114892103e-01
5.616659859141182043e-02 2.131975421470849175e-01 1.033830031214563738e-01
-4.208506583632261044e-01 -4.038629296322027162e-01 -2.514256296378187816e-01
8.503865858188600635e-01 -3.073645119691012506e-01 -2.445713185152037505e-01
4.307417731562177554e-01 -1.824318985849368857e-01 -5.746338213172402787e-01
-4.934588250042636071e-02 1.499763274869503338e-01 4.704651047374334150e-01
-6.489891433617658301e-01 3.578922242597964987e-01 -6.467957975827358652e-01
5.868595377922952369e-03 4.883074024306555821e-02 1.175019706369787205e-02
1.319692106785121111e-01 1.764442065303713503e-01 3.144513161947871116e-01
-6.836419891428848761e-01 -4.326112227776200414e-01 -1.617628199183385462e-01
9.923175489831835040e-04 7.316912765822246312e-02 3.076176141603612427e-02
4.207399554706388323e-02 -6.074555708383807540e-01 -6.315316415329752520e-02
1.335901686252160547e-01 -4.649644890127527241e-01 -1.542875259847106550e-01
-2.551136207920046695e-01 2.106424822515733930e-01 4.835479259572815769e-01
1.365249684962125364e-02 2.397398118281425169e-02 -2.798365311955542268e-03
1.827481536716471788e-01 -2.810049595185286075e-01 -2.962880215810460571e-01
4.342066881214788898e-01 4.286642219345725424e-01 2.115108187192899225e-01
-4.194195572638135389e-02 1.622296937551373497e-01 1.282181982940751030e-01
1.522964520568061697e-01 2.603796119461266323e-01 1.800773142872254817e-01
9.436548991375054429e-02 -3.661628352134247977e-01 -1.666884048134596452e-01
1.065015316455987494e-04 1.304043229788719449e-01 6.433520785037349921e-02
-3.613547373600340708e-03 1.962613855560629839e-02 -8.364495117518647160e-03
-1.148274788199556695e-01 1.958751301269540390e-01 3.655213182899542113e-01
6.833949232945273344e-01 6.057207496695790061e-01 -2.317863990867155832e-01
-3.618768285589624156e-01 -7.193767532335718640e-01 1.120040785516512594e-01
4.701491091363017572e-01 -3.174944311739393288e-01 -4.342445493400705625e-01
-2.741564866729803707e-01 2.120502129421076576e-01 4.913049582637061263e-01
4.380041727682237873e-02 -1.532566226622011085e-01 -2.930317427951353304e-01
-8.180758414631272846e-02 -1.905028114884041446e-01 -1.551387247313888718e-01
2.122969616572211449e-01 -4.872441343840697159e-01 -1.752145198652464986e-01
-4.134977044660853585e-01 -6.383084239275649274e-01 -3.488818065626243022e-03
-1.992367423031409304e-02 -1.334352409506027182e-01 -9.228531219788375928e-02
-5.653543586317200109e-02 1.729986797749527294e-01 1.708578371104230165e-01
4.218132527031828033e-02 1.033019964266430057e-01 8.006163665643638294e-02
-4.645751747845716650e-01 -3.350830015176691767e-01 -3.292662673587635203e-01
-6.495241211107112278e-01 -5.607426377340588575e-01 4.827518579021639611e-01
-6.109127981260021878e-01 -5.953730622264270522e-01 4.859119867297455042e-01
8.708894642547424514e-01 2.527461880533070082e-01 -4.399448086714940476e-01
-7.119475445367393074e-02 2.600943756652392969e-01 1.497055316837140604e-01
3.463643586435539296e-02 1.522711762575666428e-01 7.751121137182824528e-02
1.550870578073198780e-01 1.585502885868827205e-01 4.369174203641271181e-01
-5.997297664787323290e-01 -5.137320348078334709e-01 5.977080768843884284e-01
1.173132676606425256e-01 4.137155736181408194e-01 1.165921875446509354e-01
2.377193887900508062e-01 3.875776609620265600e-01 1.734777412247887340e-01
9.868690611905193144e-01 1.366173613267556708e-01 -9.163417081648410345e-02
2.852708201217630801e-01 3.435779851471090218e-01 2.321074810564720536e-01
4.679461278920103717e-02 3.807437696052649589e-01 1.108914469603710373e-01
5.554706080520355888e-02 1.508810504622498105e-01 2.930148573402971413e-01
-7.691203679668807691e-01 -2.193298360226028643e-01 -3.367184343153383774e-01
-8.318315932841876537e-01 1.539785919209979148e-01 -4.726000315212340319e-01
2.740263516795457197e-02 1.486578804981274482e-01 2.945369051651522407e-01
1.042669702223549127e-01 -7.248659029823803501e-02 7.674663182583053578e-01
6.360233222697784239e-01 -5.774352704135221614e-01 5.011365999495214218e-01
3.708406258476433237e-01 6.153777159729963975e-01 -7.131186640026913048e-01
1.834151077911739813e-01 2.011938483012120915e-01 3.239797484008883899e-01
-1.092581250489523328e-02 -6.618295502429470956e-01 -1.779935058939395229e-02
-6.103795017532406830e-02 -1.351070376650986837e-01 -1.504986327817847691e-01
4.987323595582643376e-01 -2.510461858380521605e-01 -5.042793844981310336e-01
-9.765594332111569853e-02 -2.425553689350052056e-01 -1.599915042097057871e-01
1.662841855843599503e-01 -3.680414977872333848e-01 -2.133561324233812229e-01
-1.022412656544732963e-02 1.516643928894374216e-01 4.272039230223761974e-01
-1.501011203691729468e-02 -8.445108534813369761e-02 -1.397799695659429631e-01
-3.886040790448801185e-02 2.164001330050634164e-01 1.190541878541997722e-01
1.946881560533373634e-01 2.222072073869047759e-01 2.893854135637624614e-01
-7.621484688634284910e-02 -2.421874800449896337e-01 -1.443918703179251917e-01
-7.126740892353358725e-02 2.777822985797807065e-01 1.471757462282146656e-01
9.861323647305088314e-02 4.062235659504186414e-01 1.141785153555076732e-01
5.342035030555790653e-01 -7.379270806836335517e-02 -6.471401275908071904e-01
1.787744553698912900e-02 -6.326528227312936403e-01 7.590394279562994173e-01
-9.443034906232479209e-01 2.482330336057109177e-01 7.737327123974195586e-02
-2.240336353944660797e-01 -7.663327576002170183e-01 1.504887313101047341e-01
-2.410714042185402028e-01 4.759153879160673561e-01 1.790531943750162669e-01
1.644183521962387928e-01 2.418544492644919830e-01 2.106780924577421610e-01
-6.345092161799067987e-02 -6.467686904622875765e-01 7.459243588451615059e-01
8.475259887730599712e-03 -1.485988233048857188e-01 -4.004765809166572765e-01
-8.439104928468251290e-03 -1.691472234035960517e-02 -4.180749881567291659e-02
1.090104976491820810e-02 -1.492867838762867438e-01 -3.886132724791245274e-01
1.206098243287601762e-01 7.627365860466901737e-02 6.167222561419247739e-01
5.570937179692001529e-01 6.167800859242793532e-01 -5.663268055705102944e-01
2.846661068742576406e-01 -3.342584618897742610e-02 7.149990470618980964e-01
-2.911875771195659990e-01 2.228865370210852681e-01 4.835758273692919995e-01
2.062223670490781757e-01 4.131731031729501957e-02 -7.750669306681566839e-01
3.322482091871774568e-01 6.484933159956274284e-01 -6.709421564409821098e-03
-7.309314077091290107e-01 8.742275902591843673e-02 5.161440774944776599e-01
-7.451531995705738820e-02 -6.662553191006032050e-01 7.285028629981117332e-01
1.190457831967375001e-02 -5.082697384441886568e-02 -4.872709310231810448e-02
1.427752957541492673e-01 6.171899459774261576e-01 2.832461589277035854e-02
2.528486910923568032e-01 -1.345004967874926238e-01 7.792493345194304588e-01
-8.422925289920352165e-02 -6.948550633209606975e-01 6.997795909948082427e-01
9.915922447683109819e-01 -2.322438009545762724e-02 -1.558518315473505778e-01
3.563827558844657739e-01 -7.867577807303267612e-01 3.931297613154636217e-01
7.844661863050110540e-02 -1.813944685836318127e-01 -2.300399835526631964e-01
-8.289955650155429456e-01 -4.189136964044622990e-01 2.424787448598709691e-02
3.257680934712248351e-04 6.553536555294298127e-02 7.453875720595860843e-02
8.028894475640532269e-01 4.915399001142763957e-01 -1.711445026667928193e-01
-9.248136805381410586e-01 2.630033237213081354e-01 1.212781930486994952e-01
-5.062426383667827101e-02 -1.200542778421672813e-01 -1.776124231434014489e-01
1.096361380025864113e-01 2.625362729056150424e-01 1.387757868277509909e-01
-1.495169617746123503e-01 -6.899889741188013348e-01 1.932225528331234232e-02
-2.527583340238853324e-02 1.935064671862550267e-01 -8.516613423238206249e-01
-7.851807523213752416e-03 -9.349688670076754249e-02 -6.933820801366198661e-02
9.174697560413344055e-01 2.450183960477876899e-01 8.417621918808944337e-02
2.247761817663779527e-01 1.074397085565081539e-01 5.698626266364655857e-01
-3.499098668724227867e-02 1.452740058069894036e-01 4.781827480350283044e-01
-9.477810286496131387e-02 2.326784083237480594e-01 1.970624852879604150e-01
4.289704250296644261e-01 1.918542947113003883e-01 4.737825718876937375e-01
-6.100126066411860615e-01 -2.077818518539983061e-01 -4.438057067386292909e-01
6.316347089420200345e-02 7.748621285070619313e-01 -1.380580263799359442e-01
-1.867721396718548532e-01 -7.085293294716819013e-01 4.534409546291173765e-02
-3.396713358937990535e-01 -5.896695545559595963e-01 -7.129211628747073037e-02
-4.257768768255859593e-01 -6.693742070330903626e-01 4.923058150578780295e-02
9.157220282080266172e-01 -3.407017865528463862e-01 -3.767657663524865558e-02
4.012221410919258879e-01 2.136172704953944179e-01 4.441216187967844120e-01
-2.584667410633430598e-02 -8.313721547493974073e-02 -1.256611718437237180e-01
-2.306053164697626293e-02 4.576052444677251585e-01 1.050816910634712331e-01
1.816037645220236196e-01 -8.276497373992415252e-01 3.624071398827343193e-01
9.599593106388109032e-01 -2.211023660511411085e-03 2.018640352491707923e-01
-1.884317558638717305e-01 -2.518531722873830758e-01 -2.562410401968074902e-01
-8.790556644803014796e-01 2.106639864175511856e-01 -4.016189734572616077e-01
6.621607304982764231e-02 7.655374914759019989e-01 -1.228074633516584441e-01
6.636139542400203151e-02 -5.966604898414263891e-01 -7.318107208062932245e-02
-9.947574820035415266e-01 7.969982085597127064e-02 -2.259367422136362644e-02
-9.363810261454553752e-01 -1.864502367373475078e-01 -1.080839967051072242e-01
-3.974511636344601334e-02 -1.736744214078644599e-01 -1.149197856315258143e-01
2.850112654758695310e-02 4.772222545354524725e-01 9.446115869629434503e-02
1.258259163289186522e-01 2.002406050107292945e-01 1.968443360564681444e-01
2.020271130583601304e-01 -6.204822240883621776e-01 -7.864983473344909493e-02
8.184642214691426054e-02 3.492359603554952008e-01 1.181020797771597519e-01
-4.256205881577856259e-02 1.796101343135338702e-01 1.235757698680387123e-01
3.602806007531281773e-01 -7.485610841303259599e-01 5.164406168487754023e-01
4.928398486172511639e-01 1.141513088710253560e-01 -7.537731576245934040e-01
3.786982781739860471e-01 2.304415779294975986e-01 -8.187233195124140606e-01
-1.263040469897002208e-02 1.235405220605870075e-01 1.704785593508870989e-01
3.761797096415996355e-01 1.067517156868131867e-01 5.731678219694091858e-01
3.738243194325823748e-01 -2.148399108939919866e-01 7.738333837349075095e-01
2.138825872157474328e-01 5.944378934099316947e-01 4.653028874398216358e-02
-2.300929413220175260e-02 2.020964787799789386e-01 1.037370903347220180e-01
9.291030523330029434e-02 -1.863917250331098285e-01 -2.947073360444514289e-01
1.673698714875927196e-01 -2.202286406595495294e-01 -3.811930370968580895e-01
-1.584943530733050054e-01 -2.146548951288925478e-01 -2.638119526621237054e-01
6.483387603699654056e-01 9.259578695417691740e-02 5.087131813297239846e-01
9.193650558455477434e-03 -4.105238219603627586e-02 -3.791407254045781050e-02
-1.310117106451595403e-01 1.118484190514769244e-01 -8.065892466035523567e-01
4.091538136738538389e-01 -6.986710651319131271e-01 1.786788485007715158e-02
-8.854990836109813968e-01 -3.636274543964837513e-02 3.988880971502289929e-01
-4.882452448993609279e-02 -4.548130378766095383e-01 8.404911182046693741e-01
2.782233329341920469e-01 -4.736660510166074700e-01 -2.129414545309430973e-01
5.588174477065185330e-01 -3.597620004837950164e-02 6.335499359748946180e-01
5.869766493381937261e-02 -2.608114264187016418e-01 -1.554142181770258313e-01
3.944962363728114485e-01 -3.669358243994128022e-01 -3.635052057393850511e-01
8.802924681712839261e-01 -1.920052678598322196e-02 3.611938299534524499e-01
3.150783216351010774e-02 7.844212644805920176e-02 7.677766158491479420e-02
-5.837013232231783588e-01 1.852997142141813713e-01 5.282827901038897878e-01
-6.587329104615702660e-03 -4.621165867014812717e-02 -3.969856556782268980e-02
-1.872200417805969241e-01 -1.439899096215006002e-01 -5.041044116729622715e-01
1.278412627103301391e-01 -2.335602513730754559e-01 -2.678744675718780499e-01
-1.694934730844897541e-01 -4.552620792448141551e-01 -1.386420014507847021e-01
-8.968795167577576777e-01 -3.140174777945325402e-01 2.768793911400742602e-01
1.145833786239576664e-02 2.689405884963342111e-02 -3.103295366894215802e-03
4.997841546862547696e-02 1.230607742934265031e-01 9.099301435554420225e-02
-1.810495947563107999e-01 -2.705688259806769413e-01 -2.297601694284067964e-01
-3.056374545506293158e-02 -2.818208625076999430e-01 -1.321479858456268697e-01
2.953869890580014812e-01 -4.812638666286214728e-01 -2.141480523608496056e-01
-5.813158585741236006e-01 -3.322584812956687061e-01 6.980756852824751002e-01
2.094488215908014636e-02 8.988985577862136644e-02 4.350272281909719346e-02
-5.404116792178188800e-02 1.741043177260900854e-01 1.566369902733809882e-01
-1.596493945871755790e-02 -1.015394115545632248e-01 -1.745834350626811471e-01
-7.797199054879337954e-01 -9.232338328577814612e-02 -4.296710472713382578e-01
9.077925982612392586e-01 -3.791921908558629206e-01 7.276999635375587527e-02
-1.014334342703305247e-01 1.757095965958291595e-01 4.258315196166900796e-01
-1.354897512112317182e-01 7.114544973305221287e-01 -3.444818203705007215e-02
-6.467103313991816593e-01 4.871097792844906182e-01 -5.938137257090103649e-01
-5.580356572947621219e-01 -4.279543511230461394e-01 -2.249070905464156389e-01
-1.619623669130365318e-01 -8.211323755156522131e-01 3.584460381984355681e-01
-9.645744305454376777e-01 -1.845702733600891043e-01 1.323020812666277080e-01
-5.765753795946049198e-02 -6.644453192217653070e-01 -1.212656518736071089e-02
-4.816107592817329697e-01 -3.812798462857782122e-01 -2.816481797921339125e-01
8.572556530178326861e-01 -3.505012553334017622e-01 3.693145007823794845e-01
9.786450393494150468e-01 1.569909773031595290e-01 -1.611589840243148608e-01
-8.696009613533790539e-01 3.870846030291789641e-01 6.090674378989685556e-02
-4.330625370081275793e-03 -8.478558527418278423e-02 -1.424521647690898951e-01
-1.971415554988869417e-02 -1.380742918514916429e-01 -4.727198480847043527e-01
-7.817089650369944687e-02 -8.304671950370962064e-01 3.945308000342082622e-01
2.300892686088266137e-01 2.512599656217785471e-01 2.852618624341342057e-01
-4.197819413849578907e-01 4.125628957839717614e-01 3.079549689737902662e-01
-1.091390435923491053e-01 2.241980833977676446e-01 2.443347894550430555e-01
-5.977409906242848736e-01 6.571680497829668344e-01 -4.483000544655541542e-01
3.682619457130403839e-01 6.564251402513155975e-01 -2.256002504590453803e-02
7.830994119832429545e-02 -3.399351924110022849e-01 -1.625113116714459460e-01
6.496144603588775990e-01 2.332297744921627836e-01 3.889713971616428623e-01
6.879746769273286100e-01 4.727645190161622879e-01 9.291830774694403994e-02
-6.813406342846149988e-01 4.933462008526382503e-01 -5.509007845383280255e-01
1.912758250680966499e-01 -3.660447697729391492e-01 -2.340374764467279822e-01
-3.502396586157294212e-01 5.740521160577199966e-01 -7.466978558395480636e-01
1.932220190385816605e-01 1.255899173589408724e-01 5.342130805652348657e-01
7.736361653976888686e-01 4.859311703184235887e-01 -4.101543696958488971e-01
2.016841888361955645e-02 -3.582240338082448017e-01 -1.395248354073671815e-01
1.422490468301790822e-01 2.736606537086423430e-01 1.631980916560974715e-01
8.154292830173643924e-01 4.579172917118952135e-01 -7.887982581450594943e-02
-8.713678714911283762e-01 4.311009862792605229e-01 -8.433610343501531104e-02
-9.009980923955768217e-02 -2.192156231966810032e-01 -1.574868989226091698e-01
-8.090163049576181153e-01 -4.592900784433440742e-01 2.986370763747428492e-01
2.568353589962969318e-03 -1.675256257704630519e-02 -1.411229642314349754e-02
-2.897879580684263323e-01 -3.665842742286214428e-01 -2.373550947108457876e-01
4.324690600421357001e-01 -7.550040382970815145e-01 4.111511892395209866e-01
2.309375310276989834e-01 -1.812463281328466902e-01 -5.275466702582101153e-01
