-4.949839773743844318e-02 -4.541732765709547981e-01 4.689653517359381185e-01
-6.093151817696559336e-01 -2.302425824955066924e-01 -1.105643840488037266e-01
4.038497421133320220e-01 -8.379574185731417102e-02 3.201507515238026236e-01
-6.025114524999157783e-01 4.069356067022557588e-01 -6.264571112924467444e-01
3.756536989988010777e-01 -1.553349415874422448e-02 6.248808654242733462e-01
-3.480387827322213301e-01 1.432299830760052628e-01 -3.735551474446699993e-01
4.654606669194180646e-01 1.591247292386985257e-01 -7.078656146261561588e-01
1.369949651024527093e-01 5.131412878146646150e-01 -8.248176748847635409e-01
-1.474201411696417496e-01 1.165921970204776559e-01 -7.963573839501189022e-01
5.733087963578122892e-01 -5.805929642733270724e-02 -7.213910762561719092e-02
1.292321586783442833e-01 2.155723733693721278e-01 -8.612034678170197299e-01
5.275871992568986757e-01 3.032342064774131707e-01 -9.402830621276712930e-02
-9.209607421671577310e-01 1.697892211144252372e-01 -2.905968767235733163e-01
-9.303326793423408736e-01 1.086391771077780677e-01 -2.482392526221528090e-02
-4.799098415660302819e-01 1.298062131213823227e-03 -6.466683337410045196e-01
-5.021147947390597333e-01 3.236067738420166928e-01 -3.151264030749457712e-01
5.263058893061097754e-01 9.607760786674875153e-02 3.536771994835126720e-01
3.508235807867529643e-01 -4.394431645313595092e-01 4.548331436547033979e-01
5.034548563294977130e-01 9.965391412981838837e-02 -4.571702991719291120e-02
-6.298675037824641443e-01 -4.582981754602996061e-01 6.289602355817264234e-01
7.273498176939473536e-01 -8.755800074295876090e-02 -1.806575379675509907e-01
-4.189304083501401710e-01 -2.767709396576314429e-01 2.527845324076846145e-01
-1.531605320218482336e-01 7.762175055588804717e-02 -6.703009505230872467e-01
4.293671686112499053e-01 5.128682818186816039e-01 -3.985280465893008550e-01
-1.400927916640744009e-01 5.423982894079508732e-01 -5.935105872655451753e-01
-7.617343043084557896e-01 1.278054983138227985e-03 -5.638375803599510183e-01
-6.876282339107643304e-01 -4.824149063987043795e-01 3.220961171277150759e-01
1.446818525444249492e-01 1.215462410224474182e-01 -7.350822553910271173e-01
7.674068009623938869e-01 3.929994690032199145e-01 -1.241104590698753340e-01
-7.831017727331155420e-01 -3.046184855312150663e-01 -9.869816824340914285e-02
2.893625743625697355e-01 1.613407216437479919e-01 -4.167474283708613725e-01
6.248218368831630620e-01 1.032714055405492132e-01 4.662778626161054318e-01
9.174393983651523143e-01 1.044775592912523809e-01 -2.631486896909884798e-01
1.087329021966918913e-01 -2.160911877626351674e-01 8.871170815681984623e-01
5.665442156345647934e-03 -5.646502865716885866e-01 6.012525172155726016e-01
-9.407165052242774106e-01 2.992103472607436990e-02 -3.510269139354835755e-01
-8.176560243199609834e-01 -2.585484031628349499e-01 -1.795450381122516981e-01
4.026057861196999932e-01 -8.935427581597153723e-02 3.189999624658735322e-01
-1.823716035132335322e-01 3.906894655530606109e-01 -4.458497041583177056e-01
-5.169833725201706809e-01 2.357329713754283684e-01 -2.376291274129916364e-01
-2.313876012948518079e-01 -3.184776442076259206e-01 8.858363797380407467e-01
-9.274330606789642495e-01 1.545585104840105362e-01 -3.051435433875048231e-01
6.845068810639693968e-01 -2.213006907043976734e-01 6.798929771123080057e-01
-4.499864123072013777e-01 -1.548745445978570896e-02 -5.878057338301512225e-01
5.840663426773336914e-02 1.612028276787141057e-01 -5.207965409837623794e-01
5.522060749564171589e-01 -1.717222599913854203e-02 -1.239049163639485279e-01
5.362160233839138312e-01 1.330276176506711983e-01 1.698954794728311790e-01
-1.561427942822178269e-02 -1.426958674391297921e-01 8.058042559555790296e-01
-4.916754145625446548e-01 -8.704219422531039863e-02 2.625165007050856425e-01
-3.919633498768547719e-01 1.593166403242477630e-02 -4.531944367088074355e-01
-3.456707876756547060e-02 1.448126967848914204e-01 -8.202777407452951364e-01
5.878572979427840739e-01 1.475719128611416575e-01 -6.364050769532593188e-01
2.898957168794497608e-01 -5.289867275970911997e-01 6.965782001762658160e-01
-2.210621518987787859e-01 -3.283181578916873899e-01 3.970508786608978324e-01
-5.744897974962678289e-01 -6.624188907852818220e-02 5.188418180734422069e-01
6.907598919962881778e-01 -3.853003433395962851e-02 -2.851573734241119595e-01
4.654340881267695490e-02 -3.750973361724559973e-01 4.520568386149249052e-01
-4.331461650049090450e-01 -4.798137401359214849e-01 3.509988918458135099e-01
9.039757603379600104e-02 5.780005283408182759e-01 -6.828461609381007991e-01
2.567280587775503872e-02 2.738537073705102909e-01 -4.490503846242236974e-01
5.950655160755426998e-01 -2.170491460251311733e-01 1.366501859131793450e-01
-9.025787404264186131e-01 -2.165649112023833867e-01 -1.778680450069981545e-01
-9.309941477347468686e-01 9.025223109313958159e-02 -3.682313952964253456e-01
1.597300736312127212e-01 3.682853800622310492e-01 -4.084273626916006261e-01
-8.921675614846205082e-01 -3.504616659737764262e-01 1.942597929762763243e-01
4.872455731372849624e-02 5.091778488733922359e-01 -8.383579171813149156e-01
7.654954414943081487e-01 -2.188672760380149518e-01 8.658216885502993676e-02
-8.270249137071642442e-01 6.217426547028345046e-02 1.966033969273265902e-01
-3.881381000447091667e-01 -2.995173793274724106e-01 8.317756421993998117e-01
5.112738510528676006e-01 1.031791958739662063e-01 2.038126534770439910e-02
5.240928716144864774e-01 9.679168005870460167e-02 3.318847824216464848e-01
-8.383894358309987860e-01 4.667235567683562097e-02 2.159943382782947285e-01
-2.424769620592834296e-01 2.848786760981318333e-01 -8.958840793769664579e-01
2.918724882289325251e-01 1.978509239364510119e-01 -3.792757633686346108e-01
5.170316589921715167e-01 1.789191862890935009e-03 4.134609374685829786e-02
5.130548793547876629e-01 8.518556006983317441e-02 1.405653804083657199e-01
-3.553310825564200415e-01 3.076512159289333526e-01 -3.708888743421054901e-01
-5.223380887363127112e-01 -9.714030181823998800e-02 8.611631494241447915e-02
-4.720040775011409839e-01 -2.611682414566385627e-02 -3.407439856795264621e-01
-8.425186010026455286e-01 -7.057894039664218411e-02 -4.350514812749232685e-01
-9.891633295106990742e-01 1.255831853883794709e-02 -3.088915361464713433e-02
7.903005299235190684e-01 -2.658706140748818281e-01 2.165931904516868733e-01
2.974348940504346617e-01 3.521511391702012994e-01 -8.569030649123637877e-01
4.391789613408043635e-01 4.851189991734019546e-01 -3.502154435921677189e-01
6.429347541876110350e-01 2.998756264080524869e-01 -6.631788517124715954e-01
8.494161783826490453e-01 -1.746608193198928571e-01 5.733806595426987895e-02
-5.948130425660151932e-01 -1.174351703099595079e-02 -6.261586074414772218e-01
8.211543035828985371e-01 1.896649185955300854e-01 -4.590547961656619158e-01
4.747790658782101159e-01 2.076382731294161565e-01 -7.430965985294220033e-01
8.489863049914740945e-01 -1.175744096398860655e-01 -6.559558813168743507e-02
1.599688826105475498e-02 -2.488670100209732505e-01 4.683390665744567860e-01
-8.523233782029594474e-01 2.521815063631607234e-01 -3.051392367151997131e-01
-1.727041249169314341e-01 3.398772948033293440e-01 -4.338215695053436738e-01
-1.843641845948888192e-01 -2.086267575670890384e-01 4.612584340385909032e-01
4.362876347585802339e-01 5.515543029327842905e-01 -5.209217594415467278e-01
-4.171803266367601348e-01 3.527283879425029828e-02 -3.651352416096692588e-01
4.162582866323914499e-01 9.003747786998656660e-03 4.431291294772553568e-01
3.007865344442706701e-01 -4.758083697984691329e-01 8.046694970056567087e-01
-9.786833914187025307e-01 -2.868573255672815167e-02 -2.309424894092587943e-01
1.190688198280700633e-01 -4.111828827125523778e-01 4.595569358356005329e-01
4.424743329374416501e-01 -2.243431897743191628e-01 2.756633317110501746e-01
2.390607042162137385e-03 4.662481419195551591e-01 -4.786414702042959823e-01
4.318183161032968509e-01 1.228145564764829556e-01 -2.703535413233235651e-01
9.423593422528164787e-01 2.354109025499123431e-01 -1.301451402349516340e-01
-8.936469436983836001e-01 -3.486534871500225896e-01 1.885671936559374651e-01
2.387892832373380847e-01 -5.889084442860533647e-02 6.547581286253918442e-01
-9.380293853287833272e-01 -2.758884901451860716e-01 3.744280436564891013e-02
-9.600333480860233637e-01 -4.765370788117737760e-02 1.680759258117920651e-01
5.365594359923619994e-01 -4.378562213109196688e-01 4.847213988617292135e-01
-4.037325112581942044e-01 1.215446290569807165e-02 -4.360217341774572652e-01
2.563882103707039728e-01 4.481184715224276749e-01 -3.980419903715637364e-01
5.775137837983743694e-01 1.908363514961904372e-01 -6.764716463769580024e-01
4.383179897623502019e-01 -4.062435463471122388e-01 4.077145047632723673e-01
-6.418305996118064960e-02 5.207688312199461045e-01 -5.383893333876420551e-01
3.569502842003626775e-01 -4.005035929040563492e-01 4.169204518389508785e-01
-8.761384495059686417e-01 1.739136969809504107e-01 -7.662877866303285934e-02
4.044412121070769528e-01 -2.219922185124096059e-01 8.433677997193171905e-01
-7.596396510116153467e-01 -1.497007233128918868e-01 -3.895214766119841632e-01
-5.148384136152487356e-01 -4.848388468898522374e-01 3.215098465061517197e-01
6.101596440109133823e-01 2.207567381097834402e-01 -6.713262323140122279e-01
-3.936456133387646883e-01 -1.811648080233974056e-01 3.204532649159972935e-01
-2.177350744813036088e-01 1.485193213928881761e-01 -8.384274145087174945e-01
8.204199432262697378e-02 -5.453610006119156139e-01 7.907914431221230167e-01
-3.435497358517821676e-01 1.210958203071584999e-01 -3.886690510014720323e-01
6.823782136457564595e-01 -1.010698574529377836e-01 -1.355764466543240288e-01
-3.729334971840566060e-01 4.136079359547694678e-01 -4.311635405464469550e-01
9.389385053961419869e-01 1.027081476032303820e-01 2.251738752422184076e-01
-6.537823176881468745e-01 1.152482278837838880e-01 4.610307883463879430e-02
9.269406244617545143e-01 2.034818969852274506e-01 1.027422480435070951e-01
-4.597371316499214156e-01 8.732397119481329073e-02 -2.573901607805613168e-01
-4.383423842976703622e-01 6.178734615414502307e-02 -3.029298246091844393e-01
-5.459593748540590985e-01 -3.302311990392271801e-02 2.875370041789028774e-01
-5.499493121162183362e-01 -2.540060313818922819e-02 1.408993600698524584e-01
1.115850618038219666e-01 5.526803423559640827e-01 -5.523669308724017402e-01
-9.919635024353948838e-01 1.848546841770554519e-02 -1.290927567990139413e-01
-4.210257948587033949e-01 -9.014198024439899759e-02 4.725633585524131042e-01
-2.568672537374906972e-01 4.853799863197394426e-01 -8.096819370463673726e-01
-1.362504921684399573e-01 -1.514248837152817606e-01 5.428675144778948303e-01
-6.482912963325958566e-01 2.002622310397844663e-01 -9.597112989854029996e-02
-2.582797398486111340e-01 -3.850773026565080803e-01 3.835490370939544924e-01
4.684694522242586756e-01 2.564974152374064897e-01 -1.504486486596297301e-01
-4.941606643809323129e-01 -9.010833997523561012e-02 2.435807118114413361e-01
9.441907671152562909e-01 1.061381160911582244e-01 -1.990436756130344043e-01
-9.039828017771049939e-01 1.194941726959935918e-01 -4.218573587778036704e-01
-3.186421339562428012e-01 3.201283970365816078e-02 -5.766223727691431877e-01
5.146121939971861625e-01 -2.023880216833769397e-01 1.964457387784119824e-01
4.842228931472745690e-01 -2.396187819296329846e-01 8.144573604074699658e-01
-3.739356252531868957e-02 4.073760486637104661e-01 -9.026796616687093877e-01
-3.144491740943157199e-01 -1.166807782055449133e-01 5.266831293587010965e-01
-5.724880589903061923e-01 -3.854074911967351746e-01 1.540435144997526207e-01
-5.029333027631321951e-01 2.933957083605842620e-01 -2.892581321658665439e-01
-3.792129535073584523e-01 1.049333957350930685e-01 -3.600659418318187255e-01
-4.319031450153377194e-01 -1.807422313853978557e-01 2.645488542207908855e-01
-4.426266235382954606e-01 -1.706263149834529591e-01 7.350711338912756521e-01
-5.275587020765434287e-01 -4.678322456345698765e-02 2.984545734458001198e-01
7.233084279339785372e-01 1.300786775450225585e-01 4.173816156981581815e-01
-3.241295221994955345e-01 -1.233178134973416384e-01 6.914738127781748789e-01
-5.525501867216628948e-01 -1.198134405396530239e-01 -2.470255442491891273e-01
5.251648857939567039e-01 1.043116888795338482e-01 2.606639598126317403e-01
3.206018422701961690e-01 5.502462739601331476e-01 -5.010638916928481512e-01
3.607779536552437327e-01 2.173294581352591959e-01 -2.995977781133548068e-01
4.685396793635020485e-01 1.873105187758932755e-01 -1.408698469036997192e-01
5.111792947517888180e-02 4.794580545401104787e-01 -4.795679910523241718e-01
8.719609818658494715e-01 2.946401862601029653e-01 -3.490878337501616691e-01
8.945246119771554927e-01 -1.206408307646404943e-01 8.114014068578022723e-03
8.739321134706362626e-02 -5.159829731796854446e-01 5.340194998282422612e-01
-3.883535291883056240e-01 4.792501946864563545e-01 -5.236402961785744381e-01
2.785800286777438961e-01 -1.467309319066548712e-01 4.215629788940582490e-01
-1.380844995925122921e-02 2.738065238611706032e-01 -4.515082861157323491e-01
-7.260789393570272754e-01 1.412721311622698317e-01 5.202061396764232071e-02
6.927830642851664500e-01 -2.179771569219897398e-01 6.725575186381255177e-01
-4.702942544791900992e-01 -8.163113481343567401e-02 3.615569536942868090e-01
-3.857167746160419103e-02 -1.459639309800622453e-01 5.597658889339403032e-01
7.328127355910968310e-01 4.412114443632279004e-01 -4.284895382984297285e-01
-7.413153738882179850e-03 1.074163027653677049e-01 -6.228162558967018647e-01
-7.565466681234488400e-01 1.610654763175530524e-01 2.091495525958201457e-02
7.693832037060069906e-01 4.090116291089793132e-01 -1.806770164942011481e-01
-2.862322477067330007e-01 -4.115680097946223248e-01 3.777810707257409084e-01
-7.056229304926165957e-01 -3.307834616191575039e-01 -3.191692171521800375e-02
6.280960287133239284e-01 -1.180000849273089014e-01 -4.643518869620907180e-02
7.253061804543673441e-01 -3.386411553039451738e-01 5.129525509585466381e-01
8.471987418157179706e-01 3.528533663964752987e-01 -1.221932560860416184e-01
5.588272043846116421e-01 2.781570509505212896e-01 -7.236723777320581696e-01
-6.629482856990057682e-01 -5.906105405508975392e-02 -5.491793682935903753e-01
-2.146480827679164149e-01 5.451629424077129027e-01 -6.746877508122047784e-01
9.300667453196060919e-01 -1.085168651440413384e-01 2.931567142008738025e-01
5.877824053829677764e-01 5.023789891995733559e-01 -5.509624393536056708e-01
-1.281931841660420013e-01 3.519093746047516347e-01 -4.414108950008714949e-01
-2.310238322396952482e-01 4.815947812440218301e-01 -5.078019979466383838e-01
8.382125008286923640e-01 -2.406523655207480905e-01 4.152369785489999909e-01
-5.026762386772659630e-01 -5.386674930457695520e-01 6.250527309319251490e-01
-2.541213017988354084e-01 -5.514590395158723846e-01 7.664510275703698694e-01
-1.242214503560992028e-01 5.510197276706193525e-01 -7.430582939153613786e-01
5.726453829444835275e-01 -1.665849162435031547e-02 -2.230349375001446921e-01
-4.466063035745649334e-01 -8.138734083384320528e-02 4.600021759355262252e-01
8.070944929061251161e-01 3.928483282688286504e-01 -3.509021470454647407e-01
-2.227277290008582156e-01 -4.400332382125751729e-01 4.171727689467985001e-01
-9.758810061208254005e-01 -2.130015360865794571e-01 1.308822487212478736e-01
5.069948223250633212e-01 3.895784750235228855e-02 -2.629039930973014472e-01
-6.216354742760092922e-01 5.298855987661115624e-02 1.363506604335772698e-01
8.930907993511900955e-02 -1.126337722325587293e-01 7.709755870249207499e-01
-5.939882107152637258e-02 -4.945353755966226950e-01 8.648770305383473023e-01
6.603527637572129683e-01 2.670209681430416038e-02 5.796369621581963782e-01
3.637978696764449515e-01 2.214747271558766550e-01 -7.992875242142721826e-01
-5.347163991837505792e-01 -5.350320352703563653e-01 4.379966806289106729e-01
-6.109337142721040781e-01 -5.185794736976515606e-01 5.168794475965671209e-01
7.223421041049926661e-01 1.235662038377492722e-01 -5.232021352758938759e-01
5.125671988741685725e-01 2.980015565293729907e-01 -1.097594779519007330e-01
-6.425865580073862882e-01 2.911456091899137788e-01 -7.093876023062282155e-01
-6.698639312731253792e-01 1.694101994502560382e-01 -3.296817951908449784e-02
-9.234298146344679381e-01 -1.431946968855776214e-01 -2.563229307920806832e-01
-1.684154280971804363e-01 2.157702639348663409e-01 -4.490921073215214943e-01
5.718699341495473432e-01 3.635945566744315238e-01 -7.113220270441605875e-01
5.153538719317664052e-01 4.113898150960052513e-01 -2.158254402525180415e-01
5.200826888036998996e-01 -4.735579867452205730e-03 3.197840732094139882e-02
6.608312882904078256e-01 4.638136838536308648e-01 -2.714248710817089294e-01
9.235703911061156068e-01 2.150404345573877496e-01 -2.630871344599326478e-01
1.179464687509384872e-02 -4.979311285179414681e-01 5.065663908424294926e-01
-7.738413138835700256e-01 -4.266342401392511086e-01 1.974741531967692532e-01
2.484996665399609450e-01 4.637599205332278429e-01 -4.117105489185460265e-01
8.582934089625817720e-01 1.653895501664745804e-01 2.791012191362156614e-01
3.785685194863216974e-01 -8.504339619957749716e-03 4.971753874004678497e-01
-3.393874824322361539e-01 -4.167277914741641109e-01 8.451547955618456953e-01
-6.648327678089552273e-02 -2.180364812173392064e-01 4.831386653869483294e-01
4.506502284975991146e-01 1.623913215871587434e-01 -1.888380972591476581e-01
-4.457022734582904988e-01 -8.292540028666937901e-02 5.296824398889424801e-01
-1.509983266840655702e-01 4.917751363525597608e-01 -8.373989052491657148e-01
7.104758068264152016e-01 -3.509558799536744989e-01 3.883035854572761680e-01
8.594642376890847535e-01 3.512572817012858395e-01 -2.627013814404801639e-01
-3.149456980969148057e-01 -5.177756680311205173e-01 7.891994560705486439e-01
4.838301850355921085e-01 -1.810954797784602721e-01 2.163260970677527151e-01
-4.013348960814025479e-01 6.671689860999480137e-02 -7.451823020093557570e-01
-4.878400251709222313e-01 -2.690401818086711749e-01 1.614871135977303807e-01
3.173279422639523339e-01 5.651902982530065955e-01 -5.519410697509277153e-01
-7.312319257904130732e-01 -4.710184753912342592e-01 3.874187057862527039e-01
5.889368138992028268e-01 3.768022100277856890e-01 -1.171649053494118464e-01
-7.708921370855438271e-01 2.939352541261808227e-01 -2.644768505288370153e-01
-5.378738509145418734e-01 3.132044949872566653e-01 -2.903864306881931978e-01
6.831656327867186018e-01 4.677042576730655599e-01 -3.085898464411062636e-01
-8.635781003272531287e-01 5.209720033429405400e-02 -4.894159372492821181e-01
-5.911467894582846938e-01 -1.867615516170063328e-01 -1.644238838711467032e-01
-2.582735003371110505e-01 -1.248235005322464869e-01 7.061301651142521951e-01
-5.134349637456052662e-01 4.354187436700938107e-01 -4.666993958687216670e-01
-5.762848975485264091e-01 -1.524461998714770061e-01 -2.213687843137631117e-01
4.509551923198008572e-01 2.826579877737752777e-03 3.074867488490022338e-01
7.988072896073297180e-01 -3.148400529983829549e-02 5.324683169750970002e-01
4.260311422828140793e-01 -2.586153260238650553e-01 3.025509717580443514e-01
7.836825960702012983e-01 4.591670216490342793e-02 4.887027010463195209e-01
-5.878677046485086821e-01 7.191979553104849154e-02 -7.106072077690586131e-01
-3.093438719615845822e-01 -5.181375751892464132e-01 4.465114286815449196e-01
-6.111364084860860801e-01 -2.320956882982369296e-01 -1.105545301547467829e-01
-7.355630460331159526e-01 3.416686235346243494e-01 -3.847124025329153318e-01
1.173124630944254870e-01 1.088709468701493516e-01 -6.496269523874248497e-01
-8.324115946669894406e-01 -2.590650512675526373e-01 -1.705068480133814235e-01
-1.675937165723354882e-01 -2.276263085358559979e-01 8.660531455844885373e-01
7.286040871037143818e-01 -2.295681590808809278e-02 -3.141937415118393750e-01
7.987860036944740560e-01 3.177185572046880013e-01 4.488818061967520673e-02
4.593491076420900265e-01 -4.906550198310395856e-03 2.698432492700151286e-01
-5.781252388452284841e-01 2.705131785383464368e-03 1.863651340316264393e-01
1.908481180540388955e-01 -3.154026510770103209e-01 9.074720555657239673e-01
-2.859153533349906851e-01 -4.102923983485568526e-01 8.654988066665265656e-01
-9.735735334607560354e-01 -1.304091195759343735e-01 -1.614757308858386642e-01
4.164610643714849458e-01 7.650246121939159594e-02 -4.542141011471294010e-01
2.778457729743809557e-01 -5.148844308586251195e-01 5.639943334635043604e-01
2.235135120145482768e-01 -7.370674019286145573e-02 7.169506831384977463e-01
7.720219546093360918e-01 3.931578522425305811e-01 -1.291616143366449421e-01
2.376912208820279315e-01 -1.390760479896598345e-01 4.580045358132993072e-01
7.287417301104878176e-01 -9.186892117455676410e-02 -1.716252287263913545e-01
-6.961390874905554194e-01 -4.759203070849622741e-02 4.543666868455288332e-01
9.457422765046957780e-02 5.396911011464853303e-01 -5.337890460477517918e-01
-5.929792138316449801e-01 3.874788272991482874e-01 -3.877982137407353092e-01
-7.462289334647843608e-01 -3.692967536908481341e-01 3.463340202512786570e-02
-5.593196609681485576e-01 -2.244670702975680165e-01 -4.117030192776883687e-03
-1.261305507723049779e-01 4.552100898341256974e-01 -4.817803256766837738e-01
2.066492635406933787e-01 1.213353507170694540e-01 -5.499385456338898859e-01
1.626786625594383792e-02 5.527923456116878853e-01 -5.751496752183166139e-01
3.966860272573713986e-01 -3.661902031948934821e-01 8.370487072755267155e-01
-3.412874026152837859e-01 5.109085076183659258e-01 -6.972155006474307637e-01
-4.038600943029977408e-01 -4.500757903314090980e-01 3.367832771663701874e-01
-8.863177811852842591e-01 -2.664671382446618386e-01 -1.051916573420606932e-01
2.717617570216881440e-01 -4.353078719603896696e-01 8.534767161845527861e-01
4.266563519998006204e-01 -3.589417860302794305e-01 3.639668357891613359e-01
-5.831648764310671806e-01 -2.439176216014361520e-01 -3.227116339889702507e-02
-5.836393406545210306e-03 -1.133860479499278623e-01 7.358892346527839967e-01
-6.623722781981906671e-01 1.329921820557722623e-01 2.258679844140991724e-02
1.238750458053512610e-01 2.401022638339589677e-01 -4.434876621502071292e-01
-7.766071619428017714e-01 -4.447221243016957204e-01 3.123049148001142417e-01
3.462645486372789017e-01 3.888616325417563191e-01 -8.337049182251659030e-01
-5.815475216662520097e-01 -1.313500709830726643e-01 6.306511213503227520e-01
-6.604618677678202321e-01 3.867007140979898394e-01 -4.421987220454590140e-01
-1.883323617962887886e-01 -3.329522499671667135e-01 4.103804092053606745e-01
4.193586787159936380e-01 -2.166905974869304807e-01 8.369898866885940869e-01
-1.722691136219631769e-01 5.154333764507270654e-01 -8.014463547593102533e-01
-2.160035071784187632e-01 4.878278148830458294e-01 -8.227233142926292375e-01
-6.486668243373819864e-01 -4.896186937165363240e-01 3.189273429880810640e-01
7.517404072609289445e-01 4.140119169186832204e-01 -1.756559726810425770e-01
2.798203616968852336e-01 -3.806794922992561836e-01 8.775468317800602103e-01
5.594470273518570291e-01 2.531353908574711653e-01 1.053001251050113447e-02
-7.496791445587835945e-01 -4.534315826114857506e-01 2.768249643362062917e-01
-5.417616119484256476e-01 -5.183796485284623834e-02 -5.509562163735090001e-01
-5.338421465959461987e-01 -8.675871047839651962e-02 -9.250378767629137411e-02
6.998558154428704547e-01 -2.237121166853814069e-01 9.127591525154737928e-02
-3.334350842769519541e-01 -2.337483552900719019e-01 8.258590005462295158e-01
-5.793122401616150885e-01 3.078395598723640547e-01 -7.544566863859933914e-01
-2.356473004800604398e-01 5.410062944392981521e-01 -6.621221507461140243e-01
-6.594000422045240839e-01 -3.607975338108289076e-01 6.654616628209980567e-01
-1.203707185801993901e-01 5.585205864669947617e-01 -7.106606103610759728e-01
6.519859281233605364e-01 -6.134772842566300205e-02 -2.088736182864509849e-01
-8.933697446444829326e-01 1.782053835106184592e-01 -4.015674894387726290e-01
-9.601802885286246925e-01 -1.994942299893102400e-01 -8.887130804167467368e-02
5.756737542898644477e-01 2.551911481047360319e-01 -7.071896371432528916e-01
6.915743382289573082e-01 4.544716706500522840e-01 -2.607257807368244529e-01
3.342820926813207527e-01 2.903990371786866476e-01 -3.080787686251502677e-01
6.134869009493109093e-01 -3.786349936516641423e-01 6.525864836600705488e-01
-4.952147737397551430e-01 -5.109256548355086552e-03 -2.227386931956575611e-01
6.289345540159770875e-01 -4.031141296401296037e-01 4.750231133215516710e-01
2.285987963577433002e-01 -4.582059881204331164e-01 8.520846940300242922e-01
-4.690076729442700376e-01 -7.312391944342032379e-02 4.554691327816304813e-01
-3.916480163988438068e-02 -3.377510795874127947e-01 4.458617783715703164e-01
5.338050444354651702e-01 7.194357302244811826e-03 -1.208467555229233437e-01
-1.198995577429891601e-01 -3.555864165646392960e-01 4.311402428037398038e-01
4.526330665106834128e-01 -1.426504679406841725e-01 2.412422555363442356e-01
-5.381099398718477422e-01 1.563872013476449163e-01 -1.625115678934489494e-01
5.143099893772448139e-01 1.010168517348423167e-01 5.878664784521706738e-02
-8.632559816523459328e-02 -2.146542161186553999e-01 4.830188588530489047e-01
6.724487727907264567e-01 1.934989658603106580e-02 5.827987800890043202e-01
6.701092335268284961e-01 4.179081005953146910e-01 -5.852271578082439696e-01
-2.555267584551477178e-01 5.194689079280089689e-02 -6.216632396442627329e-01
3.182126271538393558e-01 1.146233098743607709e-01 -4.708512035468988555e-01
-2.225529135825778382e-01 2.589396935142877498e-01 -4.195001236249678023e-01
-6.244621393758135186e-01 -9.416117205695861969e-02 5.601383635427901186e-01
-6.188663943880858831e-01 -5.064863542249231632e-01 3.648561933207878361e-01
-4.843215107694497368e-01 4.032295464695682119e-01 -4.062785650484636579e-01
-6.330480877812129092e-01 3.934914346804471719e-01 -4.281104929620594968e-01
7.410858407136682313e-01 3.469093629567278625e-01 -5.488682126802560957e-01
6.702955418525130549e-01 2.798809060478426036e-01 1.111353659373499475e-01
3.992443470052670085e-01 -2.862816570293654772e-01 3.315588421891771387e-01
6.555043600379887314e-01 6.376202440952678796e-02 5.334533633708432587e-01
8.065639587209277872e-01 -2.231560219219985708e-01 5.215065841633458321e-01
-8.620283365309279189e-01 2.024298643683057897e-01 -4.571448635260165760e-01
6.014328939746866887e-01 -4.195895780292424604e-01 5.195760556034222377e-01
4.791777889550639102e-01 2.030877421498239743e-01 -1.180581956220103784e-01
-8.796198107039799874e-01 -3.912274932982000297e-02 2.991495359037244506e-01
-3.870154300934457448e-01 2.332486441987733361e-01 -8.545876717861837779e-01
9.456386815754869168e-01 2.247617794102574340e-01 -3.840229572963305832e-02
-5.352328826068802892e-01 -4.098377049205266520e-02 3.061789595043862833e-01
-2.112229402408632994e-01 4.574641204677468154e-01 -8.528974548431712543e-01
8.310446020716018289e-03 -2.423328815034821726e-01 8.976605887238727766e-01
-3.484134614840831423e-01 2.441124244093658899e-02 -6.341080151682682020e-01
4.442881370703238297e-01 3.012870265795103419e-01 -7.930128295347084189e-01
-4.467393618579837966e-01 -1.863242455201977732e-01 2.358315447038209778e-01
5.385158079671493736e-01 -8.637130067601160588e-02 7.310539972036802503e-01
1.132810180398108185e-01 -3.878932328060047396e-01 9.098497608478838261e-01
-1.482985099306234344e-01 -4.229364844775819199e-01 4.349202194632173502e-01
-7.876472641314787859e-01 -1.987732409960302760e-01 5.307816450210925963e-01
4.032523041630968752e-01 -1.310799491395087668e-01 8.015892508935493765e-01
-6.496611637075235812e-01 -8.151574855641322004e-02 5.297925436920166709e-01
9.612974804025844477e-01 7.800819405658299989e-03 -4.983379333433390207e-02
-5.613362155563381695e-01 -2.139192666322523861e-01 -2.222984787251336067e-02
5.124301792578558334e-01 8.212403807855966908e-02 1.100334157486488607e-01
1.152951610228319240e-01 -3.491202515802385720e-01 4.445276168570349018e-01
-6.738357845640312593e-01 1.203944083703676338e-01 5.785890046155237748e-02
-4.482083135968927268e-01 -8.917472792967504058e-02 3.957217523356728051e-01
-6.038093330019594918e-01 -1.938437936698481079e-01 -1.812789533953367005e-01
-7.563910701323403041e-01 -2.590994220938361292e-01 -1.901934770059903745e-01
-1.678381101040954670e-01 -3.564316256853083398e-01 9.019462025040837494e-01
2.780690607989210750e-01 -5.028060832084370047e-01 7.795819721868089136e-01
5.609182872456988100e-01 -4.312255944465916979e-01 4.870997550106610507e-01
5.050608936729564791e-01 -3.804241501124083769e-01 3.663353123194933447e-01
9.380264459452677395e-01 1.690014091785551342e-01 -2.315676324737736547e-01
-7.821693446971675900e-01 7.918503262881905480e-02 -5.898172479533272394e-01
9.288708022734134540e-01 2.364242247357556947e-01 1.749231810856936853e-02
-4.161096921471590243e-02 -4.297666080295164392e-01 9.024064461978925644e-01
-2.353458590873212797e-02 -1.111304497367275462e-01 7.110480606448714713e-01
-9.349360830771369368e-01 -8.392784267253459735e-04 1.654640004224385286e-01
-6.485015535215089555e-01 3.984863078535204606e-01 -4.950073352857559672e-01
4.305421751067195490e-01 1.828038746258113176e-02 4.299894348062679450e-01
6.313260018548996766e-02 2.642577708118110102e-01 -8.956798341949575581e-01
4.091582336180889928e-02 5.516806446288855525e-01 -7.785576919845501598e-01
3.415079664596925579e-01 3.878336202309840552e-01 -3.218001455528812227e-01
-6.137338073102609481e-01 3.345141719403146308e-01 -2.962352056654162791e-01
5.892616832489050438e-01 -2.264377950718244326e-01 1.524520407928319776e-01
-2.928609384211277034e-01 -4.804811608049944782e-01 4.148822270673687140e-01
6.817453942639815079e-01 3.220267815253413102e-01 -6.254872075777015983e-01
-6.128729236469377950e-01 -4.962948965181950278e-01 3.283033636976334657e-01
6.032098881584119221e-01 2.184251455342759232e-02 -4.208884650747110046e-01
2.537754616850528833e-01 -4.762779704039065143e-01 4.991671302158239842e-01
-9.798156642591960841e-01 5.982744039963493188e-02 -1.282149736644898341e-01
1.311418132610913390e-01 -3.218540964387802683e-01 4.404713118736597877e-01
-6.420082799875876933e-01 1.431912902941051557e-01 -1.667448420831484437e-02
5.717755677528860714e-01 -1.543863364587670997e-02 -2.262429859788917252e-01
-2.934411925796181486e-01 -5.307261134208361986e-01 4.681491721478939216e-01
4.282916758732810414e-01 -4.915465373113871994e-01 6.144761360396747696e-01
9.042511671423152375e-01 2.378968826593038099e-01 -3.074225212536465524e-01
2.369233191828321317e-01 -1.489503092644205717e-01 4.509751814700526662e-01
2.207374197817539851e-01 4.989328756161798273e-01 -8.195255228825644167e-01
6.659182698225567243e-03 -5.776070296254007808e-01 6.541823928793724097e-01
-1.314990932120088662e-01 -5.864058216955991831e-01 6.870343042043792758e-01
-3.688664999107532649e-01 -5.429590788393301448e-01 7.277549102558403815e-01
2.703355586641733588e-01 1.302727730489195990e-01 -4.821223141566021164e-01
-5.388588720355298456e-01 -2.766016132458914423e-01 8.540158000929207183e-02
4.550004801627309248e-01 1.580162010327550992e-01 -1.816507724420405312e-01
3.487434305870233953e-01 5.666956665328137799e-01 -5.798510245296131238e-01
5.774471626289454651e-01 3.920092484219620532e-01 -1.471928482071763744e-01
7.044218456108007897e-01 4.272316081856335490e-01 -1.821029109525765799e-01
2.819113698800979617e-01 5.726332091160397653e-01 -6.450792253306394386e-01
-5.850675039437253089e-01 -1.948538087052290035e-01 6.879057144867105622e-01
3.585668945259283813e-01 -1.159622572493414355e-01 3.623167533362611770e-01
-7.378085604396639186e-02 -1.270231262523121019e-01 6.017526212687126508e-01
4.864735106446685386e-01 -2.632628860704150919e-01 2.629230938842335719e-01
6.662911818637524686e-01 -1.571102673870225508e-01 -1.052522264725907000e-02
-5.243362704693703691e-01 -5.435887750594942114e-01 4.758756223375587013e-01
-5.820864496387511133e-01 -5.099998097708486888e-01 3.634687822505761612e-01
5.936879857810791750e-01 -2.843637205671137314e-01 7.432738685411740542e-01
-6.143428613846790842e-02 5.401231457366679756e-01 -7.900556131003395599e-01
-6.649512868731971560e-01 1.532766401017994773e-01 -1.031652003971167408e-02
-5.152946471161490294e-01 -5.469838802387758658e-01 5.675468667801607525e-01
5.097724775957817034e-01 -3.018110457562168114e-01 2.799266984808354009e-01
4.834136956436367316e-01 2.393395445618785033e-01 -1.196739782025973003e-01
7.573591361687895818e-01 -2.846697628071744313e-01 5.499127228907441101e-01
5.335154465368305843e-01 -4.155018370055027542e-04 -7.117356713993193418e-02
-9.189284680327955979e-01 -7.869629987145045080e-02 2.819795292302363920e-01
7.673504354195929966e-02 5.284748686673618190e-01 -5.219533790672306051e-01
-2.468752630392282155e-01 -3.505855159176114455e-01 3.845139463389923851e-01
3.256872558381309068e-01 1.422572287831686266e-01 -4.067074273749088364e-01
7.654244678501315180e-01 -1.528073351747161468e-01 -4.623725948714758893e-02
4.757571108612729249e-01 -1.171803469522975094e-01 2.027062652828235945e-01
5.474894165839537807e-01 5.743838959448996362e-02 -5.114296688390738144e-01
-8.539708539506318807e-02 -5.797795849898293996e-01 7.283311041037452416e-01
-3.016553424231627201e-01 -1.138943743113014356e-01 6.569274218537087817e-01
-4.544648846723730595e-01 -2.989247949994366590e-02 -4.409450312528920835e-01
-2.525492582211980030e-01 2.912588970157335422e-01 -8.946235870492418307e-01
-2.893558332148157830e-01 4.717393057563242786e-01 -4.982182634512089536e-01
8.466297610122791584e-01 2.616032724934309606e-01 1.252374802658616226e-01
-5.365883276961789239e-01 -3.193114418797922405e-02 -2.615114941427149411e-02
5.699771669558175713e-01 -1.610369406747556853e-01 7.556319040014002342e-01
2.046070746251274497e-01 -1.831240904310686701e-01 4.490820344044967327e-01
-7.503389128796524865e-01 -3.477461535172822193e-01 -1.084493890701330489e-02
2.696707189797854509e-01 -5.347892027832649164e-01 6.945859854323855886e-01
3.132378215655129416e-01 2.288532996712146217e-01 -8.215866685068017317e-01
-4.589755425016899815e-01 -5.771827998261377414e-03 -6.241377460650060494e-01
-9.167166449862788058e-01 1.193568901801115717e-01 -3.913912833279670211e-01
4.074410693061628064e-01 -1.613599363013586419e-01 2.963563693664715837e-01
-5.804277147791893077e-01 -2.936731195381659526e-02 3.957567247091541840e-01
6.885161138121682622e-01 -3.551815376086824294e-01 5.646060223379864018e-01
3.313534220457463597e-01 5.292087778683384203e-01 -4.550419852849560409e-01
-7.791739850502035214e-01 2.737629429279714866e-01 -2.176048382370932011e-01
-6.631396743307581623e-03 -1.464032174769275274e-01 5.557377611469185297e-01
-8.582039938352291342e-02 4.679688164823429530e-01 -4.888877135942021890e-01
-7.926627212127536071e-01 -2.382089446851452796e-01 -2.270117632004395314e-01
-2.594701123303510062e-02 3.028560403920585453e-01 -9.120508703092712333e-01
-3.113660059831979687e-01 -1.467343721405355572e-01 7.447715789934965525e-01
-8.057389059395551056e-01 -8.241963973740487615e-02 4.274930755640233282e-01
5.629541651637341992e-01 4.034687049573681267e-02 -4.647589659140836105e-01
-5.157778177159000332e-01 2.001098177234853989e-02 -6.780011759281143746e-01
3.833858327920195430e-01 1.781577780300571401e-01 -2.948158133817264659e-01
9.052283380673403768e-01 2.983914892561724264e-01 -1.303291075138983124e-01
-9.678533609121443559e-01 -2.266405148287919391e-01 1.701662431861307098e-02
-7.861730364585526321e-01 -4.050428411701699760e-01 4.678457299859456464e-01
-7.887795277992691867e-01 2.997203506800878436e-01 -4.731379634565816561e-01
-4.826920883891916425e-01 -3.603176822777288957e-02 -5.480560394310460826e-01
4.845932686561921915e-02 5.745057051906242718e-01 -6.381735670912793701e-01
6.177934358395446024e-01 -2.025964849276004620e-02 -2.979916122850944094e-01
4.501659771492986795e-01 2.758011926363725386e-01 -1.826174229409303351e-01
-8.564887862033340737e-02 -3.490646671644808130e-01 4.386220288840416148e-01
1.911854329547464926e-01 -3.567045624041366714e-01 9.047738631585202640e-01
-5.554955276203275005e-01 -9.509761664975507900e-02 -4.249359585281367591e-01
-1.581169890047514071e-01 -2.365101221997190639e-01 4.515377451677111131e-01
4.258791983617950527e-01 4.960060222743863378e-01 -7.284253651991459133e-01
3.621616422202752483e-01 3.762798910912033001e-01 -3.027404478702602764e-01
3.980297432343075648e-01 9.701456659003633576e-02 -6.227426242784400712e-01
-1.882081217396623929e-01 7.047061426393681771e-02 -6.370402686451289709e-01
4.965153042591990418e-01 6.299297696569835375e-03 1.456758425875664953e-01
-2.154135358681480150e-01 -1.270712915162360845e-01 7.214877856778131315e-01
4.841128007017041907e-02 -4.294816691443613665e-01 4.674578625832617740e-01
-3.728932829086498701e-01 1.198654651211859476e-02 -6.021080180437018425e-01
5.879802700858491882e-01 1.772862127293031165e-01 2.257501708990194422e-01
-8.848030847890683281e-01 -9.084833431380648361e-02 3.453172707692521159e-01
-2.556699935742817731e-01 -5.848862597964074039e-01 6.280318084401351753e-01
-2.704079722267271890e-01 -5.380534504657396022e-01 4.854832561857937989e-01
-7.634280632064874839e-01 -1.605376634661760116e-01 -3.709521519446777327e-01
-9.108384668254221328e-01 1.654029372131018416e-01 -3.608822944330943305e-01
-2.284435869160029720e-01 4.944369291429188684e-01 -8.100663413931757928e-01
6.223846693107640826e-01 5.297778137739802412e-02 5.548505290598828577e-01
-4.582645933986956299e-01 -4.369647959358550215e-01 2.926436304238019814e-01
-5.913404684587747484e-02 -4.999575192145214175e-01 4.973409539705993532e-01
5.436490952152667200e-01 1.563396615179137028e-01 1.334847728262664457e-01
-5.689531944594963253e-01 2.219491689987785898e-01 -7.755718118192447275e-01
-5.345514962250333957e-01 7.045967108893218429e-03 -7.307878237716462777e-02
4.136512681670331260e-01 -4.023670113381603297e-01 4.072992258190146209e-01
-5.807109555782311583e-01 -1.463163793744301500e-01 -2.661920033339486569e-01
4.285256939989795510e-01 1.264916541066723743e-01 -2.720791780881761102e-01
-5.288160891020864396e-01 -5.436371865109605045e-02 4.544839213030624214e-01
8.438587308913837459e-01 2.579745803100560453e-01 -4.290215173359986367e-01
5.821589278608586548e-01 -9.312722309433860146e-02 -1.904373764032955829e-02
-3.304021730149857006e-01 -1.233556597731800819e-01 4.861378504913854148e-01
9.701132509829399897e-01 8.464704470174398698e-02 1.391565007102004148e-01
-5.326368372204024482e-01 -6.798065908689733539e-02 3.894447548832388750e-02
3.568724853491041238e-02 1.401164198095323499e-01 -5.513127702284684739e-01
-7.179720448828724733e-01 2.976939490247358933e-01 -2.379045781911350577e-01
8.752334098340202040e-01 1.153862286368124851e-01 -3.460813313999880902e-01
8.743438825268595727e-01 3.360188520780186816e-01 -1.599283174791618634e-01
-2.830625452714226331e-02 1.115176082852613604e-01 -6.014187535877137947e-01
-7.320451200597792862e-01 3.227921336672417429e-01 -3.069530971209625814e-01
-3.479178461721574300e-02 -4.104103872132237596e-01 9.090823843904624058e-01
4.239243065479601502e-01 -1.243659388875536925e-01 2.785679348088331841e-01
-4.461637758900334483e-02 1.093325429339476323e-01 -6.014668355312962067e-01
2.062109983584701212e-01 -6.763897844669407300e-02 6.557090294358967064e-01
-1.881532456610557069e-01 3.145181881910192323e-01 -9.055597471063132620e-01
3.528344056873242152e-01 3.797058408746898928e-01 -3.107284209129797525e-01
-1.674058183350245477e-01 -3.270291375966801750e-01 9.007675465688936844e-01
2.885323955396219484e-02 -2.998983719967895922e-01 4.528374053993254322e-01
-2.512872517654084550e-02 4.996018502098751868e-01 -5.087603095013584209e-01
6.272954806206761935e-01 4.006142436340669466e-01 -6.471197677984501517e-01
-2.801682509355445938e-01 -4.053464126319999972e-01 3.785339153610989271e-01
-7.490227857861389005e-01 -1.199975818180785692e-01 -4.383339347553358301e-01
-6.336826353544098289e-01 -2.346338096620284031e-01 6.782392320612761205e-01
2.901776912072102088e-01 -2.544433437339461146e-01 3.859562904097639247e-01
-2.616320228248937285e-01 5.291808620412951081e-01 -6.081478257882474425e-01
-1.814708284031600338e-01 5.413814339459021019e-01 -6.067759043073920333e-01
-3.502900407067551236e-01 -1.328564815478641969e-01 4.401923116489237509e-01
-8.026612021803336550e-01 -7.015569292464723938e-02 -4.695814157754678586e-01
-6.552198474553984076e-01 1.297943128186286321e-01 2.075670763833875956e-02
-6.790989856994138485e-01 -4.934840468309571460e-01 3.751792460908280336e-01
3.054034171812484155e-01 1.879105011681635184e-01 -7.947218165615151930e-01
-4.886977459593608852e-01 -4.388327194441921097e-01 2.752254974561954004e-01
-3.593486124600518972e-01 -1.346967661346555323e-01 4.254535594310856483e-01
-3.486714215363605485e-01 7.870807983712557743e-02 -4.170737813215034673e-01
7.824584418926303631e-01 -2.632088678439607407e-02 -2.829598086595835893e-01
-2.439390127962583754e-01 -2.420345807913137914e-01 4.102907721172366351e-01
-2.289463933537327356e-01 5.307643522132566849e-01 -5.948790864057255101e-01
-3.845498763589532132e-01 5.021860277341851919e-01 -6.015481700202319759e-01
-3.902859194529160747e-01 -1.427495696817938364e-01 7.167400376042916132e-01
8.325222023621313694e-01 -6.405014655893780107e-02 -1.807193357151596624e-01
3.547568132762808357e-01 5.421328012558029874e-01 -7.031751726354402710e-01
-2.248292522794211393e-02 1.544066237089147531e-01 -5.277680085595624071e-01
-2.924081265658726170e-01 -4.011903997961677182e-01 3.709073518730828245e-01
-3.257691724121676291e-01 3.474255871438660659e-01 -8.717542296560495396e-01
-8.644833242136649998e-02 -4.123005738112967555e-01 4.465298799790047291e-01
-4.874511522633205307e-01 -5.551229904492849254e-01 5.272073505256684722e-01
3.564660824444077503e-01 5.521376030391155210e-01 -6.770509315517533322e-01
-3.982972656417189117e-01 -5.154861196374814769e-01 7.509988820351590766e-01
6.721225683730086553e-01 4.328449016175581199e-02 5.556585640534592585e-01
1.435980840171771356e-01 -4.942849583825937865e-01 5.149659166917073261e-01
3.750977658510960544e-01 -1.110955052011861760e-01 7.904102119316125385e-01
-6.622794015953870073e-01 -4.121014189811805783e-01 1.380546978950956127e-01
-8.082542882742875801e-01 -4.074823795769365598e-01 4.087530747567471590e-01
4.069451733724669951e-01 1.405750815096213913e-01 -2.949881455667619501e-01
-4.250444377830862042e-01 -3.067240880543323778e-01 2.490923160964364780e-01
6.447491860727532220e-01 -1.263516028156181914e-01 -4.942068106865896843e-02
-1.010474696064262712e-01 -1.597506040533307192e-01 5.364360969473160878e-01
-4.555624993769908926e-01 5.789702306546083699e-02 -2.746979263957158302e-01
-3.186983458761281640e-01 -4.166676118966430864e-01 8.527479939461668490e-01
5.026234231858139889e-01 -4.371896220647188414e-01 4.617849609011284162e-01
-7.111500870040499134e-02 3.228635308541763504e-01 -4.435967467116174734e-01
-2.755136664294381976e-01 -1.608449478882425510e-01 4.624689960276681111e-01
-6.365712418819176044e-01 -8.503650021951524030e-02 5.408543053577949955e-01
-7.519926691998807256e-01 7.793733559076970741e-02 -6.161238639374968518e-01
-4.867270321054197740e-02 -3.452567678715553479e-01 4.445001781802646601e-01
-2.447704316263581148e-01 5.384914544652081858e-01 -6.478789793230441685e-01
-2.615678658147364555e-01 -1.734079225367587684e-01 7.959343039482982274e-01
-3.045448009596238292e-02 -1.122392895605418828e-01 7.142487879887684521e-01
4.201690556008232935e-01 2.717574885007380536e-01 -2.200367757984755257e-01
5.113924305019137417e-01 1.283770856339668254e-01 -6.528631487694597224e-01
-7.014946215280937203e-01 3.038016626163282941e-01 -2.458739930276278018e-01
-3.819600451727206414e-01 -1.914848069542799958e-01 7.779598565176826241e-01
4.734849308789387257e-01 -1.957668756093253470e-01 8.110481244774113696e-01
3.956363899263284356e-01 -1.119465531355239435e-01 3.187600232459708582e-01
2.608020976560768700e-01 1.060012758711304653e-01 -6.496399914245377660e-01
-9.451995759516200746e-01 -9.511334232262509680e-02 -2.708230309163364158e-01
-5.876058523293845592e-01 4.598662665041058917e-02 -6.900602444421477522e-01
5.282463335344753652e-01 6.702983208279708616e-02 -5.365402291696014236e-01
5.290254673790201201e-01 -7.827130681345982610e-02 7.280473554051876128e-01
-5.459713312214826697e-01 -1.109589612479935580e-02 1.176425224474508639e-02
8.671571119531629179e-01 -2.635606142486353332e-02 4.467140286606352539e-01
1.477969366658291317e-01 -9.725326151087548832e-02 7.517134439765935650e-01
-7.451295480807460514e-01 -1.069922178056973983e-01 -4.583430501564569326e-01
-4.878261899127213641e-01 5.183607807644460873e-04 -2.406109726800732262e-01
1.477417552737434470e-01 2.741174958032063236e-01 -4.215581928191095007e-01
2.593346753264719196e-01 -5.231606458156650152e-01 5.780090933557343602e-01
-5.122074435250794089e-01 -5.706314048248748577e-02 3.202159269755874282e-01
7.107663426930247441e-01 -8.364805116287182818e-02 -1.866216154319552678e-01
-4.373654155679394528e-01 2.277450482366037976e-01 -8.370208716037564889e-01
-3.301334064007480085e-01 7.207358866130529618e-02 -7.499109744971247382e-01
1.116176220403128500e-01 -5.664121462048445910e-01 6.675208258815740203e-01
8.326074498157874926e-01 2.662619838206500833e-01 1.295015567549107072e-01
9.118971856894261818e-02 -3.371266956330126185e-01 9.181192739473690301e-01
-7.684171335987315388e-01 3.510945834382584591e-02 2.750102365498596213e-01
-1.998697229872400255e-02 -2.226170528433314422e-01 4.826649904755579423e-01
-3.749302504508510991e-01 2.147202447561542826e-01 -8.534133561571151105e-01
3.064590602694658439e-01 1.355688078828742038e-01 -7.295298900701381317e-01
-2.710730618856719842e-01 1.275827862694404735e-01 -4.468718348275411700e-01
-6.360030864979391296e-01 6.907503466164208183e-02 1.210872657190469881e-01
-3.242213888649531639e-01 -5.612926013396322134e-01 5.171593699846452896e-01
-8.090051502013649865e-01 -4.192441390738975704e-01 3.606470824822962662e-01
8.421112618504736913e-01 -1.519690153764738649e-01 -2.302404372755187910e-03
8.168848777150298224e-01 -4.653479845119469493e-02 5.203314436511236041e-01
-3.300131639733407951e-01 -1.408642525789496336e-01 7.296645620704114155e-01
-6.101177758120487349e-01 2.702954383065542254e-01 -2.100196343147971156e-01
4.442993299236193683e-01 3.443369235771056025e-01 -7.947231165460992841e-01
-5.413921941955884831e-01 -3.835529588879464657e-02 8.054503194946309452e-02
3.721390905147718420e-01 5.241569952782696440e-01 -4.348375116562647746e-01
-5.331078343144001197e-01 -5.260029470140827057e-02 -4.461007519349392825e-02
-8.633681759036174741e-01 1.940879803099090639e-01 -1.084530539015033379e-01
1.634721328013361286e-01 -2.523582542691866770e-01 4.400328295413117874e-01
-4.680051708524200493e-01 -5.567089190915813779e-01 5.127385283997913934e-01
-7.687402430091573313e-01 3.051738652880290337e-01 -2.973919699643683412e-01
9.478533099532930883e-01 1.186801417486668814e-01 1.827671158588403955e-01
-6.450439259975909723e-01 2.283041607780397428e-02 -6.476560006800724523e-01
-3.776420470303115673e-01 1.509419590327159277e-01 -3.436703798646327246e-01
5.706310956691174052e-01 -7.077909535361662230e-02 -3.598696001359708019e-02
-5.083542329710117880e-01 -8.023715620851233632e-02 2.110957214121862713e-01
-5.522170031754892738e-01 -4.326302762526588741e-01 2.280349282223407270e-01
3.003519840250543638e-01 -1.526496848729760603e-01 4.006426516972420027e-01
-5.530550885287970342e-01 4.210634775515132433e-01 -6.714598389746830875e-01
-5.960971413820125298e-01 3.308458606779855482e-01 -2.933263904982006953e-01
-5.861938750769933870e-01 -1.718558897564251980e-02 3.448306292764156677e-01
7.370247995136931518e-01 4.349775156382195140e-01 -4.385963641439508121e-01
-9.029268722860280816e-01 -8.230842029721273378e-02 3.112159989054045228e-01
4.358475316891081142e-01 2.828260099495351065e-01 -2.028548989770750377e-01
7.658168788815961081e-01 3.330580934857942555e-04 -3.375665295105987340e-01
3.081328588134151225e-01 -3.811347069695355527e-01 8.679961925513506316e-01
-8.355730331119863852e-01 2.571654549353683539e-01 -2.551793235959988193e-01
-5.424593279926138711e-01 -1.522255664575211942e-01 -3.370150651902131117e-02
-7.696011678513808851e-01 9.136936371790141398e-02 1.613585135730483122e-01
1.699046443511712523e-01 1.172901001601240750e-01 -5.820569987877658447e-01
