-1.950930227919490945e-01 2.027248270834968724e-01 9.435665216025967972e-01
-4.983580317824219397e-01 -3.633022766538734905e-02 -8.032321745479342745e-01
4.584708510901908673e-01 -7.721876896993365991e-01 7.668243565982096888e-02
-6.644139575925813723e-01 1.562246940230172798e-01 -6.593365743068485552e-01
-1.188396490959434254e-01 3.856359683218354428e-01 -7.119155121781878259e-01
3.998002197067376251e-01 2.539904544446844881e-01 6.121640246292415766e-01
-5.414754987066259240e-01 1.897671941083050803e-02 -7.810617218301860731e-01
-8.208888776587441871e-02 3.107086692733306288e-01 2.180927101966097237e-01
3.080294669337830249e-01 -6.363775467942611730e-01 3.577015460222243703e-01
-5.556897212067655190e-01 1.158707305190185832e-01 -1.103786543169375280e-02
6.198224530392963949e-01 -8.071045508001634117e-02 1.676430187529451832e-01
4.471637784000590532e-01 5.213240087783081733e-02 8.732323725156131422e-01
5.315184298728905382e-02 -6.495708954200056506e-02 9.672751295278103623e-01
1.799989259146568821e-01 -4.449911822861352118e-01 1.179516673186676162e-01
3.568733793364535223e-01 -7.702052246327100171e-01 -1.395869625078488829e-01
3.042847096125484985e-01 -2.951846244090046423e-02 -4.106850491746213971e-01
1.853187870964126960e-01 -4.380294647038963096e-01 -8.834801382715020690e-01
-4.474464935301569191e-01 6.400514435413571235e-01 -4.906356265183541288e-01
4.688499988212692093e-01 -1.220901445952912445e-01 -1.584039008733499343e-01
4.456085889426860541e-02 1.633249909648517573e-01 3.233607793112492357e-01
-2.581159944672732354e-01 1.683934323577704062e-01 1.810153371249096921e-01
2.220507217040769421e-01 -5.242192582479583418e-01 5.139239662764525374e-01
7.775027663217983775e-01 -6.449331356252115954e-01 6.040379932333905105e-02
9.003518198871334616e-03 2.962666788902786341e-01 -6.469978921537414829e-01
-2.612587479934217471e-01 7.097331598675360453e-01 5.545522696166050869e-01
3.701514895491911927e-01 -5.858825851041780108e-01 5.619980358660925379e-01
-2.173227145823365958e-01 5.966378931068591074e-01 -1.970689417369271279e-01
-9.126977817137624238e-02 -3.057051016752884154e-01 -3.556088096775120722e-01
1.835221903118480768e-01 -5.084548145614951886e-02 2.905001239676049951e-01
-4.380964552263150735e-01 6.746862883315050130e-01 5.928733817782936288e-01
5.432083174554702687e-01 -1.247789048032515585e-01 -8.534675458955773286e-02
5.740069290221522236e-01 -1.171586215201784742e-01 -4.801524010563402306e-03
-3.338704105727289262e-01 -1.437763422900057708e-01 -3.824579618074709364e-01
-7.747146899048109603e-01 6.284724332562151572e-01 5.743207343810725202e-02
1.181102911272308292e-01 -3.469964974033316607e-01 -1.688899953745895688e-01
1.192525047654367232e-01 1.815257410479195754e-01 -5.921573007204288253e-01
-7.465353914391937851e-01 1.875198561682347997e-01 -4.552878487474265046e-01
4.248881518774977328e-01 4.803068727236688845e-02 3.119840984328630662e-01
-6.751847625095492855e-01 6.646888842533454911e-02 -4.003555311461941546e-01
7.596955163414631507e-02 2.764684523378621028e-01 9.650559147827073581e-01
5.315089090083091605e-01 -1.172585650620234371e-01 -3.533740788415398043e-02
4.403424180944090494e-01 -2.596214138275598216e-01 -7.902828387904363705e-01
-5.865904456266706202e-01 6.848979337297239622e-02 -7.447148597568407080e-01
-1.628693668463714606e-01 4.602972355677997784e-01 -1.992360784694248155e-01
-5.639301998473520428e-01 7.088061344631213512e-02 -7.762941409320461839e-01
-2.122266454527389212e-01 -4.069731171377605761e-01 -6.900142766422204810e-01
6.606561396911042605e-01 -5.556876557543399819e-01 5.214183948150751258e-01
3.301751144225338885e-01 -5.363428977393746022e-01 6.283494708742881629e-01
6.445400740941624740e-01 -1.869278151103777319e-02 3.964235281859666005e-01
-4.985643997152736095e-02 -3.046395375796365212e-01 -3.281018927220644699e-01
1.410331569286632503e-01 1.470488739723774599e-02 -3.940236502664687390e-01
7.659343446533213307e-01 -2.428650402582297196e-01 -4.967259783538657131e-02
-1.924986110387862936e-01 2.404972014710986539e-01 -1.667544427861743228e-01
1.048988145707515085e-01 -6.361234460797065005e-01 -3.766562287811848764e-01
-7.498605097405306452e-01 1.990567857221167414e-01 -4.602500293512203355e-01
3.586345794428225653e-01 2.189438157951042185e-01 4.682866832636810028e-01
-4.970114727626218087e-01 3.752795374377302928e-01 7.395093764156120963e-01
-2.157892378947935397e-01 6.556871416590732693e-01 1.777847023098934678e-02
-3.516934072595467309e-01 1.141092408025292382e-01 2.520991162669117824e-01
9.862653700272346058e-02 4.700669076888762676e-01 4.608949556467319963e-01
1.190482433854395117e-01 -4.849685398767650257e-01 -8.516566158383042096e-01
1.229882985778200793e-01 -2.912157780422026665e-01 8.384859356703987521e-01
-2.412063637566307372e-01 2.142200362731653818e-01 1.007296118704673338e-01
-2.451414215166732025e-01 -2.170627527692124970e-01 -3.989917654357019172e-01
-7.204141504081166270e-01 4.534880472226259784e-01 4.135288398737145266e-01
1.833006039721568614e-01 -4.831435480342236022e-01 5.401044129345133893e-01
-4.096274789138245054e-01 -4.158317080458532461e-02 -3.026352676022449062e-01
6.673270692951369654e-01 -2.624156536697827002e-01 -4.357268604977811988e-01
7.991160004110929860e-01 -6.140462372510755440e-01 2.843900409128112886e-02
4.553583036266354855e-01 -2.982661066371737890e-01 8.481959610583473808e-01
4.287215349291432220e-01 -6.269486527555510891e-02 -5.645097022373037898e-01
-2.181320308303882627e-01 6.055488035509007938e-01 7.420322205899823054e-01
8.895624821330018472e-02 5.260926865093940030e-01 6.024053605073816930e-01
3.273619693588376012e-01 -8.014697079190613582e-02 -8.127935124210745599e-01
-2.468905536190431627e-01 1.905956749182387278e-01 -9.328461977010795714e-01
-6.183977519876151518e-01 4.357526576787162931e-02 -2.952566101624424788e-01
1.723968586368613554e-01 -5.251020020112202591e-01 -1.568764242053642330e-02
-2.593838529158376538e-01 7.438925523988291211e-01 2.414564330990165431e-01
-5.889302352693823739e-01 6.417237671405089383e-01 5.043123232616532059e-01
1.542469527260308393e-01 -5.580921690364045729e-01 -7.815196034364351174e-01
1.620481076149516420e-01 -4.467794395462728052e-01 -2.942229887691324638e-02
-8.683447184061295065e-02 -1.980677242086908707e-01 7.096351287951514486e-01
-4.121880287226238337e-01 7.152038182372394415e-01 5.361601282974642890e-01
4.770902704589831123e-01 -9.645084886975856253e-02 6.412146717944791630e-02
5.380812337600689166e-02 3.875810762039458846e-01 3.457962405024334052e-01
4.313378463672865593e-01 7.477186561710666424e-02 3.455526854108624257e-01
-7.337471833348673256e-01 1.888347321838916848e-01 -5.110790242220702995e-01
3.234407383959437832e-01 -1.477789406048865828e-01 -8.567114743399012466e-01
-6.096821733381955211e-01 2.486257694185625700e-01 5.171094594830639712e-01
-8.038288340187993430e-01 3.837150562109397645e-01 -3.598171971002216973e-01
-5.681361328175065228e-01 -5.371217936442574531e-02 -6.417900886654911430e-01
-1.294109630575413505e-01 6.289489160109107413e-01 6.793811574275421261e-01
5.851959345148013414e-01 -1.477987452534132995e-01 -2.593100690337465930e-01
-2.720703453952316164e-01 2.016425550078071449e-01 5.141807632356367765e-03
5.814252103191577259e-01 -4.372467085005810605e-01 -6.509958304461214151e-01
4.532102035624985259e-01 -5.466707557236246684e-01 -7.145941060131117961e-01
6.731406664851838917e-01 -7.342670475775130434e-01 7.233707390259347392e-02
-2.203077241601887615e-01 5.865421905695675786e-01 -2.790508993147456374e-01
-1.765796404215106141e-01 3.443370939996204250e-01 -1.127944312810540139e-02
6.026972599957058918e-01 -6.272095058860097661e-01 4.695284669251572063e-01
-6.620602130018208298e-01 4.037823117942618834e-01 -6.324917042228103137e-01
6.089972680867270505e-01 -1.707993119343073907e-01 -3.467210029824319140e-01
3.649141501453942449e-01 -4.476802910095608046e-01 -8.214035860733165384e-01
-2.072428949478912208e-01 1.281625770940721387e-01 2.724128663919057614e-01
4.241114084894596070e-01 -1.189064885556527784e-01 9.125557658526793903e-01
5.601039190535643808e-01 -1.862701505378597522e-01 -5.614454814441878217e-01
-1.591628462729551552e-01 -2.133089131483284773e-01 -3.606960466602887605e-01
-3.865933515878507420e-01 4.859641511679470977e-02 5.201060085744575456e-01
5.955246876017216140e-01 -2.147185365415388292e-01 -5.300563146637469192e-01
-1.902117850063826110e-01 5.270339664716985340e-01 -4.362444275478464806e-01
1.238435930574973837e-01 3.203874626518594115e-01 3.779565285839190381e-01
-3.324679512642205736e-01 4.741681033331688333e-01 -7.219987664156656271e-01
-1.765173546176939112e-01 5.664845738154380417e-01 -1.683638484262541674e-02
3.993649196430245629e-01 -4.587256817375159196e-02 -6.193416506577579250e-01
-4.719800362613152944e-01 1.117021877543401959e-01 -1.258680296003252333e-02
1.364944787935848114e-01 1.601677643478893395e-02 -3.933850424643902111e-01
1.627916729904637927e-01 -4.471167893504761071e-01 3.108164175934476359e-01
6.826947611046055853e-01 -7.048951142061018471e-01 -2.388213281935357146e-01
6.606042599506477542e-01 -1.819039498235635044e-01 -1.931220982536793751e-01
5.551604314890128400e-01 -1.358743337588110833e-01 -3.113634120380333048e-01
-4.594066563171484222e-03 -7.976720024518060836e-02 3.867742697874144708e-01
1.081411155565587326e-02 -1.681664862394426918e-01 8.883405173498978291e-01
-2.181745859227715578e-02 7.531940436176211284e-02 9.871451596973006559e-01
1.107398571759463379e-01 2.183817084847091139e-01 3.444329641776950890e-01
2.625355301046721213e-01 -5.867865002091909865e-01 4.080700466613607080e-01
-6.131234123446951401e-01 6.225370920852323353e-01 -4.577169715128777128e-01
-3.582727828349841492e-01 -1.907293212405375138e-01 -8.458882203871783689e-01
3.716980952868266797e-01 -1.043291396779909286e-01 1.185824205882225757e-01
7.918113738261963741e-01 -4.159121089243584812e-01 -2.509094131291091379e-01
1.428138468553933060e-01 -7.220146988416187295e-02 3.062916238591483764e-01
-5.487907722072685734e-01 -8.497640598728689598e-02 -5.462040625721035214e-01
3.039874453957491229e-01 -4.149380046009909506e-01 -8.628077452887119581e-01
-5.955733476126532366e-01 3.682830027960085073e-01 -7.167317714463703471e-01
-1.555073373803317893e-01 -2.127849510983045311e-01 -3.591550811879661298e-01
1.633181938094475649e-01 -2.754955250229739194e-01 -1.523337506047797718e-01
1.139784363367122161e-01 -4.759106247988088012e-01 -1.594126252738065630e-01
-5.879378445924228203e-01 1.182404624670868737e-01 -3.190148237894416955e-02
6.444486131202631363e-01 -2.601341908105201939e-01 -4.873721576459985050e-01
2.937567400054073574e-01 -6.716582192614066749e-01 1.759093028741607057e-01
-4.169078288489779793e-01 -2.160831220624399585e-01 -6.996837826698706353e-01
1.594628129563742044e-02 4.689822882786492952e-01 3.421004916250312000e-01
1.391938528516845908e-01 -5.093733535575437621e-01 -1.134193007488686761e-01
4.305475248172637714e-01 -5.152592289321856756e-01 6.803009501744012866e-01
-3.979727033861629737e-01 2.433216587671857556e-01 8.173093656390352235e-01
-1.433226021789348881e-01 3.447855947435916613e-01 1.100612878385123228e-01
7.988238621653891147e-02 -2.830014187118874425e-01 -9.607118610877088960e-01
6.235617376687067059e-01 2.325128690547222793e-02 5.380733375429040954e-01
3.545197070642734927e-01 2.105470841859167219e-01 8.579881555347599331e-01
7.570360699847881181e-01 -1.589101159250879691e-01 4.138050489843825286e-01
4.101193726323693056e-01 -1.235913338866626299e-01 1.748577500430983575e-02
1.177533634248245226e-01 5.004992159652190686e-01 6.697192617582041763e-01
-1.644367884450273765e-01 4.409636671869486269e-01 -1.312901881135665749e-01
-1.447685863588902277e-01 1.374236069123715986e-01 2.840235174907138060e-01
-1.712241398137104298e-01 -6.457836432014624206e-02 -9.864234728865024504e-01
1.166018280113866462e-01 1.654806347038287051e-01 -5.441701235964738759e-01
1.119775199513019098e-01 -3.313418715529793390e-01 -1.838968617077149370e-01
7.895076742870105191e-02 -2.199244771237171270e-01 -2.610792077862857941e-01
-7.326326841006008950e-01 2.843872903599368729e-01 -5.599168611784838268e-01
-3.289115825802956250e-01 6.119163991886243936e-01 7.188597264864892145e-01
-3.829697452900528848e-02 3.465413566629454989e-01 -5.886314237857692699e-01
-2.719457061292440692e-01 1.978988245803738610e-01 -2.894526888717227631e-02
6.910581781715664507e-01 -4.309265269239517249e-01 -4.937822854083229185e-01
-3.353046511574536148e-01 7.664154409350877328e-01 9.193605537126189886e-02
-4.497334465653978208e-01 9.074641919602800810e-02 4.568473496169186965e-01
3.730432221607888899e-01 -8.498295872213199043e-02 -3.171339280903301416e-01
3.089389558327634150e-02 -1.307560972872361671e-01 9.266020685960255632e-01
-2.967242633962541287e-01 -2.261003409933264596e-01 -4.365498714184875007e-01
7.454921084006767007e-01 -6.840829013036420214e-01 7.462412680143874245e-03
3.247897153540794668e-01 -1.333992467715089392e-01 1.150809986621609549e-01
1.777496437332353185e-01 1.758376315233303733e-01 3.548610941156865595e-01
-2.200537579953162626e-01 3.100139561724604143e-01 9.270129443500975119e-01
-6.836494276966939010e-01 8.587744936634503223e-02 -5.274250173406010989e-01
-1.930736484935980379e-01 5.941292941126811167e-01 -4.393016317950147742e-02
-1.528863195803608910e-01 -4.221719039216152991e-01 -7.805343741749987130e-01
3.844872170019550395e-01 -7.075512609853118473e-01 2.615312241758990242e-01
2.614351802177075079e-01 -1.451442881446745325e-01 -2.179362867262801817e-01
-3.458155190717483451e-01 9.403751224037079637e-02 -1.462240875333372381e-01
-4.516596889416707450e-01 7.756671841794862132e-01 -8.117797820642372320e-02
4.793673684415959424e-01 -1.214498426057227520e-01 -7.315501113036519676e-02
-1.767811140420764981e-01 5.284810595319514581e-01 -9.450902580668232855e-02
8.337412320973223989e-02 -4.666161816386588113e-02 -3.408625840761267956e-01
-3.284867816365109050e-01 6.479015993843311172e-01 -3.954844425913155437e-01
1.781019188624529126e-01 -4.829756793887695077e-01 3.029699119101075255e-01
-7.238432213414123240e-01 1.479754503854906478e-01 -2.352028392080115771e-01
-1.542913193105643344e-01 -3.131835730103722515e-01 -4.021918696919371539e-01
-1.205901597329627067e-01 -5.068885682427697048e-02 8.922335040875063461e-01
6.686562777446829475e-01 -7.429011934964518948e-01 -5.556810577109646231e-03
7.534904938320895196e-02 -4.481318794518030502e-01 -2.211077172993711759e-01
6.599578171818325512e-01 -7.349267522602439540e-01 -1.853791602447557862e-01
5.617494132245298005e-02 -3.217591914061574965e-01 7.190190225330674867e-01
4.281559686439385115e-01 -1.440871145832227640e-01 -7.430382261296063495e-01
3.717749804655298695e-01 2.480950564847530793e-01 7.905958675322872775e-01
5.431775082107809238e-01 -5.668963312311133818e-01 -6.293730493387017511e-01
-7.553293792016501085e-01 2.674725890589306210e-01 -5.009619231745449097e-01
3.192224421741775009e-01 -7.601083621941618906e-01 -3.077478134285093203e-01
4.177645157151393396e-01 2.822847749773937237e-02 2.876683487409618656e-01
3.797024365574590554e-01 -2.066522639228392522e-01 9.112090935363869049e-01
1.662243419772503061e-01 -3.823051204366494371e-01 2.212097601880545217e-01
-6.314016706938964107e-01 5.873360220735140969e-01 5.049631818438029551e-01
-1.721788142881578165e-01 -1.160318458308470524e-01 5.954210638021978363e-01
3.447217865272402815e-01 -6.610712800777971410e-01 -6.419902918170050654e-01
1.991483986908219317e-01 -2.282101230271045833e-01 1.955973243486270607e-01
-2.884459618170194806e-01 1.326703827016877668e-01 -9.462473774244053448e-01
-1.443540649594974024e-01 4.615002769143016215e-01 -3.661260202682267151e-01
5.040406519591976719e-01 -4.588085309175168880e-02 1.844245399669194319e-01
-3.715524889293710387e-01 4.252061814326166811e-01 -7.750546146642717238e-01
1.632448797308999888e-01 -4.997187243712662985e-01 -3.475519323284658596e-02
-3.986504466824795645e-01 3.859831373413141198e-01 -8.037174188581172052e-01
-5.835656040126995237e-01 8.805477142646347954e-02 -1.294213626114057158e-01
-5.767847371066064932e-01 1.698394755908833875e-01 4.021999401964205245e-01
3.330637416790767080e-01 -1.291935754232286793e-01 1.123026304847887097e-01
7.628762774800076363e-01 -3.708223801507418704e-01 -3.120369711972322824e-01
3.352002108016544080e-01 -4.016192480784588348e-01 7.992138946303829483e-01
-3.189385687181898188e-01 7.476046695387124075e-01 2.101112994055971336e-02
-1.913575241092841384e-01 3.103510958623443283e-01 -3.085746596735633798e-02
5.240939430268796162e-01 -7.244073837275679661e-01 2.902000551203082201e-01
3.527869989140613449e-01 -1.016759784206609923e-01 -2.698911972777949808e-01
-1.705671193966196986e-01 5.052564907215059131e-01 -3.272010618325426057e-01
7.939530265728834690e-01 -3.024520072550210270e-01 4.480902300900377888e-01
1.796228387135079263e-01 -4.425456545046424495e-01 9.989450140733102668e-02
-1.736280968897760957e-01 3.136914991818993692e-01 6.896240099089021025e-02
-5.971892400171564530e-01 1.594250943132151099e-01 2.044542453799537141e-01
-3.736983644851814279e-02 3.615547655995286491e-01 2.528524340856023178e-01
3.590429660228421863e-04 -5.575031242969752387e-01 -4.505640250349806086e-01
1.908451948779017471e-01 -6.803094686205732322e-02 2.810942133432777212e-01
7.133304877078390227e-01 -5.404144727090081091e-01 -4.204122244261841446e-01
-3.220544977786561347e-01 -2.892772705782862414e-02 -2.856779127722957057e-01
3.812532421133549843e-01 1.790742257774181334e-01 4.389106851168464440e-01
2.975938343263507813e-01 -7.243788081546482793e-01 -3.682764202374207152e-02
-7.572506827188855150e-01 6.339037620486297486e-01 1.537689307425132712e-01
-1.412211329402927318e-01 -7.604472588183304460e-02 4.745715427408095377e-01
-4.606765581783345276e-01 1.100150151421815242e-01 5.918336918283775283e-01
2.743213231513402794e-02 -3.056867392377435877e-01 6.921017946337278959e-01
-2.827412969237307339e-01 4.902003909285186367e-01 -6.839203741044507234e-01
6.601287657198101622e-02 2.348964471751404104e-01 -7.020125197965181307e-01
-4.503540725853845683e-01 1.224866677461380615e-01 3.387456358452319016e-02
-1.526687105059486849e-01 1.888352337357528943e-01 2.370933160303285991e-01
1.923182278267010492e-01 8.218651691539602400e-02 3.282507591002478131e-01
4.124681999943543564e-01 5.382500151767731500e-02 3.160066404006457996e-01
3.224576441569739771e-01 -7.547922992151017141e-01 -1.327590486084307131e-01
-7.318357415437934943e-01 1.458411225736405414e-01 -4.184169016259621787e-01
-3.412182811296208818e-01 6.690573836421782605e-01 -3.516466270218035484e-01
-5.521949837361946750e-02 1.435630682070153652e-01 -3.480726289326812051e-01
7.636456062372112275e-01 -6.514592352884031046e-01 -1.135025697170561204e-01
5.789551540000017343e-02 6.123411584709007732e-02 -3.895757439092385477e-01
3.871060947158025400e-01 -7.332793319939059362e-01 1.668187435101987914e-01
3.248277035211397101e-01 -7.134074390472757710e-01 1.042825593848624999e-01
-7.246123238248459997e-02 -5.503762514409011632e-03 -3.260315168129713781e-01
1.752323758292162748e-01 -4.105744130316263951e-01 2.228645289516957562e-02
-1.872368071598587702e-01 6.955757414776049252e-01 2.515135697848516760e-01
-7.676193550189230885e-01 2.625396855833591614e-01 3.268755358676873196e-02
2.394092117680011178e-01 -7.060900754568175675e-01 -5.194315850309366711e-01
-2.139880233100525248e-02 -2.551611285123929207e-01 7.181401749342064544e-01
-7.957274866472904828e-02 -2.463160245508108359e-01 -3.359013017074705676e-01
-2.627298774551045657e-01 2.077353377755817021e-01 5.137820126182401220e-02
-7.692440322524367602e-01 2.835834866697590217e-01 -4.653504363023939772e-01
-4.709055836063831268e-01 7.549084993226942153e-01 4.077678641700013817e-01
2.437247586743751526e-01 -2.671249774972400681e-01 8.967035326619271496e-01
-2.496624400266045096e-01 7.528952968489933950e-02 -2.305518479979655755e-01
8.287684517827896835e-01 -4.079986517289940773e-01 -9.160917120575104433e-02
4.108722942469767991e-01 -4.905768698194034050e-01 7.099051773658530129e-01
-1.544869678351544762e-01 2.515582303330516356e-01 -2.316078635972105837e-01
2.270513191054345514e-01 -3.730575406383093151e-01 8.026833730435417591e-01
5.069492547960571804e-02 -4.003270792829476954e-01 -2.480562511730195763e-01
-1.324104669063893291e-01 -2.509981596218783806e-01 -9.499697552508340470e-01
3.452619750457022740e-01 -5.731223090501569306e-01 5.712249594176983525e-01
-1.620324136200453069e-01 -1.777300230667095970e-01 -3.498937322070639344e-01
-2.916610684898223171e-01 -2.318094370578439173e-02 5.907002429788930087e-01
2.597973680949969277e-01 2.487404761774712411e-02 -4.798923429292212828e-01
-1.752523208372313845e-01 3.538318577896869543e-01 -7.483549334017172705e-02
4.113264262176343222e-01 2.426086767603459204e-01 7.002800960230484151e-01
3.309351346074705935e-01 3.181530239391723858e-01 7.110002072136824003e-01
4.563934457477267781e-01 -1.299166090691483977e-01 -6.827358666441832868e-01
-1.907645559991908712e-01 -6.555234654342288747e-02 -9.827125838073001995e-01
2.070730316887730293e-01 -5.532453166591088101e-01 1.620146319733173357e-01
-5.047766921006219265e-01 2.333297993101381140e-01 6.904761754217006997e-01
2.164773779487999539e-01 3.502724192559622529e-01 4.767910382438738104e-01
-1.656408463472082149e-01 4.087605555245606426e-01 -9.755379850083623072e-02
5.836149562576145033e-01 -2.176916183062518328e-01 7.928283574378023335e-01
-6.438665830073141416e-01 2.941869010171440091e-01 4.980315243177478868e-01
-7.142015312459999432e-01 1.176095967868880793e-01 -4.293175247817477835e-01
-7.700230649627950452e-01 2.648396401395005650e-01 2.848065296915489389e-02
5.094156473383012473e-01 -1.162274559956320008e-01 -4.870254618236592448e-01
2.037111892818989911e-01 -5.786886505892732124e-01 5.502579820071588912e-02
-2.182285923363993727e-02 -2.999985490605458494e-01 -3.088523111710048674e-01
-5.009618820482479862e-01 -1.362975917963471229e-01 -5.784855765546279560e-01
-3.968439289018773630e-01 3.661196308911943142e-01 8.246650389421857907e-01
2.435430097467147781e-01 -8.591346905591674965e-02 -3.082726381739067656e-01
-9.415231816813642018e-02 1.623167836637995354e-01 2.842681720654423039e-01
-7.630389887777364599e-01 2.242714769050000723e-01 -9.167481118043981081e-02
5.566563840057663359e-01 -1.420913683886730061e-01 8.207941843583077546e-01
-4.410996375970233641e-01 1.206643679647530915e-01 6.686559264238496336e-01
-5.041519154826039628e-01 9.141878633730976533e-02 -8.071902555999498075e-02
-3.100035326974285854e-01 6.060065319870234363e-02 -2.094807413727365064e-01
-1.748780681446129026e-01 -3.323617822460350757e-01 -8.761977525558005686e-01
1.184634374389267886e-01 3.135409430082913840e-01 9.353662290262851897e-01
4.851854043159135599e-01 -1.048974685347315167e-01 -5.428392861408333214e-01
-4.492533674152043854e-01 -3.113789829619703631e-02 -2.998974381301886538e-01
-1.779030767752205477e-01 2.386626027769659097e-01 -9.040233857763299019e-01
-1.427410764542556831e-01 4.538011463919986443e-01 -3.481931289874370949e-01
-3.350682576930237300e-01 6.017047393367565000e-01 7.279678567839833470e-01
-1.029307424747517505e-02 -5.414506613868667051e-01 -4.394574038301200525e-01
-1.522410345615297089e-01 4.801316118938969146e-01 -4.113997700414600556e-01
-1.816516601942686493e-01 6.528713462847886007e-01 1.333224156238046187e-01
4.443390518781610843e-01 -1.164190433456790963e-01 6.646234122674544130e-03
-2.892731517508883021e-01 6.367157739515131309e-01 -3.548485369680969281e-01
-4.750129751314211002e-01 7.893855123057427203e-01 1.281755201291054228e-03
5.327277408290544969e-01 -7.741482757698811001e-01 -2.658920331696548733e-01
-1.153499272754597849e-01 5.020900136221307930e-01 1.374366614529984043e-01
4.037478258933502873e-01 -6.723512215143729875e-01 3.911335310696837930e-01
-6.757201040109057644e-01 5.833259525411245150e-01 4.389945653588842589e-01
4.479522326425628559e-02 5.297011471478991762e-01 4.575049231009361006e-01
-3.986661345584232435e-02 -2.113998063531275506e-01 7.868173317691576907e-01
7.446137968016675046e-01 -1.486552685812504992e-01 4.711715952621794434e-01
-3.364297350046009938e-01 7.510845243333630350e-01 -1.247131226141211940e-02
-2.333137764393007074e-01 1.313147998693228180e-01 9.106728057475207416e-01
-5.194044845774066221e-01 3.053420964862152975e-01 -8.004402374082025817e-01
-2.807530605779352470e-02 -2.182942896772546992e-01 -3.121208646964604427e-01
4.983011700027952240e-01 -7.855619665613055025e-01 3.692424670890768427e-03
-1.961346280229145922e-01 4.305242885335640590e-01 -7.167771716479149902e-01
8.484430843067551908e-01 -4.315014165360496201e-01 8.865718941762434913e-02
-7.892827339294778977e-01 5.440856653937281573e-01 -2.697668347498644037e-01
-6.756041135601691394e-01 1.889089536515897727e-01 1.083317122986358072e-01
-1.249643678267868679e-01 -1.671265625700144863e-01 6.543987203915976325e-01
-3.646356500016570412e-01 9.613832494278261309e-02 -1.287700478063619480e-01
1.114820125445794424e-01 -4.177659081035143274e-01 -1.601773987763731311e-01
2.655951305879493685e-01 1.025159826554869202e-01 3.383733499332037820e-01
7.241148911572632407e-01 -6.604593731086696451e-01 2.429403967398346409e-01
4.376244389011708646e-01 -7.403663695202559181e-01 2.057472606579142382e-01
-3.616293923373587460e-01 2.510685200353527380e-01 8.494669437176913807e-01
-1.609433576418937140e-01 4.188375772634865268e-01 -1.656232699241441675e-01
5.239718278335884355e-02 -8.680008609400910458e-02 -3.222838662709747726e-01
-2.813442032421055172e-01 7.901331650746763052e-03 -2.646127085812011726e-01
-5.242574000669950607e-01 7.896127881079702260e-02 -8.223605514888746582e-01
-4.033862768109811037e-01 1.405133551444550655e-01 7.561112958787999938e-01
9.972803875714576771e-02 1.868604973943197300e-01 -5.543034084107864023e-01
7.240203443310269105e-01 -5.328254859308928504e-01 4.685799927398641707e-01
2.921228093791143898e-01 -1.917889473000384815e-01 -4.383081902500070293e-02
3.336504618983411607e-02 -5.289945056550285178e-03 -9.665573514136299726e-01
4.885825346107782741e-01 -1.188421380634529928e-01 -2.244508640066000815e-01
-3.560422803798582447e-01 2.927315165178012712e-01 8.573907999642164102e-01
3.269106685398383561e-01 -7.592274040900021115e-01 -3.479803792852574351e-01
1.764078644495334358e-01 -6.407249479907065615e-01 -1.716028767331155280e-01
2.371011387996698194e-01 -7.247663170370308716e-01 -3.171991929659535026e-01
-4.283030072322179804e-01 5.350963544380752390e-01 -6.536520079147065676e-01
-3.652780047329829416e-01 9.584593289563669849e-02 -9.284648237455188635e-01
4.728430459873172453e-01 1.721303286700614776e-01 5.469143524107605847e-01
-5.142845725939635543e-02 6.058302165925998350e-01 6.614856213558835130e-01
2.502277615806571820e-01 -7.235560523709920755e-01 -2.208081842684557761e-01
4.404361869205190572e-01 -7.058703932231380485e-01 3.242391833344736018e-01
-2.677701570861853661e-02 6.102162078567379133e-01 5.720257740678074132e-01
-6.295318560619556081e-01 3.593047691427455614e-01 -6.897764341111898290e-01
-7.615057583595359336e-01 5.651826069568429700e-01 -3.208054128437356489e-01
-1.978765565496753143e-01 -3.288440994408681761e-01 -8.626989442433429245e-01
-4.384867099027212056e-01 -1.320209988323965133e-01 -8.036007430644867000e-01
-4.415988015735317629e-01 -8.119263355525392634e-02 -3.643331087195035844e-01
-1.378357673317765486e-01 4.789357416232645909e-02 3.560418224168895862e-01
-9.433314278251545004e-03 1.562245484259929817e-01 3.119609177061894445e-01
-1.942457380957846313e-01 3.040306584140559654e-01 -2.575863398374157384e-02
3.041303462077406539e-01 -1.749232023547019343e-01 5.090862872755735902e-02
-8.546836826597206671e-02 1.333183892266284233e-02 -9.845092086021824951e-01
-4.664361217626927236e-01 4.699501272939898278e-01 -7.172468031881973349e-01
4.217755688130587766e-01 7.338806717105403506e-03 2.628053443265527811e-01
5.943125331231792208e-01 -1.615564692099602795e-01 -3.551434593383478444e-01
-1.712102086192828498e-01 6.119945792311336508e-01 8.220077945604151171e-02
-3.134676599899405280e-01 7.121992804612804068e-03 5.121884520492927528e-01
4.874048433535346087e-02 5.465588444278649538e-01 5.121147337669131883e-01
2.296997248191841590e-01 -7.162005327053971859e-01 -2.691166663987681340e-01
-1.728537709889640950e-01 3.269739910517925341e-01 -8.321463402566563472e-01
-5.130609889716324368e-01 7.937111683553651487e-01 1.000623635067673101e-01
-3.618648404880916991e-01 -5.161294082739421862e-02 -3.061767279269321240e-01
-1.221920443422656877e-01 4.414110933546969151e-01 -4.730991999911450252e-01
4.509007386866666911e-01 4.125322110164442169e-02 8.744673891042400449e-01
2.487434412074026602e-01 -1.063234852924593576e-01 9.670555140551165829e-01
-1.138462978971999107e-01 5.120551600471240361e-01 1.453649942264519102e-01
-2.183999493978376616e-01 6.847511820145302242e-01 9.813783591519360805e-02
-3.279077727333116199e-01 6.451330471881548678e-02 -1.961617162231138189e-01
-3.065792826766314955e-02 5.988940649344299816e-01 6.501449595012500637e-01
-1.475014838727543576e-01 6.507426343275569680e-01 6.414611510137065986e-01
5.676442400740344674e-01 -5.221090188166028767e-01 -6.346595780217936245e-01
-5.511702397332382541e-02 -5.446194849451283654e-02 -9.919477128428494384e-01
-2.261992306844093359e-02 -2.903316290005603095e-01 -3.088844717270326501e-01
-2.086780820518946700e-01 -1.123827642583736797e-01 -3.348184143010863867e-01
-8.325399927536577538e-01 4.488377686553037260e-01 -1.375210772453816233e-01
-1.709748728587373590e-01 2.245218618631367180e-01 1.875037918956667382e-01
5.590941998704282989e-01 -3.221268309399948071e-02 7.929733226283125491e-01
7.652364661120547584e-01 -6.498157051651877181e-01 1.331240329507126230e-01
5.080587983896719395e-01 -5.371311313850861691e-01 6.403623500097841426e-01
1.809142567787007938e-01 4.082657307933355573e-01 5.025255144678781871e-01
1.998051859472484149e-02 2.811720552016666042e-01 -6.812785552758958696e-01
2.609440574041500122e-02 -1.992953758859498936e-01 -9.825161245430383827e-01
-4.909920953389107501e-01 8.839812978446122405e-02 -8.903217148377323698e-02
3.482666669800423276e-01 -7.209971082716896129e-01 -5.231042172376344501e-01
1.687094332676573327e-01 -8.054036758274699115e-02 -3.193453680432641884e-01
-4.224638991164798019e-01 7.892149618078072582e-01 2.610731672476279130e-01
2.812736095180685680e-01 -6.960508029762395577e-01 2.969680746010277400e-02
3.342731729379087857e-02 1.831507342918820280e-01 3.184964105453121364e-01
-4.670366992094508451e-01 -1.003519915349487118e-01 -4.120384680514457831e-01
-3.559145158957553456e-01 -2.702331132285130111e-01 -5.811252102338136938e-01
2.639803110692191535e-01 6.358940092890309759e-02 -6.550058142461617772e-01
-2.887091468389412809e-03 -1.435225779778815935e-01 4.160934827752018617e-01
9.034093877905917391e-02 -1.838203667105673955e-01 3.439859512512072337e-01
-6.153437739255850358e-01 1.242170914733580905e-01 -4.426839058272043215e-02
-1.515931015641065471e-01 -1.231267745482572534e-01 5.651973489016639540e-01
-8.546139541089124714e-02 -4.829586430885912662e-01 -4.846795031173968260e-01
1.642231761342455576e-01 -2.683198667343097421e-01 -1.577515319868613985e-01
-1.655347239946589610e-01 4.564855874875142772e-01 -1.049216488463613622e-01
2.598016532161129266e-01 -3.461000028933426675e-02 2.634416823154825393e-01
2.796663467775780121e-01 -5.162522155184847694e-01 -8.136524351627326679e-01
2.323299410038400237e-01 -6.557385792712090433e-01 -6.493118774131652060e-01
1.660882226466362521e-01 -4.034811460088625901e-01 2.308418891829157327e-01
-9.742735139486398410e-02 1.731317683998499501e-01 -9.256656029650401907e-01
8.301576208745220509e-02 -2.982677693363331439e-01 7.993222202684800992e-01
1.664628559758884740e-01 -3.508020123183587247e-01 -7.419028983322165094e-02
1.628731621340995250e-01 4.536077696907170331e-01 7.307612056664068989e-01
-2.250875735953970502e-01 5.960432045764845199e-01 -2.605943394608298269e-01
1.268763877463932044e-01 1.469399067661076030e-01 -7.909132073675178010e-01
-5.702163875833716755e-01 1.494386120099263360e-01 2.257159688843339562e-01
2.094510990730120148e-01 5.176067194274216327e-02 3.169460262294652164e-01
2.043600696725762222e-01 -6.073217059227983272e-01 -5.673537066849274578e-03
4.271420549359984942e-01 1.926379086913279637e-01 5.062266952345170212e-01
-6.411125410788663936e-01 4.695796627866436479e-01 5.537768923071411109e-01
3.484067690068926582e-01 -7.033202694978507585e-01 2.095188345874774982e-01
-4.604577103896768109e-01 4.552973170001727854e-01 -7.323690463072181078e-01
-4.979436433147496621e-01 -7.493447231545163900e-02 -3.994422532478926202e-01
-3.610965240985313240e-01 5.300409976434545811e-01 -6.553535846682920774e-01
-7.329568527262911859e-01 3.257486731824479342e-01 -5.575120779410865923e-01
-7.217994508996753433e-01 1.279563190753286728e-01 -3.623611158825903455e-01
-3.389554761589337883e-01 1.528514808736617936e-01 -8.515502669142232389e-03
-9.335561171953928039e-02 6.352590634374579714e-01 6.282209898248736213e-01
4.879527773362712373e-01 -7.041635798274303859e-01 3.468351796371190177e-01
-3.361618925681708614e-01 7.732561098298675883e-01 1.602838813191589107e-01
-1.988130814001125846e-01 1.900156870513445562e-01 2.018071727755341715e-01
8.115083150972606310e-03 3.977219737590184656e-01 9.119132379107354192e-01
-7.953520574709269653e-01 5.377437828664181074e-01 -2.571035658017838954e-01
8.309871742925480920e-01 -5.226345046317992793e-01 1.685564330616100559e-01
-2.078792981671374607e-01 9.882702730763563703e-02 3.065670121324070574e-01
8.875579620760240540e-02 2.155877984488472621e-01 -6.943441500237971242e-01
-3.238561964825245054e-01 7.380277021168970553e-01 4.912065388310219438e-01
2.660462166041043797e-01 3.032896434731375823e-01 8.537902092696090239e-01
-9.154816532947298788e-03 1.823175805913620495e-01 -4.027083790120235540e-01
-1.085668813413974004e-01 2.435146544512993907e-02 3.691007311833316429e-01
3.644558903137278261e-01 -4.630009429314955183e-01 -8.145634578257576752e-01
6.692474562846895125e-02 1.314180049553270169e-01 -8.740296632533329779e-01
-7.667982294647557318e-02 5.521026750866198096e-01 2.529855610808589006e-01
-6.550299031945383543e-01 4.007348548181143277e-01 5.344096859601946692e-01
-5.981979986439781537e-03 2.343374658350800555e-01 -4.413082701847986788e-01
3.653924998637226307e-01 -6.722001429136724715e-01 3.494829989557112770e-01
6.324933075480634326e-01 -1.087753774952408270e-01 9.541873272345592627e-02
6.117202272405410923e-01 -2.813118311424815388e-01 -5.752373214208528207e-01
-7.081480081005415705e-01 4.789682975362581918e-01 4.360789370242750818e-01
-6.048368761759663759e-01 7.238294236414063443e-01 -2.411239765655880662e-01
-6.865286540212277577e-01 6.321286851603908907e-01 3.640382575014499689e-01
-5.713721359422792995e-02 2.600765844988170983e-01 2.583506762951207070e-01
-1.688052372130346146e-01 5.039864539467791005e-01 -3.827714021135401046e-01
-1.454074594781119556e-01 3.359046000323818726e-01 -2.324007275320465193e-01
-6.484053589029641351e-01 6.602714636340587528e-01 -3.526290390957861343e-01
5.472141129889075417e-01 -5.800957361420557706e-02 1.704909961243619154e-01
1.600384445658991905e-01 -4.728701116618220235e-01 -3.778524002356681982e-02
-2.570584301321302001e-01 2.487696026315986894e-02 4.143598273821247902e-01
-4.841972820243870684e-02 2.773728339041922619e-01 -4.086446101533477981e-01
7.575596618893946088e-01 -6.403117820435605401e-01 -1.810738627118210209e-01
-1.755731820117277242e-01 3.482109541005527498e-01 -9.165238367644640283e-02
2.683583612898355342e-01 -2.137287659500130832e-01 -2.875409711810839389e-02
5.164707261057138732e-01 -1.168422392769217361e-01 -3.882936275340808097e-01
-1.640764286243311942e-01 3.913793983679918487e-01 -1.391782001092819743e-01
2.942036683898798244e-01 3.758929461640918290e-02 -6.597420512314630114e-01
7.756496181296038683e-01 -5.414515457847494107e-01 3.587226183743236763e-01
-5.302027322263315190e-01 2.044040691617609873e-01 6.211196589489278441e-01
8.308235444135138037e-01 -5.241584919966635336e-01 -4.101976726203159646e-02
-1.738146259705697361e-01 1.101800408122918101e-01 3.004748665422020681e-01
-7.254527210201703324e-01 1.390416803831114878e-01 -4.450808498521219292e-01
2.722076645544799917e-02 2.497236075767657604e-01 3.101703004585113499e-01
3.261243366793236675e-01 1.407009868663743613e-01 3.748258860386201596e-01
-8.939182665919065407e-02 2.415059818810198211e-01 2.436135345009655673e-01
3.554344700335587692e-01 -4.223427080284363200e-01 7.807220444322893194e-01
-9.524223604646130104e-03 -2.292957449029081329e-01 4.951338481704046224e-01
3.652618276968940259e-01 -5.993877514151636776e-02 1.919367731813770850e-01
4.387695460993277230e-01 -7.601450809229090000e-01 -3.934489090572043102e-01
-7.402765990702698806e-01 6.482126197676937318e-01 -1.947268017605313928e-01
2.621936386609424186e-01 -1.128068388388571153e-01 2.067454679696779929e-01
1.746070920636096369e-01 4.203760620526459379e-01 5.110962707464993260e-01
-7.366719394320628278e-02 -5.180574049791719649e-01 -5.550727785223865673e-01
-2.814430165685915530e-01 1.331623122004306492e-01 -1.499439819194015588e-01
-2.664036367562014340e-01 2.023359614086994718e-01 6.661570139240270694e-02
6.699128855930179816e-01 -1.158674088227198279e-01 1.342959890319938843e-01
3.319904046626377947e-01 -1.574657542109962893e-01 3.727558878095764416e-02
-4.256569393717603636e-03 -2.720230430939937771e-01 5.638150433547963747e-01
-9.156611824161094149e-02 1.721322627972315111e-01 -3.199330956529549130e-01
-3.498783180883614508e-01 1.131782928004926719e-01 2.551771642181372424e-01
5.934283059451928022e-01 -7.496135186026949837e-01 -2.820300737277960379e-01
-4.371340368323483050e-01 7.863702654080834131e-01 6.526783577090847742e-03
-5.908077133215652171e-02 6.122191429821035591e-01 6.528464090767037709e-01
-5.739007809033347396e-01 2.421928025202739754e-01 -7.784203504671362017e-01
-3.582899251870152457e-01 7.162157821292546300e-01 -2.199330983229214331e-01
-3.221724695460140894e-03 2.709086523230642141e-01 -7.656782145506990656e-01
8.990026265404747752e-02 4.126589588148219523e-01 8.702089963754794377e-01
-3.796676349355975200e-01 4.187792244200468084e-02 5.497087910358602336e-01
7.558948357829590181e-01 -4.211582642875056348e-01 5.122141222865301824e-01
2.258275107416518046e-01 3.794772087889987100e-01 5.280972469269680225e-01
-2.334974039148478564e-01 5.959799311642282049e-01 -3.160376299636623032e-01
-2.663414769634592227e-01 -3.264040785245740928e-01 -7.914459312963043613e-01
3.563956700761717333e-01 -7.545359649308411298e-02 9.458158737565162122e-01
2.502726491669599596e-01 -1.839146830994262682e-01 -1.612976867339550868e-01
-8.357997506189161763e-02 1.593199782914362095e-01 2.895890820275815458e-01
-5.954567899969187561e-01 7.504861075475529608e-01 -1.517976270564592445e-01
6.744958006513637194e-01 -4.396877994992728911e-01 6.163961642803807983e-01
3.194492511122635353e-02 -7.082896509411801267e-02 3.641714917984424926e-01
4.062257161971576380e-01 -8.720346365258092869e-02 -7.094253888437596078e-01
-7.176568727692256289e-02 -2.829393053388887802e-01 -3.379517371301554718e-01
-2.177062030703175166e-01 9.158365323820068238e-02 9.062851511625804601e-01
3.256707517249714523e-01 3.991840401207631672e-02 2.984781744632831746e-01
4.564454893559122262e-01 -9.500487304966566404e-02 -6.098788809156461266e-01
4.759917159863520375e-01 -6.964889099887631163e-01 3.648367782388532432e-01
-5.345841163595829171e-01 6.493203212098095367e-01 5.536628972588740760e-01
-4.064614886457443843e-01 1.340858004852565899e-01 8.628248253670289802e-02
-2.468261263686809537e-01 1.208037228186687601e-01 -1.973773073512954390e-01
3.829614656921283555e-01 -6.173427567982915469e-03 2.496798705982497812e-01
1.681443821289035356e-01 -6.308622407498178930e-01 -6.736754552377719474e-01
2.689296890230943871e-01 3.416377348809182535e-01 5.332369445014045750e-01
-4.870200000320231704e-01 7.037285116308389377e-01 5.136572452768620733e-01
1.183078819516187180e-01 -3.433602126121542142e-01 7.671831122787008406e-01
3.698607454915497916e-01 -1.188018323491274592e-01 8.899797342440327053e-02
3.661183242267824767e-01 -5.096057029326857002e-01 6.821549075573490883e-01
-7.392435760774753728e-01 1.895920412987895098e-01 -4.915115973274659655e-01
3.509326334352759202e-01 -3.730079589528620954e-01 8.241815036597845978e-01
-7.060240590529507365e-01 4.434555418416508132e-01 -5.512835994316693800e-01
-3.136262464854044918e-01 -3.121782282236610917e-01 -5.954656937852558229e-01
3.630207531035089530e-01 -4.584461098419850278e-01 -8.174552934454196729e-01
-4.814775615724667945e-01 1.166212437672507346e-01 3.213770557132935579e-01
2.114914572557607397e-01 -4.910409630709447470e-01 -8.451530029865638172e-01
1.046961662895232181e-02 5.792532211195683400e-01 5.063317729305607529e-01
2.577604584655667219e-01 -6.355782032426046668e-02 -3.385988945107905601e-01
-4.055536437201375660e-02 3.066997841680305648e-01 -4.538995102903968237e-01
-4.904136730460883498e-01 4.127322698121254491e-02 -1.951779295174092821e-01
-8.219184081183615875e-01 3.369430381011103703e-01 -1.517543092036481023e-01
-2.246173346958482975e-01 -2.543210204599756843e-02 8.121938383181060983e-01
5.071340485364852491e-01 -9.977297764938654334e-02 4.588014699284986148e-02
-4.787675494206444088e-02 7.203747535163081139e-02 -3.413201152692561524e-01
-6.977777132595892606e-01 2.692546621573124188e-01 3.192848078058323491e-01
-1.660920121075367129e-01 4.995046706841669848e-01 -3.663068149513167282e-01
-8.552287182719514602e-02 9.790597667746381294e-02 3.223443697071413094e-01
-6.822128098927568995e-01 7.251951533757330370e-01 -5.335066023490662307e-02
3.277141669243961442e-01 -1.024092951429311088e-01 -8.288080201585142914e-01
-3.911578175154694081e-01 1.031413287587680389e-01 7.332709634603153948e-01
-7.381655945735612345e-01 1.596384203637094545e-01 -2.656696938511294848e-01
-2.122081159902968750e-01 1.075869229847621067e-01 -2.350599204794875940e-01
-1.725497303723475262e-01 5.819381027408341289e-01 7.688384066929221383e-01
6.245635769636613821e-01 -3.880380943644862746e-01 -5.978679032330324050e-01
-3.689987370544881573e-01 -1.532130038956562301e-01 -8.649801241165036014e-01
-1.501636527722550463e-01 -9.729554938009528364e-02 5.131455122358935528e-01
-2.344854841359925862e-02 1.922673265587090397e-01 -3.926650597896645389e-01
-5.044397212861887470e-01 7.645710022041211085e-01 -1.536478465564774520e-01
5.738082171434448764e-01 -5.931150404460332481e-01 -5.776631855952765182e-01
1.062943542601002545e-01 -3.279371284411506937e-01 3.708884472582974490e-01
1.783545099487614249e-01 -4.888357732497035646e-01 4.732074348600334712e-01
3.792623722148985577e-01 -1.327110422848593319e-01 3.104643607396834898e-02
2.119212727731336621e-01 -6.693230304327457691e-01 -6.111341683912898670e-01
2.651403321180647032e-01 2.717629816314267033e-01 4.468951704308560258e-01
-7.240802006779522015e-01 2.601468056652350702e-01 2.064528402461985879e-01
-5.454167242028492568e-01 7.731717592641349501e-01 -9.215172439136758153e-02
-9.433056046423762830e-02 -2.855230249825676525e-01 -3.517357469887898436e-01
5.838963009566680018e-01 -1.486651140563816920e-01 -2.829304807920376419e-01
-4.076715240893625802e-01 5.366919831787018147e-01 7.500343391360091427e-01
-5.609211377927066783e-02 -3.568846832820001813e-01 -3.453916950394020913e-01
-5.760613870084295707e-01 4.142092110669337579e-02 -2.426312608961622430e-01
3.116558844856940902e-01 -1.213897957097538616e-02 -7.563965734296278498e-01
-4.119554873688651697e-01 1.304152536017882391e-01 3.885512480457660456e-02
1.068303751127226281e-01 4.973589434133487419e-01 5.298509026506496022e-01
1.882245621887422560e-02 -3.729282225787545202e-01 -2.806288754608166069e-01
5.899675371112297340e-01 5.058514460671256069e-02 4.787036718209294328e-01
-2.701191046174216681e-01 -1.325832104129256450e-01 -3.544809854260268511e-01
7.559148109248842173e-02 5.236109663543512260e-01 5.193142139222763909e-01
2.431442314066225852e-01 -6.460739939751913852e-02 2.536828917374277514e-01
3.708345261986623065e-02 5.589482958750244812e-01 5.202261385258530879e-01
-9.481571376664983675e-02 1.521055950341911045e-01 2.898859806428067953e-01
-3.176148759254804887e-01 1.638045164629771955e-01 -9.316653511677031041e-01
-8.173700368654994719e-01 3.414831934334496832e-01 -2.692406942367750466e-01
-6.549952571838322246e-01 2.566606092890776902e-01 4.183555495503060162e-01
1.634377042188304074e-03 2.379159369250569700e-01 -4.561331831614866550e-01
7.131076784741470220e-01 -7.097954761482906383e-01 5.628040808418219298e-02
-2.337464338892001892e-01 6.663118743580284664e-02 3.458858514580324117e-01
-2.865958173992785851e-01 7.039409957848768995e-01 5.774072364981641670e-01
2.036460774342662428e-01 2.261629353311268575e-01 9.494285910724442612e-01
2.770132826888390895e-02 1.455105465356070216e-01 -4.168452140313933518e-01
1.455207666843819636e-01 -3.724342259702900226e-01 2.950808012737145547e-01
-1.848002768188112821e-01 6.874878371387738163e-01 5.669852082318455055e-01
-4.676142846180478818e-01 1.271198380314882415e-01 1.159286376868246121e-01
-2.071074176845220105e-01 -3.908923030825470213e-01 -5.441733913855197891e-01
4.660434467604786524e-01 1.144044962063259924e-01 8.137274752630689889e-01
1.885163938836736941e-01 -3.365258631337704753e-01 8.251286176733567679e-01
2.319373744658306466e-02 4.388453157343911171e-01 3.343658651830092032e-01
-2.815024157959278295e-01 7.012784161682275585e-02 3.470257631233888418e-01
8.339593432225216318e-01 -5.288450164237118445e-01 1.085776621549789239e-01
-2.647957493887018177e-01 6.032815476221735640e-01 -4.077279660545231610e-01
7.671749041972391048e-01 -4.803822705902445200e-01 -3.276853267916275958e-01
-7.208387253457143595e-01 6.925278574086602967e-01 -7.480565970705770062e-02
-9.432903989248161980e-02 -4.451708766531080053e-01 -4.442477376070007034e-01
-6.400924596639463449e-01 2.371416148002944424e-02 -4.345544434167352144e-01
-1.084013398003997319e-01 -1.636977735474751672e-01 5.700146798163300277e-01
9.908959250158329291e-02 -3.915636579469171652e-01 5.246891012024111900e-01
-4.250070573285253395e-01 1.253662461528326777e-01 7.063475550854151352e-01
-2.463463626466249612e-01 7.382062436589045262e-01 4.034343315031148625e-01
-3.235255845005589048e-01 4.488918896611723830e-02 4.176315222470280419e-01
-1.598677801195083070e-01 4.667851979520399319e-01 -2.851132180785423409e-02
5.458705779257004842e-01 -3.375549133571495997e-01 -6.941098972762055341e-01
7.922250321223190950e-01 -2.234368398734192795e-01 1.906640746504292272e-01
4.656324051998308455e-01 -7.808043296753309770e-01 -2.855761294834404107e-01
2.049721404706266736e-01 -6.903304022645740945e-01 -2.291314040297254828e-01
-7.311723955991246138e-01 2.234745206973970943e-01 5.314949513626018862e-02
1.366685982823535594e-01 -1.384516255615584612e-01 -2.806654823873326876e-01
-1.850432514706719378e-01 -1.226952136198023249e-02 4.286978292395479673e-01
-1.065180690120873797e-01 -1.836024086063209326e-01 6.831103931601961721e-01
6.298383277455261720e-01 4.266112035700165010e-04 4.204595079561176951e-01
-1.475406035164021634e-01 3.109054840865102531e-01 1.316210004246450571e-01
-2.050941113841640157e-02 -3.246397545113503535e-01 -3.099717448283743626e-01
-1.832250183055084969e-01 -1.296069016658188966e-01 -3.384526739643243798e-01
6.353247739448817377e-01 -6.969824629675562024e-03 6.171693908645071724e-01
-1.229952888057866539e-01 1.742376676399660651e-01 9.691477246903890119e-01
5.135469841160824611e-01 -7.398908260719555541e-02 1.230083487384207447e-01
-6.136019613428276426e-02 -3.813612880321572418e-01 -8.940314814018990308e-01
-1.878698480277380400e-01 2.797474028774605825e-01 8.622957410148163193e-02
3.734757810303849235e-01 2.167487674853423030e-01 4.797199228081485689e-01
3.579675471373823803e-01 2.934686975541752618e-01 6.192045432437049968e-01
3.724625653707609452e-01 -6.110477641392889625e-01 5.130676960699338540e-01
1.847495017346646451e-01 -4.832617876196745321e-01 5.454361072769692287e-01
6.164183036372818947e-01 -2.465220015485124205e-01 -5.309858896104173720e-01
