-3.844366600648981280e-01 -6.810700809542742373e-01 -2.873390177059436529e-02
7.734821799150175536e-01 -3.774632158583866165e-02 6.380421300097642856e-01
-4.847673837071753145e-01 2.503176074139515372e-01 -1.098159174074780503e-01
-3.528000214365935028e-01 7.429645987440423038e-01 1.505803782176539651e-01
1.007436312670909224e-02 -3.790073310811833407e-01 -7.556471750895984996e-02
7.656935148440111027e-03 -4.411493988057124671e-01 2.391951652342949597e-01
2.008461853885952497e-01 -1.924703130009155772e-01 3.131183298291334571e-01
7.433219459075621205e-02 -8.509111958690870336e-01 -3.580884056673334093e-01
-3.673420049310968660e-01 7.262888205395422181e-02 -7.702419322356903741e-01
-1.125686233053905805e-01 5.442962051986169891e-01 -4.941041058893272386e-01
4.994584408719492941e-01 -4.261353493842434670e-01 4.267359079358376550e-02
7.696696733837363746e-01 -6.560277866141324410e-02 3.469117640066107788e-01
-1.245745625042068011e-01 7.117356611146976597e-01 3.872555398018188710e-01
-1.871167414244332972e-01 -4.081928492755648175e-01 -1.842572545740875714e-02
-5.955500060604367041e-02 3.866497915970556476e-01 1.021157809603620709e-01
1.444724677432988047e-01 -3.190132105797011119e-01 4.784155038295578311e-01
-1.793351323597306979e-01 -7.950536453945841742e-02 -3.738435862517980879e-01
-6.242416901074702151e-01 -3.254309021394843349e-01 -2.289865672664316010e-01
-2.789960474628279674e-01 6.722147607680029058e-01 -5.513664221728874493e-01
-3.712185630943137249e-01 4.319994194501726725e-01 -6.926910797957332999e-01
-3.294308937620056554e-02 3.884387959396096712e-01 2.134483555888997131e-01
-6.123695039028344000e-01 5.376417607382522057e-01 -1.331282471948120605e-01
-3.873899609472816197e-01 2.267897720698933139e-01 -1.171068242775530344e-01
6.862854253202138599e-02 -5.358444707060682211e-01 4.356802986830010660e-01
1.511812223720231385e-01 -2.860139286691977256e-01 4.705086752091185986e-01
3.256669551159919185e-01 5.163845284681992664e-01 2.300403748568126232e-03
-3.833689118929532735e-02 8.945608208383061255e-01 3.394056938823177827e-01
-3.106342711523428779e-01 9.383465414702092389e-01 -8.759759745477427306e-02
5.394270528651213814e-01 3.406075361106863375e-01 1.709621237161741414e-01
-5.073493420815484711e-01 8.017433841681934625e-01 -2.231562044144810852e-01
-5.071386131947455689e-02 4.352516711431463348e-01 3.385371642298188877e-01
6.034278498648260741e-02 -4.330444503810761958e-01 3.586981902584862048e-01
3.592167370009871630e-01 7.578560667173238619e-01 2.613252425574137672e-02
-2.145998488938244686e-01 -7.124796549574959892e-01 -5.858226791903584640e-01
-3.374713557376803896e-01 -8.681717033384259707e-01 -1.428268972961781458e-01
1.147813991925357852e-01 -4.050960131768153727e-01 -1.296799066842058423e-01
-5.206799236305473810e-01 9.456642648476998314e-02 -7.873381730093911290e-01
-2.573424050734012258e-01 9.620490428885030559e-03 -7.028580383130710318e-01
-5.055983909965947598e-01 2.970093451750450697e-01 -9.586672933228793103e-02
5.388868678253785349e-01 -4.175590583553567825e-02 1.886332572661253704e-01
1.729843486212570003e-01 8.457263488145654318e-01 -1.278361794984885225e-01
3.080525699581066479e-01 2.833925426084816235e-01 1.499939363301935336e-01
1.212392462148317168e-01 -6.670801998344685346e-01 4.752975041379747800e-01
2.776510146893131359e-01 1.674037561108712158e-01 7.379326011147296915e-01
-2.324020229278008637e-02 6.070387840945462576e-01 4.873456180033481910e-01
-2.411509535707115071e-01 2.236655021401462717e-01 -6.612663471269381033e-01
3.250600140159322637e-01 -5.147096917257084625e-01 -1.250254283269155442e-01
-5.728701316369939622e-01 2.417012742427603889e-01 -7.473775049501147905e-01
4.812028110021271399e-01 2.402729938477329852e-01 1.693796711891016327e-01
-7.285309549504345172e-01 2.867170242118980417e-01 -6.029059959871990726e-01
-2.947996900514287533e-01 -6.261402364499374373e-01 -6.494411998980483824e-01
-2.884124603525625163e-01 -9.232731950014060052e-02 -2.328877373840872178e-01
1.843096695903193721e-02 4.602515036245420355e-01 -2.430428409036426429e-01
6.177156647903311315e-01 3.102318722397694462e-01 2.229444574242189225e-01
-4.793458891881141604e-02 -8.193743433807052501e-01 -4.539211915144745202e-01
-7.281981575166912579e-02 4.065414581447194808e-01 -3.875310454752580736e-01
-3.343087146504032936e-01 3.461045411787189718e-01 -2.803172526810717921e-02
-1.115963745203829155e-01 3.278053184248773122e-01 -2.014473013752692832e-01
1.467248641359017725e-01 2.612380266304117904e-01 5.942629735762284815e-01
-6.328087892844036499e-01 3.375342900178703309e-01 -6.833855870582382641e-01
6.717988668343038983e-01 -2.717379053027179081e-01 2.063873421518450380e-01
6.342784527029223796e-01 -4.494838952716473379e-01 6.476723408754955225e-01
-3.252059760361829532e-01 4.551570526239941128e-02 -2.140133498632767195e-01
1.959057655706600010e-01 -2.117161298327031593e-01 3.008161045648354848e-01
2.277831388925489475e-01 9.370485875879950299e-01 2.845320941513932445e-01
-6.268897712649901255e-01 5.625214798224917878e-01 -1.653133198305491713e-01
-3.028540802861893755e-01 9.386977374070943902e-01 -1.585055305026052963e-01
-3.847980285525028354e-01 -8.499391520046440940e-01 -2.633388602717190996e-01
1.742300045030827360e-01 -3.199778311584230428e-01 1.424617028159041732e-01
-4.773006403033673295e-01 2.629320697904096726e-01 -1.026808061251574811e-01
-1.288984412274088998e-01 2.995141797957130425e-01 -2.483396400811702653e-01
1.989768979787881753e-01 -6.021173694512738095e-01 -3.028895560157807698e-01
-3.979911181177411827e-01 -2.911649398426891522e-01 -1.312830489470084017e-01
-5.978489969986182651e-01 -3.687941580524199958e-01 -2.079586926628443910e-01
-2.235639945519279914e-01 9.550747184060819350e-01 -1.834553524213712872e-01
-1.681883868377964109e-01 7.985277285004775960e-01 -4.200427280099793825e-01
-1.817506112551957043e-01 4.492994689168978151e-01 1.705039902931073936e-01
-3.658147155450499621e-01 3.015481767402259372e-01 -7.303220602506106385e-01
-2.150116706217614360e-01 2.168831104303733381e-01 -2.207069816564045939e-01
-2.122550509928088081e-01 2.537201012074422057e-01 -1.798300704015802776e-01
3.107711012508114212e-01 2.197353245375123221e-01 7.606308921327686878e-01
1.598051543134819397e-01 -4.681239949394420119e-01 5.465891400172446790e-01
-1.435837954646428105e-01 2.975329596810690758e-01 -2.087955623587074150e-01
2.050847077498294813e-01 -3.375256586426982897e-01 7.661286104855442869e-02
-9.127681995000309911e-02 -2.603230115206532358e-01 -3.932062643531339385e-01
-2.483884326361692277e-02 3.856562055037049408e-01 -6.227693014594365417e-02
-4.755012518338774807e-01 -6.115841130983177276e-01 -6.228230565180412626e-01
4.213965584666841679e-01 5.545252239065612265e-01 6.982501743748856793e-01
-3.874627752574973938e-01 9.423641406004755472e-02 -1.749855697871070537e-01
-4.961184484324139277e-01 -5.858791716721369891e-01 -1.305918752898544977e-01
2.277274776797892086e-01 3.876585213537210861e-01 7.031557392684482100e-01
2.905234762430262685e-01 1.095728599858301067e-01 2.502063284863613735e-01
1.999386016340888306e-01 -4.391061824044377726e-01 -1.338249700823707367e-01
-6.197226826523818399e-01 -4.819233352416952276e-01 -2.590160852075646392e-01
6.442829849173113965e-01 1.989718740297690969e-01 2.397568027809398872e-01
-1.571848306145476604e-01 -6.107919577379931075e-01 1.847704097611838070e-01
1.040813981846766545e-01 -3.665111532493888769e-01 7.954731363664609145e-02
1.596553114163172804e-01 -4.857018891213696343e-01 5.458250084983935491e-01
1.159367329742430619e-01 -3.759959555086930250e-01 4.434112070071157818e-01
-4.789049146184728434e-01 6.127328534272598048e-01 -5.923950460863999234e-01
2.528234357466100368e-01 -6.104223470165462961e-01 -2.500322212363723096e-01
4.383270236378401519e-01 -4.117452258197143444e-01 1.758774444917545962e-02
2.321139501961727858e-01 1.661324131754116779e-02 6.687022810739213785e-01
-1.720125587779649801e-01 5.431396276871544582e-02 -4.790733082981423197e-01
-3.963804715534087197e-01 -1.293870310471000040e-01 -1.804654011432153538e-01
-2.576398999885640140e-01 -5.365846575366646221e-01 5.722770974391661047e-02
-4.057853264286491179e-01 5.872315562997082461e-01 9.478107069480605495e-02
2.907100094587810601e-01 -4.681844549663019550e-01 -1.079167712604863216e-01
-3.326268584030152020e-01 4.995069868406613600e-01 1.108625965939476626e-01
3.280800921285457750e-01 -7.575672517523482918e-01 -1.775932113276592894e-01
4.363119253431482214e-01 -7.380079731795140541e-01 5.106594880059165398e-01
5.565509792761698105e-01 -3.132068746018394911e-01 1.187942776072265644e-01
-2.881879781836418908e-01 -5.181095842868583823e-01 -6.961877898254635877e-01
-1.889861293027131003e-02 -9.771447683976349774e-01 -2.114036773846704187e-01
6.876135730969490378e-01 -5.656142839930511368e-01 3.055328687976458513e-01
-6.854691620824394649e-01 8.307382872810020746e-02 -7.142017085970263635e-01
4.527858359859858461e-02 -8.162396735000699843e-01 -4.041989197471272943e-01
-1.157425929435440815e-01 6.847493099494894597e-01 -4.617643431292813849e-01
2.432191737046481839e-01 -1.189883057737658040e-01 2.948486426814171946e-01
4.087080022276552704e-02 -3.944395790553653081e-01 1.646836024071123283e-01
1.637627512630937809e-01 -2.818068380127571326e-01 5.136271402752938808e-01
-5.431170400128195741e-01 -6.235052179764221103e-01 -2.132696867220016390e-01
6.411905223031857393e-01 5.135095856792928348e-01 5.747778428161303133e-01
2.110319966823348548e-02 -9.498578387347361707e-01 1.690341407123495954e-01
6.363364210022280920e-01 2.345917900622519758e-02 7.770818295442969426e-01
4.627038846856923460e-01 3.336171515122834941e-01 1.402229411088013467e-01
-3.120163728212939636e-01 -2.540151630121912918e-01 -7.540337371303008629e-01
-3.509881625722726661e-01 -1.102058765840720489e-01 -1.966775306404467405e-01
1.018612419057055019e-01 -4.766685577808179031e-01 4.689184599979809298e-01
1.291752889793413017e-01 2.546114082072483686e-01 3.170697157820581147e-01
2.281394533219217036e-01 -4.494538161631292938e-01 -1.286032381346967346e-01
-5.707688062527607187e-01 -2.985591178539951374e-01 -1.879730276635368513e-01
-2.702210982181249901e-02 5.903629498664927366e-01 -3.974947415848946730e-01
4.753065335064586838e-01 -4.299039467345523030e-02 8.077981033116147236e-01
-5.212819461735636040e-01 3.945788147334437779e-02 -1.749069853935706076e-01
1.686775444903151067e-01 3.846808143634667942e-01 5.505081840385132180e-02
3.564550043631559140e-01 4.857233089767216683e-01 3.552008761378246809e-02
4.319135050502403983e-02 -3.836735711467932353e-01 -5.436976902592234942e-03
-2.728995331957043136e-01 2.010241636818834443e-01 -6.951133506512006122e-01
-4.403241168274346640e-02 3.931431404107419425e-01 -2.541010545991207459e-01
-3.122674483011001270e-02 4.200963757986979075e-01 3.507539396556034195e-01
4.938565594071573361e-01 -3.732922074331473383e-01 6.432816951502787206e-02
3.626654777949689379e-01 2.511763517183194377e-02 2.214238771213077051e-01
3.014152115455480223e-03 7.013775444999643671e-01 -3.565143046481503153e-01
2.391213755044555023e-01 -4.782156571233773384e-02 3.246078052068076536e-01
-3.398010455916866679e-01 -3.839759221466135797e-01 -7.626352645028870725e-02
-5.376642082527532951e-02 -7.084967834192734681e-01 -5.243063769977148736e-01
-7.088111273347429409e-01 -3.569742320725863283e-01 -5.602203890406539655e-01
4.062698177861166493e-01 2.239134157923255153e-01 7.947853097218804397e-01
-5.251622169019807274e-01 2.132538429154003934e-01 -1.335747428110420076e-01
5.529097636044120190e-01 1.267847766999686543e-01 1.985495830217700319e-01
1.427300502132621551e-01 -2.880976098014847997e-01 3.255903232754320809e-01
9.104440925959832176e-02 -4.098225372985259685e-01 -1.898167662904599040e-01
-5.996810599635706840e-01 -2.993779452528672613e-01 -2.073420274917245343e-01
-7.119988807104564443e-02 -4.171414135130128709e-01 4.958783475679988395e-02
-7.771928627353094088e-01 -1.493621850137332938e-02 -5.738430734169218672e-01
-1.015289730928729539e-01 -3.131827823834395508e-01 -1.987943530132112446e-01
1.741495763563886134e-01 3.634137993407289824e-01 8.767549497795443236e-02
-7.672386984088566120e-01 2.069684838496400336e-01 -3.645084927978091138e-01
-2.990905885342902693e-01 -8.944243918150498462e-01 -1.265536147068224981e-01
-4.859640675909775442e-01 -6.993997352069571960e-01 -1.757707757820945182e-01
-1.596244176788098046e-01 -9.645233276749152207e-01 -7.891404233302595772e-02
-1.622425045636156360e-01 -7.709358784065137860e-01 -5.324665432937883969e-01
-3.205643431285036260e-01 -5.165793046127499233e-01 -7.030043546887345673e-01
1.213799604855687470e-01 -3.231166569049100379e-01 3.601776541621481420e-01
2.335099573436549836e-01 -1.050575033615326337e-01 6.542911039307547361e-01
-2.268171946513075909e-01 8.155876290913391946e-01 -4.227406085590433849e-01
-1.422383762232772297e-01 8.292182483241377078e-01 3.226075407494878311e-01
5.849226078724201194e-01 -4.823929002187173354e-01 9.337706584568213064e-02
-7.324037137415907728e-02 4.613234868471249861e-01 -4.289728674251009899e-01
-5.344869805842419330e-01 7.419238060171359228e-01 -3.904354025866497158e-01
-1.935602399482521108e-01 3.373047689463469223e-01 -5.817398226790330973e-02
2.472701664295987867e-01 -3.250922842310753902e-01 7.921441321441900774e-02
1.299852627299205032e-01 2.324340571498506036e-01 3.677585994025852068e-01
-3.756866704976205562e-01 5.489223147812026804e-01 1.070685010253592528e-01
5.706813370771921523e-01 4.196183772957662872e-01 1.865118106523999952e-01
2.393180585044328013e-01 -6.073184129963140609e-01 5.777618706168132778e-01
-1.512084385866298564e-01 3.264891184624810760e-01 -5.263719095033920770e-01
-2.673839762878110760e-01 5.106990107891912212e-01 -6.243619170701746324e-01
1.780048849699329416e-01 1.379335649757340854e-01 3.791889749438140389e-01
-2.234005036500581187e-01 -9.337589101158277893e-01 -8.381357819639290163e-02
3.070319500248657185e-01 4.620276119657015235e-01 7.272214211228936742e-01
-4.657353175258545364e-02 -5.722563350753130385e-01 -5.518592571663009094e-01
2.925821261177845578e-01 -3.168470111762520247e-01 7.702251792067904557e-02
-2.038683865392995898e-01 3.233856170692885890e-01 -7.883094828620967887e-02
-1.247310389078008508e-01 6.548891289285427852e-01 3.904007487376280894e-01
-3.250285701400283389e-01 7.224758391702068572e-01 -5.227117773779479393e-01
-2.298913814320913684e-01 -3.434642791041078724e-02 -3.010990952922293351e-01
-2.572272819759441331e-01 -4.335105104763953970e-02 -7.088460442158288632e-01
-2.671823673417759171e-01 4.305741475826067588e-01 -6.486035302756265608e-01
-3.276658785068825575e-01 6.551970892913430156e-01 1.851976417703133371e-01
-6.465861334162462670e-01 4.751334343623960232e-01 -5.877122847312086229e-01
-1.804417894165632197e-01 -1.044637954331922858e-02 -4.045803256833671591e-01
6.410752421053915739e-01 5.046745541128728751e-01 2.973122259765643705e-01
-6.551278787723070485e-01 1.520496434154356216e-02 -7.426068934936290722e-01
-4.982775911570976879e-01 4.922085508115355834e-01 -1.388965723686060375e-02
1.874098757726668785e-01 -1.078403804257891709e-02 4.710104991359063686e-01
-1.978446724637122622e-01 5.242855633669557536e-02 -3.578313784421001675e-01
-1.238839812988261624e-01 -3.589611219310316348e-01 -8.930550020325268845e-02
-2.318204049686782564e-01 3.774388625005569708e-01 1.995035244547730194e-02
-6.811497628915827440e-02 9.921684011502908129e-01 -5.956677705052448174e-02
-6.293009401204909814e-01 -2.873553673062952396e-01 -2.306969640455250881e-01
-7.329624911983720903e-01 -9.262694998209684838e-02 -3.207926273856121502e-01
3.715749387128504666e-01 -2.990989710013228775e-01 7.412455674408248152e-01
3.925408305973399764e-02 9.720614375953613440e-01 -6.615833501903960190e-02
2.419443675364063573e-01 5.729322356955472983e-01 -8.903699535769757367e-02
8.016408776306886974e-01 -1.727164192473111537e-01 4.730039435911330137e-01
3.259466512487378953e-01 4.059111407602170596e-01 6.712710429187651595e-02
1.540270505455420269e-01 -9.212023876108133003e-01 -2.200791839124056626e-01
-5.653924342213569876e-01 4.540723268320660810e-02 -1.832056794959381618e-01
-4.584983735238159497e-01 -5.133359690255096669e-02 -7.982177794614072619e-01
6.120405740845600434e-02 3.762318474374477528e-01 5.028251274930038983e-01
-6.862675542739268275e-01 2.364645670563983171e-01 -6.789471843870800161e-01
-2.162673575550348448e-01 8.627342793103397189e-02 -3.123704581138047609e-01
5.447154810878871434e-01 -7.196636546474041163e-01 4.574913200103492561e-01
2.220154741445197477e-01 -2.148296981492351099e-01 2.499204026181268967e-01
-4.093381399563856271e-01 8.812311900736525816e-01 -1.381739200561436232e-01
-7.818607602817276292e-02 -5.126995916696862610e-01 -5.802818010404369176e-01
6.640339544601002730e-01 -4.133391501407382429e-01 1.850208858972119674e-01
1.036238148788145713e-01 -4.318925261795901749e-01 4.544454842487671842e-01
-3.332739263058190904e-01 -3.596376169461845684e-01 -8.907756454064810758e-02
5.642952057177051950e-01 -7.575785935968490925e-01 2.356155104787713839e-01
-7.860282942751219970e-01 1.719166392699703338e-01 -4.594517348794698308e-01
-3.674940119546901696e-01 -7.414355069185331049e-01 -5.498292084998951390e-01
6.946055922685806516e-01 4.680912314880401603e-01 4.637236877443521865e-01
4.366119982277385375e-02 3.988393310846989337e-01 -2.209502684209140033e-02
4.867638883737030464e-01 -5.669792216264708529e-01 -1.495109510516765168e-02
2.414591967098881908e-01 -3.403210185719265923e-01 5.720525234587904573e-02
4.616813034205994454e-02 4.070631595797905566e-01 5.008072208190844643e-01
-4.792965636102496929e-01 -6.390336437320963681e-01 -1.266261111490186719e-01
-6.304054980651477846e-01 4.019526588138858103e-01 -1.510382700184720595e-01
1.449297633970840216e-01 7.303020394366066537e-01 5.624758141668817490e-01
1.472407910685126498e-01 5.739106909046167715e-01 -1.806676615626499616e-01
1.089417484814741849e-01 8.652079338156547506e-01 4.381561830607533237e-01
-1.414337671924087991e-01 -1.455098924922078596e-01 -4.821786731388535974e-01
-1.969983823321962146e-01 8.016381426954140299e-02 -3.524988135968261105e-01
3.806351395564788742e-01 2.514927034960834917e-01 7.861367474200513517e-01
-1.764426744278379533e-01 8.881367462342366625e-01 -3.250724917245055301e-01
4.905112214338516186e-01 6.362894060405752672e-01 1.342539486321567832e-01
2.679390891195582158e-01 -3.737158868861440997e-01 3.964954754931954324e-03
-1.197429512002491925e-01 7.539678557993969577e-01 -4.282642559212808120e-01
9.566084088680924802e-02 4.081905790036607917e-01 -1.225130923639041955e-02
3.987644232449931714e-01 8.495347330259482854e-01 2.881369843458052027e-01
-1.374443611597258585e-01 4.357984071060393982e-01 1.907237097594739472e-01
1.769090956241274049e-01 6.726532945054036761e-02 4.752926271190264229e-01
4.613198813460395731e-01 3.681982172439727807e-01 1.294851668150996671e-01
-6.065903781699905073e-01 6.199420497280379305e-02 -7.667642997924509762e-01
-3.351663688606053570e-01 -4.529217468500805199e-01 -7.268476270143909845e-01
-4.560925036597743842e-01 -4.071183761611297802e-01 -7.436780564921305903e-01
-3.113586653781748592e-01 9.143388237974150456e-01 2.881546810464663891e-02
3.097168179252063336e-02 -3.830502941415246942e-01 -2.288948889039774670e-01
2.186907616601537485e-01 8.252947063367870317e-01 -9.497583071026693968e-02
3.493643494940599226e-01 -9.262283870083924953e-01 1.822027313184078900e-01
8.577642774296455330e-02 3.152115829644424605e-01 2.560282080005217287e-01
6.927848580029042358e-01 -4.328255113246151642e-01 2.279306485219341483e-01
2.377856121742642215e-01 4.948873172149669819e-01 6.931276036730243950e-01
-3.037876153231409138e-01 3.360138879573254522e-01 -6.936942574338336165e-01
6.980033723464259543e-01 1.737851898592488731e-01 2.838097593216543091e-01
2.722187973365846614e-01 9.282486732609258606e-01 2.142847441022231181e-01
5.955813695513871853e-01 5.634219002380929098e-01 2.511563625745260042e-01
-4.603732103541028908e-01 1.927163469529542539e-01 -1.306757431023401472e-01
-3.365455277495365549e-01 -8.964623857279321872e-02 -2.065870627722474484e-01
-4.196601620096913621e-01 -7.833195000090555082e-02 -1.829817139659080105e-01
-5.038724076715679345e-01 -2.484758066985005842e-01 -1.637241506112137868e-01
1.222981834051298511e-01 2.611432349729739255e-01 3.196694343760392298e-01
-4.690185848430482585e-01 6.517521537496335782e-01 3.471447924739582552e-02
-7.383042818941035756e-01 3.882238797146204679e-01 -3.484909511072966648e-01
-4.016179141863155944e-01 -8.184962407794272865e-01 -1.777682372321522097e-01
3.681798658113201173e-01 -5.952608382448408841e-01 -1.323838734973234454e-01
1.997081985916837887e-01 6.938759382896608763e-01 -1.596413474189013471e-01
4.744122005696315703e-01 -9.691930865175321652e-02 1.757168983908663495e-01
2.029539723799092879e-02 3.745717961305408128e-01 3.877895530471318075e-01
-3.170256801819034687e-01 9.354885695957064762e-01 -9.560154128483819291e-02
3.923259050350857285e-02 -5.671415033889461998e-01 4.036014503328027025e-01
-3.829481097346937313e-01 -6.199926792419363508e-01 -2.032461179475732183e-02
-3.443423507315940268e-01 7.617778750268501264e-01 -4.863432778925306788e-01
3.127077345152679544e-01 -1.520929263962499667e-01 2.090425968783215516e-01
-6.313947354446367566e-01 2.739868817987321514e-01 -1.712062147781433230e-01
7.252614240398913559e-01 1.999561017749863223e-01 6.743666118893836270e-01
6.152182585554648586e-01 2.520340720397082901e-01 2.209295267271227936e-01
2.755230602353107502e-02 -4.236637548895547667e-01 2.476337091704629845e-01
2.395271360001671457e-01 -2.112069751605028800e-01 2.308161724329957087e-01
5.849228533005293995e-01 2.493782094502072777e-01 2.034128791038082307e-01
5.156147886690684023e-01 -3.298218619053822076e-01 9.390560460494569439e-02
1.408046927766790080e-01 5.084112108051282997e-01 6.327869111426165372e-01
6.592466469378541749e-01 8.139304630915553118e-02 2.437922386942880659e-01
2.259458373583604907e-01 -9.440344131001304762e-01 2.402056101211912653e-01
-1.759213973287641342e-01 6.488634828149536515e-01 3.379903000789902801e-01
-7.483821853911112321e-01 -6.226725374422657777e-02 -6.365536735061831930e-01
-8.671936127128182514e-02 -2.837510870789841655e-01 -3.076653546823432395e-01
-3.962796872037292473e-01 3.165766430705734824e-01 -5.892884480141314524e-02
8.001275044246064505e-01 -1.589716532112868397e-01 4.417522053316569886e-01
-4.760816880506753002e-01 -1.951178759517760708e-01 -7.904380587134423042e-01
4.786702507105803361e-01 2.866237446397520983e-01 7.894758635533069002e-01
-4.237913448267759398e-01 1.444731674585638115e-01 -7.775609066556131710e-01
-5.510064609562255189e-01 2.816770690995424320e-01 -7.425563331332992734e-01
-3.001540942561981354e-02 -3.601330079864065725e-01 -1.458689288543214280e-01
2.392405726301753133e-01 -8.854436742593750631e-02 6.649618587301084904e-01
1.187051514605051289e-01 2.606501469675825411e-01 5.215526098540045341e-01
5.501368957290110329e-01 1.304750594653463214e-01 1.977088568998482121e-01
-1.207278866252575328e-01 -6.585402211229662850e-01 2.358044215879601946e-01
-3.690325642291278907e-01 -7.872669314118193595e-01 -6.797123065287774546e-02
5.496839339045662687e-01 7.030167872526992268e-01 3.670805431052270307e-01
4.422750775234217391e-02 5.079582605566103082e-01 -2.595885521486205327e-01
-4.630504419019498136e-02 4.485130801236421605e-01 -3.678848947585449114e-01
-1.593670928374477380e-01 -7.974442257123823818e-01 1.724481172857759703e-01
-1.589747773948382847e-02 4.110954450388724646e-01 -2.107490968009232413e-01
3.728433553087138752e-01 8.680275281798121023e-01 2.500922363236327550e-01
3.261469469111438757e-02 -8.625159870743283053e-01 -3.742248978059255493e-01
5.048856655453380915e-01 -4.392115467232211579e-01 7.094666458647076457e-01
2.484170803733495858e-01 1.490024656173768447e-01 2.667949246364148541e-01
4.209377262501085709e-02 -3.830183152870779151e-01 -4.552089213850191163e-02
-1.763580848786089617e-01 8.824884800163794729e-01 -3.328259478898958346e-01
6.957821822802892076e-01 1.858605509847836568e-01 7.138494723248612894e-01
6.995760103444520484e-02 7.279549560023490518e-01 -2.860992477611715157e-01
6.875492356065980859e-01 -1.134237816418352807e-01 2.426929191185013268e-01
7.039345096915459177e-01 3.228137381262258243e-01 3.218677255212410993e-01
2.816787702752826528e-01 4.674639929680675376e-02 2.731911494743881064e-01
1.670128600206992608e-01 -5.014828897915010186e-01 -2.646355290295958063e-01
-2.648889979976736808e-01 -8.753276201556671188e-01 -4.031429484416549913e-01
8.552751528667650038e-02 6.651696114828898887e-01 -2.769994143572057643e-01
-1.355264082478387366e-01 5.096159083755006369e-01 -5.212633641652100192e-01
2.154316176651712156e-01 -7.353106654435240808e-01 -2.986049886400689024e-01
-6.088633924697497979e-02 6.690230080630568121e-01 4.507284203631066188e-01
1.581066388780166809e-01 -2.445336457700025001e-01 4.037922793467966232e-01
-6.134316019099331774e-01 -3.226725801896542789e-01 -7.114697289569917871e-01
-2.020878324676408100e-01 7.109341680353790105e-01 -4.986172401593370607e-01
3.679733734772198672e-01 4.056370861062886246e-01 7.560193555061482940e-01
1.120896103286012635e-01 -9.843697650415154099e-01 -1.165322626419488111e-01
7.918267384928261432e-01 -1.297450312178344556e-01 5.781586120017241370e-01
-6.078023756335793060e-01 -5.291052276981542679e-01 -2.646554382838535169e-01
6.378985448556188098e-01 5.525523259569978807e-01 3.387913119585361788e-01
-5.872225327555175012e-01 5.937061181679770261e-01 -1.099423761880897604e-01
-1.300477633314667536e-01 2.784983483802583315e-01 -3.295877355742622417e-01
-3.354300021977830171e-01 -8.802824598295674319e-01 -2.999878219955323666e-01
-4.484560002379048282e-01 -5.802154131426364714e-01 -8.087393583393125140e-02
-4.161389262036887526e-01 -6.824896976334589027e-01 -5.893462069988527618e-01
5.338583505848212285e-01 -1.219643495033333885e-01 1.726113009827972000e-01
-1.603581087045180542e-02 -3.639360152361328926e-01 -1.509131271302011079e-01
-1.589127293002135510e-01 7.443495831145453545e-01 -4.563479168007855136e-01
-3.903054463451778866e-01 5.626773441070143100e-01 -6.363587760542643856e-01
1.147988372312826327e-01 -7.020698342706874762e-01 4.565592405379003682e-01
-4.685395280361402404e-01 7.699134990982167137e-01 -2.195160369847919818e-02
-2.458876319942730204e-01 4.109342652243415106e-01 -6.385814225856197845e-01
1.987864302135811945e-01 6.296644140619174213e-01 -1.518995854272259527e-01
1.529123307998287995e-01 -2.831725960356883953e-01 4.749374721834936919e-01
1.454306312515867283e-01 6.075900376350743537e-01 6.168197108409837481e-01
-1.680482896946115245e-01 4.534169078688904952e-01 -5.606753829941758527e-01
4.365272954356933521e-01 3.825180973108902038e-01 7.674916489376659712e-01
-5.879245022300672030e-01 3.380492379973963901e-01 -7.091417373222054232e-01
-2.421151124993308201e-01 -8.345196473420218863e-01 5.802630945325450845e-02
-3.245021508106487595e-01 2.832295529379835752e-01 -8.647365384556084111e-02
-4.506207140650368426e-01 5.432900080851174041e-01 -6.458957652854120379e-01
-4.624124188040422689e-01 2.969183100826371935e-01 -8.294109620006498429e-02
5.298839843456954607e-02 8.867148854939517211e-01 -2.011286454414619729e-01
-2.816471514708257518e-01 9.396387128158577573e-01 -1.928312368102167162e-01
-1.034688922230262847e-01 -4.419204826861147239e-01 -5.992288030710335445e-01
-6.637421320234774269e-01 1.266604106878906899e-01 -7.254835638705298129e-01
-2.390527621535209202e-01 -4.832871755452491230e-02 -2.872009449988231489e-01
6.751734166659475456e-01 7.693916544870435525e-03 2.481040937850234329e-01
-3.950551489685356632e-01 -8.417585203572481856e-01 -2.898786569983459738e-01
-3.341935413106285058e-01 -1.059377141449795307e-01 -2.043471009698371865e-01
1.987923759008645708e-01 -1.314677724260011893e-01 5.771814834904037683e-01
-1.592912367683460562e-01 -1.113981361799076392e-01 -4.087667413707646857e-01
-2.221015447510534813e-01 -4.725067918625088653e-02 -3.088372013100951774e-01
-1.316357770116108328e-01 -3.157958555011583512e-01 -1.645910678442830954e-01
1.779361624635346917e-01 -7.582834857140984264e-01 4.633300976403158522e-01
6.418944896882715634e-01 -2.043564029362955337e-01 1.951080812345410698e-01
1.653734982573717982e-01 -3.056629261296640032e-01 1.919048077884303038e-01
-1.843550203736601945e-01 8.404225691611880711e-01 2.769373941275723450e-01
-1.517975291694994566e-01 -1.382569125332564763e-01 -5.449070564547576767e-01
-1.958349233295085812e-01 3.069496448672667244e-01 -5.995284863458152369e-01
-5.628059689786142350e-01 2.288730351880396974e-01 -7.539839916595444391e-01
2.079606835850200119e-01 -4.474301413010263739e-01 -1.415758169013969781e-01
3.827451408572742769e-02 -7.977800555585701225e-01 -4.209687745976178341e-01
-3.294313159787141121e-01 8.119795038315673619e-01 -4.313836660793990974e-01
-4.909489705451160479e-01 -4.381761859132216608e-01 -1.244711616091623424e-01
-1.586490632829790082e-01 -9.402431397716082273e-01 -3.043957811345854303e-01
1.664482672487850351e-04 8.567340561196602478e-01 4.015286540433878892e-01
-6.961045069236488914e-01 3.745278489604115801e-01 -5.995034433046656508e-01
3.088129385544857719e-01 -3.620342423758673434e-01 6.954828936033665698e-01
-6.765815507998871325e-01 3.717669293740820669e-01 -6.263498907345030897e-01
-6.270679165991993598e-01 -5.443517648462539160e-01 -5.126009424589389463e-01
2.894272628298967254e-01 -9.407222264233030540e-01 2.172300799184740394e-01
2.085600693772481362e-01 8.790021465511446697e-02 3.521907679984879191e-01
7.434692031107231758e-01 3.317503566165855289e-01 4.373250518160325395e-01
-2.308813753519391165e-02 5.568142574696346436e-01 4.802155984423249757e-01
-1.274700655333573518e-01 2.824491885851148076e-01 -3.339531471506577698e-01
-1.588819082896167634e-01 4.072511816148509101e-01 1.024485967525761432e-01
2.452335979364306251e-01 -8.724454680233707793e-02 6.738509462150739093e-01
4.789511001671563628e-01 -2.130589277837321160e-01 7.837313768529597935e-01
1.007385431708959916e-01 -3.711169268257782927e-01 5.390054596683978988e-02
4.383051578117771324e-02 3.826732173050489960e-01 4.714470732527864527e-01
1.625746308873380619e-01 2.037098075188306101e-01 3.322935939579849673e-01
-1.536654340209371306e-01 -4.908944678532449757e-01 1.004125743352178440e-01
-5.412887140399694902e-02 -3.633744037585370235e-01 -4.932537180403259724e-01
-2.055258341381778833e-02 -3.658375662290345165e-01 -4.038709498307238577e-01
6.346299133107377033e-01 4.263136073672668669e-01 2.527994446649585725e-01
-4.192582141165112630e-01 7.371092454773282565e-01 7.294064346207602967e-02
-3.541054816941138217e-01 3.635799830473386285e-01 -1.520102515854310395e-02
5.273496795361080069e-01 5.078219142768598537e-01 1.505466082955990437e-01
4.921008490692058146e-01 -6.421389314610850274e-01 -1.357048420557244520e-02
-4.985171482957193381e-03 7.486755137082246048e-01 -3.473147883837524597e-01
1.728658194949602434e-01 -6.959019946479169105e-01 -3.449644613633632839e-01
6.076128006279568616e-01 2.912224949417513975e-01 2.154763332121675534e-01
3.130780268725577575e-01 -9.166520579519634726e-01 -3.840970422888774494e-02
-5.217620766847638203e-01 5.741103017514276319e-02 -7.910101206457365031e-01
7.615976256186967053e-01 2.622170980799862217e-01 4.363318411054313839e-01
-9.318509245992875889e-02 -3.280570344698708340e-01 -1.733852302339310147e-01
5.517919816097249797e-01 -6.531377254364738594e-01 5.390155605274342676e-01
6.446609126919261579e-01 3.083397286899914880e-01 7.181629705660516061e-01
1.366122602537470365e-01 9.604117083537145882e-01 2.663863395764916042e-01
3.050320030992303422e-01 -9.098861623064368187e-01 -6.572879782041508856e-02
3.028490456243235207e-01 5.896996301146738562e-01 6.798702592504440867e-01
-1.376862716729699287e-01 9.215226861503582612e-01 2.314320159106535713e-01
3.188839747667419067e-01 2.502100696057740770e-01 7.637003945560648654e-01
-4.470544659714328906e-01 8.316921726090207301e-01 -3.200696021881540010e-01
-2.675720943350309855e-01 -7.342455954161332121e-01 8.331579757745954939e-02
-3.924829319667670902e-01 -8.239893201220970242e-01 -1.670507400440544854e-01
-2.932699705262881151e-01 -3.974412857874649596e-01 -7.292138936514745984e-01
-3.554207462486074220e-01 3.412786524394896270e-01 -3.472256594341016633e-02
-7.486926160421698562e-01 -2.111206436901432171e-01 -5.787733512040988959e-01
4.835473105958174728e-02 4.004522770562584100e-01 -2.387533262778607224e-02
5.438105626191144237e-01 5.511748895582686547e-01 6.507844387834327282e-01
-1.522518145408728041e-01 2.739825805128782710e-01 -5.089783428480598726e-01
5.906160738141822408e-01 4.448412385707720684e-01 2.063523390223113430e-01
7.431227180396583476e-01 1.318795634210002121e-01 6.696625149674400035e-01
-2.012955586017619453e-02 -3.740769270525783896e-01 -8.427128801469267738e-02
8.607291203287902037e-02 -6.542281788945620846e-01 -4.293733860234239530e-01
4.113912242314394785e-01 -8.272474393939190929e-01 -2.533622398361214459e-02
-5.221153720864450953e-01 2.161006625090177158e-01 -7.661491288243358344e-01
5.965414055211973876e-01 -5.814680663844356001e-01 5.749516966507287608e-01
-7.311663960462625456e-01 1.670123506761670706e-01 -6.473747870970884000e-01
9.237869676033952371e-02 4.607961588663803121e-01 5.876885823924599128e-01
-1.400457545499713199e-02 -4.688278213691935425e-01 2.463602896793527230e-01
3.127668009636581647e-01 7.838883722984371083e-01 -1.481950307804254068e-02
-7.409341967014664299e-01 -2.881240761980772280e-01 -5.260976777201811228e-01
3.046228209735232229e-01 -8.967911158425158069e-01 3.246613345688790786e-01
5.542295208755162461e-01 -6.266424545059792739e-02 1.880216017964307096e-01
9.404474518449454368e-02 -5.141205567282274291e-01 -3.752873120916733196e-01
-5.731631303961372617e-03 -9.629053402515714843e-01 1.223412596011237280e-01
-1.786201013440758267e-01 -5.142967426952059669e-03 -5.642684590860098659e-01
-1.952290035520401201e-01 -4.208634945001515915e-01 -5.826258887941422604e-03
-4.541147328429316343e-01 1.875227681917704947e-01 -1.325375839952622481e-01
1.347486861913411438e-01 -4.049876694492837159e-01 -1.073575375176570451e-01
8.447630360521851678e-02 4.686658533312483832e-01 -1.472864512830014128e-01
4.040960334175690560e-01 -8.965058790851182513e-01 1.959980620174920363e-01
-5.020641441692542672e-01 4.542076339492739923e-01 -2.934981500415767552e-02
-2.425048451833858032e-01 1.689803292813895838e-02 -2.883947517773103875e-01
-2.892065593710761440e-01 5.841548845195085882e-01 2.012639027274853165e-01
4.678865247549980344e-01 7.909461318638092431e-01 3.214662578210615296e-01
-3.912050967633695642e-01 -4.359291219888842828e-01 -6.989766761953873642e-02
-2.844041025626388164e-01 8.694407487355800823e-01 -3.577454027676904569e-01
4.711754541808590435e-01 6.264498290545024162e-01 6.330404478309682448e-01
-6.870712710869131268e-01 2.102991856158697159e-01 -2.303214273250916988e-01
4.724031151451184019e-01 3.697442395696114992e-01 7.688421546168257015e-01
2.613516463681061497e-01 -4.247372802463652008e-01 -7.161851142157830974e-02
-3.358541379444274777e-01 5.581625022894817212e-01 1.455478747801693673e-01
3.514456204446301801e-01 7.474802623884325703e-01 5.660734020019695389e-01
6.740350279755881191e-01 -4.725023190838355536e-01 5.902255377175240625e-01
1.919445140464760557e-01 2.293901317231946402e-01 2.568811536066456513e-01
6.258056543882586364e-01 -3.014939997596334798e-01 7.261385947974315913e-01
-7.855522468186032503e-01 1.614863718928112937e-02 -4.282585128616292480e-01
2.988992608239844639e-02 -3.944253024871939295e-01 -3.069852757748449124e-01
-2.840125929573432129e-01 1.100076472358980928e-01 -7.161756784004050802e-01
2.087419298164394643e-01 1.150718140540495787e-01 3.356069311190870708e-01
-2.229907261953694708e-01 1.868909400100796092e-02 -3.146786941077155952e-01
-5.562885816892541857e-02 -3.124965409939808869e-01 -3.857046682853250696e-01
-2.690678575708865261e-01 -1.157540167543640074e-03 -2.606528882357356247e-01
-2.225566287718637737e-01 7.262979205470730948e-01 -4.969077552915400209e-01
6.247999659561714186e-02 3.827553174592290275e-01 4.768773592242606801e-02
5.333954781109131460e-01 7.163173062816705627e-01 4.183109194992148949e-01
1.799407050097172611e-01 2.774386020469661873e-01 2.090574796476616370e-01
-6.944089450525307017e-01 2.264742627102062644e-01 -6.740953922805120735e-01
-4.949973039699474553e-01 -4.974212418648089051e-01 -1.222264679346424243e-01
7.516739693020372259e-01 2.822128589373469332e-01 4.132647929097129635e-01
7.153939313474683148e-02 9.381165749167461598e-01 -1.133894541542919548e-01
-1.963950387457626817e-02 6.738013329629451986e-01 -3.841728537994444914e-01
-7.415503167899129000e-01 3.518299170720849967e-01 -5.243782454336750609e-01
-9.725748605016798498e-02 -3.776160033543717320e-01 -5.431688238153847131e-02
-1.116752695926374467e-01 -5.028318907675874971e-01 1.543534729086169788e-01
-8.694552401532851596e-03 9.916968785757932503e-01 1.505236286425354897e-01
2.900673122519363267e-01 9.169979666008266639e-01 1.805853383241206034e-01
4.002593889892370194e-01 -6.626563991797581599e-01 5.858970476457328047e-01
-1.814904561054822008e-01 1.883804051482952657e-01 -5.649458704035315026e-01
1.134754171378047211e-01 3.751919544951051178e-01 6.963375625336137853e-02
-3.304219567094133780e-01 -8.791506638438827403e-01 -3.206874199515710178e-01
-7.850294771581630693e-01 7.732518059325921636e-03 -5.445045789644343825e-01
7.627771928928815948e-01 -2.128556979654595560e-01 3.289841444795302827e-01
-1.681594134257251849e-01 -1.493775414111364608e-01 -6.008681796661177188e-01
-1.477888376510800086e-02 -3.529518396114460499e-01 -2.816727767945377270e-01
5.944905517015560692e-01 6.242669776131960779e-02 7.943100286532486232e-01
-4.336574521757142753e-01 5.399256848705852319e-01 -6.493292118658388068e-01
-2.209990870117323758e-01 5.138335507752388696e-03 -6.581386972353340248e-01
-4.003992479612084598e-01 5.419257330203173240e-01 -6.482764070116300292e-01
-6.599587868410691782e-02 -4.828127688326440126e-01 -5.658341850415845586e-01
7.005908600058900759e-02 -8.527389372668237044e-01 3.278554112643772278e-01
5.855949827855817524e-01 6.140380203570755535e-01 5.335586014348834283e-01
-3.857044444756203838e-02 7.058148126464627303e-01 4.627867238576247044e-01
-2.350928102689281429e-01 -5.450009969726156145e-01 7.929978533564822907e-02
-7.851312411605938513e-01 1.429608624165168707e-01 -4.265495882360150204e-01
1.721741653878894884e-01 9.229656653318299986e-01 3.555123079594547653e-01
-5.118476640719556991e-01 9.450311547730691486e-02 -1.640654164335270671e-01
1.074031910411220488e-02 -3.872117463111504621e-01 5.144489245751047686e-04
-1.543251598815694944e-02 -7.965668495620314982e-01 -4.544688616579861118e-01
2.551175474837356072e-01 9.131583849113344975e-01 7.019628926448562289e-02
5.959405412543794522e-01 -5.103586775291506505e-01 6.341612855039542307e-01
-1.864696483392648263e-01 -8.504961359091141038e-01 1.077096395010560120e-01
-2.073401989153043634e-01 -9.477150214314592480e-01 -1.104058007433156852e-01
-5.955195979113126620e-02 -3.807569774527246320e-01 -4.679009076708853798e-02
1.661726172320344697e-01 6.510879958566151426e-01 6.114070661912960336e-01
4.189603265591601566e-01 6.243801091828039551e-01 5.355527939871253251e-02
-1.837852234505774063e-01 4.343772005534170533e-01 -5.791533647227352644e-01
-1.627776955143336590e-01 2.325631825039045086e-01 -2.992383560796434971e-01
1.096749884282216536e-01 8.909493002320605370e-01 -1.461763449906605672e-01
3.531249558858615134e-01 6.149755152401574776e-01 6.698744612898033246e-01
4.879220808910837981e-01 5.574541902340031108e-01 1.160474561040177738e-01
1.269397573860595041e-01 -7.239356812309782896e-01 4.546222204935266298e-01
2.665150587089537004e-01 -4.336513387611339726e-02 2.894839541491448509e-01
1.589902386843597415e-01 -4.005489389079250895e-01 -7.588210096792137593e-02
-5.638341644960406240e-01 -1.809485691529728046e-01 -1.911901826012187000e-01
-6.943900544999741520e-01 5.092226694849882884e-01 -3.007900277973475922e-01
4.594249538198696275e-02 -3.937712134348831383e-01 1.874920885722960728e-01
2.693195588426641196e-01 -1.325574325386104091e-01 6.985533953658875639e-01
2.987047088473470668e-01 3.764285807795696437e-01 8.167415842344138976e-02
-6.687615201215346521e-03 -9.927325277425284034e-01 2.291283231434768086e-02
-1.870654970274970574e-01 -6.272541130486977146e-01 1.604787333242856384e-01
2.012343231862515625e-01 2.274373203606656346e-01 2.494521175311963379e-01
-1.169305122239575334e-01 -2.102383666531869311e-01 -4.301501388361392841e-01
-3.356662591334570456e-01 -3.932477500126007053e-01 -6.980056262666625710e-02
8.065190858796348339e-01 -4.256743376099488690e-02 4.813024541674744694e-01
6.412405593843359952e-01 -6.477060444341076195e-01 3.984228210663867675e-01
-5.139451653275688425e-01 -1.743297416724715887e-01 -1.762830603232170001e-01
2.876239601786338418e-01 9.146360496517448313e-01 2.873798854885375453e-01
1.662167360528911120e-01 -6.756650798746287601e-01 -3.519640488854960947e-01
4.785712982645541902e-01 -7.866853047974087243e-01 4.171509172847361890e-01
-6.813890029908561963e-02 -3.892187328125084056e-01 -2.254439860879957000e-02
3.351548131133777475e-02 -9.958445326644012052e-01 3.915776085919170368e-02
4.344891139657232615e-01 5.701852885955350780e-01 6.798868746918884653e-02
-1.333131991023783769e-01 -9.734932191873364449e-01 -1.892035771908963382e-01
-2.367508449615527213e-02 -9.971298730858166870e-01 -1.102073978417588973e-01
3.986998890602336809e-01 -2.340347983541334748e-02 2.043786526330526043e-01
-1.738612215795647120e-01 -6.388596702840022845e-02 -5.739699488212549605e-01
3.643580161083399549e-01 2.821886899777663049e-01 7.781917596801551928e-01
-7.054587771315239397e-01 4.725414411576902007e-01 -3.000298554306199406e-01
3.375681058942918700e-01 -3.382794741148225093e-01 7.168435754024131690e-01
4.339319292555042784e-01 -7.047090735421415175e-01 5.454949377707217772e-01
-7.631289289199345571e-01 -1.137895969972758242e-01 -5.900624857811134216e-01
4.618839297973141855e-01 -3.871183754202863619e-02 8.069146005181709880e-01
7.072356027939580292e-01 1.133082460571974703e-01 7.180487646718967110e-01
-5.925116436913532292e-01 2.601684145025198180e-01 -7.344671569559619861e-01
3.232864429360965963e-01 1.343498398403391025e-01 2.219343920778387713e-01
3.783313970137225368e-01 -8.702357552153944242e-01 -1.887790021044937275e-02
5.641369850754928139e-01 -4.845465755447884715e-01 7.312775826886865060e-02
-5.583867455692861359e-01 2.788461910402350030e-01 -7.412835659445635716e-01
-1.258374560443181189e-01 3.511458360148139168e-01 -4.794746509204680374e-01
-1.533946989031884645e-01 -3.577190818882320933e-01 -8.591574331151966004e-02
-1.247624649681451786e-01 -7.483380511339757790e-01 2.258364213793393471e-01
-3.714650930745279633e-01 -1.979688289786254995e-01 -7.790200538748971448e-01
1.133152096561060029e-01 -4.364442163542570086e-01 4.745237093762691427e-01
-6.404987363158424207e-01 5.192273976553175574e-01 -1.732546697582989237e-01
3.234029245658386342e-01 -1.743765219044291492e-01 1.896978519322419787e-01
1.905767153146848414e-01 -6.557983735752824506e-02 5.387488353199534341e-01
-6.838197602010724907e-01 -2.425229550211723817e-01 -2.814448271903767784e-01
-2.004504936383888491e-01 2.046241284295347851e-01 -6.059958634486437568e-01
-3.770912578723993880e-01 -5.882196738167960737e-01 -6.703684340215655402e-01
-4.436499502099677250e-01 -7.937480381807219265e-01 -2.428066961897116793e-01
2.806567815160023738e-01 6.253140584072588437e-01 -7.329267066470225578e-02
3.515884326201750287e-01 4.452871614697901381e-01 5.326624910458162276e-02
7.686302348324522415e-02 6.042478581753620848e-01 -2.757251003775662568e-01
-1.068782340816962634e-01 -8.310336007234901956e-01 -4.658761288521625077e-01
2.186542616918346615e-01 -9.204724529885145445e-01 -1.579740851891626718e-01
3.957044787632965632e-01 -3.695259610933105399e-01 3.139139403202562822e-02
-1.136225310220882606e-01 -2.187909788558919932e-01 -4.644328638010596366e-01
1.229007197185976591e-01 -4.286353965962526602e-01 -1.961926748613953275e-01
5.074639121627644300e-02 9.664557234197380664e-01 -7.123131536660441687e-02
-1.694079437655907905e-01 -9.150407399593488700e-01 -3.591412407413462904e-01
5.498378031995448945e-01 2.667745479298387346e-01 7.808773518191816088e-01
-8.824478632989515847e-02 9.981042597131011274e-01 -6.296410752542635526e-03
6.334697231209038826e-01 4.758456793809033858e-01 6.267293618084085471e-01
7.097442066026689034e-01 1.186449314916825787e-02 2.771132312400454434e-01
3.938542660944294171e-01 -6.769725420672622063e-01 -1.203498418339891129e-01
3.291126429097979700e-01 -5.161695000780006093e-02 2.339689036620144769e-01
1.989261376106583185e-02 4.339069179925227338e-01 -1.840558612200662858e-01
-1.994631809179001070e-01 6.785994437066092955e-01 3.171553867402941429e-01
-5.617844910452541862e-01 -3.924533521826227833e-01 -1.783522177336028525e-01
-6.290142101345133074e-01 -5.662993241086855534e-01 -4.308133479112534192e-01
-4.052832858960822016e-01 -5.188683253786910976e-01 -5.179318518734585958e-02
5.158382364903476569e-01 -5.305630092447960466e-01 1.963389516151935882e-02
3.431653679697143633e-01 -1.487692970122939384e-01 7.552050150814021423e-01
-3.678922106273703196e-01 8.145880499361831673e-01 9.108372078634242863e-02
3.241171564631926127e-01 1.961460190369218870e-01 7.680992916171403007e-01
3.683411983520956112e-01 -8.228627626050299959e-01 4.273567987941965240e-01
-3.530324906051293676e-02 3.936462714832497101e-01 -2.114941312041702104e-01
-2.523054388774824131e-01 7.215629200388937181e-02 -2.678725987056569946e-01
-2.507512868352321789e-01 -8.628871895935816827e-01 -4.312259362496468351e-01
7.666521646057632144e-02 3.057846018142963973e-01 3.366331185116209213e-01
-1.467628210156376456e-01 2.727793709215124984e-01 -2.639418749214326732e-01
-1.451317172832743418e-01 9.894960538418203777e-01 2.558114433801314189e-02
2.191784662022564223e-01 5.340575423567087698e-01 -8.505557682678664688e-02
-1.998510022020626165e-01 9.763412040673676850e-01 -9.495837518497145247e-02
-2.367394146576370928e-02 6.032455917667219891e-01 4.867232681837658226e-01
-1.763882452929079192e-01 9.428590564035022048e-01 -2.287216328400270005e-01
4.924704704813119283e-01 3.550234523826033550e-01 1.457974325164467788e-01
-3.964473349732464125e-01 4.427788209148088572e-01 -6.935865847115300076e-01
4.766844947394081045e-01 7.088054509151577864e-01 1.564865365779907480e-01
4.458479052682951527e-01 -1.882794355824869703e-01 7.851758087080598081e-01
-3.096139359321122275e-01 -7.489715580192576327e-01 3.277424483393386739e-02
5.719184155413161580e-02 -8.162435194050222664e-01 3.501766370502729098e-01
3.300095036826838912e-01 -1.764440278719538735e-01 7.433001212889236431e-01
4.353114403518071884e-01 3.304328350666205782e-01 7.808825804165034912e-01
-9.946533043713169653e-02 -8.131998269823275116e-01 2.224853366743525795e-01
1.920638678749038430e-01 7.983333553029896279e-02 6.040929227773665922e-01
1.860103617122116360e-01 -8.530980206683832501e-01 -2.673713619116975249e-01
3.060908419685807180e-01 4.265742499551334332e-01 4.636004423580832728e-02
8.915974525968749231e-02 -4.951336548673775373e-01 4.548347724156945326e-01
1.807032819066043683e-01 -5.200655658405047843e-01 -2.680530653278597741e-01
4.010093546859293534e-01 -6.306689714752765630e-01 6.088308706012528493e-01
-2.234666355464197673e-01 -8.079691879451361691e-01 9.905792195192569816e-02
-1.276507722556130264e-01 -2.176048935554733832e-01 -3.465710382479672558e-01
2.390532477215935592e-02 -4.543386682014754485e-01 3.018818798030544759e-01
1.962144137845918956e-01 3.897583166873674343e-01 5.191160348946376180e-02
1.094049505519849030e-01 9.725823401489240849e-01 2.312501785824852829e-01
-3.370759589282699281e-02 -6.112327773235219919e-01 -5.377733175395724707e-01
-4.784166138470394292e-01 -7.166361638929411582e-01 -4.971149927768468424e-01
-1.198554415327478945e-01 4.208073803731300910e-01 1.747821682720414604e-01
3.132281855905658663e-01 -4.152079862935124099e-01 -3.715867206921029398e-02
