3.832145356917890378e-01 5.159967272915813030e-01 -4.830164595576977304e-02
2.337361881368004990e-01 -2.049475997410140360e-01 1.056515448215779446e-01
1.109206281081456802e-01 4.285303003659151067e-01 8.491210911961446506e-01
-4.186547704162106309e-01 -5.247210891132374488e-01 2.803827838691470564e-01
-2.973947891544324873e-02 2.268782159648295438e-01 9.708831304101260828e-01
3.518347195781427739e-01 6.971436572917433239e-01 5.664629360191648227e-02
2.848939455156073719e-01 -8.508982613184830068e-01 -3.389291923438936260e-01
4.174276025567198456e-01 -5.329584169326229137e-01 3.093427185039810401e-01
3.421794797651772080e-01 -1.821144591609287211e-01 3.870570140516134683e-01
4.712007422700892345e-01 1.181285816927132859e-02 -4.724756412760808821e-01
4.883265902599409070e-01 -3.793348093741534810e-01 -4.248819718506706700e-01
4.057816431128936085e-01 -6.111006792265698540e-01 -5.254377906561352729e-01
-8.244685661647377373e-02 -1.751610786354674543e-01 7.149608440663340024e-03
-4.829692955167033119e-01 5.111019421277195329e-01 2.387040864778748051e-01
3.485678830330227185e-01 5.816676829399693993e-01 2.579172926556149159e-01
3.119984099512846387e-01 7.980920034247519501e-01 -8.603668302906194998e-02
-3.782315461621016950e-01 8.196909230687586811e-01 1.222133944836586855e-01
-1.496795678411082242e-01 3.958303215974613432e-01 -8.381715900554301824e-01
-4.178738798748595773e-01 -3.449046303523509160e-01 6.950679894992820573e-01
-1.840523398133663280e-01 -9.040663793501726442e-01 2.800530924545677203e-01
3.814401679087325251e-03 -1.577032580661434646e-01 3.729652689611126504e-02
-3.468403467984698674e-01 8.331049285950517524e-02 2.496321095511515598e-01
2.510353136009134054e-02 -8.382608268185662848e-01 -5.036313174932959269e-01
6.823846982613478163e-02 -1.538147605292070064e-01 -1.668471957298469852e-02
-1.442021490778337134e-01 -1.994026240661690430e-01 -7.687682494323536467e-03
-8.929772433465257842e-02 8.923688960542556017e-03 -1.638864611621150824e-01
2.482101688988860855e-01 2.567640411596564531e-01 1.627577584812972544e-01
-1.891817640677868340e-01 -7.894223357425081411e-02 -2.146379950122561664e-01
-3.607846194238333304e-01 2.231356926237033356e-01 -3.402721547855741546e-01
-6.306113725930054259e-02 -3.575843047695576593e-01 9.374248818109868209e-01
-4.194259374966676779e-01 3.526591559774506779e-01 9.127902263797314786e-02
-1.788852652415728883e-01 1.207065790962780494e-01 1.243769705422908961e-01
4.307021958398117856e-01 -3.701025432674090454e-01 -1.065089922552958368e-01
3.124103249277953021e-01 1.303153005311351031e-01 -8.727377608652584495e-01
3.754106472032416320e-01 -2.876436502017751806e-01 5.418315839526449684e-01
1.996275002382209007e-01 4.087595072244355476e-01 -8.469859721306665090e-01
3.406896130350244301e-01 -9.908277573055641885e-02 4.530426598431748220e-01
3.323585615923939085e-01 6.631156897937108274e-01 -4.847290928618295802e-01
-4.814795515315876129e-01 1.761737106411939702e-01 4.393831240071842115e-01
-2.716111667108913053e-01 -4.412292383085726355e-01 -6.559018882587771548e-01
-3.189683403841586107e-01 1.107428575239517432e-01 -3.334364793518690973e-01
-4.525998318226883699e-01 -3.219127015909576950e-01 5.883028352594630306e-01
4.175749158822948948e-01 4.583962333943501499e-01 -2.686153820339380327e-01
-2.332632762102179458e-01 -1.393173016933663133e-01 -2.347255001022068022e-01
-3.428738532311121912e-01 -3.071367774374322845e-02 -6.449303375208632616e-01
-4.604170076864292915e-01 1.581697910090275883e-01 7.276644592001650924e-01
-2.451395746289181388e-01 1.925847968460969728e-01 5.233743288090079993e-02
3.660067547095382512e-01 6.146233322177255820e-01 8.840847858360605105e-02
-2.919635544907390745e-01 7.990175836188660730e-02 -7.764982168750423908e-01
2.990759153206101750e-01 3.174206830649048960e-01 2.114006314852719115e-01
-4.575725441695916440e-01 6.191220845978345766e-01 9.121354616789300110e-03
1.419032499338312714e-01 5.656613289842976622e-01 7.405362552339458393e-01
-1.020887242279596985e-01 -1.480277753987908895e-01 9.992070495373477079e-02
2.466268904522686822e-01 1.728084759177422186e-02 -1.799655913082382763e-01
-4.255517496868421734e-01 6.927721246042224390e-01 -1.163397592879638759e-01
1.196551936456661247e-01 -7.223285758489293995e-01 -6.523288654810497356e-01
5.789966685750561753e-02 -1.382909296110701458e-01 1.033041227953897662e-01
4.605017523432083371e-01 -5.631414199730696568e-01 -3.758282323869473196e-02
2.062616858186660240e-01 9.044593073163001984e-01 -7.904880315634477128e-02
-4.413254181794815101e-01 5.287386049254799714e-01 -1.451813245896747817e-01
-3.624384407932465524e-01 1.743846979894299876e-01 -4.118902036648899312e-01
-3.286548575007431916e-01 -7.131518473377422840e-01 -1.954161612884819932e-01
-2.386226759104484729e-01 2.097351977258127623e-03 -2.633359244227370666e-01
-2.538668677221951886e-01 -4.589965953742992932e-02 -2.834343234620965712e-01
-3.487223589994025152e-01 7.410699275429628585e-01 -3.278187244993780447e-01
1.987858290391081029e-01 1.687993838915411715e-01 2.067288714872599076e-01
-3.180346591510666565e-01 -7.862696009895008276e-01 -4.756108947414287857e-02
-8.006038172585482060e-02 -7.997980831475245411e-01 5.928056190325581287e-01
-4.460262138890974670e-01 -1.790488666660979833e-01 4.169628849491889833e-01
4.657017295964187009e-01 -5.223880910240260578e-01 -4.494979459703647429e-01
-4.346071190658025718e-01 -1.048245639000562612e-01 3.915617410290156419e-01
6.087988577253256733e-02 1.145728660241945307e-01 -9.072687522901552726e-02
6.264626384613093679e-03 -1.238520840384270266e-01 -8.348203337372958610e-02
-2.522777201367363831e-01 -5.583305038993067182e-01 7.581281845261423902e-01
1.682216636913581587e-01 -1.728182110937255545e-01 9.771378657647342147e-02
-1.721301417636778852e-01 1.663133926948240082e-01 4.105131110101575831e-02
3.768415929832782396e-01 -2.778551899309582018e-01 4.394501941963612768e-01
4.082559080980101007e-01 -4.330343457822363740e-01 3.196191347363244173e-01
-3.216236687202355532e-02 1.445338940467440769e-01 -3.588795779095178134e-02
-3.741785846225259005e-01 2.374794425485128591e-01 -5.514124599601971655e-01
3.759817457325043827e-02 5.093352776704125340e-01 8.367298818930600790e-01
-5.885502766857327039e-02 9.929355357032730589e-02 1.282348080114364686e-01
6.305867496131856154e-02 3.218902971641619537e-01 9.191233610408917620e-01
4.733881016374822948e-01 -1.770779934120557397e-01 -6.349684692036169364e-01
-2.130667640935756113e-01 1.806658852146537375e-01 -8.226617526943963421e-02
2.092714922017453461e-01 8.461568514087264292e-02 2.675567865569416504e-01
-2.367484566552365555e-01 3.300861863707583305e-02 -2.541692833891547321e-01
2.224903771438355993e-01 -6.971603762703226792e-01 -6.412563399830433220e-01
2.821737985258060410e-01 -7.345071069399266017e-01 4.948764071331862024e-01
-2.561302439241175954e-01 2.121263653937281168e-01 -5.007623891317228987e-02
-3.434609462787788225e-01 -1.661714776096033241e-01 -5.807532582477878957e-01
-4.475343081355475094e-01 4.808459757729208750e-01 -2.561694211151212264e-02
-2.795335916617266991e-01 -8.504612653452748861e-01 3.368640908008288526e-02
5.258276402236924940e-02 8.328827750108005468e-01 -5.072017900734796525e-01
-8.455847075320800654e-02 -7.214094128353376600e-01 -6.141536717340285723e-01
-2.308121814229310564e-01 -5.896742912504708556e-02 1.988500758690276982e-01
-2.783677183462321403e-01 -7.118781236142943669e-01 -3.752834829930444815e-01
3.641109551098414832e-01 -3.688381410520633619e-01 -7.684483761480627173e-01
-1.925903353427381171e-01 1.062135188286382620e-01 1.426273536599434177e-01
-1.630366294509976166e-01 1.704355976557752339e-01 -7.570648320761865120e-03
-9.444690306126003743e-02 -1.731075114416724958e-01 4.358715194105882568e-02
-2.492871698859323859e-01 -6.085109353072063604e-02 2.074907366162672129e-01
3.344850795150603462e-01 4.837271569305429120e-01 4.358806397694519053e-01
-2.167407697171337411e-01 6.989194425797328192e-01 -5.836310779948643557e-01
-3.387407694862786256e-01 2.064073122732052179e-01 -6.809751744862694300e-01
-3.647373156025018881e-01 6.434689858414909258e-01 5.965476348148037733e-01
3.212760288474180159e-01 5.346667245575044136e-01 4.601114355165785152e-01
-3.940669172811496201e-01 3.848576926013311424e-03 3.212392447290186581e-01
4.327632818937319215e-01 4.066100506362161360e-01 -3.616908896468400414e-01
1.718743167542540751e-01 -1.349280471487369071e-01 1.732930757532477606e-01
4.872857903557620274e-01 -3.257980661641026177e-01 -5.026654178538451090e-01
-1.557230368462197978e-01 -1.507868272808543519e-01 1.205577930977524137e-01
-3.349688523654980599e-01 -6.979814096524902256e-01 -1.932839125411694448e-01
-5.593892119804586699e-02 -1.640980037751495202e-01 -3.092353362171604975e-02
3.798378790077091005e-01 -7.000966659818880222e-01 3.212206519474701261e-01
4.296055102872959330e-01 -7.229334733351725495e-01 -2.322190262124039853e-02
1.566554788664961395e-01 1.906504332103266253e-01 -2.284112493766015869e-02
-2.628389967017394913e-01 -7.876040987862170661e-01 -2.804165225285720209e-01
-2.008937065000439837e-01 -9.779894621727976134e-02 -2.188600323554560356e-01
-3.409413508568369111e-01 8.403662714874754469e-01 -1.132788340258249066e-01
3.944501431399903835e-01 -3.707336062943807353e-01 3.838319422749639775e-01
-1.208394078578280822e-01 -7.869623186397484149e-01 -5.055842076138838959e-01
-2.023856407801560564e-01 -1.627846149469504844e-01 -1.821719786695186749e-01
-4.459448196235479278e-01 6.995546454665015901e-01 1.755413572526212107e-01
2.806931045351353515e-01 2.481546031931029517e-01 -8.664199321107856067e-01
7.932982118978754160e-02 -1.557817349760629300e-01 -9.571000451390943020e-01
-7.116525082001032287e-02 1.303171573147351991e-01 -7.706914692877486761e-02
-3.742467929381838587e-01 2.821517810397736747e-01 -2.987101250186028345e-01
-1.508183492995943120e-01 5.576081816228640742e-01 8.176891134298006625e-01
-3.257180274668510789e-01 -6.088458269688044044e-01 -3.662507609676234344e-01
2.315679812312504415e-01 3.888660794814000621e-01 7.643328124506504340e-01
-1.907941253056862074e-01 5.133565394926579289e-02 1.737022054687166195e-01
2.064583581864295192e-01 -4.661622502097486492e-02 -1.529597417341206633e-01
-4.732195141893477675e-01 6.030844206015866238e-01 2.617026195951636658e-01
2.236052788279887515e-01 -7.968910566262946138e-02 -1.464535441576003960e-01
2.884708342850024754e-01 7.664830899870327396e-01 -3.859107792887537247e-01
6.439316802235733883e-02 9.707820727075726630e-01 -4.858995251720621411e-02
-3.335443243731182617e-01 2.291910917127064906e-01 1.090510170729082767e-01
-3.162125334372876684e-01 -1.118885915350760138e-02 -7.272910796921230325e-01
-2.319987485988507792e-01 1.971372840155324047e-01 5.374425299144052794e-03
-2.853527716206435971e-01 -1.105430610515548417e-01 2.183315915010114738e-01
-2.766493572942293477e-01 -2.463297466856631812e-01 9.079695759120832710e-01
-2.705416409252346388e-01 2.102523793039609012e-01 -1.141505716744440763e-01
-3.429037278761349339e-01 2.168767845069657571e-02 -4.431908507992072810e-01
-2.028800202930679530e-01 -2.218066448445606964e-01 -9.678279955326821171e-02
-2.194762113110859392e-01 8.499608130924082294e-01 -3.663278083807671170e-01
-2.514236211577237923e-02 -2.725229515596384045e-01 -9.196303191547989808e-01
4.341343309890867697e-01 -1.547365765788408232e-01 -7.379255594279854336e-01
4.532477359651043702e-01 -3.634284030416338740e-01 -6.278936940702779523e-01
1.120868992493490451e-01 2.213245628306988455e-01 -9.406293227711312044e-01
3.002193483126758267e-01 6.539793867893014534e-01 4.000938921084853384e-01
-2.826234060401036641e-02 5.193615315027347475e-03 -1.461776598359896262e-01
-3.612105826738008507e-01 8.177991419899331982e-01 2.677345909632544152e-01
2.964949482463771768e-01 8.086798240618429112e-01 -2.066943825761728970e-01
-4.722152168066894307e-01 2.245503346433095626e-01 6.817372903785839933e-01
-3.359629223889832317e-01 -2.772960968995699660e-01 -3.868157345203339093e-01
2.578963879720895802e-01 -3.639450979153508459e-01 7.928405815093907405e-01
-4.119990138533514146e-01 4.033131242446132414e-01 -2.138886230074290296e-01
3.189641451894348334e-01 -2.698551420743731111e-01 4.031355298534197024e-02
3.479132464745365305e-01 -9.808805706885136144e-02 4.845747521825923831e-01
-2.377883221109246270e-01 9.487307688271717776e-02 -2.258255596258510467e-01
3.636881759104983458e-01 -3.969191802340736874e-01 5.916441728178731818e-01
-2.665206906338681847e-01 1.014627859393657655e-01 1.811667972482914613e-01
2.379744346891591034e-01 3.742708930837080339e-01 -8.437682448929545442e-01
-1.220363056355756037e-01 -4.902136556434981418e-02 9.971963965374727179e-01
1.812757777068501053e-01 -6.078043867661083732e-01 7.262609396812572671e-01
1.270133051787755187e-02 -2.642163503808899611e-02 1.743498493361110846e-01
-4.809004886396501810e-01 5.506013237406821581e-01 2.364483894033235223e-01
8.868186753364799835e-02 1.719321643308342196e-01 5.579047410792214307e-02
1.667148348772469479e-01 -1.028077897896167436e-01 9.268847049051116560e-01
-3.512819517223244037e-01 2.901563931183327449e-01 -1.166009321752816373e-02
-4.905182933100689091e-01 4.666534838645850503e-01 3.903790569502482710e-01
1.327231569899857133e-01 -9.644461032692244196e-01 1.753101710914782840e-01
3.694691492422313983e-01 2.040278710046408428e-01 -7.980656604959092126e-01
2.290862487241145107e-01 -5.216780504024516318e-01 -7.847914624696584740e-01
-1.129254164878365635e-01 -1.420006499552489421e-01 -1.193171035429421850e-01
1.348064918779293651e-02 8.836213086162629793e-01 4.296130112166401394e-01
-2.469901861242885244e-01 1.151835914373968012e-01 -8.318331504918965447e-01
-3.380467776013487691e-01 1.946767651437714963e-01 -3.009006951791686757e-01
-4.678825986171010753e-01 8.044895983347395696e-02 4.346134387259139586e-01
-1.149876341343677444e-01 8.306666934565505311e-01 -4.881969302948216960e-01
1.587841444653739775e-01 -1.584330374088999127e-01 1.251264786296998333e-01
1.757960834666057737e-01 -5.214499687831193331e-01 -8.056924077874095813e-01
-4.178552998149717701e-01 7.101707144581728137e-01 3.683457016990874244e-01
-3.691023473169007807e-01 -4.989914470111866951e-01 -5.230273600703944786e-02
2.388358629183871540e-01 7.824788141555611976e-01 3.543233828428339893e-01
3.678658495154164543e-01 4.750088687636411233e-01 9.045281417901155155e-03
1.985216276444501937e-01 -9.865182368417517444e-02 2.283791462498496461e-01
-1.474697564616252732e-01 -1.298509067034621378e-01 -1.565599843479043851e-01
-2.079259542189870746e-01 9.263481703814178125e-01 -1.744441940746365438e-01
-3.698464394973856317e-02 1.520774531888329784e-01 9.988685636629758210e-03
-3.737758889022487208e-01 -5.146250416517675896e-01 -3.291738786478167617e-02
-5.114900807302098784e-02 -7.092962585513876705e-01 -6.443862756597640296e-01
4.229952788217995474e-01 -5.710350615040601374e-01 2.646303721340891868e-01
-3.699231008822234656e-01 2.665612282673073263e-01 -3.082159270575440813e-01
1.841729155801563045e-01 2.701450241120631826e-02 -1.545951317897969746e-01
-1.784435340172138285e-01 9.243384200393384154e-01 2.989567876999756901e-01
4.843338153810636260e-01 -3.371597333865892221e-01 -3.691799584617929120e-01
4.277969665861029447e-01 -6.917696522981962026e-01 -3.216748832137893421e-01
-6.629328382636705264e-02 -1.680359805399941064e-01 3.378136120346923732e-02
4.353776875044682582e-01 -6.081354523827220415e-01 1.633293436029701062e-01
3.504938892349355739e-01 -2.763528516056830142e-01 2.697280871298425864e-01
-4.865086830156114539e-01 4.260888028378130854e-01 3.051553550865410136e-01
2.537860076362086215e-01 7.597382553674151273e-01 3.616814307479187529e-01
-1.859555139344060415e-01 -7.198120266039009785e-01 -5.275452172557749675e-01
2.646918303680436679e-01 -1.169281927155956941e-01 2.865188105511505823e-01
-4.250781265983889501e-01 5.415169628664516788e-01 -2.696321476274596840e-01
3.450779260442092267e-01 4.895341159684312715e-01 3.364718322481848323e-01
3.412597937969378825e-01 -5.187347866440338295e-01 -7.048668825736682519e-01
-3.075352080709587432e-01 5.627434211947252019e-01 -5.966760677509813648e-01
-2.949215452011832439e-01 8.980672583202307102e-01 -2.013040774162874746e-02
-3.979220497960044844e-01 3.502660210901420990e-01 -3.865874364761316406e-01
-4.932164901656100886e-01 4.120935243740288523e-01 4.503732305425905413e-01
-2.749305331490461621e-02 6.657699675439845977e-02 1.539206261971826084e-01
-6.919817981915656058e-02 -8.173649728062809539e-02 -9.439553625871229814e-01
-4.062888850617727976e-01 3.850210324325562539e-01 -1.434454849829387701e-01
3.680253192278392094e-01 3.538887822450931253e-01 -1.445809876840580543e-01
9.548712348160261904e-03 -9.598847617218964068e-01 2.661487298057822470e-01
3.719400254137604778e-01 -2.508779663702110918e-01 5.480239787560436948e-01
-4.108357784826725118e-02 -4.041193399514915741e-01 -8.658109114079179935e-01
4.157078899843153486e-01 -5.857626236404452902e-01 2.990391042951477951e-01
6.139739624815586383e-02 -7.377327342177066039e-02 -1.179224971170198671e-01
4.581225834212728221e-01 -4.269624978762102119e-01 -1.453221943643947800e-01
-4.016504032597169593e-01 -1.735719106038699500e-01 3.259702010273056727e-01
-2.189133050369876654e-01 1.921086869971591893e-01 9.554732314829595952e-01
3.974918063546176161e-01 -5.628843704152269867e-01 3.987777986592059842e-01
6.078575729947495454e-02 -3.852748932244642183e-02 1.833984124622977663e-01
-1.134624996211244657e-01 9.763124979314129481e-01 9.648879621319036981e-02
-2.741076999354822852e-01 -2.347130994016622951e-01 -2.249257144009035314e-01
-4.477318060241095576e-01 -2.623816657808358821e-01 6.676380119793803303e-01
6.769941126865618164e-02 -8.854010655151896003e-01 -4.237264826242898574e-01
3.661450313337571427e-01 5.051357845301613914e-01 6.742928549648653791e-02
3.966095100056022393e-01 -5.912934539009736534e-01 -5.659313128472300836e-01
3.114856971771156613e-01 -1.720773939623104487e-01 3.170199632735832829e-01
-2.779639610579891507e-01 -2.842521175666180011e-01 8.945639051638073491e-01
-6.767005500976132348e-02 6.820940196947192780e-01 -6.857401213846957555e-01
4.306805848742344400e-01 2.929988144837573083e-01 -3.474657499750984369e-01
-1.034980882728649271e-01 7.122189139439323580e-02 1.484964800408124230e-01
3.655572685314101289e-01 -2.767505213324192859e-01 3.449310272791802912e-01
-4.262090572592096005e-01 4.797532274856869394e-01 6.519631254763696981e-01
-2.342423365449476380e-01 -5.871710647681069317e-02 9.653001032603457654e-01
-4.958086268431812216e-01 2.792996029450605100e-01 5.318083715859839300e-01
-3.864251241167266371e-01 8.085392623138200063e-01 5.170210565773251943e-02
-4.921324296852906399e-01 1.416176555309782426e-01 5.998630490580807439e-01
-3.809808384315576113e-01 -6.812565507584377178e-01 2.683622587134305015e-01
-1.138206842986911604e-01 4.177912055213323095e-01 9.043651991649264144e-01
1.595565056589327568e-01 3.087034377079254238e-02 2.368154186690367424e-01
-4.615824927458753169e-01 3.349692550042349670e-01 2.581616564102234834e-01
4.516537713306648660e-01 -3.198405236955561559e-01 -2.360988170049242441e-01
-1.398447648291569756e-01 -1.905459612731534580e-01 9.768803149309090994e-01
-2.078849283246119728e-01 -4.485558431038447202e-01 -7.377584471428062507e-01
4.103248762327125765e-01 -3.446370682247233697e-02 -3.156223438445522889e-01
-3.981443728458065046e-01 -4.470677784921729403e-01 1.779213111378427636e-01
-1.802202756016611784e-01 1.759062700526162759e-01 -2.371419651627223318e-02
8.186519816908616187e-02 -2.635498393299878228e-01 -9.335845837170144712e-01
-1.285212425220631782e-01 -9.424401443001432233e-01 2.220290203014255170e-01
-2.879896744663654196e-01 6.028076674477916841e-01 -5.934499042928358392e-01
2.480113695785124972e-01 2.716127136074151793e-01 9.947568231438586039e-02
-3.538452632605084136e-01 2.743647774813252616e-01 -6.338201968776830952e-01
-3.543523945901965733e-01 -4.772215356346851123e-01 7.124054304398244053e-01
1.104143556988311098e-01 6.232718672643439151e-02 2.013553164087439340e-01
-4.069541832195768816e-01 4.283582914181232604e-01 -3.824857982463497064e-01
3.048944438103871613e-01 -5.023532054388198803e-02 3.855601921023321110e-01
4.770813098365224159e-01 -3.472676456796068289e-01 -5.575944992272190426e-01
-5.891297864641088095e-02 2.206042350472744440e-01 9.747148846438131731e-01
4.217705903954200863e-01 3.347711651331840566e-01 -3.081835895304241291e-01
-4.830590679816123417e-02 1.162504670470931589e-01 1.113615121220075110e-01
3.048338707996681163e-01 4.690768958129784560e-01 -7.356715145312321402e-01
-6.544068999119849461e-02 1.335982463414146781e-01 -6.933350261773084389e-02
-3.074041250552529969e-01 2.439857430820246975e-01 1.430099425270678522e-02
-2.760572294265740134e-01 -2.615165270668042830e-01 9.312300199057520211e-02
1.081213153551249390e-01 7.437420563824663766e-01 -6.151452535544930100e-01
1.211513991676467332e-02 9.751299991114035226e-01 -1.107121657150842431e-01
1.757094862726573115e-01 2.143889668539671611e-01 3.815245215079040436e-02
3.379970476148283498e-01 3.617787561989439515e-01 4.270408522471135226e-01
9.502644823401026897e-02 1.755618668264533888e-01 2.856148656740171293e-02
3.208464102656649608e-01 -8.713174646417310987e-01 8.830410118504554429e-02
3.358238438308992491e-01 7.581008210983005702e-01 -1.725727498530550408e-01
2.409906239635181968e-01 4.202772493972828927e-01 7.341763923951939441e-01
8.060984198714674087e-02 -7.226855863165457250e-02 -1.186173715059946621e-01
-3.221787394877165811e-01 5.558020478302682088e-01 7.293931874748375010e-01
-2.090355579612967335e-02 -1.972060686088731273e-03 -1.450168976910521379e-01
3.797723455104021206e-01 -5.054007024390566594e-02 -8.244050495589289040e-01
-3.286008908266154771e-01 -2.590260645983549770e-01 -3.617581699065762768e-01
1.975795331193886673e-01 2.288285278525207800e-01 3.857154022011859140e-02
-1.763802170084038390e-01 -5.132567676640315685e-02 1.798322576507778159e-01
4.289165657531369968e-02 1.270819092215215995e-01 1.236714828406644401e-01
3.193016570108105356e-01 2.519210781167928181e-01 3.836896833280871166e-01
2.872674343685001630e-01 7.267349463760953698e-01 3.274506408101100496e-01
3.228461139359657950e-01 -4.241119772794240683e-01 6.761121043056234070e-01
3.313035103910553780e-01 2.200213554208690081e-01 4.622570068922313147e-01
3.407152882934311733e-01 -2.487340990769133231e-01 -7.803828826154224352e-02
-1.706052211879736658e-01 -2.545359218751022667e-01 -8.564286991335066102e-01
7.233792911059673536e-02 -5.951401993762242548e-02 -1.244745848201549293e-01
3.786826572761942122e-01 6.295453655415030880e-01 -4.445835457772723959e-02
-2.585469325588472117e-02 -2.655591494559296772e-01 9.662435423334426732e-01
8.071319596470996269e-03 -1.556199305557225132e-01 -1.610987487078115177e-02
-4.577177431245593731e-01 4.958237007299849397e-01 3.275996225106626164e-02
-4.168480178760179955e-01 3.677906817936195671e-01 4.624280337621309439e-02
-2.197854547198654362e-01 -1.034823069687403341e-01 -8.498759435024286768e-01
-1.282778924983442870e-01 -1.112044874484066498e-01 -9.148434169400067040e-01
-2.981425199554215144e-01 -5.478372503771883339e-01 -5.180318567533060969e-01
3.883621210772934540e-01 5.352601020692375755e-01 -5.264328740121511085e-01
-4.004506622831736085e-01 -5.836554263829162315e-01 4.614790772876272706e-01
2.725624369843400174e-01 -6.163310163116227924e-01 6.303644317874201874e-01
-2.459963541254672759e-01 2.029695484814447171e-01 1.487941188172970525e-02
3.336898920620832709e-01 2.553646977819880037e-01 5.823461816760080456e-01
1.723120011987785138e-01 -8.575233675817868217e-01 4.390424906594488363e-01
-4.298209826981971293e-01 -4.954850770054107789e-01 4.323578180884335431e-01
-1.099475007082510031e-01 9.176759878851246111e-01 3.626231196927225398e-01
4.278775443065272466e-01 -6.410257348349063244e-01 -4.251394268564651080e-01
-4.095704092773745919e-01 6.064803744598706858e-01 5.620072556133904884e-01
7.845183805034161573e-02 -5.866305820880595157e-01 -7.768383663499905945e-01
-3.565030581089437267e-01 -6.063963469068953671e-01 -2.001927129502538982e-01
-1.746114596157311571e-01 1.232892105667097449e-01 -1.448133808808899081e-01
3.630027669675865709e-02 -1.064254239410047098e-01 -9.672226822610523189e-02
2.501151645450412353e-01 7.879319977412764242e-01 3.149072804461998665e-01
-2.926535929439167960e-01 5.807462704947018439e-01 -6.046546202530583836e-01
-4.432351186426877199e-01 6.533382541868334448e-01 -6.662372614593257969e-02
3.092766508421639360e-01 3.382312462139223097e-01 -8.081944102888044545e-01
3.886850156737208239e-01 5.753644360387488721e-01 -4.594797336580954683e-01
3.589419833599044596e-02 -1.580264761942283547e-01 2.013647835452906515e-02
-1.599118829059064661e-01 -1.956480716212646576e-01 -8.019693303592896616e-02
4.845891647070016961e-01 -4.358153413777094420e-01 -3.265995917609049171e-01
3.873902365329290332e-01 3.871868131124884260e-01 -1.723539902325292306e-01
7.878794435969437016e-02 6.267904549632809241e-02 1.859770898968517161e-01
3.843327776551671016e-01 5.067804608684839396e-01 -6.149664286371443050e-02
3.742518483289274389e-01 5.370880219897051777e-01 3.025854733693395318e-02
2.756676229585868290e-02 -1.516627702870443906e-01 6.414365237239455508e-02
2.619538959273926548e-01 -2.086041606937767134e-01 -2.969926128396200085e-02
-3.609710222815695757e-01 3.045609822101618125e-01 -1.278555693177066410e-01
3.869040758612194431e-01 -3.658224987210623169e-01 4.884163921805255715e-01
-4.153896057960499988e-01 3.456534039155349514e-01 9.026337812970992858e-02
3.679766785527062711e-01 -2.677473902318852628e-01 -9.878083142575250220e-02
-2.593833440692058789e-01 1.428748473024178123e-01 1.438165007240080062e-01
1.274988509012392190e-01 1.884793528660227424e-01 2.980720088782133625e-02
-3.827705053391292078e-01 -5.730195653512595300e-01 6.419993606556518261e-03
2.865744138857512779e-01 -2.418964844614189813e-01 3.325746364591670307e-02
4.999685268742319610e-02 -9.449822255708875129e-01 -2.777358836521952590e-01
3.068851216631766632e-01 3.483581632965940256e-01 8.129424016791812757e-02
-1.079882291432699044e-02 -5.053014228590990697e-01 -8.207971469702848299e-01
-6.790860664910658429e-02 8.032506716004151892e-01 -5.474485088017827517e-01
2.339437065731704291e-01 -1.642909505772353895e-01 -8.080906526467727946e-02
1.528275328933503541e-01 7.893863094116202461e-01 -5.288020046129524587e-01
-3.875966201161649693e-01 3.265020905887642266e-01 -2.710728242264436871e-01
4.370447446812014136e-01 -2.824710708148751026e-01 -7.002238697407420220e-01
3.175581983372892103e-01 3.670850603800280276e-01 8.454081493343394704e-02
4.661493206170131964e-01 1.523608486104060522e-01 -5.009827778681551491e-01
-2.925324398186212593e-01 -2.628144377450385427e-01 -2.374230116053222817e-01
4.284543811748493525e-01 9.221796223597593378e-02 -7.383946612636518303e-01
4.455086909647896221e-01 -5.641740522282350234e-01 9.607078014678413491e-02
-3.136732214144170028e-01 -6.079618183380189889e-01 -4.113358030961917766e-01
4.748074437726231278e-01 -4.917384007272032065e-01 -1.968429397522009627e-01
-3.873209300489537377e-01 -4.395032133350690873e-01 1.390316051347347814e-01
1.129701861236365179e-01 5.075454954204930980e-01 8.018917133324410251e-01
1.131848187132196704e-01 9.240927463640687956e-01 -2.589903622463917698e-01
-1.739501753401798134e-01 1.694405148857657528e-01 -5.378452912727400836e-02
3.009710461022401251e-01 -6.876069324565307894e-02 -1.945635330535484264e-01
-1.860106956918811671e-01 -9.135036271571020938e-01 2.312129842418128578e-01
1.625263998090668294e-01 6.301192456359634708e-02 -1.419482420033372772e-01
3.668995533384062369e-01 -9.534485263154979240e-02 -8.364203421858653620e-01
-3.413416923714408524e-01 -3.432759645832067497e-01 -4.937699141021461013e-01
-2.271920128769122083e-01 -6.287662936757039134e-01 7.148527769028951706e-01
-1.674602687429767867e-01 -1.369583330464480553e-01 -1.677910847350987666e-01
5.909233399456784164e-02 -7.478620470393550212e-02 -9.668387808523198901e-01
3.716683508357789822e-01 4.337502387951870375e-01 -6.896283999584776336e-02
3.580603402073646024e-01 -8.356552010000648512e-01 5.341033632410801396e-02
-3.282574499552833869e-01 -3.260778780523890252e-01 -5.826700216652770381e-01
-4.136539080840952454e-01 4.703103331096543660e-01 -3.459571186053613800e-01
3.361993472986926079e-01 2.954381136461795357e-02 6.747316899567419313e-01
-3.930410992349819832e-01 7.786301792333049088e-01 -7.611079223610460465e-02
4.501035356241298580e-01 -1.507528148542153501e-01 -3.477228888265713747e-01
1.280950077349502295e-02 -7.504778758114356574e-01 -6.196987979561071613e-01
-3.287436812596264413e-01 -4.180872990406002132e-01 -5.234352052774184916e-01
-2.277183076391857131e-01 -1.930773487461941162e-01 1.249474140450796966e-01
1.345909397070449987e-01 -1.830632367064301616e-02 -1.409884171263421360e-01
3.077691471492548514e-01 -2.619087112905638115e-01 5.901041166573479935e-02
4.695308788752242668e-01 -3.232710827653876851e-01 -2.974386344932340998e-01
-4.095752624722344137e-01 3.934989191865712055e-01 -1.536471947253572334e-01
-2.184123931520482731e-01 -1.108046701591344912e-01 1.781220313667432886e-01
-2.947357457090625799e-01 2.723467476037325780e-02 -3.295489664071222236e-01
1.281786879219952158e-01 6.099901414436129654e-01 -7.431372669339784132e-01
4.200510675986178777e-01 -4.349770604043071698e-01 1.141465862383730379e-01
-3.854184320400723673e-01 5.511616343888697811e-01 6.601755701151995614e-01
-2.974869015399448161e-02 7.850518185406105132e-02 -1.216980068120090130e-01
-3.508972280616879935e-01 -4.374497646794502925e-01 -7.897980606932647474e-02
-4.849632469694923342e-01 3.521891682938500523e-01 5.773685612339819473e-01
3.280374339443074549e-01 1.479633658756416281e-01 -8.561701067053207881e-01
-1.330906893790381566e-02 -1.178282423060124928e-01 -9.556831125893308632e-02
-1.023804614281916513e-02 -1.002946146617426787e-01 1.381146011365415038e-01
3.613414799794018722e-02 1.493120437172319459e-01 8.043356713406697722e-02
-3.112116131917908590e-01 5.541864070624619165e-01 -5.972280140923267311e-01
-9.879090559991872411e-02 8.920589398480732735e-01 -3.842002309225273637e-01
-2.684427719321085259e-01 -5.325956966155440814e-02 -8.021323173033473308e-01
2.189130325430304613e-01 -7.616898420657516877e-02 2.601513335715335273e-01
2.722513427786417139e-01 -1.219764486262597397e-01 -1.475838320953644367e-01
2.738893340246132402e-01 -3.963802215413286117e-02 3.381900153798921282e-01
2.824684093459478573e-01 2.987182496987629832e-01 8.745532080025524924e-04
-2.846831059667242342e-02 1.370167803620696290e-01 -9.517585898625098295e-01
3.508441771485987237e-01 5.883788891033184809e-01 -5.535777447374969906e-01
3.833530171542816056e-01 4.998545972572863705e-01 -5.852170549105620845e-01
-3.550592182216515402e-01 -8.607995458777778497e-02 2.817015912304211556e-01
2.471384464771267109e-01 -5.897235826755770072e-01 -7.261749062945516142e-01
-2.661155673705808411e-01 8.910188704185184605e-02 1.881460080952548353e-01
-9.772561940548687986e-02 -1.590977586276794420e-01 9.884606987858548521e-01
2.191349610540230253e-01 -3.022215636876006140e-01 -8.936370409617160337e-01
-4.359400562406922086e-01 4.012562231290331405e-01 6.447658187819461928e-02
-1.183776092221120735e-01 1.468105248843703733e-02 -1.752966303924635705e-01
-4.440199546003279485e-01 3.762153228534896865e-01 6.860020531915782538e-01
-2.546093638076051269e-01 7.642693590562954498e-01 5.654941882002518794e-01
1.523647647173916042e-01 5.837151404425505730e-01 7.175768360965852910e-01
-3.668937106175553242e-01 6.706736787654793419e-01 -3.789738250073917403e-01
5.583827749211935088e-02 -1.566008143163039878e-01 4.892585370368815467e-02
-3.625691167055228314e-01 -4.879282220851760554e-01 -1.032101789316158258e-01
-2.319075860451329241e-01 -2.115380024569514794e-01 1.065133677455000205e-01
9.970732406600725517e-02 -7.611654071192154591e-02 1.815590943296676030e-01
-4.668514524596167337e-01 4.199600958182615473e-01 5.998550055395076575e-01
2.125265251348743001e-01 -9.056217463907693943e-02 2.460865004797191391e-01
-1.860400408297472052e-01 1.541458801247528321e-01 8.198640443110802312e-02
-1.609703393474240796e-01 -8.578459475553354974e-01 4.457196567925613695e-01
-3.739781030634022896e-01 -5.985619778164543714e-01 -6.293201705879573893e-02
3.490867100023223868e-01 -2.010217771551366939e-01 6.642118695425740516e-01
2.134730120538393394e-01 -6.454518820972518500e-02 2.606781515642374036e-01
1.363267251633770716e-01 -2.817111514416118512e-01 -9.231053549427336025e-01
1.942055401512476631e-01 8.733517046985529442e-01 -3.022320084769019588e-01
-2.254968759723388338e-01 -8.599731692633026670e-03 -8.544161676415250595e-01
-5.782262459282611761e-02 5.817270100729104998e-01 8.072680340322825332e-01
4.321179508278227277e-01 -2.036892761914071148e-01 -2.793663612147791464e-01
-2.722946482821487213e-01 4.928633702658993115e-02 -2.894230374029434505e-01
-3.105212579720257882e-01 -2.980650905454110267e-01 -2.488784173182258808e-01
3.550752655774310762e-01 2.119763099425796549e-01 -2.200660504192635814e-01
2.219966295817850099e-01 8.070145953517446902e-01 3.422814338835908909e-01
-3.892521739804796765e-01 3.383857834274056064e-01 -2.356476543928264777e-01
-1.350634508650234468e-02 8.668034382498296386e-01 4.722804412504037486e-01
3.389029998751775796e-01 2.982472260676845566e-01 -1.329670290224175266e-01
4.171751050310720244e-01 -5.806433270210498154e-01 -5.357885605025405340e-01
-4.035022497505277861e-01 4.994770957760467645e-01 6.758484685516878976e-01
-2.641918054605482125e-01 1.804474063509897419e-01 -1.683103274120521520e-01
-3.060227101248823578e-01 8.853750917963479905e-01 1.748356536610665146e-01
-9.858681020430801190e-02 -3.122800397787769411e-01 -8.805912456111625319e-01
-1.113802388978499536e-01 2.998154378893658212e-01 -8.911965816358565773e-01
-9.240482108976164066e-02 8.210171689002233875e-02 -1.365025709747846594e-01
3.641747791967570591e-01 -2.472286409482430947e-01 -1.211002573084477008e-01
4.509937053113994287e-01 -4.293403317062572944e-01 -1.056059629831494900e-01
3.312678864734053819e-01 3.968877119768020600e-01 2.000600680153279409e-01
4.063589183094117319e-01 -5.914704595099934403e-01 -5.469012057821923678e-01
1.776404506748855971e-01 -1.777628699925478395e-01 -3.234719468457140749e-03
-4.138089253606089812e-01 4.020051617890897377e-01 -1.270377351648860897e-01
1.967330271968926736e-01 5.480303321674374617e-01 7.024378119655378949e-01
-2.192054120284169794e-01 -7.900909602430922218e-01 -3.741862265842925694e-01
-1.541175858879867133e-01 7.577963254893170797e-01 -5.660924457272170640e-01
4.271263287435320133e-01 -3.375251137268879820e-01 -1.418314189167406147e-01
-2.847797672431943705e-01 -3.109566404514205185e-01 -9.079050503746667611e-02
-6.526770043453558601e-02 -8.041899687804464625e-01 -5.208543645334229311e-01
-3.840372847106331977e-01 3.334201130659908974e-01 -5.138273253629933590e-01
-2.725529991665717744e-01 1.925279686183833938e-03 -3.031631332467166762e-01
3.784195478721489314e-01 2.034526888182342230e-01 -2.579417717178951186e-01
-2.411678845713712271e-01 2.089503480126723711e-01 9.428657379096229141e-01
4.257081526888169543e-01 4.643488747999611754e-01 -3.410954581748196768e-01
-3.945831198603474976e-01 -5.469819269352006463e-01 1.010342555565182793e-01
-4.310717932211528547e-01 -4.900538572250531799e-01 4.030769316656050982e-01
-4.682304302143194819e-01 2.710327799904051482e-01 3.346359648676001108e-01
-2.301303326750036571e-01 -6.789858409026410246e-01 -5.156943875009922795e-01
2.494373516865155960e-01 7.923455000393330172e-01 3.070699262321957557e-01
2.510653491492900180e-01 2.684603796682100696e-01 1.365832364323576742e-01
4.020408218211131146e-01 4.075778824499402542e-01 -6.306688251747868401e-01
1.938136527526434782e-01 -2.548117438158352122e-01 -9.167173191799296017e-01
2.119201082951310267e-01 1.469817535461344638e-01 2.407669552675639757e-01
-1.539759409561248515e-01 1.918007756315022808e-02 9.927924635259982589e-01
-3.635492235755636292e-01 4.912492299168643578e-02 2.775344334349589270e-01
1.732892120641259248e-01 -9.029422788782651699e-01 -3.455867555440165773e-01
-2.304839353196490859e-01 -6.912884741106567477e-01 -5.003544063010803011e-01
-3.762240616660176284e-01 3.253728053826372979e-01 -1.525759736348935303e-01
-6.232557199635640338e-02 7.544983026422477645e-02 1.456705010436811221e-01
7.888243744425070536e-02 -1.198972951445968355e-01 -8.108817840377213759e-02
4.441846604983030189e-01 -3.807125660096777331e-01 -1.422788485899586786e-01
-2.674470929109331041e-01 -1.218456570736032307e-01 -7.922393160979231963e-01
-3.458597010850786302e-01 5.373039223782681839e-01 -5.473449551798014179e-01
-4.118491082419707405e-01 3.181162960650291693e-01 1.289996287115693641e-01
-1.402046242981035418e-01 7.608475279806019287e-02 1.500037959868354975e-01
2.086050900770267946e-01 -1.386666290625772624e-01 -9.349196230880731928e-01
-7.848059928510764047e-03 -1.543926487351844103e-02 1.724303188606990944e-01
1.089632105505601856e-01 1.602573516882876276e-02 -9.670283247528770332e-01
3.336705488814037945e-01 9.230963572751038626e-02 4.944833492503339367e-01
3.195585317800164193e-01 3.725904791001551919e-01 1.488241454824483223e-01
-1.456479356750659260e-01 7.929220365357942946e-01 -5.260333338106493173e-01
-9.271724313301482612e-02 -1.648983470387178629e-01 -6.701025885841761787e-02
-2.241697169461816519e-01 -1.086965067818491809e-01 1.819236827843438431e-01
-4.309198836410752520e-01 6.931066118572641876e-01 3.529987931593431827e-01
2.814587303899930837e-01 -8.999195444339491701e-01 -1.704569600469241775e-01
-2.457432049639912408e-01 -4.780889846223878442e-02 2.072127458940902223e-01
-3.354545661394969097e-02 -3.465769888144235034e-01 -8.922791624366672725e-01
-4.689566607081005478e-01 7.914639833477998820e-02 4.382590138059219709e-01
-4.939239697793009198e-01 2.374506681432546618e-01 4.815983641926661063e-01
3.158276841466504115e-01 -1.356194264448682407e-01 7.532249275505008557e-01
4.864200676867334039e-01 -1.595800435510843496e-01 -5.556631478235793953e-01
-9.271229770469853471e-02 -1.589158785824328901e-01 7.843875629116255077e-02
-3.115518273483166567e-01 -1.138803142521126466e-01 9.142612170185302478e-01
-5.844226383399418745e-02 -2.903593802882001307e-01 9.603411609754073375e-01
2.477758267930387504e-01 -6.623852142160181755e-02 2.949812687173958281e-01
-5.748000115225040257e-02 -9.210645304470033157e-01 -3.010163544218834031e-01
1.283350293157561328e-01 -6.604844434502192552e-02 2.003988111439714281e-01
1.045752709597603108e-01 -9.695731185597854518e-01 -1.646783029171991208e-01
2.779617768685713752e-01 -6.632871568756630865e-01 -6.381559859546198643e-01
-4.146654506682987962e-01 -3.130375610757322735e-01 7.230988809358437353e-01
1.192683187520181681e-01 -1.045571229950188474e-01 9.540416757250761437e-01
8.678050054590408235e-02 -6.013201077197080080e-01 -7.655769304016191157e-01
1.918683529383395300e-02 -7.164985183833181281e-01 -6.583640514255578724e-01
2.354062018893522679e-01 2.018745833540822598e-01 2.251847081595102495e-01
2.662496669132898286e-01 4.523046583824484601e-02 3.399430940459344241e-01
2.272761059565693853e-01 2.521783954717147225e-01 4.237471972905071382e-02
2.007342001948951016e-01 5.785238705762787426e-01 -7.357111001867039368e-01
5.148013381557233620e-02 7.519989092578949208e-01 6.178036176324278594e-01
3.168786040459622422e-01 3.578028075916135642e-02 7.366773527332554083e-01
3.431910901539939607e-01 4.190630978634163895e-01 6.687157549409993018e-02
1.587901681922319341e-01 -1.543202986697084778e-01 9.269498645056430952e-01
3.215027805633654534e-01 5.948874098139845801e-01 -6.002542229634774129e-01
3.599431296839782912e-01 4.890161807369604041e-01 -6.450281101606661904e-01
-4.899031735824984635e-01 1.045561417151157080e-01 6.167812266621764961e-01
1.091779842575620607e-01 -8.443944004316752405e-01 -4.925167555888002036e-01
7.288324130850865057e-02 -8.290138960676132207e-01 -5.212995672332657593e-01
4.591116120900524677e-01 1.664131415296936645e-01 -4.575169846766960480e-01
2.311514455486196329e-01 -6.008296507446453383e-01 6.893475555612722516e-01
3.295553551875125553e-01 2.709078264857606722e-01 4.215154239662449731e-01
3.248054079324224630e-01 -8.011214891503906088e-01 -3.820027232729070188e-01
-5.496415424804805550e-02 -9.800970816289650278e-01 8.784665827612513078e-02
3.434365430141874675e-01 4.385410345928519305e-01 2.736951065824682061e-01
-1.982898400152945384e-01 -9.205195685535623173e-01 1.069355881722578450e-01
3.966208860064739938e-01 -3.820760760259757083e-01 2.736145313962347614e-01
-2.667666056909369088e-01 1.289099795944039784e-01 -2.339329457480535390e-01
3.595020929603728876e-01 7.083562173058435274e-01 -7.740751746197378769e-02
2.955901014555488426e-02 -7.694356467368390629e-02 -1.185965402528237206e-01
-2.034407555171743320e-01 -2.553547667667569465e-01 9.426790199759739197e-01
1.790243809482405801e-01 9.406299601363518614e-02 9.112623972632202252e-01
-2.536533834145924260e-01 -6.719828113623098342e-02 2.088105193629832823e-01
1.056069863610782089e-01 -7.015587810620284026e-01 -6.760368745268102719e-01
4.015861866988412188e-01 4.220196124979989638e-01 -2.001692670188437162e-01
4.780201037812086273e-01 2.323884779714950610e-02 -5.688554601938234923e-01
3.118957602680702546e-01 -2.632653468475858460e-01 1.323879222684300194e-01
-1.826576698237403207e-01 9.409218287408503967e-01 2.279154422146263126e-01
4.521155028084226091e-01 -6.432736838229620169e-01 -2.990134530402676627e-01
9.317788994339576414e-02 1.134300171776381205e-01 1.643043162562991266e-01
-1.559521025561518837e-01 -8.550167248137207077e-01 -3.498142167012984194e-01
-1.705619581591164280e-01 -9.379949617308238619e-01 4.044291224508343024e-02
-1.658430348354023309e-01 -1.750348528655025146e-02 -2.050990621782445567e-01
-3.878932819199755189e-01 2.928594723235899977e-01 -4.132978776880355531e-01
4.733872070838657242e-01 -5.687606866077306034e-01 -2.709265559814814650e-01
-4.047484711105343164e-02 6.930815320466222618e-01 -6.816101639357234898e-01
4.750891707780081630e-01 -2.258536841638859871e-02 -4.800005653998157262e-01
4.781810171345145521e-01 2.519254794959629312e-02 -5.516815456913765070e-01
-4.792990337148823610e-01 5.460030691686530435e-01 3.816252079611293091e-01
1.723860320395374235e-01 1.784293051496272653e-01 1.618664767743285271e-01
9.958557599358994206e-02 -1.080873951680800804e-01 -9.451840081064277754e-02
3.348980773243828146e-01 3.577314338208754108e-01 5.103857735144389229e-01
-4.212592319578618016e-01 -4.790175546566270703e-02 8.042595265480790845e-01
3.384150022590345919e-01 1.526990281446581055e-01 5.349597744829066581e-01
-3.953109362464534704e-01 2.526666114400651364e-01 8.139505388287159304e-01
-4.324355881629052822e-01 -5.894919740335761993e-02 3.855342050242526186e-01
3.982951238128115690e-01 -3.891399963909820681e-01 3.669287069914673460e-01
2.296715772825956015e-01 2.192737595094254865e-01 -5.989697440502407544e-02
-3.409712534314499055e-01 -1.310606493046292398e-01 -6.165172728818418824e-01
-3.577916636859896360e-01 -5.101571916812663865e-01 -2.251137483921173965e-01
-3.631422830447541550e-01 2.844918883793043363e-01 -2.296372287393188272e-01
3.289001371737471091e-02 6.197290287660041086e-01 7.587972808668083102e-01
4.317280864925812645e-01 -6.685158778578882410e-01 -3.581672646609733723e-01
-4.469782211112695580e-01 5.681796422080315212e-01 -1.088590466776337973e-01
4.480727127696047529e-01 2.809063619275627421e-01 -5.833158535963695046e-01
-6.263336726979411295e-02 -8.520162337367270800e-01 5.159775707266427425e-01
-3.401289704833405647e-01 -3.399913935238878526e-01 -3.562928652508872696e-01
3.376550712769805784e-01 4.782046699866051576e-01 4.166445304647859449e-01
-1.488718779308503826e-01 6.393248970322928937e-02 -1.741545946499561404e-01
-1.617015541786205879e-01 1.296881877441069530e-01 -1.273144159205777670e-01
-3.145508743899036452e-01 5.705228680907305921e-03 -7.328832255568270559e-01
3.087973939556448166e-01 5.065394189306945405e-01 5.312476868781810246e-01
-3.576143954905507405e-01 4.194624951197339219e-02 8.864680646478901860e-01
4.230791595981505671e-01 4.616417666587311897e-01 -3.105383016343329361e-01
-3.284533709311749927e-01 -2.653031852416742331e-01 -6.137603364999861810e-01
-3.592318090790996149e-02 -3.719790677373276816e-02 1.000000000000000000e+00
3.893613501967705393e-01 5.046451855858004043e-01 -9.343955164357496679e-02
-2.911650766187928174e-01 -5.774502347836032445e-01 -5.073192812887697967e-01
4.323178074974621810e-01 4.389837337789767036e-01 -4.167161142257391204e-01
-1.983759483437125271e-01 1.408608203361138567e-01 9.713941444386435808e-01
-2.909530546642224436e-01 -4.076252761639298505e-01 -6.399650569003902945e-01
2.887907846953689517e-01 2.919552202085161641e-01 -8.450637650937729006e-01
3.533801801943162180e-01 -6.777583665864646001e-01 -5.369748055745772186e-01
8.647894695339192195e-03 -4.585824376522020240e-01 8.889965625205161759e-01
-1.644870164241441501e-01 -1.033715255027375379e-01 -1.859002349218831784e-01
-2.938221948627859348e-01 -2.506816654882110251e-01 -2.550469294040661472e-01
-9.443382872972531927e-02 1.309796142882005132e-01 9.914412785195019229e-01
2.572368559199221250e-01 -9.993162688566244178e-02 8.457067325121185863e-01
-3.368113436579650011e-01 2.214763725818950091e-01 -2.597535663164456943e-01
-3.565055800417995524e-01 -3.258523482991471099e-01 8.067064189361685678e-01
2.002639100044942833e-01 -4.817250048360717241e-01 7.938602597644008885e-01
2.977942290641011902e-01 7.921730710129956110e-01 1.194597637441851545e-01
1.791381896402964580e-01 2.164246749769357936e-01 6.702278834917821393e-02
-3.578880854346765394e-01 1.428312524891951762e-01 2.285994282609079276e-01
-2.269037899915620493e-01 -9.001874848039730370e-01 3.468926783945815162e-02
-2.300309956571657266e-01 1.562203609120857428e-01 1.078073891284911656e-01
-2.685327247629829550e-01 4.888154295985511211e-01 -6.960379694328611144e-01
1.740745234419002196e-01 8.973337087492048170e-01 -2.582218382505436227e-01
2.389795198211727978e-01 -1.777778203109631194e-01 1.858737402194920729e-01
-4.221334798759160400e-01 -4.508480171346599535e-02 8.032175282014789586e-01
3.065138613882941732e-01 1.119314519055843032e-01 4.053062058772764487e-01
2.089508788734626699e-01 8.629822551982349044e-01 2.294687636561871247e-01
2.165120694851680599e-02 -1.497159669819668470e-01 -3.313363141977565540e-02
3.245633467886884782e-01 -1.375736291252503130e-01 3.780194497620706362e-01
2.163692195456761447e-01 2.216819289747456317e-02 -1.663846464997516261e-01
2.527703756575664373e-01 8.655842575079893964e-01 -1.042506811265679345e-01
-2.335374769988569910e-01 -2.569012382497516955e-01 -6.381156957123047813e-02
2.386151705975188553e-01 2.492379200138926665e-01 1.524004882979596576e-01
-4.741683317738069614e-01 2.201366889683096240e-01 3.879087523775562318e-01
2.191556041352718254e-01 -1.118249642951000267e-01 2.377118651812050176e-01
4.591759092349740889e-01 -3.744501829715538577e-01 -6.054555965366158476e-01
6.352004471338197622e-02 1.982790790293248451e-01 -9.499306478330324932e-01
1.203244654771139233e-02 -1.586578039177016231e-01 1.902688065669302236e-02
2.239970098659489414e-02 1.423194966889150537e-01 8.879015992634907428e-02
-4.167610101637432840e-01 2.006798304298492222e-02 3.488019721446442012e-01
3.797465000286616710e-01 -3.282856556447056873e-01 3.082139894223973053e-01
3.611407001202801559e-01 6.083124896689977579e-01 1.348953459112460229e-01
-2.550802194491140762e-01 -7.110179658850451778e-02 -8.167399888926620832e-01
2.893269688614048540e-01 1.062817695532869283e-01 3.700440379775470912e-01
2.079320544344150368e-01 2.315665281207994475e-01 1.099093784411229319e-01
4.251919753669416990e-01 4.587743746067600714e-01 -4.728289115471887571e-01
1.425316105494611185e-01 -9.269270762673879061e-01 -3.024084027860318713e-01
-3.928073472207737615e-01 3.777686944987693751e-01 -4.682664956065248907e-01
-3.344971863124876488e-01 -6.882004888700300471e-01 -2.137327328768882928e-01
-4.238392821732681615e-01 7.025332793727110392e-01 -1.063370068295755866e-01
