-1.105504310256177208e-01 1.123579175149229253e-01 -3.205359949157932098e-02
1.770170109895722044e-01 -3.916154326796678076e-02 1.181997567667502219e-01
8.384728278279466318e-01 5.560270339162701747e-01 5.650290888890487084e-02
4.958380477906894623e-01 2.148667428163971438e-01 4.504353569534468305e-01
9.011216604825994514e-01 4.313432334546186131e-01 -1.101726152258153402e-01
2.562459364146473795e-01 -6.209490120988883088e-01 1.874761107510889147e-01
-1.482272054938848227e-01 4.434404830396721647e-02 -5.960330854368559722e-02
3.863137432769762070e-01 7.529796326161660724e-01 -2.290670140409142297e-01
-6.465991605095210149e-02 2.205858588550189403e-01 5.471653917517896870e-01
1.118636433619413506e-01 6.231260573650277551e-02 -1.846455946871821407e-01
3.319845215658411841e-01 2.076228958307952122e-01 -4.608226905602786361e-01
-9.454376279426942586e-01 -3.333935570842456175e-01 1.017474321556168793e-01
8.836325584798949695e-01 2.312434269484636984e-01 2.151090072671530407e-01
4.429227097450323947e-01 -1.114324080226177099e-01 -6.216225330259875781e-01
-6.795481206198321633e-01 -6.766173517499394219e-01 -2.629291194119466324e-01
5.360933751050172003e-01 -6.105236026986838871e-01 1.030582617127638045e-01
1.373517331983348799e-01 1.821105948861005130e-01 4.411364247173124586e-01
3.057244921993164111e-01 -1.290065485068655204e-01 2.263927613329980992e-01
-3.250048239822586060e-01 3.066308583917329300e-01 -2.284613889409575216e-01
1.430038585246020955e-01 2.018234010595633399e-01 -2.737991081359063550e-01
4.349458766622530531e-02 -2.266574863789145855e-01 1.268750037462311464e-01
5.174808530896223280e-01 -3.067666302337777595e-01 2.429662806589411861e-01
4.090505124283609906e-01 3.658255105247231187e-01 5.224835708078342522e-01
1.444914923418433861e-01 3.393148988389046439e-01 5.702135709908001671e-01
-9.814318328911630918e-02 -2.056654876106401020e-01 -5.008944504779830886e-01
2.099202934767382400e-01 3.857168316922378326e-02 2.431596178389240637e-01
5.349044775175581384e-02 -4.630292557272142062e-02 -1.775934840704799789e-01
-9.963011360692606289e-01 3.728034880830623926e-02 1.485948229361641615e-01
1.010913763919343150e-01 1.886979066433139285e-02 -1.358614799682555940e-01
-3.482983636144858838e-03 1.111131082199138947e-01 6.248411201935015480e-02
6.183846782938018372e-01 -5.706914106095402062e-01 8.274089821594615701e-02
9.974275282248519503e-02 4.921619186141515390e-01 -2.927151286519660833e-01
3.792851855910766012e-01 7.752515143004660159e-01 4.515907513374151638e-01
-3.627822586711743069e-01 -3.596930560148885458e-01 4.131056914912916711e-01
-4.561468449222916277e-01 -1.124858771662664292e-01 -4.206258189721960861e-01
-5.027859980215498847e-01 -6.881438493076695861e-01 -4.391594599620677886e-01
4.278366229134340504e-01 -3.538827925695211540e-01 2.311115945746268496e-01
1.589578640953053235e-01 1.007115113121264532e-01 -3.147851440011710245e-01
-7.171813447070184422e-01 3.184763076264573306e-02 -3.164865863956004000e-01
-4.060135091857441925e-01 7.631984454392853889e-01 5.064349514128039242e-01
-1.546539889885269019e-02 -1.069521066996849679e-01 -3.795363665098150374e-01
6.092197904913101286e-02 4.109379998408894119e-01 6.164870211065882621e-01
-5.843561018618863290e-02 2.632862700149128377e-01 -1.522745674452860853e-01
-8.146495273944442950e-01 3.981402435907352433e-01 4.322694931114780537e-01
1.977191293163142183e-01 1.228829974423128329e-01 -3.692054681880620470e-01
1.565046168479037811e-02 -9.463828111808925136e-01 -3.263664595595286988e-01
8.856889894143411546e-01 1.957718188939411019e-01 -3.586773900299704554e-01
-9.418289090583040757e-01 2.933305597241634977e-01 1.966939067622482384e-01
-1.742040237708573913e-01 -4.968837651735101557e-02 3.501053636755177001e-01
-7.278372347334645109e-01 5.633809192067457811e-02 -3.032555239733298880e-01
5.413194948955174501e-01 -4.771561550322973022e-01 1.782163376597159787e-01
2.147621079631328589e-01 3.173708687899917114e-01 -3.537798652017440926e-01
-2.593423618864056368e-01 7.490180508688145666e-01 5.724380180709630617e-01
5.303479281466039197e-01 5.489758957066794842e-01 -3.613567966856052749e-01
-6.717287293128808567e-01 7.011521329416171566e-01 1.945150224934645289e-01
6.662111844720229881e-01 3.395158934387094707e-01 4.127752482653646027e-01
3.248318328345138895e-01 -7.498329321697431993e-02 2.559445746484141915e-01
-6.486295091738035756e-01 -2.545706537788832158e-01 -4.257633724762240335e-01
-2.492342647323460281e-01 9.382231521150414810e-01 2.443075152764566382e-01
-2.658758469685820192e-01 -3.627473641671875165e-02 4.712740049972501399e-01
-3.025940473603684899e-01 1.882637979096814518e-01 -2.215980807675901887e-01
1.376445589885075260e-01 5.257603059436307021e-03 -3.697055174294250346e-01
-3.867024745706743039e-01 -1.660144460049335080e-01 -4.516356023311620116e-01
-1.341223294978587631e-02 -7.686691720122894311e-02 -2.587258029203521326e-01
1.107761221272359903e-01 5.098385254204289285e-02 2.264758809632801129e-02
-6.857712224849220606e-01 6.669808644556792787e-01 3.281132221592686360e-01
-5.379454982283601860e-02 -1.192440450138777808e-01 2.824556232174397011e-02
-3.277611510645685455e-01 -5.585091313700522031e-01 3.359894414838484056e-01
-1.663245547521887413e-01 2.226789301017375600e-01 -1.498885288441208496e-01
-1.413442988058601912e-01 -1.817588085481089688e-01 2.518429188972675647e-01
-1.877746339272181320e-01 2.456395066144992090e-01 6.064775512103687261e-01
1.779968979770913673e-01 8.484828598579165215e-02 2.901550537284316444e-01
4.481840000984528838e-01 -2.494372405195222353e-01 2.545650891036074226e-01
-4.561396122325809405e-02 -3.152833800988849022e-01 2.214316717314783189e-01
1.406852074856660730e-02 2.155340265234459707e-01 5.118858306744344944e-01
8.224345690572207324e-02 1.600240622987204875e-01 -1.463807551816612984e-01
7.839856348114188078e-01 4.968683380348804524e-01 -2.627648086350748979e-01
2.153073712633729597e-01 2.023338888697082671e-01 4.598206331675507297e-01
-4.627693619958976601e-02 7.990985711321986484e-02 3.174129690654847180e-01
-6.204536076924756921e-02 -1.979735673969337806e-01 1.535354601512437800e-01
-6.341746532539693781e-01 6.498125624730719530e-01 -1.652781059191598886e-02
-2.088832547443723528e-02 6.442808311563886781e-01 6.307807648456407179e-01
1.777105962804576278e-01 5.275715335122761473e-01 -3.182435623936978319e-01
-7.322733491067830169e-02 -4.162124212587673400e-01 2.663971928328243144e-01
-2.787927636970191289e-02 -1.153812048625934145e-01 -3.907172231880807756e-01
-7.458681700085778576e-01 5.679308676147927226e-01 2.220905012171167647e-02
-1.047592560974075354e-01 -8.056512564861312287e-02 -2.620246081658412218e-01
5.081831345866370114e-02 1.002542620168515031e-01 2.679943340904150650e-01
1.155774362251653226e-01 -1.279946843721859774e-02 -1.820715119560997394e-02
-3.070449533483241567e-01 -1.996852890213230217e-02 5.100240272508514972e-01
-1.506942299493774506e-01 2.987765919372247780e-01 -1.807105792055742621e-01
-4.565764468031277001e-01 6.056002077407035555e-01 -1.598491282549225345e-01
-1.499686961439546662e-01 2.875365057323850480e-03 3.633428056196560396e-01
7.118437921473099728e-01 -6.235001854637253205e-01 -1.125145995216063066e-01
2.590859864451168226e-01 8.610266561458712609e-01 4.278633663200169801e-01
1.981957432942312580e-01 -6.846422289682134732e-01 -6.189234176140236965e-01
-6.456562973486460466e-01 7.014071661117464718e-01 9.022506367255175852e-02
4.104608336335779928e-01 1.905151709670334925e-01 4.491753915027013599e-01
6.050039231045867272e-01 -7.383149069471600656e-01 -2.167599904846663483e-01
-1.991392103068724828e-01 -1.061132506416986032e-01 -3.652849896559803855e-01
7.515963453991429954e-01 7.107166512363395638e-02 3.157500431691895870e-01
9.604450654581304925e-02 1.339722019738820435e-01 -1.503725143728390223e-01
-7.448264665223250924e-01 3.330181227286206358e-01 5.307362795343659734e-01
7.466551760688299177e-01 6.686545720973028351e-01 -3.006599328196003090e-02
9.346945736247307401e-01 -2.231401774054670162e-01 -2.757928051942623929e-02
-9.198103476121736177e-01 7.189130143917327187e-02 3.756203484363117018e-01
-4.767044365041605003e-01 1.317344725502097857e-01 6.165458814625566220e-01
4.999964840337989824e-01 -1.831537153046724209e-01 2.793581262423955325e-01
1.058661882652971314e-01 9.774626114621601802e-01 1.934276405050064096e-01
-3.283254722625728039e-01 -3.055091833281568525e-01 4.132441907892202559e-01
1.122489566393245763e-01 1.074228776914943062e-01 -1.830649198923711696e-01
-2.116751208356121641e-02 -2.371184438441892028e-01 1.570552292865760036e-01
1.102375972477794425e-01 -1.107866039400837027e-01 -4.913455666034146074e-01
-5.457069584244399474e-01 5.363051842923003409e-01 -1.648974386035162998e-01
-9.062501280866845921e-01 1.724777636569907180e-01 3.874605768841762887e-01
-3.180116524964616276e-01 8.556362266119175164e-01 -1.214509963564455773e-03
5.750422224730351584e-01 -7.101861702445263491e-01 -4.110119493039438021e-01
-3.675978379865912360e-01 1.803688123402414079e-01 6.216470077561804253e-01
2.917202828624929634e-01 6.547287766819731569e-01 5.579784157557277080e-01
-7.859143307705682702e-01 -4.018179724193993718e-01 3.297678607971762377e-01
4.535048553804127414e-02 -1.365871368463006108e-01 2.519680869311505256e-02
9.954713096958477114e-02 6.430017106957433004e-01 -2.695335729944168257e-01
3.434108145431497006e-01 8.059554141960258988e-01 4.442812952298723639e-01
-1.508156757057198816e-01 -6.243370137123238628e-02 2.884936186736135610e-01
-3.426039953404198535e-01 1.742696112837491956e-02 5.475041511579104014e-01
1.973627072642035463e-01 3.019651249469840759e-01 5.391673426421651483e-01
-4.869040923088374107e-01 -6.019223746171882272e-01 -4.932907399041916996e-01
-1.667220820333302489e-02 5.993177421615744072e-01 -2.515673269542849644e-01
7.361078727843384240e-01 2.064040684527060632e-01 -4.774147672120493402e-01
1.826271810191887335e-01 -3.518067420515683663e-01 2.013828640917643964e-01
7.991293707290828552e-01 -3.268686932903193676e-01 -4.781360497463256198e-01
1.538495448248475006e-01 -1.254506207295058295e-01 9.808341206655886435e-02
1.000963570220584353e-01 -2.053724839882446057e-02 -6.570391582334528247e-02
-6.311518515084658665e-01 -5.938305002361153884e-01 2.773380380829576497e-01
8.195331108722240243e-01 -2.121396059048507310e-01 1.622146559704225610e-01
-2.785616746696443768e-01 2.130801221100320220e-01 -2.080469821151550436e-01
-5.039322929144794960e-01 -1.824560856948196363e-01 -4.504566883733087113e-01
-6.654293959183509299e-01 5.731369532724240878e-01 4.836812001374400927e-01
6.106241525182863616e-02 -6.285558373391393339e-01 -6.427188783719867127e-01
-7.084276893943439180e-02 -9.258366463459163365e-01 -3.765965413078414259e-01
-9.687143686500834239e-01 1.117040131053078228e-01 2.650183666952911077e-01
-6.425425846361211280e-01 2.718702408229680678e-01 -2.500472558734640471e-01
-4.414993443335252232e-01 -1.755715084840794582e-01 5.041221006961725815e-01
2.406315586795721717e-01 -6.289770733464403012e-03 2.270506818016758965e-01
-1.529895172711173978e-01 8.171816114904797423e-01 -1.193332452438228136e-01
-6.541764117529534905e-01 -4.546090629231281932e-01 3.731742213095414207e-01
5.887880043794105900e-01 2.872641785416965576e-02 -5.787443785849250011e-01
-8.952896438014104619e-02 5.608701508133361741e-02 7.954164017361806116e-02
1.750779533399893784e-01 -1.177239659557023227e-01 1.167048565754809780e-01
6.853183742442967574e-01 4.485828719393382680e-01 -3.770683213978342496e-01
-9.329238718948310582e-01 -3.536348176866537796e-01 1.257350383774683000e-01
5.879245157698533841e-01 2.647283744809998951e-01 -4.969143955430852522e-01
4.108702484894117823e-01 1.457853948084977536e-01 -5.211817712621134024e-01
-1.383146753764503967e-01 -1.133027093613958175e-01 -3.622685256370829499e-01
1.842377122493837061e-01 -2.683613739310827806e-01 1.766191228914016920e-01
9.726060715660829192e-01 -2.517786687112590831e-04 1.674643253653302147e-02
3.553243023246467347e-01 3.236215491228954799e-01 5.216706096645193913e-01
6.254084682395776307e-01 -2.809147381794416809e-01 -6.098921174290784508e-01
-3.690098981535060441e-01 7.320464619735387313e-01 5.521279558071731097e-01
-1.328355305603077241e-01 5.893970486729514791e-02 -2.866428171949997328e-02
-9.820957328940475850e-02 8.449464421071311016e-01 -1.085883610044131170e-01
9.554610922436959641e-02 -9.559387087843009834e-01 -2.254893151256810169e-01
1.543216175371325549e-01 -4.702724512456832318e-02 7.732349336754976155e-02
4.778676915853394269e-01 -5.478303907460744249e-01 1.648921065947779596e-01
2.398606273835246494e-01 -8.451990099728805550e-01 2.927627251687592996e-02
4.632914081487195523e-01 1.244291412079059911e-01 -5.434678046243519578e-01
6.237891005812998824e-01 -5.809514688229797663e-01 -5.062076868702544141e-01
-7.191844792666843844e-01 -4.527896819869233203e-01 3.418572182214393851e-01
-2.259415063515456679e-01 -5.948326508751128339e-01 3.009982918437836275e-01
7.809187955829371974e-01 1.061415993339264729e-01 -4.866769535626727095e-01
-5.270776153354860272e-01 2.999029936927469775e-01 6.355408148015724290e-01
4.970427682802016633e-01 -2.344750689345706796e-01 2.636485127425285402e-01
1.969753758599420562e-03 -3.428183807717723464e-01 2.135484852143693935e-01
1.845680770039709040e-01 -4.736773386856936718e-01 -6.701530153424176683e-01
-7.594988514824744241e-01 -3.138824403298730026e-01 -3.591501537670940269e-01
2.825150457737305998e-01 4.475466447743388088e-01 -3.728496482093060505e-01
-3.517189611692621565e-01 -2.040758469906231165e-01 4.566045281277481549e-01
-4.232626124029044146e-01 -1.890105202274393048e-01 4.934004941327529425e-01
-4.425247832968059458e-01 -8.436093731545460939e-01 5.454135448881081150e-02
2.324893943177443537e-02 3.008203552274759662e-01 -2.054450469053926698e-01
-4.659748154274971910e-01 -9.919687509634973754e-02 -4.135516260560435642e-01
3.559129416331594520e-01 -2.747592332813125204e-01 2.314097881561694992e-01
-2.135738551428854604e-01 2.118501331096023510e-01 5.974949223880573479e-01
8.233628414105859106e-02 -7.235560441390407327e-01 1.828461732942387175e-01
1.816153142098793638e-01 7.828763718767643986e-01 -2.088877702181199669e-01
4.387386015257063732e-01 -5.892523076232484280e-01 1.567190910805952575e-01
-2.042414376169703893e-01 -4.161197857722931381e-01 -6.000309258123867062e-01
-1.938886502264891695e-03 -1.159446562776274559e-01 -2.012614074869294167e-02
2.678529429393082251e-01 -1.981058206020928913e-01 1.984417477431473231e-01
8.084394467917221938e-01 6.025804419599052331e-01 2.690665883762643346e-02
-2.759083699002420897e-01 -8.743365727723627634e-01 7.561623542217728311e-02
-2.835321408745813954e-01 2.714295366063770309e-01 -2.141790833383357684e-01
-3.968061615257488794e-01 -7.600650157934717432e-01 -4.538770976590620898e-01
9.101908997199625873e-01 4.003219952022634143e-01 7.920662903392064469e-02
-3.323360503191179482e-01 -2.701699215433391865e-01 4.250443309374025702e-01
9.568124002277935691e-01 2.196637061087129417e-01 -2.072063418600109397e-01
-5.148344047862669914e-02 -2.626771298854782555e-01 -5.626476518883258837e-01
-3.685087111067177068e-02 1.177285284492047834e-01 3.171989073396505598e-02
-2.891617873259753613e-01 -8.677960860377985641e-01 8.343444332954357001e-02
-3.935719678117171050e-01 1.001827363058294534e-01 -2.913579683488249916e-01
5.683162433892114951e-01 9.323953486796089651e-02 -5.611522130726417368e-01
-9.337697875588507612e-01 2.892203833840875093e-01 6.187847844361393790e-02
8.967336397945324666e-01 -3.614868792526825247e-01 -1.108728168896104815e-01
3.631982953180676321e-01 8.473588760799741770e-01 3.835130544347871706e-01
3.711533669112651590e-01 2.515028144824738021e-01 4.857736416104211363e-01
-7.121745966921344539e-01 -3.907925469547928188e-01 3.869442399490815587e-01
5.620758119128126118e-02 -7.411072940128036191e-01 1.789605520916421888e-01
-1.114381596623802012e-01 2.809780985545498252e-02 3.227693905654693829e-01
1.917374735434158178e-02 -1.978164396918349055e-01 1.020576698873689181e-01
4.608399758018982273e-01 9.509565963149224643e-02 -5.539180067710507416e-01
2.161017973184802543e-01 -7.570687929361852309e-01 -5.708289775477728423e-01
-3.096717475707175815e-01 8.778043515450906220e-01 3.312117017305351435e-02
-5.468210439142232593e-01 7.967792445370054377e-01 1.682664449717775901e-01
-2.885906294234748537e-01 1.549994172511681423e-01 -2.160744449657702182e-01
-4.916708756052256407e-02 -7.879707079251628554e-02 -2.136570442572539030e-01
-3.166865310516656096e-01 -3.363268786526412146e-01 -5.493583314055173750e-01
-1.367403861575713364e-01 1.960435175031498001e-01 -1.196386442491641916e-01
8.287198639509879561e-02 -2.294609730930974034e-01 -5.813523586779574259e-01
-5.297358377982338551e-01 2.466025129821988182e-01 -2.728949062824781446e-01
4.353683060141815275e-01 -8.137783518437513575e-01 -3.890896845047421282e-01
5.912514918123124193e-03 -7.204226368432053995e-01 2.009801438063229528e-01
-9.565002039842555870e-02 1.228095797894041830e-01 4.641457367988773841e-01
-3.241685551209477212e-01 -8.828200402155677029e-01 4.259643948515259848e-02
-1.891136979313159383e-01 -3.559404566349776422e-01 -5.839919630023739927e-01
3.879874123440759659e-01 7.654030151955310002e-01 4.546591463133689004e-01
-7.346360838139608385e-01 -1.768162151157132989e-01 4.798614344419397382e-01
9.995172027305836149e-02 -2.949038492351647722e-01 -6.223540939139706740e-01
4.654953045912225140e-01 -4.106724723941865274e-01 -6.503797613429750379e-01
-7.274569649862308585e-02 8.935421247269840217e-01 -5.726296623788971335e-02
1.318648586751772767e-01 3.546964390342499662e-02 -3.114331978867919126e-01
2.531500277678968014e-01 1.832827543264188008e-01 -4.099143051177782660e-01
-8.983723870434303649e-01 1.273948832763876216e-01 -1.392979789715059202e-01
-6.900136922854283039e-02 1.976550593785959820e-01 -9.409635008287572933e-02
4.097093596274953842e-01 -8.191086931851561115e-01 -4.907055696349918450e-02
-2.058850591877313396e-01 7.233087242562046271e-01 -1.702461203672794854e-01
1.206969267511566468e-01 2.146492918359298452e-01 4.815747145871475676e-01
8.782875378268940880e-02 1.838624934154145796e-01 4.514527393396541854e-01
4.109713728672879096e-01 2.688867171146803181e-01 -4.753230624171931873e-01
-9.423565721652726879e-02 -3.460412647624120930e-01 2.611183486677174925e-01
-8.515387092879768138e-01 4.836964422841749101e-01 2.036647907874409857e-01
2.051889808974520502e-02 -7.891042433643534748e-01 -5.590871712378517877e-01
1.460516915002147142e-01 -2.167104909190773615e-02 -4.194824799220056577e-01
3.209526725509317946e-02 5.319196445736659173e-01 -2.698013176397928148e-01
-1.212399909393264003e-01 -4.391210909450128652e-02 -9.877829691477295337e-02
8.446321855408295276e-02 8.174533238033795945e-02 1.021344536443325873e-01
-6.385797626047993170e-01 7.272706119982352835e-01 1.657178072128528412e-01
-1.089001061357181416e-01 -4.394033422591148708e-01 2.846336014181383156e-01
7.764982173318354386e-01 1.009351251554893719e-01 -4.910275276040576009e-01
8.200006613062096328e-01 -4.120452050878938843e-01 1.692410909007938807e-02
-8.446380918417500938e-01 -8.627593282062122337e-02 -2.656182200332132815e-01
8.216919944874455650e-01 1.436150050420446356e-01 -4.449702835370717979e-01
-4.731707808834643147e-01 -3.201147200815324112e-01 -5.056188501829864679e-01
-5.171279060242188752e-01 2.303530118378359359e-01 6.322826136211426862e-01
-3.137637870470542656e-01 6.750074271767344536e-01 -1.667436956489979916e-01
1.741908961358695773e-01 5.272561761884756448e-01 -3.170850050686961352e-01
-4.013949582007109856e-02 7.237627220145091689e-02 2.525524975390120441e-01
-3.336220355747984700e-01 6.697329294677629996e-02 5.675788006994177959e-01
-1.943191067722202237e-01 -3.849190229068735758e-02 -2.469958694099200769e-01
3.084819876269085381e-01 7.159931821613058078e-02 -5.036115393306019872e-01
1.539105914763101157e-01 -1.020532541682014349e-01 8.825218235782100740e-02
-9.495649555020730936e-01 -2.791103568013458824e-01 -8.007519314899382012e-02
3.143858305004890719e-01 1.208626908370296349e-01 3.934491561477620469e-01
2.691578166430513841e-01 -9.120888025745552685e-01 -1.577944617998386645e-01
-1.840596386874669144e-01 -6.688797079939254875e-01 -5.912942546532995447e-01
5.334407583075462256e-01 -1.962223599699690901e-01 2.769349358659811688e-01
7.309161420051357716e-02 1.164341186339239165e-01 -5.228888970442552991e-02
-2.933286653883164230e-01 -1.788699627522379598e-01 4.271405049597678527e-01
-1.022468561660083569e-01 -9.080641229561534078e-02 1.030263838233012735e-01
6.999602634673687263e-01 6.964693307868530248e-01 -8.252629216335480300e-02
6.298705155841403114e-01 -3.586530138431305303e-01 2.023591005966227374e-01
-2.078598141283060918e-01 1.131568551488026936e-04 -2.071129046923042560e-01
7.467789601680669964e-01 1.119776393976312928e-01 -5.049230360257899175e-01
1.417619477479137302e-01 3.428283687981820149e-02 1.174584689939279225e-01
-9.359438594109400489e-01 1.713879573636178100e-01 -5.212207786642874402e-02
-6.640631904109214889e-02 -3.583710611941868796e-01 2.493311321018624738e-01
-2.196029095173638035e-01 4.451611418874593107e-02 -1.829589408404638240e-01
5.422687725498011035e-01 4.611151306803332739e-01 -4.102515850262930530e-01
1.034446465990323250e-01 3.776046293482807070e-01 -2.826581640426186759e-01
-1.142393158576599649e-01 -3.948718326653621186e-02 -4.012856857640939795e-04
-3.560545709616191323e-01 6.349811442184858379e-01 -1.745064998692356095e-01
7.765181717111014903e-01 6.928067607128049477e-02 2.995903589413086432e-01
-7.489167764672927108e-01 -2.383386605512374246e-01 -3.649137218686664408e-01
-6.232735302535704625e-01 -7.595080941804936980e-01 -2.066012777836589709e-01
-1.864820296382670994e-01 2.875314770326014568e-01 -1.845850122927180093e-01
-4.656491482023288331e-01 5.543300628021242682e-01 -1.814955492578419483e-01
-1.397862847039223477e-01 3.113426954714414163e-02 -4.057911596333955984e-02
-2.768591332813965522e-01 -8.464263507808511555e-01 -4.307026742454370671e-01
-9.108837717038098525e-01 -2.013006698935100869e-01 3.159158298247903840e-01
-1.115112778061575632e-01 -5.023573870997619650e-01 2.860515237500761976e-01
7.341735211270986605e-01 5.738517883985070345e-01 2.883411974092937591e-01
2.074854667163640934e-02 3.951825607343413815e-01 -2.467147633120455319e-01
-1.126259664113464232e-01 -3.158135729929135299e-02 9.474744536701279474e-02
4.504642720299096292e-01 -1.388286535113946174e-01 2.855017636825172289e-01
1.751049444886887407e-01 -4.701197419506769060e-01 -6.697566110383100790e-01
2.444920083432102764e-01 -3.433434683785150376e-01 -6.621664443535563160e-01
2.573293751914039196e-01 -7.831607388763349720e-01 9.151948117755193124e-02
5.126615388907597159e-01 5.990951413550728022e-01 4.724484889363394502e-01
-1.244357164652363373e-01 9.672078727078462501e-01 2.023063065043723407e-01
3.026147445443053141e-01 4.058110406966398132e-01 5.608758599130285738e-01
-9.731817344584802187e-01 -7.840113051676819711e-02 -6.458336556410987361e-02
9.450341614714392602e-01 -2.534077866302871795e-01 -1.610033746853123948e-01
-1.905780175078876371e-02 -1.205602892803823017e-01 -4.073451902737438846e-01
3.913898643784826659e-01 -3.868693983197314945e-01 2.239937714700534765e-01
-7.538953056944915909e-01 -2.099169633576331018e-01 -3.582696455414777215e-01
2.257282113776981625e-02 -9.366737661829048489e-02 -3.830430799479614401e-01
-8.885645761178583013e-02 3.358104816621983457e-01 -1.946193369117302230e-01
-5.576761695787801898e-02 5.393260568745041894e-01 -2.474143512729843619e-01
-8.202047933070435448e-01 -5.818844285792673654e-01 -1.461900424411739612e-02
-1.540795310514837535e-01 2.298793365820097634e-01 -1.479297284682592750e-01
3.234942965118426522e-02 -1.917639295164503821e-01 9.347623638963530046e-02
2.096268735242028947e-01 3.822852275151648604e-01 5.750736110171308368e-01
-1.448945600633778918e-01 8.891045460684060542e-01 -3.964735218867727895e-02
3.607141567516496949e-01 -5.392562213372091851e-01 1.941166593825545961e-01
-6.066930552594324011e-01 5.983696465573566936e-01 -9.245695135909323681e-02
-7.800351456921434945e-01 -6.278737454827038045e-01 -9.703604442717736478e-02
5.640390365767912195e-01 -3.173190312995222695e-01 2.349576909339969877e-01
1.016698717013123365e-01 6.873021550059055240e-02 8.047374339619121908e-02
5.522922391890610072e-01 9.445235179971507578e-02 -5.614853559494206170e-01
4.583488310773067148e-02 2.700494550242787395e-01 -1.997181854425335856e-01
3.555705405354789989e-02 9.687512349456488259e-02 1.194466290288438010e-01
-1.614437600384347471e-01 8.589739993936384987e-01 4.896312819904782843e-01
1.764213994169971933e-02 1.216751477951201754e-01 2.648715011665555771e-02
3.337790030604125824e-01 5.801617724424195099e-01 -3.425797535432451579e-01
-6.438257353306412467e-01 -6.933326117333362681e-01 -2.948330288767816998e-01
7.887543584076556202e-01 4.843189113298871362e-01 2.727059913410770919e-01
1.203281680821234045e-01 1.123557294773055298e-02 1.186076639569502711e-03
-1.667575316723198531e-01 4.600071781834901286e-01 -2.260293450708055207e-01
-6.249880463149555254e-01 -1.503011619196786830e-01 -4.096055869805323435e-01
6.485810669317797483e-01 -3.550822722033362133e-01 1.969661299576087043e-01
1.432841603419366672e-01 4.002265147886658464e-02 1.355363685473941482e-01
-9.115702685751324308e-02 2.772805336919883026e-02 2.325031858391152506e-01
1.375939494359671722e-01 3.338677486061816246e-01 5.688606179604298596e-01
-1.196654385153785166e-01 2.212182489670080909e-02 2.321059836945593008e-02
-1.012531062914578672e-01 -3.764145241565419742e-01 -6.106036647749201185e-01
-9.174963606746580069e-01 2.236692126716262330e-01 3.518945549886972612e-01
7.252341623417318806e-01 1.596960438384426029e-01 -4.999430743720322257e-01
-2.125647536728229037e-01 -5.537610896686973039e-01 -6.090175050065494977e-01
3.566247858116811664e-01 -3.700538103707752824e-01 2.239497589189762550e-01
2.154660766166035801e-01 -1.256691181860274814e-02 1.922836276852663284e-01
5.806296606906639381e-03 5.670338232511683563e-01 6.414186135375933295e-01
1.047408312921045276e-01 3.422942918099731308e-02 -1.616225089062895692e-01
9.604394174040901955e-02 -2.253854619703487827e-01 -5.832913097902628907e-01
-8.577136272293407748e-02 2.052153013854761954e-01 -1.053308370714429038e-01
-7.132996449756587864e-01 -3.534896142518019757e-01 4.080459712439367670e-01
1.280234523130690805e-01 9.539533524932963804e-01 3.144914892879744350e-01
5.597695318285201838e-01 8.252112307569138550e-02 3.856103777494377383e-01
5.063999652360419157e-01 3.725949207639921990e-01 4.924021698235758748e-01
-4.094601429772283530e-02 1.460944186481182294e-01 -2.191998289915392251e-02
-5.609797130083387096e-01 6.415520032570967146e-01 -8.652655467796079025e-02
5.527114585042643968e-01 2.341953615021911128e-01 4.436546648771997892e-01
3.021899154459725678e-01 -6.852432433259970646e-01 1.473329538367465774e-01
4.066437600195496604e-01 9.050960206681342157e-01 1.888093573489200705e-01
5.747025544016263199e-01 -7.608821068216208294e-01 -2.047828846256573299e-01
2.014418589510122148e-01 9.567878789752828350e-01 6.938175278638783472e-02
-5.789410447398950915e-02 2.304573573094980954e-01 5.524153395179939308e-01
-3.175477022854815701e-01 -6.146407355284877472e-01 -5.664950255883153263e-01
8.688259690784147504e-02 1.867137416857804488e-01 4.554574076661259130e-01
-5.126667405463704030e-01 -3.236307330773681712e-01 4.600716634552581286e-01
3.001109459686913672e-01 -6.119349293682311286e-01 1.816800158785282782e-01
-4.146727694776859707e-02 -3.160843012344528580e-01 -5.977880932565243777e-01
-1.384354332515335129e-01 -8.277150602215387065e-02 -2.920283133432211020e-01
-1.526768664298906730e-01 5.466041238257184423e-03 3.717127526649862124e-01
-5.270332946698123022e-01 -9.247990725252218380e-02 5.492535817059657210e-01
5.173073533207598329e-01 -7.489879430608640254e-01 -4.184718043918895791e-01
-9.282455017302594369e-01 2.359522881813364004e-01 3.218311839307504973e-01
-9.838439598818704557e-01 1.063789785612974242e-01 5.139891195351938002e-02
-4.573487634574790461e-01 3.482267679061420429e-01 -2.437269331943267836e-01
-2.403951506036826335e-01 -2.944580674254677621e-01 -5.444512494534012870e-01
-7.999991630904556006e-01 -5.135887574430912927e-01 2.089404182315272862e-01
1.970015659297409127e-01 7.756879798720828223e-02 2.915112016158962760e-01
5.652853971875548833e-01 -6.097605154390751681e-01 -5.310944747432455593e-01
3.591513709143812072e-02 -5.558513302790869526e-01 2.412448944553430008e-01
-4.335520367729422953e-01 4.604535357883525193e-01 6.468500933975620537e-01
-7.685707127494351143e-01 -3.043585373800543059e-01 4.037920180418545502e-01
6.385398122933773346e-02 -8.622003047180114566e-01 -4.866993721974346987e-01
2.069919194049356648e-01 1.619635531518038019e-01 -3.666164585123529718e-01
8.242432938362389550e-01 2.230979600867252222e-01 2.859628547301232837e-01
1.484867683303345565e-01 5.469438428688489645e-02 1.861247273106544919e-01
1.715511735686404693e-01 -1.862209749892833333e-01 1.389211367667606556e-01
8.960647578261082824e-01 -2.847439097475869541e-01 -3.486301052444599202e-01
6.436583464549785472e-01 -1.876523810807745052e-01 2.672976852584309504e-01
-5.614827343507632351e-01 -5.243022012850483415e-01 -4.722409161866272242e-01
-1.529226230650416463e-01 2.494422697475414397e-01 -1.576717203951688573e-01
3.513532496388243609e-01 -2.725272638324995889e-01 -6.559613907770603936e-01
-6.043881027731763389e-01 -4.604122660982299942e-01 3.854433240149094941e-01
4.212928554254275482e-01 -3.481684110680255961e-01 -6.611528993305550994e-01
1.192783052350759702e-02 1.221123995373575993e-01 2.816250487496351623e-02
4.858159712535825014e-01 1.161494280769630044e-01 4.069573966603355353e-01
-3.478533566375988650e-01 -6.746358282840779763e-01 2.759953245141696376e-01
-6.559791133436806421e-01 2.353866321273121731e-01 -2.606446545982478713e-01
-6.365980070192278628e-01 -5.389352314980574432e-01 3.210889441535054734e-01
7.158431110177793100e-01 1.016543545445212741e-02 -5.463412481029297219e-01
1.553603030119081185e-01 -5.424544012405363436e-01 2.203587922582290748e-01
-7.705459513264852900e-01 -5.853599038106350738e-01 -2.222560836174174992e-01
7.327051585776848119e-01 -4.851104032522773890e-01 5.800490967751199128e-02
-2.476228729088017222e-01 3.635429937947251555e-02 -2.220424395472222479e-01
-2.134734290931936673e-01 -4.327291534020997338e-02 -2.748998657668100809e-01
1.824375282379450680e-01 -4.752236021300733637e-01 -6.700493299051086815e-01
-3.453144876229158333e-01 8.976646016866947075e-01 1.322930147529007561e-01
1.523355468621313269e-01 -3.224131534598764087e-02 -4.401645363562516344e-01
2.639398057740024450e-01 -9.162190572203039451e-01 -2.670243193726801190e-01
-6.492478216320588524e-01 5.555639057179129203e-01 5.114312067300496034e-01
-2.169797024316297562e-01 -7.167971777540068645e-01 2.404858926098374650e-01
3.016191577977846983e-01 -1.771218444887295851e-02 2.711698287849903521e-01
-1.902057575321156324e-01 1.140529583482460529e-01 -1.294137647069600883e-01
-2.465193085724277922e-02 7.886264211926304057e-02 2.166675138771476106e-01
9.789356892445956471e-02 -2.326045105119034506e-01 1.351611328144045332e-01
-3.232732829081061410e-01 -7.272707577138558532e-01 2.378849104014671423e-01
-7.606603984904951599e-01 -5.066800822390780112e-01 2.637393584748833897e-01
1.226481014510782258e-01 -8.693820686144602961e-02 4.020805178226938975e-02
-7.869764534123774302e-02 9.726048761006890198e-01 1.716021153811474464e-01
6.602142959546147827e-01 7.350565707219145484e-01 1.955778672234816107e-01
-4.511590383336674948e-01 -4.598597522708262608e-01 -5.331691718974632677e-01
-1.295412777853241770e-01 3.386487745183613951e-02 3.726187949662674859e-01
-1.398785062402143342e-01 9.484915711456062271e-01 3.234146950635602424e-01
-3.476569661864449545e-02 7.592216196745400769e-02 1.808575341694350913e-01
-6.104966883861989713e-01 -2.842360980761397121e-02 -3.703357886138247124e-01
1.035854597151779355e-01 9.731663653487913901e-02 2.680885961210991431e-01
7.255876102370354408e-01 6.246011312217475409e-02 -5.294113904511946744e-01
-1.596017524414117261e-01 -1.082289825682282575e-01 2.840347451298047554e-01
-1.065516955282380246e-01 1.870608331971382321e-01 -9.718561275784966258e-02
-5.580578956973468452e-02 -1.504678239908122661e-01 8.935514867239920112e-02
5.628994887120888219e-02 -1.802306067584290017e-01 8.204733222874770193e-02
3.009456722935751616e-01 -4.712192913609732914e-01 2.133701374290919717e-01
5.339694526440380562e-02 7.500906556703900163e-01 5.785456998649471938e-01
8.127865826113958025e-01 4.610504677063401169e-01 2.508068037552043661e-01
2.538189915825658782e-01 -8.715696043189642417e-01 -2.085702775822608282e-02
-4.285603093727302637e-01 -3.021573949773924128e-01 4.538800575337314513e-01
-3.477930170057846014e-03 1.942254866088390930e-01 4.960575279901706103e-01
1.163824019383694064e-02 -4.130165975043873505e-01 -6.437610738628135598e-01
-2.359708498370403362e-01 -1.135639005708867638e-01 3.986946804318663440e-01
-9.299883230620968888e-01 2.227576957098814925e-01 -2.626884322536317956e-02
-7.834224000785998676e-01 2.055736294805375064e-01 -2.140643117628087122e-01
-1.133289645717773936e-01 4.927288992088894037e-01 -2.349294270811617680e-01
-8.182728215863516175e-01 2.533181831046680821e-01 4.826647332572513993e-01
7.481971318882402189e-01 -1.382697353807074148e-01 2.460351077860484237e-01
1.192896000963646064e-01 2.170813827538973714e-02 5.328086844668542682e-03
7.392553185289891804e-01 -5.002475798896328651e-01 3.581571445213699301e-02
1.565432662442272638e-01 -8.190005163278933908e-01 9.321829374692248982e-02
-6.192043884297527834e-01 -7.816023655890944610e-01 -8.040449488395134958e-02
5.048131264854698319e-01 9.921031331318048985e-02 -5.584770036374342439e-01
-1.008197441789368959e-01 6.457434359732977525e-01 -2.239741910407672676e-01
-4.675724319798060108e-02 -2.235725424534844297e-01 1.627117595799724981e-01
-1.576328220575076433e-01 -4.636682948390926512e-02 -2.130261204828477750e-01
7.077933125767442712e-01 4.157334297859680006e-01 3.801040266290111047e-01
2.848914331391462218e-01 -8.873410300353778979e-01 -8.133980769685378309e-02
9.845565225148480981e-02 7.720756090497390978e-02 -6.553486417441628520e-02
7.731759899798069657e-01 5.337220137507351359e-01 -2.359270162360549428e-01
-2.075204578110128872e-01 -8.873014014737566901e-01 6.575977100080719617e-02
-1.162625320664504719e-01 1.307674422741500475e-01 4.892507978474829877e-01
7.563258293570340740e-01 2.242519806302081253e-01 -4.593289649705332156e-01
2.846437274197419209e-01 -1.156254565732409700e-01 -5.903321965569673369e-01
7.609296420656850302e-01 -5.385475183270242994e-01 -4.676411459739680115e-02
-1.787586853726115532e-02 -6.271257880715447319e-01 2.416396501521229645e-01
3.084137862541080910e-01 5.014110509048298470e-01 -3.668113401218098257e-01
-7.649199949268604692e-01 -3.391482670544650468e-01 -3.528372091289817547e-01
1.216513091208493574e-01 -6.009096504524090721e-01 2.179015578724933788e-01
1.376391848403007989e-01 -2.177938129863442318e-01 1.376093115746054030e-01
9.006300331893599131e-02 -3.659814420675198965e-02 -7.451788583987817294e-02
7.988239354439455320e-02 3.406750262563632559e-01 5.849017082336142037e-01
-8.656783315258911315e-01 -4.663576130752556947e-01 1.509162188822103512e-01
-8.060741677483121981e-01 -3.606359091813275963e-01 3.410310870731225741e-01
8.447672615100053350e-02 -1.222937143703670404e-01 3.058045982853258710e-02
3.227808717587435372e-01 -1.445259097706141915e-01 2.333719661419305369e-01
-3.204447117312372306e-01 1.902028833875524516e-01 -2.310695340330794212e-01
-8.117310482457908982e-01 -2.145239028744579945e-01 -3.126343169107658193e-01
9.802271708710138740e-03 9.736152332643487062e-02 1.211876321298329534e-01
-6.966263743972800349e-01 4.043380297700067266e-02 5.573474883932065804e-01
-8.322102945669682672e-01 -1.018501366558553362e-01 4.434862709241544909e-01
5.153826326052628470e-01 1.859931292553673454e-01 4.352049207474917303e-01
-1.086778105476755157e-01 4.301272976873947440e-02 4.321335325306063790e-02
9.396645337897332473e-01 -1.041232738257181767e-01 5.413923310173604508e-02
1.902189524982990099e-01 -6.528059280755914295e-02 1.310071357191927577e-01
9.613408670370233722e-01 -1.527059685238235376e-01 -4.736156139934524084e-02
-3.149128230711308873e-01 -6.091982725329614379e-01 3.111757778493922655e-01
6.987828857617225387e-01 5.280346180091947117e-01 -3.101973749324813401e-01
-3.235444817640557025e-01 -7.509205184429804669e-01 -4.999192672282524175e-01
-4.908791761995460190e-01 -5.934703832051194811e-02 -3.933681613142142042e-01
6.974263088604275573e-01 6.763252107511157352e-01 -1.316522410723132974e-01
4.628239311154140334e-01 5.839341461327647309e-01 5.044864047018168263e-01
1.888439503751471460e-01 2.501905234649547394e-01 -3.330802256358011970e-01
8.902392838463415448e-01 -3.744399652458738625e-01 -1.107980078974075550e-01
-1.853466287712272620e-01 -8.286482315135781929e-02 -3.206891894026264178e-01
1.942056213958536226e-01 9.674501435601168264e-01 1.471282451136360359e-01
3.799222237849858574e-01 -8.570905542988943582e-01 -1.081261660743956798e-01
2.211389201974283403e-01 -3.321148206019020610e-01 -6.573774729273338391e-01
4.303120547023983611e-01 1.967834354763544624e-01 4.511499691886721730e-01
-3.098478779192708268e-02 2.892413431278383351e-01 5.841023509065189634e-01
-8.415843472211428367e-01 -5.500264433139179232e-01 -5.130272620776996084e-02
-6.534615444496258974e-01 4.817828432733459731e-01 -1.461213245746638134e-01
-4.806833189640821041e-02 1.467656473643680348e-01 -2.527598515853856156e-02
5.654836470349837718e-01 2.797694835832769122e-01 -4.924377569280303790e-01
-1.371131370150929507e-01 -2.572287719335590861e-01 2.679044007183999376e-01
1.863843518754239592e-01 -3.581741648318837457e-01 2.032520032393698162e-01
-1.242095220255325511e-01 -4.860400056888262293e-02 2.080878297858471671e-01
-4.682405898870456440e-01 9.924718826349110401e-02 -3.154253455210140888e-01
-8.501684854809521408e-01 2.615451732103219462e-01 -1.260871721869668838e-01
-8.364401442827740230e-01 -1.169838336112352800e-01 4.350804277395770026e-01
1.723750988931798678e-01 1.285989485827118521e-02 1.517343762062694223e-01
-5.891961791761818334e-01 -7.784566510924251226e-01 -2.310853708782259486e-01
-3.545323706418184173e-01 -5.645862512643463615e-01 3.375034171635024616e-01
2.455605147941216856e-02 -8.429419999873850877e-02 -3.609981203984490850e-01
-3.781752980318878882e-02 -8.653636266907775709e-02 -1.056617471928951030e-01
1.934497133385517098e-01 2.679550183616629666e-01 -3.374421363885106717e-01
6.062127730250812391e-02 -9.426695229934578535e-01 -3.309623700308244043e-01
2.402468237470937740e-01 1.729560707976832701e-01 -4.007303143326811923e-01
-1.282207634532101515e-01 -6.203902327762464419e-02 2.151935847047045103e-01
2.584006290669186301e-01 1.474438377941401368e-01 4.074306170826767493e-01
-7.518381560646798523e-01 3.133215853785752125e-02 5.294631301669576739e-01
9.045078126373487515e-02 -2.243104374721572453e-02 -9.975496134772091072e-02
5.740723976633380632e-01 -2.901078904437281447e-01 2.429455051708164226e-01
8.107616166490377863e-02 2.328902989776872323e-01 -2.062679857710629505e-01
-3.816734041160270707e-01 -9.037300957865839202e-01 -8.484791291497861820e-02
-3.666104278569309316e-01 -7.285718433009951145e-01 2.341742265818531898e-01
-7.351384387711580315e-01 -5.375791546866732773e-01 2.571492263339825723e-01
6.777004486499046965e-02 1.196880615970217082e-01 -4.551683148194650419e-02
5.966147578839990917e-01 3.195085126668318898e-01 -4.725253519091140442e-01
2.366400672986611678e-02 1.837251056251561210e-01 -9.839364733478486724e-02
9.121072876558146136e-01 -1.139320653400503758e-01 -3.810068633317095221e-01
-4.707370768592793464e-01 -7.175727417069501790e-01 -4.403438487383248279e-01
3.933813121901371668e-01 6.552965557747898462e-01 -3.054150035995837342e-01
2.977223880811724621e-01 -3.492520762980271254e-01 2.173783673230559321e-01
8.989471854660503469e-01 6.823283786023642827e-02 1.820248809013368108e-01
-8.141468102997315714e-01 5.108652956809034418e-01 7.122286230243791982e-02
-1.310965302906014207e-01 1.162705788231140286e-03 -2.541949250023172596e-02
8.710820492719469899e-01 -3.477806028141781636e-01 -3.550612046705627911e-01
-5.958841217159343007e-01 1.244038963157530903e-01 6.028615753790914633e-01
3.688992419461833983e-01 -4.120619657272179270e-01 2.197474338995447085e-01
-6.238464685354613848e-02 -8.170387800028994230e-02 -9.820510772719479031e-02
-2.329946187504426947e-01 -1.242581006100545032e-01 -3.988034426537598875e-01
9.483361542343548001e-01 3.238416665221577340e-01 1.250095736838749850e-03
-4.344332326570147229e-01 6.749972865228145436e-01 -1.265478097906274080e-01
-2.526882534671699432e-01 -2.270428391738771312e-01 3.802810802718290528e-01
-2.153357693298425454e-02 -2.619395951482024198e-01 1.767425892531541420e-01
4.104956424064518661e-01 7.437216803143695265e-02 -5.493773944063166104e-01
-7.580654362020275983e-01 1.150732605500785766e-01 -2.667910958169689151e-01
9.889215954413492771e-01 8.990514497779165948e-02 -4.493820428992430921e-02
-3.561449882681094192e-01 -3.666694354584753013e-01 -5.501078305418742875e-01
-5.225386859613281310e-01 -2.223683835101394057e-01 5.011474056635695229e-01
-3.795892021644026726e-01 -9.069593470099067689e-01 -1.098675563813410611e-01
5.210328282216065698e-01 -1.480357149944076522e-01 2.927761322985301118e-01
1.078191593919504004e-01 1.316725064532010825e-01 -1.812984284760547904e-01
-8.547803960253752553e-02 5.998362384245557039e-02 3.405313478394044191e-01
6.296311733340264061e-01 7.425092559155345162e-01 2.435208056078701500e-01
6.530730673790255403e-02 -4.193717798108976824e-01 -6.539375849417222719e-01
4.446199901097530605e-01 -2.181960739084423326e-02 -5.933870417085850280e-01
-2.369157526016789084e-01 1.297777655009087726e-03 -2.413606033422208419e-01
-6.172898139231539627e-01 4.902597242242034969e-01 5.684549138615037078e-01
8.096805471952355227e-01 -5.181889071566091465e-01 -2.503621024518966065e-01
4.137683483778747950e-01 7.703595458758840664e-01 -2.054718115424571390e-01
2.885036149337207867e-01 -2.084080536199209993e-02 2.593515638584668048e-01
3.122284209281014911e-01 -2.260741249970404931e-02 -5.543090206031767719e-01
8.563618384161423291e-01 5.001926487586942915e-01 -1.284459854501362186e-01
3.339221702837892325e-01 -3.602187167533235090e-01 2.222610861457831322e-01
-2.138741261393538595e-01 -5.129636561172961073e-01 3.205173597303732080e-01
-5.822323419168664582e-01 6.607683947384207501e-01 4.840883705728248887e-01
-8.510414691886630800e-01 -9.868154765045032695e-02 4.278178543224775976e-01
3.055854519318048079e-01 1.912273293110139105e-01 -4.496617916089651890e-01
6.447955193081902348e-01 4.180116637231088839e-01 -4.122177407341910960e-01
6.312746586725483111e-02 1.360463879734408743e-01 -7.155354813051154061e-02
-6.657681867350995208e-02 6.698373017282696074e-01 -2.240759963219639272e-01
5.847935564954641618e-01 -4.605364335681784715e-01 1.712035233875298379e-01
6.974172551609729709e-01 7.094149022250867409e-01 1.625244743139518666e-01
-6.788283369486787233e-01 -5.506503686157714350e-01 -3.732221454272052208e-01
5.283774538776293550e-01 -6.875556395444585300e-01 -4.900985340957378922e-01
6.897365498456375921e-02 -3.402869347235733255e-02 -2.752646863806055277e-01
1.392870218541920613e-01 -6.008693582009432266e-01 2.146280512754846770e-01
-8.452106974391717653e-01 4.421461125144385274e-01 3.391450879170890276e-01
-6.086063434313897513e-01 -4.593882310613635611e-01 -4.550251011766807130e-01
-5.553426575131854559e-01 4.501501806507966497e-01 -2.016696005317680229e-01
4.531195366010127845e-01 8.871158764435836952e-01 7.514474399559498141e-02
7.301608318694190469e-01 -3.834737296247953120e-01 -5.248022075562991384e-01
2.209247906005476492e-01 -8.329981371974801707e-01 5.382875787116886412e-02
1.125484076090920021e-01 1.432060286561001039e-01 -1.999064448468461097e-01
-1.665389063990709018e-01 -1.454436158448398630e-01 2.898006484983577380e-01
4.741312871864741124e-02 -4.090775003939385313e-01 -6.490995700431568816e-01
6.305064959603386143e-02 -2.109340994512318712e-01 -5.606268380105102755e-01
-7.809823098337920211e-01 -2.123748682226485052e-01 -3.385173157504443031e-01
-3.426505717718251187e-01 1.989601225960912489e-01 -2.408251802122325647e-01
-3.378139679447144661e-01 -4.571633813370068466e-01 -5.722147667564304596e-01
-8.067086622170324128e-01 -5.049120604692786812e-02 -2.896206870324335436e-01
3.174957391119454519e-01 4.491158320474912813e-01 -3.852081428227004944e-01
2.533804898751897960e-01 2.468964117697317606e-01 -3.933647021806508937e-01
2.999644258448033729e-01 -8.933205185217817368e-01 -1.187096082461827212e-01
-6.828943065362963472e-01 -4.163778392694886255e-02 5.434502424575895496e-01
4.686838429302171982e-01 -3.516973050207325424e-01 -6.537767169537151979e-01
8.680656214897022327e-01 4.481152447332213962e-01 1.547480452187851852e-01
-1.106254960492463607e-01 -8.271052675330574366e-02 1.319963164256444388e-01
4.889939928941135494e-01 -2.314449453287811820e-01 2.639166675044565813e-01
8.178787207559988781e-01 -2.853443966204980975e-01 -4.713297960148320476e-01
-1.057760122618946058e-01 -5.927409184712135320e-02 3.981190303398136204e-02
6.331198683384338111e-01 -4.725673564440304730e-01 1.427209521669305370e-01
-4.755412347348315638e-01 -3.002645034426824622e-01 -4.994504125342877354e-01
-3.084009890685319166e-01 -2.127852405812600822e-01 4.271596353898307052e-01
9.472879898408340105e-02 -3.066080701276257536e-01 1.791277595859964156e-01
-4.806313332948843886e-01 5.068814263960438327e-01 6.248011351884220632e-01
-1.151349745919629797e-01 -1.317904109937050039e-01 1.828962521891292492e-01
-5.026114395209726471e-01 -5.805010635769283223e-01 -4.915775863255870681e-01
-3.096037739174435990e-02 -2.791582251440138385e-01 -5.792510859071011708e-01
8.194707131741389983e-01 -3.014117449483484923e-01 1.101230150553637183e-01
-3.279562574692621579e-01 -1.536142316865593549e-01 -4.408993058318019798e-01
-3.762395451552211223e-02 7.284896494710636494e-01 5.995777929974320797e-01
-1.248841295255669059e-01 5.287251499023584156e-01 6.576209880020372767e-01
5.910798349558163967e-01 -3.873987222059545599e-01 2.023677532168418336e-01
-7.285328702824642733e-01 -5.358177122627173494e-01 2.648691469733600035e-01
8.823891402492123337e-02 -5.758359969696522085e-02 -3.920973706396083114e-01
4.898455104380511349e-01 8.675259599178176684e-01 1.667854752590920975e-01
-3.042335284045575849e-01 -4.860677966844753062e-01 -5.843358561888112312e-01
1.467316208744408323e-01 -7.788821867463877058e-02 7.005797906102259609e-02
-1.154918708438092551e-01 5.734469395140890935e-01 6.525645394221571971e-01
-1.507051808448449937e-01 9.346347467136655318e-01 3.609105320860696020e-01
3.354479839487121140e-01 7.942413886755963492e-01 4.595545361626000580e-01
-3.216204626291894325e-02 8.449071688338005703e-02 1.341308973227808010e-01
-4.791250050060972404e-02 1.582251053914426331e-01 4.756637955727137657e-01
-3.227747260204458235e-01 8.569559046488277598e-01 4.307064548596753473e-01
6.581124503330806896e-02 -1.166923863497216635e-01 8.548064350081749363e-03
-2.313082344934445922e-02 -3.166684749483129058e-01 -6.024555776636789650e-01
4.020196083453997371e-01 -4.771528677229224802e-01 -6.545347505916865316e-01
-3.034785771865837756e-01 -6.681464987958051216e-01 2.782098531027195620e-01
-9.446206044730770524e-01 1.635483905827222750e-01 -3.806830649588149873e-02
-4.488307304142756249e-01 7.579034926846797138e-01 -4.535369904992314627e-02
4.249683413888695749e-01 -4.380729909006960132e-01 -6.559033036357326818e-01
6.985890452887497659e-01 -4.920533260007141085e-01 -4.996839710503092613e-01
-4.209219352778141299e-01 -6.452473598333007265e-01 -5.117832753944461244e-01
4.584094880137781769e-02 -2.575199716338461564e-01 1.515610299030067665e-01
-5.360251536463440658e-01 -3.532729400140831588e-01 4.482160728892046198e-01
2.627827141053351578e-01 2.878008937676372961e-02 2.803190375362510922e-01
