5.294646274207932546e-01 2.650771704651408989e-01 2.367078803466383385e-01
-8.164221567305421368e-02 5.783193752433445356e-01 -5.268857358848653277e-02
1.156657688474693191e-01 1.354981772095548154e-01 -3.485401117093130940e-01
2.336986314508384122e-01 -8.366221404715068477e-01 -5.926560999843595301e-01
7.129981110019656398e-01 7.340829508495658740e-01 -3.218961900854897529e-01
3.198550245510353163e-01 4.468412415427809314e-01 6.293097555436247825e-01
-8.686855693158972158e-02 -3.076682994681541050e-01 2.276350053644013993e-01
-1.042185175060640623e-01 8.493289097753799199e-02 2.376744675273330942e-01
-8.232953918948314742e-01 -2.697611763141590790e-01 6.520639935210756355e-02
-7.797893275066676289e-01 -1.753254884792465607e-01 7.009994128889398546e-01
4.384753117042295423e-01 -5.509475906833585235e-01 -1.980364986577373143e-01
3.366983462749476574e-01 2.123824975733730469e-01 2.310752986787307228e-01
2.849319125084079276e-03 -4.299479990678453656e-02 -5.665543237737278304e-01
7.550892816689341869e-01 3.413407099259805344e-01 -6.752201038663787624e-01
3.352896208777870202e-01 7.591204046136103001e-01 5.948380867794740290e-01
6.624751119540581712e-01 2.410015982527863032e-01 1.214247924621063984e-01
2.775928248057002445e-01 -1.706740127065525248e-01 -1.338943644639713215e-01
1.495328829821628534e-02 -7.400647297249710599e-01 1.124977469933805679e-01
4.306988056951006061e-01 -5.224757322202912002e-01 -1.800022454623172452e-01
3.606582191745065502e-02 6.297994415970323834e-01 8.035617334560579694e-01
-8.272429441421342844e-01 -4.460219319338251664e-01 1.954417452311827882e-02
4.252925475003459521e-01 -5.975389796071300941e-01 -2.113604814961429212e-01
1.045076759086124574e-01 2.786305130274140951e-01 -5.323070170370678561e-02
-2.270835820898594315e-01 -9.977762589107423974e-01 -2.148452366138075276e-01
-3.745140588960296779e-01 7.096770724788886708e-01 2.747703091787417895e-01
-5.354617687389469083e-01 5.405473480319428203e-01 3.141073172225761212e-01
9.008777427941128124e-01 3.837544439636197957e-01 -1.844189811208004348e-01
4.492131035666567240e-01 -6.797102152814936682e-01 -3.202693452226426651e-01
-1.505761252142172602e-01 -2.631244237813319090e-04 2.245589685248836620e-01
-2.685844489391999157e-01 -3.139731188672376661e-01 7.051948885490478824e-01
-5.736479304141680613e-01 5.598998849627477847e-01 4.135817930612552540e-01
2.116433027740713124e-01 3.098896651296980664e-01 6.482951035346740110e-01
-8.860201268805753538e-02 3.380019491346460403e-01 6.333761765588000192e-02
2.844198805127641227e-01 -3.198405039901310865e-01 -1.075007987958984945e-01
6.176635521755604596e-01 3.290382879480927003e-01 2.374176646726487705e-01
2.896991117070426558e-01 -5.499628751150340555e-01 -8.568499999042715753e-01
-1.815503894830451104e-01 -1.876028406960086325e-01 3.350601355272835730e-02
8.813249335574914189e-01 9.533254503432089799e-02 -5.694737227932065160e-01
6.739483023821890573e-01 8.309588528197289214e-01 -1.216274064762067619e-01
2.040409982416646062e-01 2.048649313810129990e-01 1.893147821969284050e-01
-5.824574763821934731e-01 -8.379862107128474014e-01 2.381909845366305956e-01
1.898074869609229776e-01 -6.446581112588480045e-02 -8.464024939821824800e-01
8.645783112419747063e-01 7.620746968326695160e-03 -2.888357802260354545e-01
-4.756702866768919846e-01 -2.526113794730506790e-01 -2.416391472224780346e-01
6.145183288249053133e-01 1.234920705702756832e-01 4.200188965456713025e-02
-1.809263390169736363e-01 6.626226255192012582e-01 8.128853941093575619e-01
-1.032806524583703423e-01 -2.269318836847428744e-01 3.207121442393139343e-01
-3.509037034065085048e-01 -3.385398833658877504e-01 -4.877716375886935185e-01
-1.017903515186788233e-02 1.573856972740835247e-01 2.388132856613253974e-01
-7.037417760450979942e-02 7.568650116143793571e-01 -2.116741501964069377e-02
-2.477860619543014176e-01 8.621443136474995494e-01 3.906582097604284765e-01
-3.910913638148704186e-01 -6.124301323470780767e-02 1.438261287781963764e-02
-6.661673792046996032e-04 2.359993415382320436e-01 1.409309152072256710e-01
-5.031478959143526053e-01 -2.065938195526275667e-01 8.315853657681966382e-01
-7.760654714011472333e-02 -9.036375622902857729e-02 3.897606940999499003e-01
7.537585648161470031e-01 -7.424547484424641464e-02 -7.601310041687574515e-01
-1.478755881038741615e-01 -1.798494565085199670e-01 -3.454683074354106265e-01
2.895584535105963919e-01 2.037562174699448503e-01 2.042604246817987801e-01
7.332417596891425138e-01 1.547558988370791866e-01 -7.635250111846878518e-01
3.079378298047180107e-01 -2.239691190412998745e-01 -1.234627133776639851e-01
3.477038050052747020e-01 -6.527433718189196155e-01 -1.702029028994249960e-01
2.879638148004391440e-01 2.140160441570173044e-01 2.666554502921972825e-01
-1.887817160382380122e-01 -7.122438340698576675e-02 1.703336680517108237e-01
8.160800378793953147e-02 -7.242027432438189471e-01 5.082577426193757991e-02
-1.246148287425102863e-01 8.817436281473121085e-01 5.753172316586495638e-01
-3.483932401994164763e-01 1.729884645764048212e-01 9.236880083849710044e-01
1.241193568702009392e-01 2.529057606864317798e-01 -2.650856242478952796e-01
-3.921490293901067070e-02 -9.515551763645190009e-02 -5.680666867291785938e-01
-5.884992844178564830e-01 3.198029911316676022e-01 2.185667663327701959e-01
-5.069420466508562928e-01 -8.831598335703035874e-01 -2.637631018876521738e-01
-1.600994653017016323e-01 -2.267094354228333386e-01 -5.859593519905035297e-01
-3.183889747668985915e-02 9.074298314722691883e-01 1.023555987329961836e-01
8.020127427960312139e-02 4.231288197536842710e-01 -2.386356562641498702e-01
1.183029901517529681e-01 1.872909203898242003e-01 6.289655452441493821e-01
-3.638940965792334947e-01 -7.939848840593175527e-01 -5.263712743713193642e-01
5.992483922474567404e-01 4.596303511210982906e-01 3.500376130334673097e-01
-2.565925790004979778e-01 -6.640843917629049020e-01 4.393380445056531136e-01
8.082816463133964957e-01 6.745108887509403406e-01 -9.414034091089583389e-02
3.329156252625564694e-02 -7.730857804035177194e-01 7.243570834943541259e-02
-6.635916542358013537e-01 -6.776326791224758228e-01 -2.432228748955871656e-01
-3.819381827326289724e-01 -4.440933367209883853e-01 6.842810962488079518e-01
1.570060629684113251e-01 1.895201664454323476e-01 2.842564290689433837e-01
-6.803360808057322684e-01 4.298117171045839346e-01 5.895874579363457046e-01
2.394124972581829214e-02 2.781146947986449236e-01 7.173866018880323270e-02
4.290614228775081473e-01 2.255081942823305152e-01 -8.156146662704963912e-01
-1.018980189931460584e-01 4.037488667572481926e-01 8.878710410645738182e-01
-7.784796579326166421e-01 -6.574090813087265506e-01 6.244663679797100679e-03
-3.587225807454933468e-01 7.456889046004776533e-01 3.024289982595943505e-01
7.728140191288735972e-01 7.031608417778204556e-01 2.264321821353038403e-02
-1.953983331711269811e-01 2.832384565485248640e-01 9.109808049710783617e-01
1.835150077046937556e-01 -5.507103825163315314e-01 -1.542764834720797458e-02
-6.600529969837838351e-01 -8.101049574305908552e-01 -7.871476373607695642e-02
-4.604340431103144671e-02 2.346682270528597791e-01 1.441895177036258968e-01
4.197915632996749857e-01 7.815171077416273038e-01 5.130760881809681706e-01
8.257307562862060690e-01 3.731681373470248086e-01 -5.807903324738494799e-01
1.529861692973484219e-02 1.321996616910513234e-01 2.914675137756132517e-01
1.276505051393392043e-01 8.672125521653532010e-01 6.121807365379560162e-01
-1.378940470409084074e-01 2.660352036371024242e-01 1.216747590988623007e-01
-5.587973243042653609e-02 -1.467247605566054380e-01 -3.135884092507794652e-01
3.424899604417102061e-01 9.832905603892558855e-01 2.565213839863007550e-01
7.527507609295117641e-01 -8.923241909430772167e-02 -7.588288601114849818e-01
-3.187186318627909659e-02 7.922508195700403988e-01 7.160782451212091004e-01
8.812854249520640781e-01 1.337416580620850448e-01 -5.708920331517115532e-01
-1.796171150479632384e-01 -5.771834221204156234e-01 4.281605826814189886e-01
-3.136222787781299259e-01 -9.380937036069335599e-01 -3.869196181594761197e-01
-4.634045980655739083e-02 -7.807184894762445593e-01 1.486964613196647134e-01
5.957821906974252180e-01 5.300583370071636491e-01 -6.331106435951349143e-01
4.792449901130247936e-01 4.142779437987657021e-01 -7.203699533135674571e-01
1.285684836212950821e-01 4.081715408098535169e-02 -2.826900475195472939e-01
4.371639303029847823e-02 -1.334062588134966587e-01 -2.482885720628223991e-01
3.993365757399057747e-01 -6.821877862896893463e-01 -7.060606714642826409e-01
4.577697084014492601e-01 7.451682045635564799e-01 -4.358208059518023925e-01
2.000540228341456950e-01 2.347143113175944318e-01 5.616218260697760645e-01
9.183454860097212125e-01 3.024592321526340388e-01 -3.594487368985304077e-01
-5.251296512877968725e-01 5.110251733082075143e-01 2.761474493355313697e-01
-2.904936881530959525e-01 9.265572398220458042e-03 1.107823154121529430e-01
-3.966060796366260854e-01 -8.479042915526935342e-02 -1.031147522787176016e-02
-8.481988810567659964e-01 -5.333551838992762750e-01 1.410664281465327796e-01
1.287537316410488908e-01 1.272386574860262798e-01 -3.027190725812601291e-01
-4.697533527509133167e-02 -5.059761509665933882e-02 5.746968878666557368e-01
6.965576645836485392e-02 -4.063092335530389398e-01 2.204161030978038158e-02
-3.663137257227944699e-01 -4.707817976718011721e-01 6.592812402296198693e-01
-8.968017275990656234e-01 -2.140059233077737100e-01 4.243572102033659754e-01
-1.906369228833370288e-01 -5.437004521481356711e-01 -7.300055659249395923e-01
3.965088461426766742e-01 7.984942070309332118e-01 -3.609060451840805372e-01
1.488403212498793163e-02 -3.571728375550330958e-01 3.212281836694486775e-02
1.788563442311738305e-01 8.257074521072610418e-01 -2.088544134297908028e-01
8.283778769818530563e-01 2.503421123395971892e-01 -4.796208348346277933e-02
-4.531255836821401206e-01 -3.341657755847918937e-02 2.150930858792098055e-02
-6.532153884133644617e-01 -1.379126632024521570e-01 -2.426555640745570522e-02
-2.719032810213166118e-01 -1.350272929551881995e-01 3.165565580837393766e-03
3.102648443801268585e-01 -2.552006942084120156e-01 -1.199611426246441070e-01
-7.427602813718657826e-01 -2.622616724830100776e-01 -4.298534147202150157e-02
-4.443627638058197382e-01 -5.927072312049597169e-01 5.885416101940081912e-01
-7.165184984346006924e-01 -2.525103191152451576e-02 1.014589865952063019e-01
4.860629991886064039e-01 -4.840841649730637936e-02 -6.832448584691606930e-02
5.113761223893582564e-01 -6.241089979028259238e-01 -3.468138910029914812e-01
-1.556528975653664604e-01 3.300625761254589730e-01 9.031676285183025676e-01
-8.711557697089082897e-01 -1.314939471473693848e-03 4.391425606278047677e-01
2.927448410808886070e-01 -2.256096406939736565e-01 -9.164204866778374869e-01
7.436481503779620583e-01 1.860340673007582768e-01 -7.471267797881016026e-01
3.718430193094712788e-02 -8.914076543268029118e-01 -5.806374074092915949e-01
1.649197312758182363e-02 -3.307119669956353758e-01 -1.908217171005226502e-03
-2.951435223307122269e-01 -2.880711810417873817e-02 8.993775557518653152e-02
4.926453113387011529e-01 -1.017011602526151637e-01 -9.212772340882616207e-02
-5.598392952680857348e-01 -8.746130100674966990e-01 -1.805260239671674372e-01
3.456453711135443196e-01 -3.523473667168840473e-01 -1.166379038295152076e-01
-1.665569219598256878e-01 8.019239616905268209e-01 6.881352418630229950e-01
1.723914339015015229e-01 4.448065767104358859e-01 -4.607154770850650505e-01
2.466934746399827572e-01 1.560417085759563671e-01 -7.700239610320070982e-01
-5.766599924283402068e-01 -4.414645863232757317e-01 6.988338633826682855e-01
6.008111662330494207e-01 2.413001565077358690e-01 -8.006372694640302434e-01
1.230801466944745071e-01 3.450540315470524977e-01 -3.650134786661938802e-01
-2.982031243859949443e-01 -6.563818752426069381e-01 -6.415786706314762222e-01
1.198491512081994309e-01 -9.251634326938473762e-01 -4.424776629429971186e-01
3.737431725808871841e-01 5.161932847771061317e-01 6.036913705075798164e-01
-9.541120695356772319e-02 -9.587686351987638744e-01 -4.430568242835755122e-01
2.903702105403051514e-01 -2.387608098271830903e-01 -9.168211204824685545e-01
4.351806320166994035e-02 -2.996351642638341861e-01 -5.894635303944503746e-02
-3.469318606744278277e-01 -9.784291551940059728e-01 -2.136735768733360186e-01
-1.544017856966386770e-01 -9.958907583717097056e-01 -2.650585957622349498e-01
-6.372465188404272673e-01 -7.140538087743519835e-01 4.149710144767790321e-01
1.622265300218058981e-01 9.014353551986780122e-01 -9.722581215867087678e-02
2.233189892799344323e-01 6.491072968969560097e-01 7.125471083939441952e-01
-1.615210675481647540e-01 5.266579808976983024e-02 2.052107588404608329e-01
5.175119097473895868e-01 -2.551236840096892666e-01 -8.900460235190823521e-01
6.731733791387446708e-02 1.085874940635757763e-01 5.736557385314640101e-01
-5.172268146047136889e-02 -6.783181371964667195e-01 -7.647295733589549727e-01
-4.438074347336342096e-01 -1.685431406929616127e-01 8.473732295338920473e-01
7.274100654227985130e-01 4.190959136287538134e-01 1.797146429898871522e-01
8.420939427588249870e-01 2.988701583894857183e-01 -5.983771262857854323e-01
4.996968038407830631e-02 -9.658233473459790913e-03 -3.902672348285246562e-01
1.645058008398362082e-01 5.044682575776119338e-01 -4.159871159454798240e-01
1.740952905723460453e-01 2.136833062015597862e-01 -3.728927582750269504e-02
-1.252707291519624018e-02 -6.127832961871525208e-02 -5.583567560893980541e-01
-7.074756970872371487e-02 -5.025979107629993323e-03 3.335140587686608038e-01
-8.390377476971572213e-01 -2.857843724058529156e-01 8.718841250284531386e-02
6.403026387555235122e-01 -5.191414957291220489e-01 -4.969911356991102425e-01
-5.037839033955944235e-01 -2.920797129759006641e-02 2.119544620997819082e-02
-6.158094215885939055e-02 8.421888647643814563e-02 7.759725800026407994e-01
-6.326502599392640203e-02 9.179298930572082904e-01 1.666188684464852687e-01
6.040374493099716080e-01 8.593808903941658750e-01 -1.847472740209003261e-01
3.614846462526040138e-01 3.276863714362250324e-01 -7.393124673383134615e-01
-2.994671596754375775e-01 -4.761037704182767283e-01 6.172467651110705722e-01
-6.655777710596351426e-02 -4.530334046868780273e-01 2.730084881697026344e-01
1.455857275960885100e-01 1.669411434854631837e-01 4.398609754199182542e-01
-6.617670365823919987e-01 -8.216420653362530579e-01 -1.981759975003085164e-02
3.816275090982377272e-01 3.449654364367922832e-01 4.835159469301275603e-01
-4.201273291729300530e-01 2.584003559645389192e-01 1.346759193419265199e-01
2.292577187650421400e-02 8.515914515350554714e-02 3.836780723036016250e-01
-1.066476133642124957e-01 -2.483408314247059212e-01 2.266394675650327262e-01
-2.638670510368366917e-02 -1.816735511141163995e-01 -2.181513039798678999e-01
-1.492927694909921832e-01 7.505531048916472270e-02 2.083626777583446055e-01
-7.803590354296885412e-01 1.343412612301954911e-01 2.904207844791473758e-01
-4.288852170019598620e-01 -1.947130696316754228e-01 -1.687127067896256882e-01
-5.803101211707990537e-01 5.168662633800265027e-01 3.568103946191526488e-01
4.996735755139596336e-01 -5.378782620489799271e-01 -7.742868730244932829e-01
3.443124645730145234e-02 -1.317683181135529957e-01 -2.567155508658752749e-01
7.014049516354804725e-02 -2.810512773266404807e-01 -8.515559529322944687e-01
9.176713364471100753e-01 1.920533922010975170e-01 -3.429664810436223732e-01
-1.004527812469751397e-01 -9.917170603454120714e-01 -2.711582419277717704e-01
-1.271976724890713506e-01 -2.031149625075196474e-01 5.986129140712921348e-01
-2.182128467179887121e-01 2.365706476845244877e-01 1.321325810805083212e-01
-8.864678445129320350e-01 -1.072631318423857977e-01 3.483028873874856601e-01
-1.373930498532627831e-01 -3.268349015856593653e-01 5.043002515239894956e-01
7.305233483186741594e-01 3.256869682862706949e-01 1.236233430125121407e-01
7.138576422372581165e-01 7.965754202647846727e-01 -7.183399054115232295e-03
-1.894461046730428477e-01 2.935245695568108881e-01 1.119761077973469021e-01
-3.071018070349486040e-01 -4.674652559452496803e-01 -6.272106973365243476e-01
-4.674839465325996146e-01 -7.403970909927987121e-01 4.426511978455150431e-01
-3.561333454460987036e-01 -9.272511204172123600e-01 1.401495168743061015e-01
-6.855597650680585534e-03 -3.763211377405798475e-01 8.521389949512671314e-02
3.795447838034261834e-02 -1.297120520967464108e-01 -2.565848297550958335e-01
1.967192308908950402e-02 4.575720226465420509e-02 5.303722317805656949e-01
6.251606837271030948e-01 6.156387470168839249e-01 3.520253821553306905e-01
-7.880012696341844036e-02 -4.129047462154805670e-02 3.450818224501165377e-01
-1.275768326165052924e-01 3.384163054406835736e-01 8.955375099685425333e-01
2.015350107038925420e-01 4.467948998328346577e-01 -5.090340359027495376e-01
2.003179918999951348e-01 -8.913674006397043215e-01 -4.573395716327922633e-01
1.101852386899532105e-01 7.829053753349453082e-01 6.971098827956144772e-01
7.347842081746036591e-01 8.150418560468387918e-02 -5.811749995137308056e-02
3.452776716129483114e-01 -7.616049263365444189e-01 -6.337106342761755773e-01
4.796840528729752751e-01 5.277046716734462573e-01 -6.415719439685195757e-01
3.405074692972286377e-01 8.237436497751895459e-01 -3.107799738158458225e-01
-4.399221013162645244e-01 -9.501667095781614059e-01 -1.798968682576798372e-01
-8.672362704206763862e-02 -2.941535403093466505e-01 1.714286031304573799e-01
3.917761145879021800e-01 -2.598606861164757253e-01 -1.241376890420103629e-01
-2.689099925635877741e-01 8.491900550232153178e-01 3.996499557045212758e-01
-2.722102825759885603e-01 8.279131342727737985e-01 5.606409683285425993e-01
-5.089211684294093763e-01 -1.727022682548798593e-01 -1.184543686834236970e-01
-7.813213747806393994e-02 -9.646875648003950809e-01 -4.250317512395010988e-01
-4.542241320728626075e-01 -5.030838326120173898e-01 -4.986246641571453475e-01
-1.137364103941008869e-01 -2.435419514254360263e-01 1.549514873910979029e-01
7.667188322999609618e-01 7.256790895063539581e-01 -8.303527291170701916e-03
-7.007697117513583818e-01 6.964127784473082491e-03 1.117156084145923683e-01
8.832271831608706769e-01 1.285859427056859350e-01 -5.659103343093082605e-01
5.844630975632155584e-02 1.153844012135289698e-01 3.842487235716585126e-01
6.010378525899875424e-01 1.142118816070530618e-01 3.853190114206557493e-02
3.056923864632859478e-01 9.610362998627244302e-01 3.720794757425823773e-01
-6.652609434220623230e-01 -1.961168265880406103e-01 -6.454247968545226422e-02
4.492096792237523228e-01 7.764992628329409063e-01 4.892621483868580534e-01
-5.591288485501537397e-02 -2.780295162147729537e-01 -3.524836858710939536e-03
-1.425678040360568721e-01 -4.031384094310193622e-01 -7.445356252719730339e-01
5.652496504644058950e-01 8.971883606086085150e-01 1.655101041402515238e-01
-7.123517977325363182e-01 -6.897839654392926567e-01 3.700277639739433244e-01
-1.082046906652125162e-01 -2.520029808623996948e-01 1.730165079399958450e-01
-4.062222094620075441e-01 -9.644164416669747109e-01 -1.964154829551624862e-02
7.102063919958520044e-01 4.008945536185591629e-02 -6.987593021173804653e-02
-2.523416051579109309e-01 -9.692342277606410539e-01 8.893899438153380146e-03
-1.907201614676988788e-01 3.714836476228587370e-01 9.094323216533283238e-01
-1.686609059067881167e-01 -1.593442837337153140e-01 1.339392889512698026e-01
-1.636517334576855776e-01 -4.498968732364196366e-01 4.810117940852826068e-01
4.128228128704276162e-02 -4.260779065641811525e-01 6.569029616537094829e-02
-1.028549085817764552e-01 4.950788359565984065e-01 -1.504659486575443857e-02
3.892129917989176069e-01 -7.561940235082521555e-01 -3.501695511172617237e-01
-4.291691921978713076e-01 -2.976606976072988520e-01 -3.461938198280240520e-01
6.160981734323274506e-02 3.394872335577487354e-01 -8.713240833938709629e-02
1.136096331247284652e-01 2.865414324523670730e-01 -1.748670022820144054e-01
-1.109575389755976804e-01 -1.700531215082747849e-01 -3.148385765616840137e-01
-1.650610594943659470e-01 -2.088901398803001686e-02 2.096865116724028755e-01
-8.241094171117553380e-01 1.488022555499327326e-01 4.444106309306184999e-01
-1.591430075844832703e-01 -3.429347873994010309e-01 5.432758704724846011e-01
1.900099727023238094e-01 1.407814711397833429e-01 -1.534339693008050232e-01
9.284534754430606718e-02 5.721315857806271582e-02 -3.637473727356281272e-01
-4.018281359703419486e-01 5.454171871682345074e-01 1.859547401696909075e-01
-1.829743506474764136e-01 -9.981006841747125380e-01 -2.326767575244702568e-01
2.489964923787839346e-01 2.025938036688970934e-01 1.877183025243195635e-01
-7.785622107470525632e-01 -2.017570632319232171e-01 3.943591828387423004e-02
1.853241323657576212e-01 8.334141577317538685e-02 -1.954120178476633496e-01
1.472393669556252560e-01 3.170406783191375144e-01 -4.787874044428420128e-01
7.431859852844866499e-01 4.485122666858054608e-01 1.701530302630279712e-01
3.168157526494199128e-01 5.180926263602453341e-01 -5.824461336318070837e-01
2.081469707560515969e-01 -1.457082748272386374e-01 -1.594749437276510862e-01
9.513504720951408700e-02 1.308582661164789940e-01 5.377082138683029200e-01
-3.893094076202651688e-01 5.172183278848698773e-01 8.484513951287839806e-01
-3.834361838706060732e-01 1.073984195981798201e-01 1.059535213471168164e-01
-7.990656821100774465e-01 2.180025747189553165e-01 5.016416695957119920e-01
-1.785809328494716020e-01 -9.583826944527261416e-02 1.728919981589867594e-01
5.145527813601806777e-01 7.986593189262715109e-01 4.036632492570582098e-01
1.735284226491858733e-02 1.109995751390799174e-01 6.989662529963468485e-01
7.678837819889368088e-01 -9.841741707775873704e-02 -7.390778044802531754e-01
-5.956745051283638404e-01 -3.914850339094056997e-01 -2.878464145663769957e-01
-8.537280224093685144e-02 -1.342687342023861918e-01 4.051204234038637830e-01
-1.306602678648398352e-01 -6.088423865799168222e-02 2.566525847334795718e-01
-7.617938169600031728e-02 -8.582774689001478885e-01 -6.203339986090803393e-01
7.282520048883959207e-01 5.295073396651444053e-01 -5.663899851530007634e-01
2.297077726731149711e-02 -9.143552329170679949e-01 -5.393789388715498623e-01
-3.679834413801409965e-01 2.107778476687992841e-01 1.252936797396865809e-01
-8.444951526576494061e-02 -3.063676073346663919e-01 2.015180341602064995e-01
5.172657972185706887e-01 2.248643826437967397e-01 -8.210895066215458948e-01
-7.909017312488312301e-01 -1.499144602154603434e-01 8.984095913621630014e-02
-2.031113174809481836e-02 -1.041009986300592688e-01 -3.611002524119882873e-01
-7.659429465442686713e-02 -8.878690865148278766e-01 6.129048189564930554e-02
-5.444879208465732701e-01 4.902798718535352762e-01 7.648421665271312175e-01
2.198973951771071023e-01 2.033401699054908085e-01 2.880184273830899144e-01
-1.801041554287336477e-01 -1.975731065226141170e-01 -2.344688006874509068e-01
3.708308393540525882e-01 8.754228779472528199e-01 -2.446322087829863046e-01
1.867258797574313347e-03 -3.193035494536525243e-01 -2.414553031294133355e-03
7.824086518795110301e-01 -1.427870369211043100e-01 -2.674805455780144281e-01
5.736202209006783237e-01 -5.082635127381017748e-01 -3.059928487297599031e-01
-2.851016927582544769e-01 5.201963252906760538e-01 1.030644705845223524e-01
-4.451109895969104779e-01 2.133823930904481248e-01 1.291592565653240654e-01
2.120372260917908480e-01 6.488570716499668378e-02 -1.655172980735451216e-01
9.083543630365172872e-01 1.733307602076951393e-01 -4.769563595755031415e-01
8.911192728909625438e-02 2.943658944840833736e-02 -6.807077042198218519e-01
1.483007083235669266e-01 2.518890548653378025e-01 6.688639910509956987e-01
-2.740457316604291704e-01 4.904737217297926340e-03 1.195767967522606973e-01
-5.682882867395713800e-02 -4.470863592391937091e-01 2.489491004127129536e-01
7.863758930592398277e-01 2.031885730846339985e-02 -1.491967086217614591e-01
-2.534953173697138129e-01 4.081079138040764054e-01 9.429923689793855146e-02
-8.330827174734983798e-01 -2.276686335941823514e-01 1.058593927563813569e-01
8.152765429749612158e-01 -2.048521773682435987e-01 -5.726445924394587550e-01
-2.677657101984847743e-01 -5.224360768026565793e-01 -6.733592943767404693e-01
-6.179683325237789182e-02 4.661957593463050276e-01 -3.944247733930940358e-02
-2.275371999767911990e-01 -2.091606182519574753e-01 7.396026347974499204e-01
-4.182683843222508718e-02 5.555808345256121328e-01 -9.141838726412984673e-02
1.216405758565707318e-01 2.643636877397785856e-01 -2.683644776423865230e-01
1.332097567668111826e-01 9.934624203121910080e-01 3.226686014443091444e-01
-4.587062052672174484e-01 7.976748718065150567e-02 8.667047410399010554e-02
5.271840325622680762e-02 -5.058293651197037777e-01 9.530093789363922041e-02
7.274976737188559861e-02 2.053074873752747803e-02 -3.759711735247399655e-01
2.141859094376365180e-01 3.369851290758898443e-01 6.681453300259299066e-01
-1.440467470151909901e-01 -9.884592556622728843e-01 -1.324757718337814805e-01
-4.998808852627886212e-01 -9.220616888056704097e-01 -1.635997116264491513e-01
3.412739652503825605e-01 4.036392468656394006e-01 5.834912167937289507e-01
1.583463324723205501e-01 -3.598611318783109803e-01 -6.149649522102874910e-02
-1.981834689359871504e-01 -8.205550971771180535e-01 -6.137316431125354743e-01
8.486819708479696744e-02 -9.368578759962079561e-01 -4.369242112451832694e-01
-6.788440392105359045e-02 -2.539289738263846713e-02 3.558210060930195873e-01
1.435683755044381282e-01 2.022598351634573577e-01 2.109190726720042708e-01
-4.475210512431931353e-01 -7.863515138443705199e-02 -1.636281816559893507e-02
-4.594334453424609999e-01 -3.146833199716855267e-01 -3.425577355279968983e-01
3.978161055821596848e-01 8.149968362418671397e-01 5.070530893148512686e-01
-8.295531510432206934e-01 -2.494727081071819452e-02 6.403180686569548419e-01
-2.355707147585444361e-01 -1.954010794792251648e-01 -1.592997379893477672e-01
-4.138261587037538880e-01 3.082956663492947280e-01 1.407686692244810855e-01
2.482840255286520026e-01 6.516410893238818239e-03 -1.462260851600634681e-01
-2.949819673645255325e-01 2.120264261098173120e-01 1.295640295618220583e-01
-7.358948842214404484e-01 -1.086170851859957626e-01 7.589310578482542091e-01
7.602680248682433528e-02 -1.148435963128986576e-01 -2.442284555261247658e-01
-1.453528855556802668e-01 8.720465460458403095e-01 1.864574839469578249e-01
1.694125356757831546e-01 1.997934639649938671e-01 -1.170373262502552580e-01
5.768985352746573009e-02 -3.171579653575460345e-01 -4.780374652226919430e-02
1.659584028323173310e-01 -8.936213856737400540e-01 -2.450912822569790983e-01
4.502597003014818799e-01 2.551604654299119423e-01 -8.049052072089243337e-01
3.702464765639977284e-01 -6.165750857409392216e-01 -1.714421175182097301e-01
2.842558741599465755e-01 1.000000000000000000e+00 2.027708117652075592e-01
-9.380766600819114009e-02 -2.329013173443301721e-01 -8.336394952930614721e-02
-6.788826163284832349e-01 2.394330400787750279e-01 2.441891794644892866e-01
6.946294285859013762e-01 -4.302871723661867431e-01 -5.974853482287966200e-01
2.893795645508872583e-01 1.416227647169460840e-02 -1.122101834624286282e-01
-2.454657706589361832e-01 2.614841859731295570e-01 1.245854442796757861e-01
8.218672999198985973e-01 5.689226224462337056e-01 -3.999784187239295297e-01
3.693693501519674238e-01 7.320429854799479497e-01 -4.283158087041478712e-01
-3.254091447156103323e-01 2.581711922036439982e-02 9.846885969685661988e-02
6.844415485032437907e-01 4.041007554141334279e-01 2.241246255301663770e-01
4.607979840194796617e-02 8.491566825295961130e-02 4.509882054768699078e-01
2.504521007449428960e-01 1.437032221560765322e-01 -4.374268869738885679e-02
-9.934704458298102003e-02 1.512775613600077784e-01 2.002467569221924315e-01
-5.394539740324831856e-01 5.826699844734622991e-02 8.889945043541367387e-01
-7.939201999532669030e-01 -5.873499096384634521e-01 -2.259451076115880433e-02
8.496152992712374674e-01 -7.943806351317778125e-02 -3.430984083692621422e-01
-3.089358337740377713e-01 -2.427374036531336488e-01 -3.536606903366267818e-01
-2.532050175205099452e-01 2.724144735986152588e-01 1.222775900628720186e-01
8.435985979444858840e-01 -2.670537089886031515e-02 -6.346095584338523610e-01
1.073209673741311668e-02 3.747798601556434628e-02 4.834524359638142088e-01
-3.880932832213265099e-02 3.924489211204996164e-01 -1.206993857420867594e-02
1.939943084001954643e-01 -7.848077416336061984e-02 -8.543119317711279637e-01
-7.799385660192343916e-01 -2.578789703508127789e-03 1.803712959035505825e-01
-4.035306718972210827e-01 1.188417748578474153e-01 1.059971129773090992e-01
-2.172121100408175298e-01 -1.393149927463545323e-01 6.906124499650957704e-02
1.268736205313449883e-01 1.502219323653515570e-01 -6.099261272908604870e-01
-9.746957960813588950e-02 -2.053787649625448408e-01 4.158603672154667086e-01
-1.701259289354477566e-01 -4.928007505396345689e-01 -7.420170515897001051e-01
2.575500726936680307e-01 -2.269193904291403607e-01 -1.267279383961616990e-01
7.977262201372535833e-01 6.424324591787893279e-01 -3.326559475175839276e-01
-7.428611889191708562e-01 -6.842521583208374114e-01 3.259507087764154099e-01
1.765501326274093383e-02 9.762180180800855700e-01 2.901955124984160750e-01
-1.020554597096477445e-01 9.047673600833976426e-01 1.925690887220113112e-01
-9.722408566982497502e-02 -5.769142844189386610e-01 3.158016015761043738e-01
3.718656256563129814e-02 -1.328310351813509760e-01 -7.618205364866809104e-01
7.245457692586129705e-02 9.876646276747884645e-01 2.451035190987107537e-01
-3.902748681285155286e-01 7.622879972243463975e-02 9.487168212409867463e-02
8.506883946714552391e-02 -1.031517935251427126e-01 -2.474313649922256220e-01
1.450233954061518615e-01 9.832003284603841875e-01 1.080776731876833124e-01
6.807874904769698476e-01 -1.196665495414225566e-01 -8.204465735634300927e-01
5.057550788332824121e-01 3.801678048062107074e-01 -7.431537527155855916e-01
-2.334829656108815266e-01 5.942124415966417716e-01 7.527746119156947247e-02
-8.468464288689149244e-01 -3.314074408451622156e-01 8.599502860874290444e-02
8.532724736764322193e-01 5.751276555448183725e-01 -2.823366609123014737e-01
-6.091996068941475384e-01 -4.222962709830535566e-01 -2.934596118257834507e-01
-5.650824684113368024e-01 -5.094541418551744583e-01 6.532352785214228241e-01
2.872863951324020615e-01 9.794200110367483614e-01 1.339831778731070434e-02
-4.103617873504319391e-01 6.361284083217665364e-01 2.462211581178018749e-01
7.956379895739433827e-01 3.165432750203744927e-02 -1.517154025117653793e-01
-1.509699372471801360e-01 -4.039216734258631591e-01 4.847453488189838455e-01
-1.557321303407818713e-01 -3.110106845637645723e-01 5.613608580972753170e-01
2.307511857951324852e-01 3.526906153963136892e-01 6.621893137423336961e-01
7.648999522616101165e-01 1.867513365200673958e-01 -9.105684851195200435e-03
-1.290512194624689746e-01 -1.846052575006650320e-01 6.238598154510329730e-01
-2.749318468996799769e-01 -1.996871419339920073e-01 -2.006468538506314681e-01
-1.779822306465618231e-01 -1.923172765031866682e-01 2.569036293090118384e-02
6.687698508534070108e-01 2.285886204032251401e-01 -7.799916902989231238e-01
-2.392370388749379129e-01 -7.693915792171204804e-02 1.069358093190365816e-01
-2.820159627976232333e-02 7.906554096465559511e-02 3.150467566220274129e-01
3.362820254487066535e-02 1.503223720956430032e-01 7.176410442374717702e-01
3.182397822265001786e-01 -7.237890201094732134e-01 -1.913682180987204551e-01
-2.775347003188190498e-01 -2.151901155754635531e-01 -2.826531359891189532e-01
3.727855460966166823e-01 1.212841227407843586e-01 3.531496126283432957e-02
4.331253626623771114e-02 3.137339322107099426e-01 8.075046657152006313e-01
-1.137130599680005565e-02 5.242289168276125233e-01 8.471133246796773708e-01
-2.826984257003657963e-01 5.456863945320015175e-01 8.640264594607892645e-01
2.641219199009774976e-01 8.373020392974043213e-01 5.833425460937377016e-01
4.527159904672913848e-01 6.764446597869107070e-01 -5.085108120259174136e-01
7.564125142368036125e-02 -1.348750667883214516e-01 -2.267363462052417733e-01
1.074821812701738377e-01 4.042938845868903064e-01 -3.110605817539388585e-01
-4.752491591038998653e-02 -4.760885371247554065e-01 -8.136722919168440926e-01
-3.013423480703437685e-01 6.093952815665790723e-01 1.312328063286949953e-01
-1.071249049221946192e-01 -4.307762791959280357e-01 3.716670540729808958e-01
7.247048190381381039e-01 -1.044723662547133031e-01 -7.851894207391378888e-01
-8.650286139377610928e-02 9.205964141167041204e-01 2.107971766553234649e-01
-3.340758246600457615e-01 -1.624066686127531578e-01 8.283207762220636816e-01
-5.748387325624647604e-01 8.106961789886445169e-02 9.864047019253506521e-02
-5.154819045627292290e-02 -2.098012918169723240e-01 -1.672233673127057896e-01
-5.874740293218920772e-01 1.462047856969671267e-01 1.358656655308533856e-01
-4.914588399693173848e-01 6.697319707622538809e-01 5.393031531663730060e-01
1.258619634156351585e-01 -2.647664984620191064e-01 -1.124368236463284820e-01
-3.066786381966278840e-01 7.550863000747625176e-01 2.362493320028276889e-01
1.093665830962128743e-01 -3.320283958593042151e-01 -8.770679368665909026e-01
5.125879677293333492e-01 -3.497736334034552419e-01 -1.729177289215067248e-01
-8.861747276509181204e-02 7.182604413957485168e-01 7.785248271664847453e-01
-1.844697870416039387e-01 -3.898324221267935319e-01 -7.052362531119021893e-01
8.406786431491825029e-01 3.093409440859148929e-02 -2.171494951808433105e-01
-5.282713242930733161e-02 2.627530552272218101e-01 1.170214849440115584e-01
3.032158281270789235e-01 6.516038565279093087e-01 6.600035005531231791e-01
5.620842236768524014e-01 -5.279070772461796901e-01 -7.213612289737941774e-01
-1.153756198349191742e-01 1.361656122431124105e-01 2.018669738062293662e-01
2.340096519030123237e-02 5.689426912779286388e-02 4.652272605478683931e-01
-2.763160245870627807e-01 -3.377960606028866386e-01 6.954436174227495160e-01
5.077051240844661084e-01 -6.548877585286377867e-01 -4.009404709197924577e-01
-4.620310231045081095e-01 -3.260015710748625506e-01 -3.546491210197169619e-01
-9.080334263142061935e-02 -1.643907167519778334e-01 4.110994660316920069e-01
-4.663340203922758387e-02 -9.750704452638742081e-01 -1.823045173116382145e-01
4.034547314241455074e-01 -1.712289437602466102e-01 -1.150834133378970392e-01
1.573696789786380168e-01 -8.852948120334813709e-01 -2.066600133388914462e-01
-2.354500468366510502e-01 -2.244532256829692429e-01 -4.134601444128443437e-01
7.772660655337572215e-03 -2.082128970819895342e-01 -1.678777260824803330e-01
1.765541726928014643e-01 -8.980137914250310160e-01 -2.854913994705666758e-01
-5.297920759686035319e-02 -2.982672336170902327e-01 -7.755742743264808503e-01
-1.255282699583417094e-01 -1.684731620514346162e-01 6.338207202338087543e-01
5.501161945357903038e-01 -3.500305142751312659e-01 -8.496127539077875657e-01
1.354458029335620373e-01 9.345657008290821910e-01 -1.758041102154496438e-02
1.491171209060416780e-01 -1.086926073440406398e-01 -8.404231324167757977e-01
-3.870357450558843948e-01 1.183009383779266566e-01 1.082021479637908234e-01
-3.369787787037525351e-01 2.613839273604152691e-01 9.254273233956806788e-01
-2.638398831770291664e-01 -2.871308548299350560e-01 7.190966717201873193e-01
-8.624771554093055848e-01 -4.790830776529266255e-01 3.435093236866386679e-01
-5.798395143325528744e-01 4.321200977521308384e-01 7.751973399659813913e-01
-2.480061097633934897e-01 -1.426475175147921270e-01 7.958728010064034519e-01
6.944749710633879580e-01 7.918462741750954548e-01 -2.173279900785026197e-01
-8.720267544088775025e-02 -7.066600144470099876e-01 2.426692250224670722e-01
-2.940673220346325459e-02 -7.334888797503321678e-01 1.636997356010525262e-01
-6.724758365882996802e-01 -7.953451009094770763e-01 -7.878281794404083660e-02
7.478676921048146298e-01 -2.179657682317407974e-01 -7.217548904045557601e-01
4.238966532993160841e-01 2.112533701496530913e-01 2.024559142966828595e-01
-3.273783908539081300e-01 8.013040538884278474e-01 5.395654043207406270e-01
-5.653841957704310861e-01 3.153087124147892495e-01 8.473229243651212439e-01
7.648877887422114719e-02 3.066080676721767984e-01 -5.321990282812217449e-02
2.497954822409757247e-01 1.458113209980170522e-01 -4.117504134825394208e-02
-5.400975103174371350e-01 -4.374456196033899014e-01 -3.768072116962603024e-01
-1.254202042891890481e-02 -4.511356406705323008e-01 1.612477041654062915e-01
-4.872244648462721872e-01 2.805856489162952272e-01 1.548172045334329783e-01
-2.443965978737622502e-01 3.697016397530808463e-02 8.756081711320182759e-01
8.091242931231137359e-01 4.846157432578368507e-01 -5.183283586451703506e-01
-2.080620706842705170e-01 2.742209601736065316e-01 9.132682256311757119e-01
-6.096509550342869149e-02 4.451498999926782330e-01 8.730778109256669417e-01
5.013856871884485589e-01 5.845385558308273666e-01 4.924585198889924187e-01
4.016457692967913967e-02 9.083822430647021662e-01 2.369481190551551986e-02
-3.178081827757759936e-01 -6.633748547424233033e-01 4.805631743811771828e-01
8.773289860575661514e-01 3.276600161278793166e-01 -1.085222013730641338e-01
6.122215739450950212e-01 -1.548403415708712316e-01 -8.606676605592552542e-01
1.950164925355171996e-01 -8.295102179820601496e-01 -6.327356342499380615e-01
-6.451545373638701841e-01 3.256872826252191211e-01 7.753589728203270637e-01
-2.542505594137838276e-01 3.598453808560595490e-01 9.171653830565875687e-01
3.029455213123586899e-01 8.758877856514579729e-01 -2.221184305516153423e-01
3.955897625542329488e-01 -6.032133495637400505e-02 -8.924896677718001381e-02
-1.929953293307410389e-01 2.662682340244191259e-01 9.092156279626966153e-01
-2.342918228668821046e-01 -1.897185824923249553e-01 -1.145217088206371830e-01
8.767126234484302894e-02 -9.342840094090755221e-01 -2.359077353702872526e-01
2.400697608681123807e-01 -3.523048250410133475e-01 -9.027822446684294344e-02
-1.222561949069465442e-01 -3.729773669548477333e-01 4.314953819560891080e-01
1.213348070671227547e-01 9.064473457517229216e-01 5.615075992296423291e-01
5.356650080587348484e-01 8.856956505353525966e-01 2.585913847526494780e-01
-6.071145707804654901e-01 -3.652233749026069232e-01 -2.567547810824990506e-01
5.324600988146271224e-02 3.868149824789356983e-01 -1.380755178435331132e-01
-1.561527577905681419e-01 5.404812768540565582e-01 1.667270533551718989e-02
1.277029179485320021e-01 8.041381935840525852e-01 -1.863581769099101892e-01
-6.290090999130972804e-01 4.534871336346933957e-01 6.888374019157454953e-01
-6.263012208310025919e-02 3.990417960429112204e-02 3.098623564467004599e-01
-2.529907149731538407e-01 -9.000154739984835839e-01 -4.954780478957460654e-01
-1.026139793869402100e-01 1.022175736967008558e-01 2.289835800476779371e-01
-4.768240934678891207e-01 2.226229903213854944e-01 1.362448982886293458e-01
-5.303281982904369668e-02 -3.426407729639326383e-01 1.381571577507667570e-01
-4.832742542541954567e-01 6.518354041823186673e-01 3.773394119717833339e-01
1.611170128711030824e-01 -2.731109582466903496e-01 -8.896624537256909715e-01
-2.171599105537704629e-03 -3.288714751273606463e-01 1.585123106160880174e-02
-1.584538121597062477e-01 1.492624095309654231e-01 1.762792410951900257e-01
-1.810363740945847566e-01 -2.075356636784112807e-01 6.906881031254510361e-01
8.864704189958783065e-01 4.306498364768685527e-01 -1.313714307400125625e-01
-2.204570451295141398e-01 -1.740798904901327271e-01 7.562989125661357948e-01
-4.468291713686575739e-01 -4.495488087639370467e-01 6.979399978942357752e-01
8.755398774067643664e-02 -2.341420581272302404e-01 -8.488037206703943349e-01
-1.180820131667684042e-01 -2.210359378422366572e-01 2.093473795469920906e-01
-1.506504993838298778e-01 6.095079244218303272e-01 1.015867836787086309e-02
-5.858869724782908017e-01 1.433731152334851155e-01 1.339047498198747688e-01
-2.795055851174222394e-01 -5.480505502703573173e-01 -6.663370511692352505e-01
4.311009474770947647e-01 2.006514937642431828e-01 -8.272096811892819535e-01
-3.450892991957082434e-01 -2.277132114354930570e-01 -2.726944778275711689e-01
-1.177489208145302696e-01 4.197059046017587725e-01 2.789964653265424380e-02
1.291469309436936719e-01 1.848555020934367910e-01 6.021043703330298813e-01
-7.274882274650905645e-01 1.960265113930717562e-01 7.399259677921555811e-01
-6.955460756564298963e-01 2.324253192728971129e-01 7.646508201427744122e-01
-2.363523898539194312e-01 5.348070316323327161e-02 8.780323813385219056e-01
-2.148586738369336335e-01 -9.791816080559182511e-01 -4.125951997689628059e-02
2.520413155143689243e-01 5.468448156621765754e-01 7.070579132624544849e-01
-1.186735602799207784e-01 -9.733125673784200904e-01 -8.710544165447879628e-02
-3.272936460936321512e-01 1.022052529006919203e-01 1.185378239364830999e-01
-4.460609162300463448e-02 9.225621916163806446e-01 5.221773620029012131e-01
-5.349365301538989703e-01 2.411298809900876139e-01 1.578010994673497980e-01
4.280272518200388121e-01 9.249937245560573285e-01 -1.447740827578795353e-01
-5.042079945344392078e-01 -9.922410646357275599e-02 -3.856250453524267402e-02
8.381516597165105109e-01 6.024809649185315363e-01 -2.853040513500134656e-01
7.134829210667169574e-01 6.894738451096581455e-01 1.911543478999849222e-01
1.541166636539668400e-01 7.408424487450253615e-01 -2.654735727362785846e-01
-4.204732720909077903e-01 -9.239581039756764591e-01 1.367248456361785380e-01
3.501982476226769836e-01 8.913029925871676085e-01 -2.131017586268607045e-01
-2.224900126113895094e-01 -1.448841223798584821e-01 7.762799298705888029e-01
-2.347436317093869185e-02 -4.148381350312608795e-01 1.556250131999534769e-01
8.539572307485218117e-01 5.739986516630855018e-01 -1.111386668317870807e-01
6.822253448218390526e-02 6.778585648698677302e-01 7.734813941561651252e-01
-1.261700493808715628e-01 -2.333373104843483870e-01 3.514512220588619784e-02
1.095912355694393103e-01 2.886959396030847613e-01 -1.377391887037446028e-01
-8.782555684846518607e-02 -7.157383442437069421e-02 6.669154250632003400e-01
-7.270245373962627156e-01 -6.894345445591776311e-01 3.468248388421131256e-01
2.151945696288627974e-01 2.064921851772980321e-01 4.114201218344684108e-01
-1.160937495335893493e-01 -1.618374768153718057e-01 -5.164359494562111852e-01
-7.831611878582459552e-01 -6.631259860276845775e-01 3.919718396489103862e-02
4.866069157389801281e-01 9.027105073325231155e-01 -1.783417357309903806e-01
-4.821774806324236051e-01 -8.955241728969285386e-01 1.814160479926873182e-01
3.509073104142006461e-01 -9.883182493752121212e-02 -1.124577162011239084e-01
-8.818840603871793693e-01 -2.570827576658061830e-01 2.136227958148008699e-01
4.028236127313090942e-02 5.084297092455848377e-01 8.299501010427486891e-01
-5.791733770933871206e-01 -1.118446719642759296e-01 -3.561628584520576402e-02
-2.340446702754155617e-01 -9.011942863728491515e-01 -5.048156165340520474e-01
3.782395830711176021e-01 -6.733607907575300811e-01 -7.331490390290236192e-01
6.033215122441250022e-01 1.747498883882666887e-01 -8.241777712883792129e-01
5.547473300929160744e-02 -6.897585702680702384e-04 -3.902329385336413270e-01
5.727258659141140074e-01 -4.297740514150344970e-01 -7.939497817701401949e-01
1.979789392850083707e-01 4.767710343266011175e-01 7.395039634429712017e-01
-5.648494741153838872e-01 -2.157914084562928270e-01 -1.453729990944494233e-01
-1.543433327319146675e-01 5.560351474525819793e-01 1.363318689131669086e-02
3.236546438697830430e-01 1.728512086471599984e-01 1.029871567192281734e-01
2.276153096483442551e-01 -8.406551237221127071e-01 -2.237378728557289920e-01
3.932741281874793660e-01 1.419171120382025919e-01 7.439023140891522223e-02
-1.325892551852478340e-01 -1.750733949667439004e-01 2.148174491919891682e-01
5.282124052666056224e-01 3.539644075823387692e-01 3.432106177794383983e-01
-1.903246647767076194e-01 6.992435491670985215e-01 6.829110093492647693e-02
1.424388952742433601e-01 2.171028701450065379e-01 -1.982663909489790210e-01
-2.087291002247643468e-01 5.336860813579149543e-01 8.759190607973680320e-01
7.577231654992231391e-01 -2.690857899713567924e-01 -6.683311212512488275e-01
-5.197249143995196219e-01 6.110511597832655670e-03 8.883306780687851845e-01
-6.385547919958325380e-01 -5.589813899223948779e-01 -3.040083913151955808e-01
-1.247253340836289581e-01 -3.225353427643470883e-01 4.687881132107312721e-01
7.096449080163566570e-02 7.058702096832161210e-01 -1.996600325300823264e-01
-2.618880523936391036e-01 -1.130252884965431415e-01 4.672434117288522953e-02
-1.618999787433615667e-01 -8.726940362941680573e-02 2.028342763261992421e-01
7.594392141919540373e-01 5.219608356696008311e-01 -5.444600099495454648e-01
2.112107805352285983e-01 2.032208906953053840e-01 -7.043485333079076982e-01
7.731476536566229962e-02 8.571535251856916560e-01 6.360711282896837071e-01
2.171181567113482716e-02 4.906687913135436563e-02 5.429486236635662211e-01
6.062245365661297347e-01 -5.612287084992843011e-01 -4.833807555902929765e-01
-8.279693878414871033e-01 -2.268357584431100193e-01 6.216579806555569965e-01
-3.279242198287830035e-01 -9.755131331614959045e-01 -2.604043576387882752e-01
3.762795980827192133e-01 -5.798501470851008532e-01 -1.603579637664577506e-01
-1.280000670116561989e-01 9.635658138448301158e-02 2.148284210869275679e-01
-1.818854187866811856e-01 -1.945773921423105124e-01 -3.968186973577754739e-01
1.467128695584126175e-01 1.093404002657068774e-01 -6.952087363160106559e-01
-4.979577059260626437e-01 -7.514268981545089154e-01 -4.258587951929460047e-01
1.327020964821719329e-01 3.528338895468758341e-01 -4.040071426665450272e-01
-6.373534364326959301e-01 -4.116492477949854623e-01 -2.561097691256302156e-01
5.176502311241749643e-01 6.163790938388645779e-01 4.759418045228452909e-01
3.964300481880282390e-01 -3.645121430990235223e-01 -1.314086800492697271e-01
-4.679216428553282237e-01 5.335099968367629231e-01 7.953473363038070509e-01
-7.540990059783768684e-01 -4.518086968963197503e-02 1.210081045828850510e-01
5.847377478832977982e-01 -2.562179820345628425e-02 -8.728099695938142943e-01
3.564334914258191489e-01 9.198428274351302392e-01 -1.599378198633936154e-01
-4.448961634612949023e-01 -3.199267910804685089e-01 -3.631032805950055731e-01
6.621077921493019325e-01 2.972860558291712807e-01 1.704118043384317549e-01
1.470414246341570919e-01 3.445888373979407171e-01 -4.583147575599741397e-01
7.541102184553002408e-01 -3.415167022215691017e-01 -5.582217383955035972e-01
1.683459484111013149e-01 4.174809736810239924e-01 -4.682141730883894737e-01
-4.007836508997337233e-01 -9.060923997772454275e-01 1.859927016636516439e-01
-6.472159965890214028e-01 -6.885337821201414910e-01 4.422759948236329453e-01
1.688816528112091209e-01 2.036953151393274819e-01 -1.080640765785557122e-01
-6.093416562914342194e-01 4.214824634776780377e-01 3.020390174571778164e-01
-3.173190303653844468e-01 -3.070945144804579363e-01 -4.848045752793660457e-01
2.548025427360961492e-01 8.464169453982253732e-02 -1.043568553961601170e-01
-3.925730041419880356e-01 -8.214958865749718564e-01 3.326131115938891769e-01
3.955339039845112009e-02 -7.958205882749795901e-01 -7.026021473163694964e-01
8.983735366522678234e-01 4.513684122104052454e-01 -2.377556994585675321e-01
3.375221048683464398e-01 3.188054054494962042e-01 5.009962194956881776e-01
-3.855095656772301593e-01 -6.643902770827115889e-01 -5.703146580336834193e-01
1.813881867855432206e-01 -2.277384211913636436e-01 -1.335070381962392971e-01
-1.125166999284211572e-01 -2.441467797178129007e-01 4.941774739786420345e-01
-2.464361511253926051e-01 -9.512795692041597917e-01 5.888811118820463236e-02
8.110836187951795395e-01 4.065404183626491474e-01 5.197741386194273949e-02
8.047604504248786483e-01 -2.071515451184030299e-01 -6.107980822889592654e-01
-8.506408145110391228e-01 -5.004926267150314745e-01 3.603292111779948792e-01
-3.656990287143488394e-01 -5.244692473714773762e-01 -5.902173122862637289e-01
3.114750544777842300e-01 -5.366336631306024563e-01 -1.036203177532360603e-01
5.967125769036047966e-01 7.733914889520694391e-01 3.188286605623052439e-01
-1.345251985793791960e-01 -1.689510928118824473e-01 2.146701730381406215e-01
-1.141779118510570859e-02 5.486047685159439746e-01 -1.262177671026234183e-01
-1.978122241650392132e-01 1.355274372596371180e-01 1.648810868975384147e-01
-3.076052128509230293e-02 -2.476321181401087146e-01 -9.583407127193155350e-02
-3.719350022560327651e-01 -2.283825514015428992e-01 -2.575910011513391495e-01
-2.933002526020189737e-01 -1.498199416281392193e-01 -4.607128959700402399e-02
