2.980962509985747855e-01 3.832998202761189743e-01 7.375197982691909793e-02
6.144657400196497365e-02 4.401099867444335789e-01 -8.649877263131097171e-01
-9.666343800686867660e-02 -3.799500477681334587e-01 2.110187324475446824e-01
-2.203998726608477343e-01 3.841049534735818671e-02 -5.502527003829871255e-01
4.629874625320743592e-02 -6.786292365659994941e-01 2.519300554088798605e-01
-3.181632726398843092e-01 -8.091390385771193294e-01 -4.894667510878482619e-01
-1.183200934178531838e-01 -2.049729398781019174e-01 -3.675692173605453750e-01
3.485220605876440669e-01 2.784237046192747367e-01 7.819157528111497779e-01
2.241016364236955022e-02 -7.574316067925738194e-01 2.378604519359026892e-01
1.053363665371105477e-02 7.689375640145246216e-01 -3.588887796862574864e-01
7.329482275198880015e-02 7.896161755961114137e-01 -4.582712478682275936e-01
5.651978775584489204e-03 -5.193408111535844363e-01 1.471960566648606306e-01
-3.986154775082699775e-01 -3.333251203428351794e-01 -6.473882901439084181e-01
-9.265359441238296689e-02 4.673749147766070866e-01 4.024001576844820627e-01
-1.508081874102022713e-01 2.912959129483692067e-01 -5.428615783527601657e-01
-2.004573205531256508e-01 2.048492050374999263e-01 -7.702660688001397027e-01
3.215850582541660008e-02 5.775155367410834684e-01 -7.391135073850424453e-01
-4.362877131965329225e-01 -7.307883036347150307e-01 -4.395504435007699939e-01
-3.013974934980908141e-02 2.913698368173204822e-01 9.375075214151783465e-01
-2.791396218757705716e-01 -9.389246100481530855e-01 1.983885166243241072e-01
-1.102892257157680050e-01 -2.989101039338570853e-01 -2.926994062847337874e-01
-4.805566636347538556e-01 -5.112491637952691903e-01 4.681146835389242145e-01
-2.641425233865671851e-01 -4.072479927250123588e-02 -5.605161802562759199e-01
6.021391573305839851e-02 2.051897996105051802e-01 -9.650660098783215846e-01
-1.006383001941542482e-01 -3.578057899519954121e-02 -9.718933331675708720e-01
1.093644466376140212e-01 -3.109976426178513442e-01 4.771799630502867040e-01
2.260026958333133940e-01 3.272952122900715244e-01 -2.115666647176884796e-01
-4.856050848324339753e-01 -5.272482878339055379e-01 -2.126685888864435214e-01
4.551933295234161098e-02 -1.803573606026734055e-01 4.367229076207618799e-01
-2.061925417737813793e-01 -2.060837607359347345e-01 -3.825013226001346966e-01
3.997400540852434903e-01 8.857718230486647526e-01 1.691016990275578114e-01
-5.003953610215684800e-02 5.343388792281322797e-01 -2.758082675823222973e-01
8.072839876623057187e-02 1.924214560846791433e-01 3.821131874523655547e-01
-3.791891723664074509e-02 -3.845813143253439259e-01 -9.068594494268485962e-01
-1.039362491384955567e-01 -2.547176031625189574e-01 -3.333430195508398919e-01
4.396842054992319837e-02 4.322141375779957606e-01 8.863903447433131300e-01
3.307450168476290808e-01 8.933976420075782077e-01 -2.686912450143535969e-01
-7.076973084448934248e-02 -5.890369678587321634e-01 -7.755078318306554142e-01
1.302760841376756351e-01 -4.194035365026885231e-01 7.142111722801831597e-01
-1.984322883862865428e-01 2.286201104387638183e-01 -6.480957700827925105e-01
-1.964655569709805039e-01 1.707893772587300851e-01 -8.184681897878891554e-01
-1.444511956761611315e-01 -3.354653542487385232e-01 2.481799783072185517e-01
-2.245139132956451289e-01 -3.719008428398740684e-01 1.505875977526753284e-01
3.913188335000996471e-02 1.105431623591158485e-01 -9.828377582296373705e-01
3.638145410440098426e-01 3.902540261185997172e-01 7.563048582803949538e-01
-4.030138121878367730e-01 -4.449477890196673058e-01 7.070296968797958881e-01
-3.335312110421739806e-02 -4.172379235091977501e-01 2.305662957408809166e-01
3.458379420437169421e-02 -1.200160267522639851e-01 9.865880300746016074e-01
2.533900049598519222e-01 3.310404363262542948e-01 -2.080111137240727437e-01
2.336332128578602341e-01 3.573159587554184946e-01 -1.419085366683382199e-01
-4.413150908042439702e-01 -4.368278404878416787e-01 2.612106230085099456e-01
-1.560028302878946338e-01 -4.092356105902748009e-01 -1.278611633220989169e-02
1.399910114736847011e-01 -9.767839331004898873e-02 -4.683226344598713786e-01
-6.591806750037072782e-02 5.610910129655971579e-01 -3.394325736887321421e-01
1.637714193125870965e-01 3.778667299603231944e-02 -4.458044790418687620e-01
-4.517077474524767294e-02 5.832869269376320664e-01 -2.241936287123225680e-01
4.882915556624116415e-02 6.263255790115130894e-01 -6.967655380302013590e-01
3.602479395905228143e-01 3.966854644989917245e-01 1.255648991238312584e-01
2.998374114387353795e-01 3.279433275131548031e-01 2.635759872188974673e-01
-2.149423944246125207e-01 -3.799446837939226551e-01 -1.201157523981463832e-01
2.520005310934675044e-02 -2.433178431145527620e-01 4.089320394889506272e-01
-2.672665247846631176e-01 -4.194166042804506334e-01 8.587450317706332159e-01
1.288875962211226966e-01 2.646936529400963356e-01 9.547769146571654097e-01
-7.497128353021156877e-02 -1.752901121377194449e-01 -3.859081637790015562e-01
6.442570252366212891e-03 -7.793454993375268369e-01 2.960536433395973832e-01
-4.672280994572841628e-01 -7.439906953412890322e-01 -3.459179938236899843e-01
2.140292375171475581e-01 1.517795548076681933e-01 -4.048781716703365730e-01
1.558298499481612087e-01 -7.446246047897571441e-02 5.025676433940491350e-01
3.362656993908868519e-01 5.689803571324632270e-02 -6.760763290832489947e-01
2.857132832726843596e-01 -8.241094991498702782e-02 -7.025634444919572896e-01
-7.090800868190809403e-02 6.292375693568640349e-01 4.985596153596889568e-01
2.076723512644459632e-02 1.913107291599939752e-01 3.963622031985606919e-01
-2.228459949115498273e-01 1.576417099684940537e-01 -7.552229717629534989e-01
1.976519372443179268e-01 -1.737380904675087101e-01 -5.391744291610071071e-01
1.501679990916532925e-01 2.994516403784520664e-01 2.797988842487138528e-01
1.056483747318862076e-01 7.203299711128734462e-01 -6.121447472536645229e-01
-9.680429932867982978e-02 -4.333696878296332544e-01 6.209062126193325148e-02
2.065278258412596990e-01 -2.037414620627289123e-04 -4.848970007626313139e-01
1.271207479291741604e-01 -3.440650870912113080e-01 5.088058135971398332e-01
5.012814370637697081e-01 6.032218181350185171e-01 -3.752804113610185843e-01
5.191633269738297335e-02 -7.008007349211988757e-01 -3.849621650463646017e-01
7.686932711462818313e-02 -5.784244628222424689e-01 4.051476812578056474e-01
9.757849154227095367e-02 -4.116079822730155380e-01 4.497491517782633008e-01
-2.295469669256825218e-01 9.256012130914216540e-02 -8.143380505628099453e-01
-7.731154412675533827e-02 -1.059327717112192591e-01 -4.138064270664230659e-01
-5.802306435982957505e-02 -1.941238993340778096e-01 3.918954218893802577e-01
7.196109416755766541e-02 -3.166089585151188879e-01 -9.009665287506088971e-01
-3.448110887231144867e-02 -1.367321082426514456e-01 -9.817814443351757792e-01
2.092405756785249982e-01 -8.431815863423531079e-03 9.103425383773797730e-01
-1.908743054465985300e-01 2.333891619023864827e-01 -7.617351576998098173e-01
2.657531299464829799e-01 9.457731651354649438e-01 3.884911833171105638e-02
3.493541343081674883e-02 -5.290206381699185528e-02 9.964650864830726373e-01
-6.534519023319619591e-02 6.490098968307301819e-01 4.379705066022573923e-01
-3.423988366123398852e-01 -4.081201067202093191e-01 7.322477701803291328e-02
3.700905429639393951e-01 1.508799819791432906e-01 -6.679283328243897921e-01
3.742443690003078860e-01 1.623292380158908865e-01 -6.365133166088132732e-01
3.602057685768800810e-01 2.028422917947790005e-01 -7.662566627011582199e-01
1.169066126390059523e-01 -4.637079727799444107e-01 -7.305581813846865336e-01
-5.117827012781404200e-02 2.819151493618077264e-01 -4.025168544835164286e-01
-1.883579359365638584e-01 -1.644858981964040234e-01 -4.079357905145529206e-01
-9.453266290034821606e-02 4.823276895205379500e-01 -6.771498965013543758e-01
-3.447440221308022412e-01 -5.986200775636950633e-01 -6.848257351431802364e-01
1.453159242445969390e-01 7.293542089077875712e-01 6.392133930732737390e-01
-3.125830423757016141e-01 -1.412002481326649073e-01 -7.875174682347229060e-01
-1.581660824662221299e-01 4.008790740069922975e-01 6.805498067257335082e-01
-4.230968307707160814e-01 -3.218436944886649553e-01 5.413467531028823831e-01
-4.039203227015022296e-02 -8.525114359082975879e-01 -2.511722934529110884e-01
-1.299410628196412398e-01 -4.120154278097565848e-01 8.470402287845316125e-02
6.569300251986670558e-02 1.176191744950344925e-01 -4.034324254993990611e-01
-4.121138228433663397e-01 -8.933802937239960773e-01 1.475776542657475654e-01
1.935132714371166629e-01 1.101402084661116804e-01 4.481638793676943067e-01
4.155382974428151882e-02 -6.480705237493225024e-01 1.574849337684671169e-01
-1.408931934932922680e-01 -4.000483737160244191e-01 1.156493920429119415e-01
-3.360229996712965073e-01 -2.814196380837464262e-01 3.829537772642481741e-01
-2.118460273438286523e-01 -2.526615758079912566e-01 -3.399461100047950213e-01
5.270812572931590223e-01 6.843627804964369510e-01 7.008720648530587793e-02
-4.649282676695578598e-01 -4.564354073305575965e-01 3.240430169454644460e-01
2.375440474711825178e-01 -1.329902916201169405e-01 6.610541791310439175e-01
3.793619786425089235e-01 3.957102985194330680e-01 -7.442784741073605881e-01
2.508950845062030144e-01 -4.470340618218907047e-02 -8.611235043982575776e-01
1.684761190359200245e-01 3.913625844234102091e-01 4.732516926798241430e-02
5.723889226651587142e-02 -6.567037784470315387e-01 3.871328924802052152e-01
-5.348879745522425178e-02 -5.388698293531446470e-01 8.132091004436342585e-01
-9.645251019208033252e-03 -2.718917409869243684e-01 -3.560885632965977710e-01
-4.681697539261306384e-02 5.311604386139004985e-01 2.471272016512627567e-01
-3.098634229522994610e-01 -7.996647971479108330e-01 5.238785307695618121e-01
2.110980010381958705e-01 -2.825531915473219469e-01 -7.069914272842465763e-01
3.844083724435474192e-01 9.111386399442591433e-01 1.684000839787102785e-02
5.142002582138396338e-01 6.001407477277242997e-01 2.167022273842751368e-01
2.862200871135104907e-01 4.087177382708544887e-02 5.980330580503137039e-01
-3.301445824572963317e-01 -3.040784633953413918e-01 3.419033294973173875e-01
-8.965751536901113428e-02 3.290827402746415720e-01 4.268059442258220759e-01
-1.529796339957169016e-01 -8.005024391501421865e-01 5.444243574989096057e-01
-2.705861155837752663e-01 -2.963840209367117895e-01 3.087562854808438839e-01
-7.265296835849949231e-02 -4.529827935208333711e-01 -1.551380759751459087e-02
-5.257458302048126919e-01 -6.548780665125134570e-01 -1.504485434742097207e-02
4.361103933910697728e-01 7.386148742427337544e-01 4.306964966100368386e-01
-3.198967741346379068e-01 -9.393627330670175635e-01 -1.361739622527760596e-01
-5.108490152065040535e-01 -6.328613292438785010e-01 3.076016859959728733e-01
-4.853984761150537119e-01 -5.402529756516762927e-01 4.559790695705093211e-01
2.426986956900636927e-02 2.161076568422435340e-01 -3.764151060586760078e-01
2.185970469557350360e-01 6.446698911793893316e-01 -7.152164336917127274e-01
3.461097840519993668e-02 -2.472771686918954770e-01 4.140316244208962493e-01
-1.058565189643963234e-01 -9.210523076745761317e-01 7.250295306278008167e-02
-3.570347920756655052e-02 6.308607967086449220e-01 -5.686885939584898075e-01
5.187096041411110026e-01 7.113552143002597195e-01 1.403716379304942030e-01
-4.956590160378243626e-02 -1.987562005155514011e-01 -9.709478391059314095e-01
3.695960138275532492e-01 7.245779173928468264e-01 5.504266964999712242e-01
-1.562234460564564387e-01 -1.975452884556014310e-01 3.813186574697830511e-01
2.833678578579535423e-01 1.232605474672143243e-02 -5.615384130089976500e-01
-1.642765420333844595e-01 2.820436570681620903e-01 5.384377417859615989e-01
-1.339766728146838948e-01 6.216552254945243577e-02 4.750984498299481995e-01
1.189918707610334303e-01 -1.391583052098999129e-02 9.738560728796968879e-01
2.759343311867374846e-02 3.860666364241371884e-02 -4.231395676728799682e-01
-4.116476344142755983e-01 -3.508982621964583104e-01 6.862820584071445129e-01
2.342694431651413944e-01 -1.909877055080521635e-01 -7.808765026234822937e-01
4.658617005675525641e-02 4.583046318121713480e-01 -7.195878010490350252e-02
7.060873036256217275e-03 -5.428879086480474792e-01 -5.060582446161584341e-02
-1.921907394564726368e-01 -5.654804443117611434e-02 -4.738085815751376106e-01
2.129197139223585888e-01 2.402230710057093044e-01 -9.225850752797729593e-01
1.156300854638952769e-01 8.941654943750472206e-01 -2.001146306653061868e-01
5.260695543193578960e-02 4.291706526194257187e-01 -1.449494175229676107e-01
-3.031775975778734367e-01 -3.784602703914523580e-01 1.571891422053736664e-01
-3.224250013550974958e-01 -2.514921562146638090e-01 -4.231436609531176729e-01
-1.981827921068614329e-01 2.910264515716975420e-01 7.324216631233217978e-01
4.881333025057568720e-01 5.700244581198242733e-01 4.074370286223902293e-01
6.987595011983208093e-02 -6.422884050836717984e-01 -3.278820871263343206e-01
-1.038151945331361597e-01 -1.696106461607894411e-01 3.969529124027570965e-01
1.837297180537410812e-01 3.888618930973320453e-01 -1.310186991684971110e-02
2.234166581983497435e-01 8.651075813123023650e-01 -3.940072952806589202e-01
-1.467101140318678894e-02 -5.078589990696293910e-01 7.781204629487310787e-02
2.314572660557917272e-01 8.206546537994744428e-01 5.033466925192099373e-01
-4.651149489098360124e-01 -6.117748488435900134e-01 -4.697336563579805335e-01
-3.452913373430145927e-01 -8.966229621204663269e-01 -2.777032353846670687e-01
2.509227138980520966e-01 2.478961471891094615e-01 -3.320493084198450351e-01
3.946526013483184908e-02 -6.729168312148108289e-01 1.215785499466153358e-01
-6.386271755797619243e-02 3.722088848241591474e-01 8.754511383781321543e-01
3.997401992972404727e-01 9.004914356025168765e-01 -4.802263830759449098e-02
7.755156984049786650e-02 8.465216631788313739e-01 -3.061808046891758006e-01
4.308107759783644242e-01 4.275597325590491105e-01 2.330048886960876531e-01
-2.775054223095772474e-02 3.728748515950809916e-01 -3.347212442851022485e-01
4.024594196149972603e-01 3.533860591223876302e-01 3.768343093322956694e-01
3.860835345272387031e-01 8.032287823421229156e-01 -4.124772062324580379e-01
4.228195982551911647e-01 4.192523618369807248e-01 -1.795653619479827268e-01
-2.839654756246632883e-01 -3.711457747160533394e-02 -7.871211120929142435e-01
4.168925457902621368e-01 4.285365831072102671e-01 -1.079458187145600490e-01
-2.797680762103610941e-01 -3.875277794281166699e-01 1.020978568415807641e-01
-2.650495901413986721e-01 -2.496038941144999024e-01 -3.689836381485040451e-01
1.999498854614233379e-01 -1.976486854154342887e-01 -5.515376144749185583e-01
3.774877504146146451e-02 -6.224434765894488741e-01 1.381181752076978408e-01
2.699496999134468611e-01 -7.073700384900664939e-02 -8.094018924069213972e-01
-4.177335796825753511e-01 -5.340766567835353307e-01 6.531454837889772991e-01
-1.481369015844062886e-01 -7.075652516134108005e-02 -4.436482750368775374e-01
-1.940719093161749065e-01 -3.996004249685016219e-01 2.151123805662765592e-02
-1.138669241325205028e-01 -2.000154501027728848e-01 -3.707436028076471768e-01
-7.113382545786918476e-02 -2.296299062017110038e-01 -3.572433189151140165e-01
-2.913117715538081076e-01 -3.525337400810976685e-02 8.340194434737785434e-01
-5.139827647003463174e-01 -6.098620391778909466e-01 -1.557224453039560697e-01
-2.694414797794441596e-01 -8.294345736656638657e-01 4.964776431671016899e-01
2.012203956674602778e-01 6.227168186290810148e-02 -4.526246858063661671e-01
4.358811364169059011e-01 6.816940626741108122e-01 -5.007866884139314800e-01
-2.922895495225184548e-01 -2.532857801405952874e-02 8.259073251766830825e-01
2.828516116623200904e-01 9.402531899013034655e-01 -8.434109496559633046e-02
-1.736130716235773433e-02 7.563871447326108166e-01 3.189822333539784616e-01
-7.801435260613487355e-02 -2.090267003165749982e-01 3.798789635479609683e-01
-5.001840968888032757e-01 -6.694944719812322420e-01 -3.008268731253022632e-01
1.782208035956332204e-01 3.557969439402868805e-01 1.771106845668233842e-01
-2.005008939524717260e-01 1.964192480968302290e-01 -7.816242551950651762e-01
3.019140113691542449e-01 2.483378820971372108e-02 7.187756411059805783e-01
1.323235935517390605e-01 -3.375457202836576465e-01 8.145590296995205426e-01
2.539540857695631385e-02 -3.377355448077842132e-02 -4.266652339570358166e-01
-4.634413135302774267e-02 6.418712773934454052e-01 -2.320449943969947748e-01
1.553516354258291203e-02 8.181850237118152291e-01 2.055586239839426732e-01
-4.232077185094968996e-01 -4.522443843208345249e-01 -1.231562043215922858e-01
-4.535147248357735555e-02 -4.184111235009058127e-01 2.108901106907552225e-01
-1.369476751095431433e-01 2.314944692216159283e-01 -5.046258175867556206e-01
-2.074708470845627872e-01 -8.958696085513768725e-01 -3.560775326125453222e-01
-2.804984094103116776e-01 -3.846303531004118814e-01 1.161651666949442829e-01
-1.546073940973770600e-01 -4.047915891791022402e-01 -6.023098985422439128e-02
-2.374554062769651877e-02 4.077808196143378194e-01 -8.484426937528080082e-01
4.814129701437270259e-01 4.734744961900865245e-01 -4.322111643206407172e-01
-7.866628437096798154e-02 6.130163558762166121e-01 4.992161845978686507e-01
2.974072898804487886e-01 1.475211006874535824e-01 5.064277781571113746e-01
-1.709954375612930677e-02 5.620185570251606810e-01 3.752884114970325702e-02
4.441535399884276036e-01 4.622105358453768575e-01 4.727850823686764736e-02
-1.642845164452682305e-01 -1.651285355075868544e-01 -3.995830796944109253e-01
-3.871739042848987289e-02 -2.188639035954756396e-01 -3.714791661313819326e-01
-3.597564820277859843e-01 -2.281001983186131954e-01 4.948077907036371181e-01
8.525672686681329271e-02 5.775573026426609191e-01 -7.669184167015342668e-01
-8.254991471450957852e-02 3.284866178951317273e-01 -8.573273853695777547e-01
9.936292150378446542e-02 4.585449003681194013e-01 -8.605756490991955943e-01
3.921524236999242574e-01 8.408419440103608311e-01 3.323975412521298911e-01
7.388169825712444239e-02 4.415684776411857304e-01 7.528752057067152753e-03
-2.211521051102542934e-01 -3.058917325615560512e-01 -2.765938392937392631e-01
2.561782131401054152e-01 4.769121011916499508e-02 -8.866654178607025205e-01
-2.863613361029853088e-01 -4.371977143279712763e-01 -8.169126325031027536e-01
-4.318512697099095021e-01 -4.646868355413906748e-01 4.393479956076165593e-02
2.801011922863524961e-01 8.237161608024682335e-01 4.817403233726374467e-01
2.231000842045352539e-01 3.702990626863146839e-01 1.171896530619669086e-01
-4.351209601418675188e-01 -4.205067232708880609e-01 -3.460974008138336666e-01
-2.029582953110125321e-01 -1.342407527637363152e-01 -9.229567836245659018e-01
-1.277260803988475579e-01 1.280243695987521024e-01 9.521120481572260541e-01
-1.443147347795961932e-01 -3.853318780342069871e-01 -1.440314717053547133e-01
2.575047654026187405e-01 8.165833796414263546e-01 -4.882690676744559921e-01
9.390104135663834839e-02 5.440153394054864089e-01 -7.986036154258926434e-01
-8.239274502374871467e-02 5.594622468144440086e-01 -4.582174982090921889e-01
4.322142086621603707e-01 3.363010821485679092e-01 -4.718636142189510108e-01
4.343989320140751592e-02 -4.255834269228198630e-01 3.426023909230599407e-01
7.725432478585085583e-02 -3.207696625958029180e-01 8.897543365067294152e-01
-2.451043163546792469e-01 8.837424952295928893e-02 -7.729483016152995933e-01
-1.088622831926476797e-01 -1.261130470649353685e-01 -4.094199023794294345e-01
1.459722950314194245e-01 2.269192734475876383e-01 -9.501460380631773228e-01
3.898136897832987224e-01 4.797448166417781490e-01 6.960635520017521838e-01
2.403939630954779749e-01 1.476768269295525571e-01 -4.204999840114764798e-01
-1.329094212847138357e-01 -4.647246668022458893e-01 8.785337273342302966e-01
2.792582859912906557e-01 9.328282741583947546e-01 -1.475462219696085653e-01
1.288225704469918576e-01 4.024896564409274902e-01 7.196138494814426079e-02
-5.235942341982343651e-01 -6.535482659285721807e-01 -7.974396018464260938e-02
-2.793891753842710490e-01 -3.991461679828477160e-02 -8.016871342383522503e-01
-2.197291875870238317e-02 4.252749620546352194e-01 -8.368276990131702231e-01
-9.548617770111776648e-02 3.873573962809340188e-01 4.221764015497482259e-01
-3.128408135265895451e-01 -8.481437729054501773e-01 4.388995514304581680e-01
-1.212406085097873926e-01 -2.042363176451181955e-02 4.531350110924218244e-01
-1.929290378907303205e-01 2.874955756774015825e-01 6.147413280906161015e-01
6.396280431282855630e-03 5.129281367192272123e-01 -5.505627355218706276e-02
2.248494608165119493e-02 3.280945446456919046e-02 -4.239731935198893797e-01
5.710924106298131964e-02 -6.753898855682005653e-01 -4.737830125147281524e-01
-3.497918644888116657e-01 -1.703517927490957873e-01 5.546454699274385725e-01
2.210163516276923978e-01 -1.475823367896632876e-01 6.225350282972182958e-01
-1.589093767720701489e-01 -3.851443402556063433e-01 -1.327714075067361055e-01
-4.805691570416983915e-02 -4.158752204767713345e-01 2.108637600384297150e-01
-1.332250537005112145e-01 -9.193547090056397586e-01 1.985028080567669273e-01
1.350566639516301293e-01 5.583842349153592642e-03 -9.666451917509299996e-01
1.115545663260152365e-01 4.927366069048753072e-01 -8.398351960080373546e-01
-8.212984264278340441e-02 -4.142681872873649751e-01 1.624613887027904491e-01
-4.236132905798002946e-01 -4.906159197409636352e-01 6.574752526630992522e-01
3.292029190486697177e-01 6.105426463543052185e-01 -6.917790527969773784e-01
-1.135890929916387598e-01 2.060084068276538723e-03 -4.527116451506735806e-01
8.123529831202229434e-03 -8.026893910525427778e-01 2.921193066969635446e-02
-2.739496831635744312e-01 -2.835336788973858990e-01 8.894674049075083078e-01
4.598917604352677491e-01 6.832989553926861470e-01 -4.494647885082379557e-01
1.661023855323250642e-01 2.898362708860605652e-01 -9.294875373702969901e-01
-3.727264202728899356e-01 -3.827051282918320085e-01 -2.521280536200121158e-01
4.852573435266971935e-01 5.150085488893808572e-01 -4.538733773332990218e-01
-2.061645596308402939e-01 2.645648521611160264e-01 6.435903578685656656e-01
1.609656123782013115e-01 2.684587620244014983e-01 3.143233035366458372e-01
4.895632072084338954e-03 -8.107023680396606702e-01 -9.503582886205161340e-02
-3.353549517351512299e-01 -2.298419955960224470e-01 4.514637879338056492e-01
1.246340747590731152e-03 -8.053099248787048969e-01 -2.520854112093395272e-01
-1.000939355194350039e-01 2.543826169550621463e-01 -8.878120941801479482e-01
-1.764717981632495103e-01 -3.410232653397067826e-01 -2.205206500995832153e-01
-4.048954145600717758e-01 -7.039767591135867031e-01 5.494110798695458486e-01
3.280321521432390253e-02 2.415465116355738351e-01 3.678067285615734261e-01
4.270404562962959449e-01 3.638575691961169478e-01 4.673434750417941874e-01
3.965866026179963588e-02 -3.056675018116098985e-01 -3.730705830769648901e-01
2.668418834723033095e-01 -8.058069774194001611e-02 -8.085295085407196991e-01
4.699310185253315342e-01 8.283174245563079685e-01 -1.161011734589890293e-01
3.899338769438412400e-02 -6.692524719399808308e-01 -4.011197002731904659e-02
4.227127282587560542e-01 4.683660662334286351e-01 6.351229821946303700e-01
2.657479423299611079e-02 3.582784831264223535e-01 -2.816414524550351350e-01
-2.310600767839784964e-02 -8.396358764831501897e-01 -2.233038724386108564e-01
8.341598203874789341e-02 1.850091304445243834e-01 -3.728086177685520641e-01
-3.292977948602846539e-01 -4.082200986568745860e-01 1.215995639761084136e-02
-2.612868641228748845e-01 1.762826809907529907e-02 -6.093071012020189192e-01
-5.561869767352026206e-02 1.080219957011175208e-01 4.418337667567805993e-01
9.574336212786374589e-02 8.646595936607144317e-01 -2.825364423585675633e-01
3.107379032233025806e-01 3.834562380880753296e-01 9.460923366702576887e-02
4.101116180042801429e-01 8.947968440889388919e-01 2.461063374244135474e-02
6.396475440921520206e-02 8.754176314070083453e-01 -7.753008394879608300e-02
3.935273952434596434e-01 2.716977152080994329e-01 5.735991759017958769e-01
-2.279853171648187904e-01 -4.569126378937327648e-01 8.623256391328247839e-01
-1.006994489238719759e-01 -2.033163189021891526e-01 -3.691033176038591157e-01
-2.953148175598789282e-01 -8.615080828220265108e-01 -4.123930651275765635e-01
1.647324023307912555e-01 8.481029398815380371e-02 -4.265131402960863349e-01
-4.831505386343520336e-01 -5.268796197807964488e-01 -8.671510285077438374e-02
-2.684707038282456437e-02 6.910863020478261731e-01 5.207762389199244168e-01
-3.364342789966760089e-02 5.597432076598917172e-01 -1.823466278640076543e-01
-3.769365645514770047e-01 -2.092068424418274120e-01 5.771587935266794256e-01
1.062663139335883883e-01 8.696168501864756095e-01 -2.865712813308720075e-01
-4.477277970248365324e-02 5.212075140570631149e-01 2.488093018443167104e-01
2.086893473530780085e-01 8.035907052824262098e-02 -4.471160116189232259e-01
6.852367537125488017e-02 -5.165602564420548326e-01 -3.096570776841357509e-01
8.215346751582654206e-02 -1.044325313749503714e-01 -9.709643646983758813e-01
2.272285557848634230e-01 3.811858329629839726e-01 4.829708141663120735e-02
6.869973778521627772e-02 4.362290965044378077e-01 8.569535987859788762e-02
-3.325881612325802261e-01 -3.680718339998392263e-01 8.204929653006242107e-01
3.795947236037315875e-01 3.673077631152628642e-01 2.798213063783622778e-01
1.490960122622054518e-01 3.080042651999240766e-01 -2.545069043023245881e-01
2.451473893671322624e-01 -1.791225814118180826e-01 -6.521192318340491845e-01
-3.005431006857333665e-01 -2.461618043068129480e-01 -8.340305120028537189e-01
-5.904612713011215402e-02 -4.442535986373558066e-01 -1.118225565188891296e-01
-3.924936732135037576e-01 -2.894117043543959489e-01 -6.111702569014983988e-01
-2.559566211300867353e-02 -8.550164613543285164e-01 -8.423237716606826742e-02
-3.139539511390898041e-01 -3.053441872650602268e-02 7.640005967707863554e-01
-4.866540179463914361e-04 -8.019297777875963873e-02 9.985235823202954775e-01
-5.218938462512456855e-01 -7.286044929448786123e-01 6.891770085094849063e-02
-3.357767337844519417e-02 6.356067271899288329e-01 -1.703666801712616164e-03
2.732206190370145560e-01 3.963482639005330016e-02 -8.634111439389720033e-01
-2.964492239343782462e-02 5.746822136457949703e-01 1.172175917612120061e-01
1.723694347601942845e-01 7.163938831892292525e-01 6.590410686251892969e-01
5.923918626695546391e-02 7.075661897951299184e-02 9.961082908335943120e-01
4.210404721135713735e-01 8.334090588916032161e-01 2.902833600709406880e-01
1.845108151638955585e-01 -9.394245333373169027e-02 5.350398580000049753e-01
-7.424044229759133029e-02 5.325501739932408940e-01 3.382163156579778285e-01
2.319823959149353854e-01 8.022260644538606877e-01 -5.175536486050413831e-01
-1.126132958476105117e-01 4.528841242613841356e-01 -5.062182198237867858e-01
4.944370468109122729e-01 6.858922073746426262e-01 3.264535017060402056e-01
-1.895393615551992650e-01 -2.881504135426265489e-01 -2.953554670142409244e-01
1.109429540546545412e-01 -1.499756459642029027e-01 -4.542477855777803386e-01
1.738388164314853823e-01 -3.203267723601718742e-01 6.438760753875454323e-01
-3.207031301255451883e-01 -2.184357525506581965e-01 -4.647819405836554063e-01
-6.445978422158157861e-02 6.073039042574476243e-01 -3.746834750854235452e-01
3.379239611024500434e-01 1.764930535979668536e-01 -8.029334127579319524e-01
-4.783957566730225736e-02 -8.427027389483138231e-01 3.011884698291229512e-01
-1.640155939619873104e-01 3.280042928897458077e-01 -6.251252091450116843e-01
2.922982795714504922e-01 4.461859899858355294e-01 -8.157968973224858367e-01
-3.318669889652938743e-01 -2.703388393745287943e-01 -4.094411525560449072e-01
1.370245445409784893e-02 -4.033819159280789823e-01 8.801975914496165121e-01
-4.438002011503407451e-01 -4.276759524800073375e-01 -3.845599711580830471e-01
-5.111073224738698489e-02 5.792425922472833610e-01 -6.268584156007178665e-01
1.748452181287637186e-01 1.825788721290979577e-01 3.924525445920024613e-01
-2.833727317198939458e-02 4.662397943201621597e-01 -7.982591179131690584e-01
-3.516765923594441373e-02 -2.987630430074131871e-01 3.428741209620409514e-01
3.021606676857239715e-01 2.590685868503986300e-01 -3.480229722637585010e-01
-2.685076569965154092e-01 -7.574672446817551918e-01 6.036679070546093762e-01
3.869778870433455698e-01 2.997318891213005543e-01 6.976063191670249797e-01
-7.372040235441239264e-02 5.480707049818341892e-01 -6.196768088366679805e-01
-2.378800055936538260e-01 -2.173218446484215249e-01 3.852452350952921267e-01
6.880096924510052669e-02 -5.970165475496037599e-01 5.782955894539707487e-01
-8.909714098555973627e-02 5.881518415767066355e-01 5.091087496647945798e-01
1.067294432682640709e-01 8.668022411647502423e-01 -2.978356260386160748e-01
6.975948033117417013e-02 4.505409399634726642e-01 -8.604105832459177927e-01
-1.477465574051753903e-02 -5.129532190635653910e-01 3.825778102717360823e-02
-2.304442079793452280e-01 -3.868162062398265433e-01 -8.829249091424780371e-02
1.660117900505764521e-01 -1.417746712621425764e-01 9.044455245567987189e-01
-1.278885878571120183e-01 -3.788884745137680032e-02 9.821198097295026352e-01
4.070552680547293023e-01 4.316092707500890358e-01 4.101035332448169785e-02
1.256633842422323899e-01 1.984754062760896165e-01 -9.603852390765095226e-01
4.980253062368006182e-03 -1.667902789281987819e-01 4.209518497961641237e-01
-4.301774294752973571e-01 -4.332315675211221850e-01 2.272431157921976086e-01
-3.717905851168187281e-01 -3.624627640735948453e-01 -3.034684465187300617e-01
2.376388522137979353e-01 -1.063709842295127578e-01 -8.481112046449902353e-01
-1.464412468912017207e-01 -9.424432359425654049e-01 2.991268479176786409e-03
1.733441205059650381e-01 -1.791787504659267116e-01 -5.100027524509193055e-01
-4.897292946083197651e-01 -8.096417234022965648e-01 1.153884770723237613e-01
-4.342897178147852449e-02 4.466286022346691031e-01 3.045006346458463131e-01
-1.748056128728688041e-01 -1.340727050798148356e-01 4.241582782144797670e-01
-3.065658569492330510e-01 -3.990764602028044061e-01 -6.047769940735977373e-02
-7.055528028032310994e-02 6.087015084767211093e-01 5.739188531277118477e-01
-1.908018200721081636e-02 7.560226649712156188e-01 -4.730061232229114399e-02
1.927897383748815308e-01 -6.431811719731625465e-02 -9.184019975303000516e-01
-8.325674740362705092e-03 7.859542134055210738e-01 5.676336528914704277e-02
-2.374405143360263926e-01 -1.181815842624351631e-01 -4.698364659245085617e-01
-4.232177504795126555e-01 -3.623107190380427944e-01 4.130797448284596052e-01
2.318558177188260183e-01 -2.052258491824488218e-01 -7.690113301056884509e-01
4.651953790539087863e-01 4.654642748594503554e-01 2.833326131949798210e-01
-5.221093783458146120e-01 -6.472585379137183459e-01 -1.007492575108564353e-01
4.650097522230709490e-01 4.185601070026377934e-01 -4.542994631418193485e-01
2.880224740023916707e-01 5.401030120970755632e-01 -7.689269593450575035e-01
1.366399565017439865e-01 3.100630700241360227e-01 2.699046028440254541e-01
5.400902849585875742e-02 3.776603548627618934e-01 2.357036119737782875e-01
-4.356451157371183380e-01 -3.902303289321946145e-01 6.189647043401883542e-01
-3.672131616012053179e-01 -1.627666713025234524e-01 6.576810936033253840e-01
-4.503517330392161622e-01 -4.384112014597404405e-01 -4.462639203209637917e-01
-1.807076844108422911e-02 -4.968309247398677297e-01 -7.901923446130883211e-02
-4.362974654999027813e-01 -8.362401963483884204e-01 -2.576157361078498242e-01
-4.324547806946587580e-01 -4.730963308013809154e-01 6.417987698304643551e-01
7.158627122072171167e-02 -9.165111966477047789e-02 4.556617605740028165e-01
1.727085765583444982e-02 2.157425540422287513e-01 3.871368668396831803e-01
2.926581693343071056e-01 1.029213659067376024e-01 8.339362110129613370e-01
-8.707078440053112045e-02 2.736305325580094538e-01 4.362766201686801848e-01
3.976210750481706802e-01 9.007351410564027328e-01 -6.383605327788580142e-02
3.832699634403532313e-02 8.447861330251228429e-01 -1.371973654596630454e-01
-4.584071993025496394e-01 -4.267197738302195287e-01 4.086720018062783288e-01
2.969152354383353121e-01 3.865598755868397962e-01 1.057459648871865443e-02
-5.121143997753795363e-01 -7.373480368720017886e-01 1.830313450829297861e-01
-5.006857128068864515e-01 -5.634399738299475935e-01 -1.686095073472806127e-01
2.990761864320133911e-01 9.208196883717465475e-01 -1.956412408965277350e-01
3.788742992095386897e-02 -1.150104175282325447e-01 4.416476045210411261e-01
8.363946837601818340e-02 2.999730809214635752e-01 9.510212623392279019e-01
1.532135217101999736e-01 -1.360775345058267971e-01 -4.832601009045238150e-01
-1.899793504756917550e-01 2.231748878552032300e-01 -6.053242486946652789e-01
-4.152024635181299911e-02 4.636827834672251764e-02 -4.334466377832172923e-01
5.194803109886231979e-02 -6.674645012174443837e-01 3.154503481546350740e-01
1.309174629685031233e-01 -1.797614445981320641e-01 -4.692877709256002561e-01
3.299839400117335897e-01 3.038117284990951572e-01 3.399911672656857342e-01
-7.541235025518722851e-03 -1.224181290455831350e-01 4.269827366892304799e-01
-5.652128074439313754e-02 2.134882633378546446e-01 -4.246120394559942390e-01
-3.746410820492529492e-01 -7.474206038944596342e-01 5.380977356166191106e-01
-3.801760640159344007e-01 -3.260746864672920964e-01 -7.035976782796101725e-01
2.742486527816602807e-02 8.263090195883195932e-01 -1.829843782237046135e-01
-1.236399549355602506e-02 -6.655718926086429121e-01 -6.537202614590492677e-01
-1.277430534629478975e-01 4.051493044837404245e-01 4.882678712483346506e-01
2.653333854762244259e-01 6.630247051503208588e-01 6.945770346241642024e-01
-5.227176243927980082e-01 -7.038424669647534992e-01 1.375416493546966212e-01
-2.007229701215948736e-01 -4.071964698790228598e-02 9.428288211499755711e-01
-4.578566698085956843e-01 -4.828118883321512178e-01 1.288859191533706094e-01
1.673518476550453216e-01 -2.613887356105415449e-01 -8.488909065412075794e-01
3.114310955319553320e-02 -6.057212992144002106e-01 9.676672391009730201e-02
5.639644690724678749e-02 4.485557194058760744e-01 7.675284593630110619e-02
-7.863565023439703094e-02 6.158073258643272929e-01 4.615104740150817730e-01
1.574317015653761004e-02 -5.544254667481989252e-01 1.095210382345075117e-01
2.060942958035661687e-01 3.725977607036626282e-01 1.134767737742335691e-01
1.210942766324699243e-01 -6.088725684038866909e-02 -4.530265547849864349e-01
4.524551045526291615e-01 7.723797364051160352e-01 -3.429586051771441046e-01
-4.540529514733257499e-01 -6.881470489704152316e-01 -4.453804406607921318e-01
-3.766909347193752450e-02 -8.686318399854884298e-01 4.283204535071193086e-02
1.361887321266147532e-01 6.880328464901763752e-01 6.888645481148784055e-01
-5.632622179945522001e-02 -3.722240926279093282e-02 1.000000000000000000e+00
1.198014658358437581e-02 -1.855886616044382931e-01 9.769947969727682535e-01
-6.036932600357479417e-02 -3.200674076339597440e-01 3.102940089079405106e-01
-2.334231467728999088e-01 1.384258994457627512e-01 -6.800393176739191192e-01
-1.398493127320862561e-01 3.855222878845429024e-01 -6.918503965551552337e-01
-2.977732547446783062e-01 -6.931337836517917905e-01 -6.464637086962117252e-01
-5.154700958036854130e-01 -6.532826724787045292e-01 -1.980081539591865003e-01
-3.796820652227846926e-01 -3.202600416062968414e-01 -4.149798201750349858e-01
-2.108020308142677934e-01 1.743295697292917557e-01 -6.259539017432870223e-01
1.157719203335498548e-01 -3.863245363767545681e-01 4.897541356029050386e-01
-3.281785034920082778e-01 -2.954979677585912179e-01 8.351135624975444260e-01
-1.959497153115068516e-02 -9.151306502860244441e-02 4.303344508704968208e-01
9.112322734462774410e-02 -3.221966486553257125e-01 4.506014386467683264e-01
2.296124353837499243e-01 8.698469112118029090e-01 -3.827984172340038738e-01
-8.627442493160883408e-02 4.509481249936153624e-01 -4.127542158328998401e-01
-5.251964145777628934e-01 -7.089766761477791501e-01 5.603993425779552756e-02
1.161389121553143555e-01 -4.744473706931514045e-01 -4.495540915114130676e-01
-1.489579590825640398e-02 9.688305840945050929e-02 4.315299404209099188e-01
4.371043204059358867e-01 8.133021689096513462e-01 2.984300601202521386e-01
3.167660747076446459e-02 8.246257620854407057e-04 -4.262680516933534114e-01
-1.814299685152225838e-01 -7.031517040787318429e-01 -6.773429614271821997e-01
3.825289369008439411e-01 9.026329142743129141e-01 -1.254947279983556763e-01
-4.723760490586485089e-03 5.367811784879319426e-01 -1.873085652779387170e-02
-3.097265330230142277e-02 -2.933542010511034359e-01 9.511712917453749583e-01
3.389955286730004791e-01 1.074239201529563204e-01 -5.775736880113977456e-01
2.010906462563691582e-03 -3.140974826923347840e-01 -3.392368871019229015e-01
-2.045941856090122413e-01 2.563797091876373613e-01 7.720418195475480250e-01
1.253771284390059471e-01 2.118700164104725739e-02 -9.716095622409557375e-01
1.138153003394195145e-01 1.062168019252200113e-01 -4.073707557935986046e-01
-1.683553028864787360e-01 4.214900739274515806e-02 4.916075078725031244e-01
-6.701049721683552396e-02 -8.791131241971924526e-01 2.043460023381305501e-01
3.228357610684399193e-01 1.950361089448188756e-01 4.894206556754410187e-01
-1.295103167818618395e-01 -3.259206855851474738e-01 -9.283669019363782748e-01
2.685701726904187736e-01 3.079861784779659994e-01 2.807885563705863619e-01
1.633511811681733483e-01 3.099248424924913037e-01 -2.477559547082643088e-01
-2.556648083107285196e-01 6.110071514265431186e-02 -6.459472915160261453e-01
6.766691666927147908e-02 -5.874176781703199790e-01 -2.838798686309603192e-01
3.203810097870211648e-01 7.955455281545398272e-01 -4.920942468329650987e-01
3.398652648551473976e-01 2.089696780372079510e-01 7.814448829774255367e-01
-1.697540990742598954e-01 6.224306642155210333e-06 -4.831290243936877116e-01
-2.556968250734612536e-01 -3.381390295409172908e-01 8.915499387908596418e-01
-3.213408895498703344e-01 -3.577659084752431995e-01 -2.373202428687069265e-01
5.013232587925583461e-01 5.274458564343291744e-01 -2.174366203981317469e-01
-1.222224413886338901e-01 2.119120281696642086e-02 4.624439679176876039e-01
-1.379151133696084885e-01 -3.983307049732980748e-02 4.531733328593547383e-01
3.261791369904609161e-01 4.215920548791400602e-02 -6.387041208241058809e-01
2.309285934645453550e-02 8.314779629184926302e-01 1.646785961059732128e-01
-2.934318120799692675e-01 -3.337165877958339633e-01 -2.633456099710880238e-01
-4.534574459630378307e-01 -4.792086662352040283e-01 1.169927030439744942e-01
6.130217991623013174e-02 8.760628821007252487e-01 -2.752706001805033109e-02
-2.090509332549564114e-01 1.772752321917570872e-01 8.460619145146184295e-01
-5.862173380385516525e-02 6.061977928639854518e-01 -5.418813845809001828e-01
6.917774552878083391e-03 7.612100779293560215e-01 -3.703928555552061241e-01
1.371929653188959028e-02 -5.524325295631699051e-01 -6.668578175165960908e-02
-4.926991320147439679e-01 -5.401804202794413534e-01 6.195676018696115450e-02
2.518781723604457054e-02 -6.736906502353872117e-01 5.549900933209493958e-01
3.704452140983610642e-01 4.086256886288282542e-01 6.786440175848423850e-02
-1.463699246275105281e-01 7.478380439133479329e-02 9.558811696144919878e-01
1.688893789108366905e-01 -6.802025010525790394e-02 -9.357375530291768273e-01
-1.553127546201555909e-01 -4.097757602028478940e-01 1.514527584917970196e-02
-1.252914788541308055e-01 -9.220391623193632258e-01 1.597202538490476442e-01
-3.226340321174687720e-01 -3.653366907318479351e-01 2.137600320197772796e-01
-7.427550540391168743e-02 -4.517887715574236962e-01 -1.496709706493576549e-02
-1.314346512684278767e-01 1.388391617523535015e-01 -4.872681525218989229e-01
-1.532006470705917205e-03 7.726175926674466732e-01 -2.683374569616009397e-01
-2.357372717027469977e-01 1.595204368655651905e-01 8.034154834409268364e-01
3.490948019117497969e-01 1.171447668396373293e-01 -5.953207558940329935e-01
1.222379942634953393e-01 -4.431498868761387655e-01 5.313215410747335055e-01
-3.946647053427224661e-01 -5.926216204051617531e-01 6.562651897089644137e-01
-3.901966809586246421e-01 -5.361740160133356969e-01 6.944000267308002572e-01
-1.636432565336668754e-01 2.095653997066207475e-01 -8.448712539604322780e-01
5.011385447803409221e-01 5.457891845724460733e-01 2.086571592326804392e-01
2.298379084044745446e-01 -1.441321159993257661e-01 6.458657756148254991e-01
-1.862311658779477741e-01 2.533666597883461047e-01 5.720477509145459605e-01
-3.147163929854707165e-01 -2.845669473017932161e-01 -3.660845217581176758e-01
4.059980477948005317e-01 4.248555373789971168e-01 -7.753867735442714071e-02
-2.434582915429192862e-01 -7.177821020795732698e-01 6.595023265667607770e-01
2.849779336556820253e-01 1.269580633911365081e-02 -8.337772101212816978e-01
8.416231518429924396e-02 3.229977233728781316e-01 2.780468729729130839e-01
1.942616961862694488e-02 2.931348466298827268e-02 -4.244294499782964580e-01
-2.235736021110798222e-01 -8.852593588800753421e-01 -3.847305363383818899e-01
-1.730449539884280352e-01 3.653348815497452218e-02 -4.987813658843870956e-01
5.066561508556560733e-01 6.115661807219487933e-01 3.013759289004436237e-01
3.179949303476354294e-01 2.750270747192892218e-01 8.282331670301993354e-01
6.761794797025723336e-02 -6.155112850155433080e-01 3.815156461348706007e-01
-3.060526216790271023e-02 4.100231578389323950e-01 -3.146010577949081011e-01
4.331483632392025274e-01 4.214168228259034810e-01 -2.112039177477203766e-01
2.393649790701086674e-02 -5.005738905424675922e-01 -2.059067594459109141e-01
-3.146045330431309628e-01 -1.710357435899578504e-01 -7.971223182763713666e-01
-3.815781037485101168e-02 5.950855697477561712e-01 -1.690516063463463337e-01
-5.600388957080674329e-02 -2.945725784336686304e-01 -3.178103447924071068e-01
1.809016451789660918e-01 3.751106312487173522e-01 1.194697701275423685e-01
-1.996789579642009593e-01 -8.916871664407329812e-01 -3.659504933454488795e-01
-1.401640148503914829e-01 -5.961591265852729249e-01 -7.800043314826117236e-01
-4.091338761918079936e-02 -4.488775694823550211e-01 -1.411339616109566764e-01
2.487867188576860789e-01 5.471951865700938056e-01 7.927202319206226866e-01
-1.461678076855319197e-01 -7.656602579386825314e-01 5.974108842657018803e-01
-2.120724405723453665e-01 1.251701657027557146e-01 5.617333094906965529e-01
-7.447684843392428367e-02 -8.294119758544863386e-01 4.111606123833164705e-01
3.629711788108684334e-01 6.433903294320274524e-01 -6.351351817187722570e-01
5.237535351997038013e-01 6.174547367911047413e-01 8.478660241996902047e-02
2.669005579137808115e-01 -5.570926558466416517e-02 6.653038997817448674e-01
4.625145473660040030e-01 8.453643325548330090e-01 -5.039853965254079832e-02
1.458758908972013491e-01 2.453418193710820427e-01 -3.218028634432236190e-01
3.166544656367847321e-01 3.883875351433253020e-01 6.622801909703873724e-02
-9.644323587327648106e-02 2.969144965068967190e-01 4.417001175461219287e-01
4.163305472739491919e-01 4.385122878980446393e-01 2.649923560876317821e-02
2.751794462689219900e-01 5.216595629761063696e-02 -8.647389181823377236e-01
5.297264286090268559e-01 6.670435709718854911e-01 -1.578654331041035724e-02
-2.500485718072825159e-01 -4.342300683825205954e-01 8.624385741571416464e-01
-1.210721939480729203e-01 -4.207697250795931487e-01 -4.200803483394469073e-02
2.069878224065236916e-01 3.427019922228574100e-01 -1.816594201793194641e-01
1.965412714760019219e-01 -2.344552159780876888e-01 -5.610140088347517207e-01
-7.001732116052088173e-02 5.990089444277063579e-01 -4.533459785244475237e-01
-3.907466040408290320e-02 -8.212414542104334858e-01 3.512802747770532030e-01
1.779372166120510301e-02 -5.710733111312290555e-01 5.824421660120103483e-02
2.787610350517393254e-01 9.425611458688191169e-01 -6.201213958159305234e-02
-2.815896721201952349e-03 3.723065725664034820e-01 -8.832171721564858746e-01
1.502256302020883172e-01 3.193600943192258512e-01 2.531283640965766302e-01
2.694848450764827374e-01 4.340558988813392749e-01 -8.354464251190104607e-01
2.394234995977013447e-01 -1.340335352801672597e-01 -5.895825654234644331e-01
4.217467047133628411e-01 2.949294252422651197e-01 -5.636814651163924994e-01
-2.318085316908886639e-01 6.386106478105660345e-02 -5.850446713426920020e-01
4.702352875149426459e-01 4.361871516024124484e-01 -3.859583908208558123e-01
4.641036131457410008e-02 2.727478523672595689e-01 -3.341461498168585287e-01
-7.971043521080364846e-02 -2.165981466881315431e-01 -3.634175309869349113e-01
-1.816561949808831455e-01 -6.069288081082250264e-01 7.773279709113232183e-01
3.412912799012895460e-01 3.406510525982632265e-01 2.803182444600579304e-01
-4.061595929740912658e-01 -2.907198266811406584e-01 5.210876166873851245e-01
3.771412485201778297e-01 7.101036308668097208e-01 -5.544483337193273353e-01
1.921905459563500451e-01 5.035725372677500866e-01 8.407931169584822451e-01
-1.987386500804626810e-01 2.358344449798805142e-01 -7.078965386458916376e-01
-4.826606417326278348e-02 -1.793897677000737823e-01 -9.746349545254819891e-01
3.620027596938647091e-02 -7.424676441023534412e-01 -2.487984563448089603e-01
-5.390380494612426188e-02 3.437914119605842700e-01 -8.706760571988984010e-01
2.497716694726030973e-01 3.705813290685930905e-01 -8.708142458276930675e-01
5.977358198141199258e-02 1.276693949059420630e-01 4.136167025385487084e-01
-8.447537523424418493e-02 -4.404609431021768717e-01 6.847948972714720806e-02
-1.997480095249118126e-01 -3.949757499949478889e-01 -5.528630340949010347e-02
3.266801391462569870e-01 6.466210907720004730e-02 -6.021458952311153912e-01
-9.407031073038069069e-02 3.338003571695719041e-01 -4.427047256008532217e-01
-1.857866307807090056e-01 2.570409029522546240e-01 -6.269570413765691574e-01
1.206598887909410278e-02 -3.597571138252455558e-01 3.417059427436258678e-01
-1.850804482591232245e-02 -6.537934254017642166e-01 6.651871490619848393e-01
3.969881641851887716e-02 5.475753055592258445e-01 -7.736024482817840386e-01
-3.574846658012798550e-01 -5.014822524752851063e-01 -7.223711193065718295e-01
6.790846892651075661e-02 -6.133184691846098602e-01 5.324398481243070025e-01
-3.713380499275830693e-01 -2.345963698950409015e-01 -6.517690774335688220e-01
2.729803362140175577e-02 -6.445939889496854480e-01 6.075763531025029085e-01
-7.761486485328328300e-02 2.231239432398339495e-01 4.380361055043637264e-01
1.328995021983655211e-01 -3.152128867968038151e-01 -4.729428072288213714e-01
-3.830911594699970557e-01 -5.254125954249727615e-01 -6.784124821608404909e-01
-1.462929261863820385e-01 3.262584702134480041e-01 5.142591391301070125e-01
3.663742905950027051e-01 8.902653449395294682e-01 -2.264017794183015575e-01
1.078031874760748410e-01 6.079396125144789220e-01 -7.454988793568402272e-01
4.644471217054176315e-01 6.194336526329685677e-01 4.801501545311993024e-01
2.429913388572075839e-01 5.913535981819387777e-01 7.646629812173805218e-01
8.777010336467326590e-02 7.429705637524892659e-01 -5.645174006086663976e-01
3.013554597418274111e-02 -6.164143652456488542e-01 -6.711343149519799489e-01
-9.312143345666677730e-03 -4.720039441731491148e-01 1.923268592077930772e-01
1.194737224795086872e-01 -6.353302403456845271e-02 -4.526658139352708332e-01
1.916929598157438575e-01 9.291545671321486122e-01 1.752058739127797804e-01
4.798843468149520675e-01 4.637328853741881640e-01 -3.472312180054550335e-01
-1.131213687301102777e-01 4.758917105638330591e-01 -5.809680936306541588e-01
3.370531579581648174e-01 9.198535348301399850e-01 1.578811232763584482e-01
-4.218379406889636862e-01 -6.691738064471608460e-01 5.576565787221354764e-01
9.594023525337050384e-02 3.715027770810094832e-01 -1.939402561600215569e-01
-1.611000157689312651e-01 1.157662689116714799e-01 5.029087122119164643e-01
-4.215088334886203658e-02 -1.542231499590039079e-01 -3.980456429520639605e-01
-4.249482523049006449e-02 6.797410250545143917e-01 -3.056013252590593088e-01
-4.083571912751227662e-01 -7.326685203852476569e-01 -4.880754968734921651e-01
-3.495801708391020890e-01 -4.095589807702302299e-01 -9.146122854612841191e-02
4.043006818919852030e-01 2.740366791003366331e-01 -6.722386696025564046e-01
4.507137719709448098e-01 4.369537617754101766e-01 3.135243420220324984e-01
-2.714789705951102250e-01 -3.535213118210533967e-01 -8.529370838147228850e-01
4.987883035015486244e-01 5.557995191792837186e-01 3.143046258776543422e-01
2.167997466618179214e-01 1.004651441088040553e-01 4.677881144524136947e-01
-2.455029011232712222e-02 -3.351242014272621250e-01 -3.048407684262250950e-01
-1.570225329035420669e-01 1.561966477148244159e-01 -5.167721891932552936e-01
