5.085779157028773589e-01 2.727562257370395038e-01 -2.683736865222893231e-01
7.127563336716128406e-01 -3.748534324460228162e-01 5.101948144567405308e-01
2.550152608368045914e-01 3.035087227222535988e-01 -2.514523821339432752e-01
-2.730313581072215667e-01 -1.626623649866678067e-01 -1.119489393700685148e-01
1.885619484569749441e-02 -3.091775918287582581e-01 1.397654132035288932e-01
-5.145556416066039418e-01 -7.425818344851067287e-01 -2.399379146093233717e-01
1.785762415946412149e-02 8.534036001081537481e-01 -3.994383178192070227e-01
-2.676534472360520556e-01 -3.443837338104229762e-01 -2.666545713787910610e-01
8.375554781145294614e-01 5.171493483602089825e-01 -3.114324628120068023e-03
-7.246006671558666845e-01 4.385357030409965939e-01 5.120409464106155661e-02
8.210691865482470098e-01 2.099355100776637284e-01 -1.530747650859351217e-01
-7.801586195407385349e-02 -5.367598147164167610e-01 -2.172408854049200366e-01
-7.699709809211819911e-01 -8.249758761320195866e-02 -4.730212325626305669e-01
-4.043888072500610997e-01 -9.247253897686968926e-01 1.068246270608107507e-01
3.037247203578714583e-01 9.456673414803000444e-02 2.478348466203786626e-01
7.080145976033637434e-02 -3.706666386637516575e-01 -3.980289441296529923e-02
1.413849895097492870e-01 -8.303737357396647756e-01 4.589194413804944528e-01
-1.218608799798136522e-01 -3.033511939853079653e-01 1.331713452725441782e-01
-3.652363502656156835e-01 1.200165636324101170e-01 4.961719825486588659e-02
2.609600310600124762e-01 1.668351330069975380e-01 1.224110833540381464e-02
1.246028392997254042e-01 3.414362659740634021e-01 -2.930354980561367673e-01
-4.124987554877519447e-01 6.084328277744146529e-01 1.245766189986049072e-01
7.710239299725011319e-01 -2.818822366481518182e-01 4.940205508122300082e-01
1.234206927634270284e-01 -4.432089894118563800e-01 -1.096284729335389868e-01
5.558521315939276564e-01 -2.475187102955278204e-02 5.181009976338581957e-01
-3.700149373560026600e-01 -8.017036755206422005e-02 -3.665243563667126558e-01
4.186890041917765148e-01 3.128571434854159339e-01 -2.856794221049816507e-01
-7.285855387831513541e-01 3.794392403038299721e-01 -4.838038141801185854e-01
-2.204554707428384996e-01 -4.595241735538742600e-01 -2.681371104165438113e-01
7.361034821682544971e-01 -1.644560340354541406e-01 -1.291662608160899228e-01
-8.594881170003908499e-01 3.661478077746243565e-01 -5.466018176193448985e-02
-5.606898467162987343e-01 7.457148519330307757e-01 -6.631246279493711870e-02
-4.158372494417493237e-01 2.842652596595015083e-02 9.538781463594744880e-02
-1.048520120045198095e-01 -3.097832408442856011e-01 2.871529003771062377e-02
-4.731696862221687616e-01 -8.482188118476419181e-02 -4.552280606570303645e-01
-8.274000624667407489e-02 2.965236928244706083e-01 -3.677682090340916171e-02
-4.690919227747422093e-01 -4.769115613294672706e-01 3.464640301055458282e-01
-7.004511383890286991e-02 -3.228250501082627344e-01 2.114184915157098776e-01
-2.548103500290647971e-02 3.658708395036080474e-01 -3.804899645605812064e-01
7.855706120316974239e-01 -4.482674292172119102e-01 8.538785932009258089e-03
-9.256415767196244371e-01 2.007700586134163745e-01 -3.182696280826559088e-01
-5.292777388109149994e-01 6.940668965481536223e-02 -5.150980040454110620e-01
8.433878187809227267e-01 3.646676726509419098e-01 -1.141566263813825338e-01
2.855883814136506160e-01 9.338316244839997560e-02 1.155709188006792815e-01
3.069028042785194033e-01 -1.016542478976954628e-01 5.079220150431140723e-02
1.463973318486822550e-01 3.389443376126075602e-01 -2.874919005258493865e-01
-5.375666452165154263e-01 6.948648905025692768e-01 2.065340664220686323e-02
1.701381724604977830e-02 2.929488191143779785e-01 -1.881825622114376428e-01
5.506694523062547475e-01 4.201806701258112842e-01 -3.054225360939719081e-01
-4.062525103778628632e-01 -3.401885884223340706e-01 -3.768088018229599490e-01
-1.524555785625043292e-01 2.643595400756968417e-01 -3.397087354345276755e-01
-6.702368133555499652e-01 -6.417277155096330621e-02 1.996325492068235508e-01
-2.938188027385240167e-02 -3.619268587151737715e-01 3.258326679083958233e-01
1.032534239547551330e-01 -5.675915448493569215e-01 5.166315018898085532e-01
-2.155449770437511958e-01 5.703208904614892605e-01 -5.291117544523434857e-01
6.893026190112081508e-01 1.525656765761047584e-01 -2.115330538001960470e-01
4.519461764138394955e-01 5.581468694167942557e-01 3.551037312772933885e-01
3.246121061759500992e-01 2.609364745210672812e-02 3.133061666444698079e-01
6.326520745062149675e-01 -7.022758737980895338e-01 3.597972480982438159e-01
-4.542330809877413444e-01 -4.114989060095738393e-01 3.300435938930116886e-01
5.981355322207067005e-01 7.920673424060832579e-02 -2.010499119533872281e-01
3.481376519294898664e-01 -2.969153083542211968e-01 -7.800769628006884449e-02
-1.416561757459706139e-01 -7.773939025707056194e-01 -2.186682636763021548e-01
2.741232784397465982e-01 -7.088830599658214604e-01 5.198047211906857701e-01
8.687857015422767448e-02 -6.038889286655454436e-01 -1.824105790779189662e-01
5.790935587660808181e-01 -2.880945257057807574e-01 5.572348202296829589e-01
-2.385078346786262127e-01 6.960980243977114013e-01 -5.059871282853092289e-01
8.075592519492157395e-01 1.252890570409590232e-01 -1.551546933490974001e-01
-9.655849889460899060e-02 3.026374240478460487e-01 -1.738561890985131086e-02
-3.650203732414321056e-01 1.460070178788778761e-01 5.557647536952579209e-02
9.581683855877285438e-01 2.135896227702191730e-01 8.004898798319837194e-02
6.518861680127112646e-01 -5.681269446154268987e-01 -3.290161670954123291e-02
-9.339706725709124857e-01 -3.483680246069300046e-01 -1.430706482232632915e-01
-5.879549657775599014e-01 6.377724644265881926e-01 2.914134981101530741e-02
7.984401993904914896e-01 -4.898183099702933530e-01 3.715131339480960415e-01
2.854039356091395141e-01 1.003111145399627063e-01 8.648136833288160019e-02
-1.624113077338476263e-01 -8.897793519054197908e-01 -1.405913366712216450e-01
-5.224811915445832788e-01 6.938020075938962083e-01 3.266860865582307816e-02
-3.175881060694369373e-01 -2.225913721648409838e-01 1.600860246785630048e-01
-8.397698848398257310e-01 3.132408819355742002e-01 1.293742129652445012e-02
-8.247596284501121922e-01 -5.581917665507727389e-01 3.434340105578995855e-02
-7.577532624461415234e-02 2.916773566820470287e-01 -2.972383003217662911e-01
-4.206086849257607008e-01 5.920201020479062270e-01 1.262099980729161353e-01
2.497874013579972630e-01 5.165032069669898140e-01 -4.053240199836994906e-01
2.774645987044994100e-01 9.440995232087060485e-01 -1.160249733436465036e-01
-3.237739825856803533e-01 -3.777275138581401293e-01 3.190103652130813483e-01
-1.747924894738976387e-01 2.257558438146338442e-01 -1.123541293562597965e-01
1.396857417407491586e-01 7.747876184302913138e-01 -4.219800824521528493e-01
-3.994978404838072650e-01 1.240349142629023071e-01 -4.731025260924816012e-01
-7.708446874759390388e-01 -5.730063467771959740e-01 -2.306674318364279053e-01
5.793098682631901003e-02 -7.866465411533650753e-01 -1.676478743948974781e-01
8.135091512943024572e-01 5.521788855241721583e-01 1.477339723039870489e-01
-6.378264717372232884e-01 5.814485186047088083e-01 -4.478666137966172967e-01
2.948030142065098946e-01 8.630352987167602685e-02 5.605744540459650649e-02
-4.506962168161867677e-01 -2.896338681274638893e-01 -4.063205705146024083e-01
-9.704388845325899737e-01 9.134261979010473154e-02 -1.251099086486618106e-01
-1.111644705749239709e-01 3.575087244320348523e-01 -4.203756245758173971e-01
-2.995671879080737954e-01 5.862941213263221929e-01 -5.352247663735291150e-01
-5.092716097870482184e-01 -7.951610358898043573e-01 -1.843185368537736124e-01
7.176830762459135427e-01 -4.747309246443278535e-02 -1.603810970747459597e-01
3.886703899065953594e-01 2.422189411249859869e-01 3.804851282729277417e-01
3.322249167083031751e-01 -4.320492929284530659e-02 3.629220508122785183e-01
-4.876879348726588792e-01 1.250721253889559570e-01 1.316765077882790236e-01
3.619519870401241013e-01 1.401584982392222456e-01 3.573294397930791289e-01
-3.268323155623883286e-02 -3.157756708930328782e-01 1.815797658734426556e-01
-5.477634644778294204e-01 7.212066715702279973e-01 -3.896152517448729924e-01
-7.253022415553849189e-01 5.513733084407930196e-01 -3.872976556955609606e-01
4.921217633665636026e-01 3.577741328843486723e-01 4.182354956311225558e-01
1.172316603322527545e-01 -7.456804962438776663e-01 5.017452455779919385e-01
1.475877146572970866e-01 3.170326789606856543e-01 1.341826962336823414e-01
-5.484200269722749876e-02 -3.258003154544725777e-01 2.463714593015935497e-02
-2.155059596195838811e-01 -9.524436375992680892e-01 2.495840558044263024e-01
-4.376100722660546116e-02 4.629804171624560261e-01 -4.624714427443311626e-01
1.937167602277056755e-01 -4.226799018201545799e-01 -9.786142909192431516e-02
7.065933544218356843e-01 -5.669331577373090125e-01 4.243590873197615188e-01
-3.253740967706972853e-01 7.966551941415228599e-01 6.571099994336498940e-02
3.071176879916733826e-01 1.178892287101201558e-01 -2.891764017273160126e-02
-5.760864695723200146e-01 -7.698455988825061436e-01 -1.740285749813177130e-01
3.204075736372888894e-01 2.933103908968660578e-01 -2.570528718044052807e-01
-5.667256709577127294e-02 9.202688683024571326e-01 4.453011757183761993e-02
3.262036783263256301e-01 -1.549223692446114742e-01 4.274389858266137154e-01
7.605994502050489325e-01 3.814511492100169932e-01 -1.959228778490448020e-01
-4.924681964387772060e-01 3.483608657979515577e-01 1.354335502764188737e-01
-1.896103197982690336e-01 -3.217627236265978574e-01 2.338988008435343158e-01
-5.911515883200186838e-01 -2.761574995268800126e-01 -4.513115694372779041e-01
-5.245853878885772259e-01 -1.838871543085730462e-02 1.706989295110464266e-01
-7.619883365621170357e-02 -3.475351579549135206e-01 -5.314252417821580671e-02
-3.077482724788711543e-01 -6.583335561541434622e-01 -2.957842879988336060e-01
2.079807730527334086e-01 -2.375369015899858605e-01 3.511083018891995033e-01
4.471656046969895715e-01 1.860402908368053998e-01 -2.144286139993686613e-01
-6.618020753894904296e-01 6.089152499228386306e-01 -1.197878858705815272e-02
8.291265993993889305e-01 5.453516384563916741e-01 8.172319129949642824e-02
7.277101979229071149e-02 4.713761271257793650e-01 2.099528046668450443e-01
2.478767892960493102e-01 2.145356439105901014e-01 -9.295839779556951121e-02
8.040897712522803165e-01 2.532173185631754753e-01 4.098459772167513671e-01
7.015177837452886422e-02 -3.599186766860100750e-01 -2.436473395735035477e-02
4.985922304614834322e-01 -2.862665996921007205e-01 -1.243848781258989622e-01
3.264342135823172786e-01 2.237783774421155114e-01 3.179904873546071098e-01
4.383665414198696930e-01 8.851401495452801971e-01 -8.666469294845520477e-02
-2.120359010153788637e-01 2.233923811848538832e-01 -5.523794491239199939e-02
8.776171963132581855e-01 4.525060443958064949e-01 3.564678798508370133e-02
-3.806292493261019816e-01 -9.892155793963379462e-02 1.080484866147686102e-01
8.426427996293864853e-01 -2.776304341137307286e-01 4.344761228875917980e-01
-4.776053070109819165e-01 1.637309507008701814e-01 -5.217605838181457178e-01
3.463540571713036864e-01 -8.878546565196989704e-01 3.418022197599803746e-01
1.136097670045201624e-01 9.116512142389248119e-01 9.138412560258560302e-02
5.837924607169682201e-01 -7.479079808824887210e-02 -1.601045464498399018e-01
5.977079192357280801e-01 -2.865964414282304862e-01 5.554382149523706680e-01
-1.795888731236547908e-01 -3.579060340837960652e-01 2.912080978010885834e-01
-1.296356568741584558e-01 9.628633448325509825e-01 -1.307038967588469713e-01
-4.237131488300887594e-01 -4.985131491610982901e-01 3.630726142752085384e-01
-3.021249274538116425e-01 7.584005709076639956e-01 -4.681446199896738825e-01
2.546607931006087955e-01 -9.095099266575106256e-01 9.827452573767625835e-03
8.331450065190999510e-01 -2.412377492363761144e-01 -5.091990066653617752e-02
3.774228025156557420e-01 3.715319974587581731e-02 3.944316468033682854e-01
-1.508840553649442029e-01 -5.657945222398194085e-01 4.492182712031481673e-01
-1.117959354346118594e-01 7.780305037248328448e-01 -4.652794885285703175e-01
6.066963743410112020e-01 -2.708125902066396695e-01 -1.325365686920738639e-01
-6.041085895357437563e-01 -2.835037074152849668e-01 2.666611125618322253e-01
5.845613039301551517e-01 2.813171897929553356e-01 -2.649493209937857641e-01
8.624485886454792416e-01 -5.060582203309760274e-02 -8.342778247139351344e-02
5.435757814659112341e-01 -6.597464611246642852e-01 -4.759079186892306579e-02
3.226400380263296785e-01 4.614880091957894448e-02 8.216681403528472774e-03
-6.069826435149311417e-01 -5.529366442102013474e-02 -5.034719966376812739e-01
-1.189432313221148729e-01 -4.896447336138551321e-01 4.253294149160836701e-01
2.199891770524285417e-01 2.131775316795631592e-01 2.752361120191540791e-02
2.981621870183358003e-01 1.058380719919557213e-02 1.127950031335347297e-01
-5.599164013809362350e-01 -7.630735802130923506e-01 -1.952559473829420245e-01
-9.831972512670253406e-02 2.688690916578763690e-01 -2.622424085882453793e-01
-4.835819375578426227e-01 3.869103539955750376e-02 -4.919168838017022871e-01
2.273671944523268929e-01 -2.513376178386649284e-01 3.846156607142753314e-02
-3.274559885247596558e-01 -8.224602751381587806e-01 3.471890759672132676e-01
-1.438843352812003984e-01 -7.299293886562596700e-01 -2.375335489273796841e-01
9.145966308609118633e-02 -3.114426627406482462e-01 3.208934221452228730e-01
-2.528299582629270348e-01 -2.057896103572329216e-01 7.887407820536299421e-03
2.930015353401096978e-02 5.533549223233454883e-01 -4.731437725060847477e-01
9.761247553728898962e-01 1.140196895473845479e-01 1.279628145136846862e-01
-6.939518453742151705e-01 6.627855528757614634e-01 -1.826210741098096002e-01
-5.664599918971868764e-01 4.801391060162976121e-01 1.117551168196865424e-01
-3.421694298084009267e-01 -5.257398719723715974e-02 -3.321481995613107530e-01
-2.422623898451726210e-01 -2.236377418648871629e-01 -1.083040897567594668e-01
4.606980834401066538e-01 8.188451945825729883e-01 1.535481059835783479e-01
8.701479445238599064e-01 -3.352723480098553782e-02 -8.024756810417026098e-02
-3.499092630845336838e-01 -9.482139374239461072e-01 7.912240421634060550e-02
-1.282270224490398569e-01 2.635025267081599343e-01 -8.323584767521401140e-02
-3.808890805188149820e-01 -5.268044701225108595e-01 -3.455715417748571050e-01
8.034870039951561571e-01 -4.718413880053165532e-01 3.803159101335502057e-01
-7.098989224261663053e-03 3.425389171334166649e-01 5.233696204919324746e-02
-4.822930809176712713e-02 7.121173841644750091e-01 -4.852726709901468150e-01
-6.496441861070838542e-01 -6.168317038355063398e-01 -2.905205972580844342e-01
3.473816953656874151e-01 2.801091459156856978e-01 -2.518924740510196658e-01
-7.243126524919571985e-01 -6.220978923486587542e-01 1.611814756298461104e-01
3.901462614026557918e-01 8.822334521472912083e-01 7.760130878932960941e-02
-2.807085519220572367e-01 6.730996350148082952e-01 1.453023340730139057e-01
-2.562961570388999633e-01 8.978065948986472256e-01 -3.222748384010510336e-01
-6.039919762722120167e-01 -1.916587286118606459e-01 2.392303803005840224e-01
-8.403471860475887623e-02 2.715405442266747849e-01 -2.418001205271881615e-01
2.933098348164365765e-01 4.148732055010111858e-02 1.666133216818739549e-01
-1.978739851226969659e-01 3.738883021696683961e-01 -4.783279344797568000e-01
-6.826044782364856234e-01 -7.412198033401165009e-01 -6.777814776552304465e-02
-4.654045160370403611e-01 4.988900908404949042e-01 -5.439934933817058837e-01
7.187368971622652980e-01 6.652424856913483620e-01 1.344402590929859309e-01
5.982007903273464829e-03 3.962011727098708747e-01 -3.974448196059658378e-01
2.120052652770405277e-01 -9.496128545000878107e-01 6.193086654746823155e-02
-7.087144917659843335e-01 5.433067469224285295e-01 -4.139714539532682314e-01
-9.222657690377722428e-01 -2.150295430891608073e-01 -3.035969438296667322e-01
8.698648380665692237e-01 4.743063887842859372e-01 1.087984833823266995e-01
-3.027074854699838072e-02 4.133180552062241109e-01 1.298810887681556003e-01
5.373308602589379479e-01 2.157299670751006704e-01 4.611344057314702427e-01
-1.349365920285069964e-01 7.895003608112030058e-01 -4.595962201685845350e-01
-8.716965207207096888e-01 -4.240866544265943228e-01 6.553938570519514395e-02
1.220855850467772313e-01 4.152768490841063365e-01 -3.777485633728669967e-01
-1.108134963640926701e-01 -9.781200366091380438e-01 5.490272555456655532e-03
6.806389389314173588e-01 3.529892382605713252e-01 -2.469656748083532694e-01
6.538267455276065565e-01 5.154932944290199215e-01 3.524060944148701413e-01
-6.441534598058212824e-01 3.689406148748233111e-02 -5.207357855218592846e-01
4.650431500500422644e-01 -6.604778597404876717e-01 -8.570082420555619196e-02
-2.410802233561749053e-01 -8.713649288800664472e-01 3.488153554551132740e-01
5.298494322629867526e-01 -9.971803944344893866e-02 -1.428229235094666261e-01
4.045566485468727880e-01 5.111944377809275464e-01 3.615491651876007739e-01
-6.498263563427729705e-01 7.060157798682223929e-01 -1.815071531621978429e-01
2.204093531821833540e-01 -8.749642380445947776e-01 -5.391382410305302353e-02
-6.099412402934355493e-01 6.053999192312135014e-01 -4.508030640000591505e-01
1.860889647161982907e-01 -9.702239127008036590e-01 1.119323186919006230e-01
1.359724685161273761e-01 5.112783118756372147e-01 2.539463304415957023e-01
2.869986893983815235e-01 -1.968580108311638599e-01 2.096255940134613902e-02
2.792886119066811390e-01 1.266631027803729326e-01 4.898897328245451627e-02
-3.320585762322437740e-01 8.390892203579859432e-01 1.778082584614211481e-02
4.184900410812566474e-01 -2.474533173075583459e-01 5.287615959567932844e-01
-7.859118455913285950e-02 2.760592417022148526e-01 -1.047669746660198770e-01
-1.548484371673894133e-01 -3.207303209967563018e-01 2.201291836956224546e-01
3.656420686536596132e-01 2.698347767222493143e-01 -2.480712640461228413e-01
-7.913826753500963207e-02 -3.473049389358083272e-01 -5.533820717952718515e-02
-3.532948950245720088e-01 8.975734110318331904e-01 -1.597568099515184470e-01
1.267142966496539180e-01 -7.211723128643945380e-01 5.105816506845872738e-01
4.982002257701623749e-01 -6.350399064512525227e-01 -8.264213415957699649e-02
3.914095381156947745e-02 2.986876239687540902e-01 -3.915101897626576538e-02
-1.702075128806734006e-01 2.549450175040418598e-01 -3.475505044522363973e-01
-5.202861791199362429e-01 -1.990247388812181883e-01 2.371083357028876126e-01
-5.270758876495348355e-01 -5.319087432464151277e-01 -3.674547853009793030e-01
7.217977249304944332e-01 -6.508252963774177058e-01 1.750208992183479584e-01
9.402279469579734317e-02 -4.949043878582760625e-01 -1.447043057913244279e-01
3.322985936782750782e-01 -9.198613496823137003e-01 1.115355916856374391e-01
2.522653833512483179e-01 -9.380456478887255756e-01 6.757578252056115065e-02
-6.359803550789097093e-01 3.237265150957979731e-02 1.788432372697399131e-01
5.825978933384236003e-01 -1.907807266917703470e-02 5.216670237529004162e-01
-1.493224646504089093e-02 5.472945236642475786e-01 2.057513178687508937e-01
-6.476021330467421899e-01 -3.182061358864439471e-02 1.934583785394680677e-01
-2.696100175946489763e-01 -8.181731864280442634e-01 3.771948945184438462e-01
-3.726557235776484928e-02 4.679512509201236292e-01 1.666254640131673292e-01
-9.184265567791964902e-01 -3.212016339579550905e-01 2.330322558321253068e-02
7.254544865511639573e-01 -6.463821113502973281e-01 2.639911991769726129e-01
-2.260421185964050714e-02 7.568572767354484476e-01 1.906610749933282112e-01
3.536885868899097146e-02 6.561481961426812726e-01 2.299119130128654820e-01
-2.258228778020819061e-01 -8.887551328356705360e-01 -1.430878371351148037e-01
-3.404397813704465592e-01 6.180026628627394158e-01 1.412521312091438996e-01
-6.589650042614447756e-01 3.115209720959323247e-01 1.244415151587045659e-01
2.808251279034381098e-01 5.075920166885986573e-01 3.199600620757693803e-01
-1.413737558799298133e-01 6.735454468164853159e-01 1.812056310404461246e-01
5.378885697652182607e-01 7.072484854054489345e-01 -2.617338184981763960e-01
3.443654351777906686e-01 -2.825811090427452280e-02 -6.785503286044892654e-03
9.702874472610730772e-01 -1.234390800525263510e-01 1.810251536982608600e-01
2.189000860644982061e-01 9.155359691485026596e-01 8.093825180042529821e-02
-4.196740466258297997e-01 8.729854982335727431e-02 -4.723187785772093861e-01
-9.699810128746239046e-02 4.197768656102063844e-01 1.226568349695391635e-01
1.712475716442017071e-01 -2.348799479344676755e-01 2.019932312589541035e-01
3.481673095191309963e-01 -1.423996112962103433e-01 -2.352256304470566953e-02
2.785976079198747013e-01 -1.194161066907013652e-01 3.166967376504354337e-01
3.319266259430178612e-01 1.945859457967535067e-01 3.204567486802171739e-01
-2.962235855317958411e-01 1.679755651226542135e-01 -4.075417878253463355e-01
-8.622832688823522940e-01 3.767547819363709638e-01 -3.307617183297688612e-01
-4.588245251073334030e-01 7.112839305742376661e-01 -4.558281967142938096e-01
-3.134429295892784961e-01 8.963097292153749951e-01 -7.087998409379635267e-02
6.440238903517276903e-01 -5.246332195756040484e-01 4.982796331736388251e-01
5.163589058707276358e-01 -7.007894216903957085e-01 4.637375681972331631e-01
-1.997766764620066693e-01 -9.450985290071972633e-01 -6.238690138809343394e-02
3.523815681372518549e-01 3.553118763236541300e-01 3.550581297033792438e-01
-1.906654363111507655e-01 -4.337498827747368058e-01 -2.386845138418537959e-01
-1.569593209631898190e-01 -9.553809712717452607e-01 -4.646069494533523747e-02
8.346552173545298547e-01 3.915291789498563935e-01 3.086684221425803343e-01
2.223658268728761767e-01 9.584474402571632190e-01 -8.060681100740844929e-02
4.929639070323639238e-01 8.540993965680244715e-01 -9.316127401563410737e-02
-2.974236894973829037e-01 -2.243771848938631852e-01 1.423786749658806916e-01
4.992842009640536816e-01 -1.964618508378771292e-02 4.993853891775263953e-01
2.542362835843543500e-01 1.790837366687262344e-01 -2.992882443863971714e-03
-1.060917436044673257e-01 -3.153227694331296460e-01 1.851347694339367800e-01
1.876324857479363117e-01 9.648206581908677082e-01 -1.051003984917455586e-01
3.101985839387603194e-01 -2.900153866185951057e-01 4.936127561421495002e-01
3.320391238297071834e-01 4.873172766332355965e-01 -3.768916231764181113e-01
8.223810467250836087e-01 5.368685409233310279e-01 -1.939476834715659834e-02
4.773270179551611925e-01 -1.928304259706589349e-02 4.893477609161853148e-01
1.799822271706852939e-01 -4.301289655524713762e-01 -1.014037598219091479e-01
1.884653496348823176e-02 -3.084621363834432195e-01 1.770946815937597396e-01
8.054568990690043062e-01 1.051259614616186083e-01 -1.536718187954155823e-01
2.104377377299482543e-01 -7.079662949474898603e-01 5.203529631434816727e-01
2.774344746102358483e-01 1.200397415369033327e-01 1.158559418257947560e-01
1.717865186988035975e-01 3.128263777375272503e-01 1.601671812376628257e-01
-6.008548461874001489e-01 5.670370173756922316e-01 -4.803818887842374319e-01
-5.194666136700893944e-01 -4.407052074363387861e-01 -3.978817690798750473e-01
-1.322535929226848622e-02 8.182447805539435626e-01 -4.309753741986209197e-01
-8.067475291537640203e-02 -9.990990087575946088e-01 1.063805675852994848e-01
-2.031703888560231486e-01 -3.626581781526554971e-01 -2.087236843498868621e-01
7.051016747868222856e-01 6.184977192861929041e-01 2.328919426745753862e-01
9.547421878237508097e-02 -3.804584955734091056e-01 -5.291119621962171032e-02
6.705643760655971564e-01 -1.275433779499936526e-01 -1.518001078473351362e-01
7.335483653113765434e-02 -5.134981058446090874e-01 -1.579488482557306617e-01
-6.926073027362137369e-01 1.201695723693265022e-01 1.562090034179211828e-01
-3.651378365134076431e-01 -4.492226780291421750e-01 3.580165705383239749e-01
1.093199651890331553e-01 4.777179067769223852e-01 2.305290513877883973e-01
6.192210167600927795e-01 4.497921550181969153e-01 3.955721778149743906e-01
3.395451187794489845e-01 -4.004614304547180620e-02 2.428745333878737974e-03
7.842890015882640897e-01 -4.514240207154417983e-01 9.304930149084277360e-03
9.703637394592643517e-01 1.356517040411298891e-01 2.046827674774792938e-01
-6.105070117481070646e-01 8.092908435029587400e-02 1.679542747800767677e-01
-3.665796237574028282e-01 -2.188029910556385238e-01 1.928645361054777130e-01
4.988720264561273265e-01 -3.135617379220682066e-01 -1.248374818751854243e-01
-3.899587853475948163e-01 8.649578801333945854e-02 -4.506565043443723217e-01
3.415941339359916396e-01 -8.479891341425822571e-01 4.061441516824602638e-01
2.244743142042050776e-01 -7.413441862834403429e-01 -1.371126167186006994e-01
3.130470365040828318e-01 -8.222111991211390469e-01 -5.848657821927167461e-02
4.185525197322719215e-01 -5.227083585825286205e-01 -1.271341986804620239e-01
-2.913985414602648927e-01 -4.259388769726228929e-01 3.538003701646460497e-01
-7.699361079827435894e-01 2.113901059797185789e-01 1.083272801829135434e-01
-2.568085919246962390e-01 -5.682422779233319288e-01 4.224046692724481300e-01
6.754435845241526515e-01 3.998469476905612829e-01 -2.513413964911594412e-01
-1.902601368651106462e-01 7.143419179205645619e-01 -4.984287059701291156e-01
7.049031874584460455e-01 6.438726207608619356e-01 1.988683030190563916e-01
4.232993961070511402e-01 8.578303911362362977e-03 4.473343983457188089e-01
-4.637624449443767949e-01 2.096661955451043780e-01 -5.283670037994828705e-01
4.166485390620849327e-01 4.030555898035148021e-01 3.850056096827635388e-01
6.260100587977062148e-01 -7.500759118232660505e-01 2.163105786029871358e-01
-9.142298910458962480e-02 -7.528063792125057052e-01 -2.176821339740047379e-01
-1.426098607700872212e-01 8.790765754564947576e-01 -3.812495118050357457e-01
3.611818003876823280e-01 -8.054673468921941248e-02 4.227312121270937473e-01
7.126772396584276636e-01 1.226832726970096890e-02 -1.746807213107511303e-01
-9.465802782888234068e-01 3.612058390971639027e-02 -3.167038253147937965e-01
6.765479339872915165e-01 -1.043177079071273411e-01 5.330185278666232929e-01
-3.391412553000615060e-01 7.373051823897358581e-01 1.004586775712016239e-01
2.329320399842681188e-01 -3.247918126106129066e-01 -3.792743451716062281e-02
6.561629822063432815e-01 -2.627000839717824054e-01 -1.283175323173498250e-01
-2.964587733033799410e-01 -2.347922356727782586e-02 -1.352164004504797790e-01
5.008149743558342193e-01 6.830406810195274181e-01 2.842145772427191464e-01
9.393209441307266427e-01 -2.389410662098804539e-01 2.660050293684650402e-01
3.140135218538894213e-01 -6.041680131466624637e-01 5.472089100434945896e-01
9.084908754522085239e-01 -3.298010046378737070e-01 2.807106894837724798e-01
-1.391301864916127673e-01 9.564878922765901459e-01 -9.266538703949042666e-02
3.510870787390500680e-02 7.883262128435718497e-01 -4.406003768268611509e-01
-8.497683935624515961e-01 4.439969123657698247e-01 -2.667149852321253345e-01
1.321536943282786425e-01 2.770146733941473149e-01 -1.250550443989565386e-01
-3.118750074611066347e-01 3.158243509016096101e-02 -5.218778112183928425e-02
-3.027324359600303549e-01 -4.611776726702674495e-02 -2.263376630954575253e-01
-7.775697632561474615e-01 -5.122265506341951991e-01 -2.839361265104119458e-01
1.128765485217423648e-01 -3.737703558561842887e-01 -4.673061303046213005e-02
3.865169313594124523e-01 -8.670817876871352858e-01 4.527564666283226402e-02
5.340804162179337844e-01 6.759949509254973288e-01 2.808457053878429255e-01
-2.069392429469535111e-01 -2.515203334275263880e-01 1.044258592930498789e-02
-5.296758833962752488e-01 -1.553139706042876156e-01 2.202935553825049464e-01
2.434743165351204580e-02 3.484834378343555361e-01 7.441833607822113950e-02
-2.683836225701078868e-02 9.739504247424565220e-01 -1.678688160508510219e-01
2.380167757949116503e-01 -9.617255202169607831e-01 1.905086471356420841e-01
1.372250735590797299e-01 9.388101601411509289e-01 4.316569366951632930e-02
1.214988076968243763e-01 -4.134170885482447155e-01 -8.656885596698704610e-02
-8.217451035045374164e-02 -3.326838208609214642e-01 -2.446684702788932270e-02
4.744997186780533505e-01 -8.570634280431741470e-01 1.662830542956692526e-01
4.413109982123538111e-01 6.987068986632377632e-01 2.828062834582866225e-01
8.295516603134792111e-02 -3.116857780631666075e-01 6.740439317520741103e-02
2.775026369198298481e-01 1.216323170578147844e-01 8.661431047711061482e-02
-6.412082240302978686e-01 5.231130257834230024e-01 6.361554440800688826e-02
-7.913686681786292754e-01 5.453097486118173576e-01 -2.339327382118460696e-01
-3.506101201255997779e-01 -8.853198443231578008e-01 2.707104834397899840e-01
2.018291051986030871e-01 5.533054782063344668e-01 2.875361061947096508e-01
5.675241655555601783e-01 4.893407406950301963e-01 3.844716471240161026e-01
-1.132492644055031333e-01 -3.137942164087869079e-01 1.819349216738496422e-01
3.853647691656105767e-01 -5.959780173961286287e-02 -5.686859493831641216e-02
-9.038787637963123511e-02 -9.986520182258451506e-01 1.491741592631462276e-01
9.639986512428229404e-02 3.568926239929684496e-01 1.347007706485311984e-01
-5.523248601125306800e-01 -3.709772021868533720e-01 -4.217570192864770195e-01
6.378926331834620100e-01 -5.226898535185412475e-01 -6.466569340629409191e-02
-1.134760945276526156e-01 9.413923795756373725e-01 -2.798351601668173649e-01
-1.685372526197729814e-01 -9.915955353843708409e-01 1.226446677182684158e-01
-2.100704181838217721e-01 6.887693277204843811e-01 -5.082164104581246011e-01
8.184873613653890212e-01 4.228891185817827691e-02 -1.352601077317278355e-01
9.584274788375786447e-02 -3.614041648476190582e-01 -2.906507992247016336e-02
4.581704652545725009e-01 9.327507711900090426e-02 4.511336670452244513e-01
3.258411954812016065e-01 -8.283827352932340848e-02 2.230381585912065770e-02
5.066767212013114641e-01 7.632546307202492386e-01 2.054919356449610435e-01
3.862937793881408011e-01 -8.903604648702295732e-01 9.792335864661733114e-02
4.729864465255056993e-01 -7.559939953711866112e-01 -2.206574269884910636e-02
-2.691956096836258250e-01 -5.643893496816990707e-01 4.182843817224174976e-01
7.506337452646195674e-01 -2.760076531533266486e-01 -9.437359827247525368e-02
8.183830472097685105e-01 -4.830740065985507092e-01 3.403492562886913930e-01
-3.232450973643596903e-01 8.547301301940687934e-02 -1.209795927517784940e-02
-7.964065919760002776e-01 -2.097317327167629863e-01 -4.288255715158918457e-01
2.681582884783349496e-01 -5.254185497727977827e-01 -1.392464999997456709e-01
1.492262218446079869e-01 -6.047673739937721171e-01 5.293757146177879847e-01
-5.083886766627837561e-01 -6.772762918222619000e-01 3.212133972965152684e-01
-5.645505620285575787e-01 -5.622387038974376861e-01 -3.515301551153265924e-01
3.421232110526506442e-02 7.656866060531178908e-01 -4.516424604490622552e-01
3.231480288429168235e-01 -6.845849382693934559e-02 3.018854565040855753e-02
-7.769523359440569377e-02 3.891930554791693808e-01 9.856432930740373355e-02
-1.318290160638587449e-01 -9.504277115553285693e-01 -5.659893704699845568e-02
2.754459374008194628e-01 5.056017558881416019e-01 3.176985866445636297e-01
4.880959704299826507e-01 -7.749681495584093138e-02 -1.296554395125991133e-01
4.479925124848125328e-01 2.609364070551995485e-01 4.174182740056626151e-01
8.875148219817140527e-01 1.669771185016519222e-01 -8.660351533661869716e-02
5.977966283587593521e-01 -1.537367135540387564e-01 5.452733463984467122e-01
-2.770527434817257606e-01 -2.366487534083102917e-01 1.389209463233900266e-01
7.595298234595631026e-01 5.805357159092834340e-01 -1.089213527653474095e-01
5.589762282507250157e-01 1.193138530611786707e-01 4.877805726216788984e-01
4.036567518848743208e-01 -2.333611518099000526e-01 -8.728880887127156429e-02
3.041472334260859611e-01 -1.558597379509736244e-02 8.598492247397038213e-02
-6.130882657514502565e-01 -7.280029673285252079e-01 2.050260834355301653e-01
8.521772534504430396e-01 2.862200945533913687e-01 3.554460700666617901e-01
-9.826480848042021821e-01 -7.581521485001906091e-02 -1.343626389757692774e-01
-3.482354541949195248e-02 8.619781200375933317e-01 1.212986412912242934e-01
8.417932763926934125e-01 5.157496313282040612e-01 1.346095529884367703e-01
-3.617294077725257129e-01 -3.626877414039297864e-02 -3.685317688095515187e-01
4.551380609762681884e-01 -7.771134367378964569e-01 4.289021950137159034e-01
4.329037472083063082e-02 3.146135215743209312e-01 -2.580072117140845278e-01
-3.742624406290895878e-01 -3.215473569620534988e-01 -3.566131248777379970e-01
8.948671876745812881e-01 -3.712959619818156365e-01 2.697656084249077657e-01
5.045528505964351762e-01 -6.188886462017870738e-01 -8.646872895740251308e-02
-5.051122536042920164e-01 9.483755667212888374e-02 1.412815784813292452e-01
-6.080692851261705334e-01 6.237519681203245181e-01 -4.381610589309900550e-01
-4.989542877127785547e-01 5.459193688625196828e-01 1.152996799412500661e-01
2.010538827595713951e-01 -2.706657700378999887e-01 3.888344974646330554e-01
8.828801186184167538e-01 2.828543506339809555e-01 3.209013661725260702e-01
4.843816376323235029e-01 1.719532191500351692e-01 4.501675213862209590e-01
-5.045917621601136993e-01 1.358041831374672548e-01 1.376271105870445766e-01
2.987793749851253011e-01 -3.589361133689854266e-02 1.026626127772804764e-01
-5.277365946947814024e-01 4.578023413934331209e-01 -5.420869155207785894e-01
7.281830877652505363e-01 3.571123817519957222e-01 -2.206338094542324435e-01
-8.573208550768426361e-01 -2.197525200684199709e-01 -3.818344237422797161e-01
-4.178835693949841112e-01 3.171406507099831795e-02 9.662909716950525418e-02
3.765500288946850849e-01 1.713099223215563682e-01 3.721320215771380391e-01
8.472030564236149308e-01 -7.974621715432328450e-02 4.525483982430921759e-01
-2.306560688749248467e-01 1.831263570341503111e-01 -9.042989187161214193e-02
2.483559019738242613e-01 -6.707414014345597364e-01 5.320981207382041722e-01
5.720713890891664377e-01 -5.914011136679587360e-02 -1.611861455860847947e-01
4.227396811701110702e-01 6.678356407877855672e-01 -3.506853331399259477e-01
7.861952319986789117e-01 -5.322874628980787115e-01 9.104945181478255045e-02
-2.591017941315560957e-01 -3.161584481667794599e-01 2.485401422674262117e-01
4.743324427348014627e-01 -5.221896797725653627e-01 5.533419706214596223e-01
-2.124457794256502663e-01 1.821632756702358524e-01 -2.745740404823865943e-01
-1.401810061739873770e-01 -6.198814538128820661e-01 -2.537061298100264928e-01
5.938265484432889707e-01 3.313596453751931348e-01 -2.757193679602144010e-01
1.070312241707998546e-01 3.411249777523315263e-01 1.235864362326004884e-01
-1.216641264631986574e-01 6.369454020314346820e-01 -5.110654042365460059e-01
6.160171912281315887e-01 6.811698923710842735e-01 2.364191631540510097e-01
4.175073436067391341e-01 7.258522837852696696e-01 2.660085372832680095e-01
-7.155593966889524093e-01 4.305399474742811483e-01 6.134452910199243020e-02
7.312375313905684904e-02 4.893283078888738813e-01 -4.388297169958700339e-01
2.892218071571924787e-01 9.185084186968334174e-01 5.177079424562252424e-02
-9.105083726248163201e-01 3.181573743698466461e-01 -1.429074631841859566e-01
-6.253177021804869895e-01 1.877166154648977348e-01 -5.389344361319483578e-01
-3.630428135849372295e-01 7.441042425070135483e-03 -3.879614535125487929e-01
-1.402740377885578205e-01 -3.333607015291693565e-01 2.456720967234179709e-01
5.771197578832231168e-01 2.996617457561547848e-01 4.483896697718668389e-01
4.310825935911167806e-01 3.785049889908311260e-01 -3.182703148863287312e-01
9.299653757038230939e-01 1.223570083296998401e-01 3.255693961665394043e-01
-1.614945009464860137e-01 5.116345977496683517e-01 1.625487095474711097e-01
2.909080396682038883e-01 1.047946738729081673e-01 2.031397895919708207e-01
-7.847769372869795035e-01 -6.155627356150744633e-01 5.088445914228299088e-02
-4.735894723649246574e-01 4.043172168664707078e-01 -5.518981435958985049e-01
9.378463263054204191e-02 5.489960349677505125e-01 -4.549034854728139510e-01
6.109108420174055309e-01 -1.406335513789188085e-01 5.435261440881697936e-01
-9.414211057253173143e-02 -3.084580889938719483e-01 6.887573073663108558e-02
-2.703713530474015636e-01 1.600964041092556300e-01 -4.848934684303556758e-02
9.397133417897369778e-01 -1.865196077743853931e-01 7.989776523664970931e-02
3.070651936528191461e-01 3.482059155990565591e-01 -3.033534493029463319e-01
-3.142523870983546241e-02 9.516000165326091720e-01 -2.644121077550796728e-01
-1.386305785626719134e-01 -3.378611241640795959e-01 2.549707561011896884e-01
-2.600573051118589274e-01 -2.334613276505024815e-01 1.092778674163801672e-01
-4.759473100483604946e-01 -8.651091073537210407e-01 1.793341401336288887e-01
-1.632694292144283021e-01 -3.025310967475542956e-01 -7.333375985894748095e-02
2.419019980562173988e-01 2.562890678035230074e-01 -1.744465710027500449e-01
3.248096147169661670e-03 -5.721121645425528701e-01 4.919126150531016872e-01
-5.833092500063197239e-01 6.268823810286822118e-02 -5.234341735483886149e-01
-5.228396498853477015e-01 -5.688481174591857314e-01 3.350606983305817743e-01
9.275281064184301982e-01 -2.027916818188987280e-01 6.011251628713434186e-02
2.230870266453867101e-01 8.685735395648789270e-01 -3.243644392479523852e-01
-4.278769560277197181e-02 4.414006620860810304e-01 1.483917273984336205e-01
9.674215262877240706e-03 9.742429218344543784e-01 -1.740492957733840440e-01
-8.577773183308412541e-01 -5.101415187214108221e-02 1.158831529521843345e-01
4.242641790154309533e-01 -1.392417420777531389e-01 -8.829508475276368062e-02
8.816280821501969456e-01 -4.041547889008027528e-01 2.641706988060190664e-01
1.571336770477416434e-01 8.506787632386572096e-01 -3.672405721262749778e-01
2.451419988575952169e-01 -1.806373703701575906e-01 3.285128886512727608e-01
3.762923452565392068e-01 -2.941215967911584017e-01 -8.924514716675253923e-02
-3.185923928433830321e-01 2.483437489030651882e-02 -3.728357505797350036e-02
-3.873291058814455901e-01 -2.341026151228267349e-01 2.171463931066558994e-01
2.557552654757626678e-02 -4.387443023924698648e-01 4.378044152076651097e-01
8.633064408310157090e-01 3.655241461191274799e-01 -8.469957752263888862e-02
-2.405924073432836319e-01 7.495838639174606799e-01 -4.809301014682729747e-01
2.190544214300097769e-01 2.453313785633698119e-01 1.475953444143806026e-01
-8.117243365680385514e-01 3.850257586069259497e-01 1.615016992353823181e-03
-6.653096366246687987e-01 -5.231529577087756788e-01 2.612967992210925017e-01
3.142419892318328856e-01 -2.073701831725907885e-01 -1.512202674999804826e-02
2.724889788586946082e-01 -3.706908049359832202e-01 -8.304552730860484400e-02
-9.492710245231685828e-01 -2.900364077507759930e-01 -6.488808020862169013e-02
-3.400078029419310033e-01 -3.400582315010025614e-01 -3.315097902898111459e-01
-7.676864081606638024e-01 5.181325223072262842e-01 -3.608027152800928894e-01
3.175541434608433484e-03 2.896386204784517360e-01 -1.757462724434304957e-01
-2.717887443010421622e-01 7.545023309276929768e-02 -1.926256854731802914e-01
5.517073213455330194e-01 3.851471967269379792e-01 4.217734412847843339e-01
4.804272812671170900e-01 -5.169853428579715970e-01 -1.184284584729073109e-01
8.747626840166203288e-02 -2.890590934427497150e-01 1.567174228614699460e-01
-4.383530049659833394e-01 -5.842216623479378201e-01 -3.419568754943392297e-01
-8.519585779015881322e-01 4.505635037575810853e-01 -1.844438247990364821e-01
-5.050493678108205486e-01 -6.363068658517392027e-03 1.597173127582290353e-01
7.317659200108069806e-01 -5.066951305858971022e-01 4.427421939528168870e-01
7.525916737556559433e-01 1.367080831053018586e-01 4.722162205938528756e-01
1.174823923026665912e-01 -3.856535213544231566e-01 4.399564243724938262e-01
3.096190560532020575e-01 7.626455428291961658e-01 -3.663292479330468310e-01
-2.831486170600746588e-01 4.615568594550201187e-02 -2.165934660244434873e-01
-4.681577931586868857e-01 -1.582848231316604792e-01 2.031273895860412626e-01
-4.954064215267725557e-01 1.104664185861463366e-01 -5.146274976378193422e-01
4.626871982302622199e-01 9.181002402045602973e-02 -1.695739637502247099e-01
9.035631595467140675e-01 3.129155116142825488e-01 2.654146234200634447e-01
3.523948439093225193e-01 -2.999068962983363895e-01 5.188451933531900151e-01
-9.299746347957794645e-01 2.766150534780922321e-01 -1.888821114801156609e-01
8.376992602911209618e-01 3.587650422858270627e-01 3.281952053366049005e-01
-2.395954867192776339e-01 2.475360057693849758e-01 -4.168195240680306335e-01
-4.896693549944127616e-02 -4.742696545465389657e-01 -1.759235769657120918e-01
1.359283902210166664e-02 6.421290424473149461e-01 2.246194453608031660e-01
2.818376562890919090e-01 1.343463230471510783e-01 1.561985858035491899e-02
5.415539506043296480e-01 -8.144218293929699204e-01 2.426030774456671701e-01
4.346110230123815810e-01 7.869825093553073359e-02 4.381549061192240857e-01
6.652353210577556242e-01 -2.152322664201972435e-01 5.427029880318784416e-01
4.851256980449014655e-01 -6.248161752829438642e-01 -9.177088034459164601e-02
8.494867630629859834e-01 -3.048332741926287892e-01 -5.784371611380767150e-03
-2.426313374285606339e-01 -2.376264736372635800e-01 -1.414049705980474636e-01
6.891792889653868270e-01 -5.818175981700134392e-01 7.928971646057150421e-03
3.772729343104100352e-01 7.939801117317410450e-02 -9.897538669841483838e-02
-6.507253230473608596e-01 -2.435083402044788126e-01 2.473118625404236159e-01
-5.038764952045667878e-01 2.470489092259972042e-01 1.353627791412834735e-01
6.112934572548208711e-01 -4.257074909629306458e-01 5.420500915798589503e-01
3.724749166309248346e-03 3.474254599652239484e-01 6.388258011862327224e-02
-2.212321943833499560e-01 8.910629271056719203e-01 -3.490060594608259681e-01
4.247041912961653232e-01 -2.144067842908420063e-01 -9.492567206028465487e-02
-8.193395272181610567e-01 4.828997921582308533e-02 1.233008077233646027e-01
-2.122752333812395753e-01 9.416335342968383815e-01 -2.184840461739252504e-01
2.159002262150793439e-01 5.450264730748308750e-01 -4.219211347168323467e-01
-8.131961550350258472e-01 -5.688794367564740107e-01 5.156051103094450028e-02
-1.899739267025453981e-01 -9.575741905806938181e-01 -3.782946638102537701e-02
2.700620729801114228e-01 7.838934520148804763e-01 2.281462083845480771e-01
9.332525177453152021e-02 -3.559106050783508723e-01 -2.104326312182694392e-02
3.300951510509468889e-01 -1.354677867814207681e-01 2.195324077893191629e-05
7.954994030441915331e-01 -4.331217656363581248e-01 4.199969890496850211e-01
3.944822451522657092e-01 -8.454898513913743363e-01 3.807853341403567016e-01
6.845416689635741569e-02 -3.064582179926687022e-01 2.746636144727997997e-01
4.297295088601079671e-01 3.818136609916784885e-02 4.441882803626364118e-01
5.655268985614078092e-01 -4.297078065876969166e-01 5.529279837650841190e-01
3.389776736543170244e-01 4.108683935339900728e-01 -3.433009522092684285e-01
5.698551360690114198e-02 -4.246691436774758799e-01 -1.017176757395798770e-01
-3.966647501813543308e-01 -3.169651398049952440e-01 -3.721566517608556057e-01
3.130116159836793810e-01 -2.402475403088054628e-01 4.688888487589318865e-01
-4.352439018755031030e-01 -6.349461216514965534e-01 -3.213770764883950304e-01
1.880343145550360806e-01 -3.283809533592592644e-01 4.369955193153516881e-01
2.306313740601463325e-01 9.374725302165868301e-01 2.707962217617160619e-02
1.372857118617102912e-01 5.213249836866107323e-01 2.567606129211350008e-01
-2.330453946921423880e-01 8.499683579739983896e-01 6.111735120541368638e-02
5.692723092866367463e-01 -6.740114872508947697e-01 -2.104985661835145558e-02
3.188239874725539158e-01 -8.681673988400893105e-01 -7.444971636540051452e-03
5.918828590806866075e-01 -7.597209733368199824e-01 1.150355501441820416e-01
7.185024811454929772e-01 5.283782243525669831e-01 -1.966511868039167721e-01
-8.775349065385887881e-01 2.024770398815731454e-01 2.415504399966268353e-02
-2.653837670902540746e-01 5.803647637651109248e-01 1.590855406640961922e-01
4.456238431811043732e-01 -1.655618163077121965e-02 -1.174880443376675049e-01
2.311750854341439523e-02 -9.965783754063997080e-01 1.887155925849304250e-01
4.837814737369540152e-01 -8.539855495575482403e-01 2.008206111243006353e-01
-3.926687433268805094e-02 -8.255609006498391134e-01 -1.723164428604983256e-01
-3.314607402190385410e-01 8.783371829272336173e-01 -4.604748259180140024e-02
2.980259976494896712e-01 3.223123077071625708e-01 -2.801032089001143088e-01
-5.512029069054045216e-01 -4.502039628076210526e-02 1.864685651821537116e-01
1.761514265259222223e-01 -2.549399891275938579e-01 1.012849367598206290e-01
-8.720298480192473223e-01 1.299583876751486157e-02 9.060050050078646833e-02
5.675427886568430447e-01 -2.039101787585733128e-01 -1.388038976540474922e-01
-8.671473523796828786e-01 3.228521727742681424e-01 -3.132392734384399635e-02
1.970148918594904486e-01 3.290537093705735994e-01 2.074777258138495173e-01
3.063001376009432120e-01 7.646021477292808122e-02 2.537496011654528649e-01
-9.664962593319483819e-01 6.180267462780867499e-02 -2.574612116999109857e-01
-9.721571810043587725e-01 -5.203756387990391558e-02 -2.436847932284505747e-01
-2.564435636861680523e-01 7.770555679052941755e-01 -4.621339414592668393e-01
-5.971329655997739128e-01 7.212324356766957045e-01 -3.312386508040615074e-01
3.991316003885104213e-01 -1.984280508112534758e-01 5.042932966808204576e-01
1.134369638594001084e-01 9.310247443560217828e-01 5.906254518496584227e-02
-7.728084434170380268e-01 5.701285957933234227e-01 -2.373021424601750029e-01
-4.042037323619958045e-01 -4.294277549960847651e-01 -3.680753849625511553e-01
-4.380463080374206175e-01 8.553015666770915626e-01 -2.302114243835016727e-01
-2.571237298890327039e-01 5.718844351343135290e-01 1.601607251783363495e-01
8.343065074134731196e-01 -4.686499177510335401e-01 3.210434524963632352e-01
-1.074553324091297689e-02 -4.874820920268054247e-01 4.560085595701560690e-01
-9.619685821740184828e-01 -1.424827084159048518e-01 -3.270838513704264761e-02
9.713720847274504022e-01 3.532281328697887274e-02 8.209569650865275459e-02
3.414026138962647505e-02 -3.050085721449559140e-01 1.708872437011102474e-01
-1.444929987879794431e-01 4.204863385090464867e-01 -4.789861815649240073e-01
-2.841634194536462599e-01 -1.301610928957651070e-01 -1.132257057099268771e-01
-3.680539477550769378e-01 2.877754116101661763e-01 -5.174231633830334021e-01
4.246532645674407358e-01 -5.213195585991672321e-01 -1.264485367152870243e-01
2.088357391328011792e-01 -1.990135726439628272e-01 1.922342870701332085e-01
5.881849800115487858e-02 -9.425076859423098252e-01 -3.463402635022321679e-02
-1.874587537028989948e-01 -9.520717299806180645e-01 2.664290960666586550e-01
-7.453432308627159220e-01 -6.199695794736371779e-01 1.313727393466459226e-01
-8.233086451518991655e-01 2.848552728261745104e-01 -4.371204931365403890e-01
5.208529901965240905e-01 -4.685194326824487776e-01 5.554457758947161095e-01
6.554175049147307197e-01 -3.216105601851010909e-01 -1.169940509110124205e-01
5.186213793948080131e-01 1.382595209402193992e-01 -2.105433959123493293e-01
-9.404406874062063437e-01 1.136328345606009427e-01 -3.179605428784476051e-01
-3.180066526445095021e-01 6.172013662578866855e-01 1.465929191938359355e-01
-5.871571757288658322e-01 1.996640866358012634e-01 -5.423255828143194179e-01
7.697536833822768987e-01 5.080024387236373729e-01 2.828062196987814469e-01
5.246218362659935686e-01 4.198049222576820672e-01 4.086428381660460185e-01
-4.343717805969006251e-01 3.050394267212202526e-01 1.244802474893968725e-01
2.041247922474174747e-01 2.459768097193168190e-01 1.089984105788261853e-01
3.128313326774067038e-01 -2.207402387053960524e-01 4.570533107443197629e-01
8.023302850597261449e-01 -1.355260404238683124e-02 -1.342224813882983425e-01
-9.776128208135628772e-02 -4.191162613417240279e-01 -1.626195304333322156e-01
-4.785899607979015591e-01 -2.636650901008458781e-01 2.617784447809062276e-01
6.342644207657320843e-01 4.445792401200306942e-01 -2.729053522919983599e-01
3.931341613369667698e-01 6.625609562368705019e-01 -3.656721436541426895e-01
5.431757692431974337e-03 -5.678887423471711271e-01 4.915245358328207415e-01
-1.370011104427763977e-02 6.303624047681987141e-01 -4.912275454240119243e-01
-1.939812416837498610e-01 -2.853268853557657803e-01 -1.020726357471196527e-01
-1.162010613473038467e-01 -3.377507384412016256e-01 -7.604122576560190527e-02
-6.347303885673849511e-01 2.786296813971788078e-01 1.357689237699515328e-01
1.327855765522776843e-01 -3.514372963856907117e-01 -2.412648806290915160e-02
