1.099868309211454870e-01 3.021739271312144370e-01 -6.066699384703826414e-01
-6.412215404860572843e-01 2.172496166852657118e-01 -4.522000646183501615e-01
-8.482711365520562152e-02 2.302762727078974392e-01 -2.146319388768806388e-02
2.154020322680997579e-01 6.560475099972657986e-01 -1.743847459784424181e-01
-2.861766180891447409e-01 -7.857459391702831253e-01 -3.193397841690735484e-01
-2.139922490568875735e-01 -4.533537736875095092e-01 9.334969237053435120e-02
4.315006435814717212e-01 2.660684739347657923e-01 2.456293347962349161e-01
-1.909485619727961936e-01 7.159860066081469299e-02 -1.732565326498173852e-01
2.960631981126776169e-01 4.158749886004722285e-01 7.566094768003549242e-02
2.360642116586152695e-01 3.704991434696829344e-01 3.973826505710257445e-02
-2.158486449616569547e-01 -7.915274329943742249e-01 -5.146529632347938144e-01
-1.297410108970149800e-01 3.537689910487867850e-02 -1.990289858292523251e-01
-2.908536345543226154e-01 -3.525150445871758770e-02 -1.941586883949736053e-01
-3.349567719919198383e-02 -8.059182946026283156e-01 3.296833476790653750e-01
-2.162890388068268444e-01 2.525525923986567389e-01 1.252532705235472055e-01
4.888425113646170661e-02 2.793792517904559181e-01 -9.081416831369008846e-02
2.747694271039867187e-01 -2.507085264638332367e-01 -1.850149016269679869e-01
1.821147007196149969e-01 2.036210551389042445e-01 1.378863057571035056e-01
5.800641187139965460e-01 -4.905294993047317753e-01 5.877856797777081255e-01
-4.370942612177325381e-01 -5.010548412348793113e-01 -3.106258485985276541e-01
3.532616636033836851e-03 1.944752421541867116e-01 -2.093339877348150968e-01
3.415518159444888568e-01 -6.487881824490363547e-01 6.584803522668865039e-01
-2.945681387824653982e-02 -1.488031193535574170e-01 8.010706170981642948e-01
-2.731741060419691225e-01 -5.010722749532146858e-02 -1.923310707215340754e-01
5.834162832062977921e-01 -6.395994770385932116e-01 3.141071604600005895e-01
-1.273297388882998482e-01 -8.508301712337995593e-02 6.292080318797438343e-01
1.131700663015805658e-01 -1.493372760629087248e-01 -2.344206687617760854e-01
-3.949965377575725411e-01 -6.185392565529292952e-01 -3.044383361753993378e-01
4.726951679669575968e-01 -7.984078899549404973e-01 -4.529798797355291087e-04
7.480822034029893305e-03 -4.471116321260563686e-01 -8.418146196161322425e-01
1.499367249599705409e-01 -9.412117363787516622e-01 1.935012258989645684e-01
-5.341132240332595593e-01 -5.223457182482580535e-02 -8.095649490651429803e-01
6.355894136391052607e-01 -3.349758603283388512e-03 5.454068373461415931e-01
-1.742534404513867985e-01 8.172922646102857014e-01 5.109779737067212668e-01
5.261602787013389682e-01 -6.267877283351291906e-01 -5.908650687967832021e-02
-2.387887115024779072e-01 -6.200839566609402942e-01 9.389860563091814716e-02
-2.512328958422035963e-01 2.606989125093585602e-01 3.917420386679334454e-01
-4.391134567216251061e-01 8.738304413145810967e-01 -8.603179148000703047e-02
-8.236963470997624159e-02 -2.693131963773308657e-01 2.055025122678804661e-01
6.356978450583595786e-01 -1.156740329303538803e-02 5.821750822271515302e-01
2.479483443529940934e-02 8.360375470965369926e-01 5.691089533328059780e-01
-4.565496635660546976e-01 -1.324870466542601710e-01 -8.708325186137882978e-01
-5.180612807606891357e-01 5.597440651719258753e-01 5.688233526126986600e-02
1.366451211712521596e-01 1.307904546569022830e-01 -5.909315509834243141e-01
5.249365150657392398e-01 2.853379529832514860e-01 3.682094074883821566e-01
3.105272620681201468e-01 -2.308582535750975939e-01 -3.628775542649566310e-02
-1.127554987310234180e-01 2.292756040121000649e-01 -4.816731279080554116e-04
4.673404282444719726e-01 5.396492882090516696e-01 3.949527390799202342e-01
1.810895383664172173e-02 3.921626346472999181e-02 -8.674436665833655802e-01
-3.419070774922607359e-01 -3.481626713435636566e-01 -1.586133985312170591e-01
-1.293983229889346213e-02 1.899877186234122939e-01 -1.940351532727723205e-01
2.157828076177120413e-01 -6.274403655202233088e-01 6.874451470352138660e-01
-4.685213416705575340e-01 -4.947108833617755996e-01 -5.769456125727510098e-01
1.805482181320471891e-01 7.909352788140698864e-01 -1.538983618949733290e-01
-4.526961498367243486e-01 6.597547072591775086e-01 -6.199793884435501612e-01
1.640253658604878470e-02 2.052637053328993932e-01 1.236464030606597569e-01
4.838019404360531239e-01 2.364457820495252313e-02 2.543150336031653191e-01
-1.189268851372108776e-01 3.738790746907375007e-02 3.902081035510733265e-01
2.882640125497342165e-01 3.961511016146831987e-02 1.802120880414428972e-01
-5.173510961544419001e-02 -1.260881431318913448e-01 -1.784341096305990526e-01
5.735174739125980387e-02 1.560690621552831836e-01 -7.925480486788645251e-01
2.989727736140486147e-01 7.489661130576027448e-01 9.633274622231839668e-02
2.322751584872942698e-01 -2.282688916097424525e-01 -5.992114645512982563e-01
2.025949506930918298e-01 -3.551330492418847684e-01 -7.040039140012501750e-01
-5.551569940240547174e-01 7.147158972762265305e-01 -3.093908839587133919e-01
-2.456681737031106705e-01 9.842151763418290900e-01 -7.229303614418737534e-02
-1.130247976264944915e-01 -4.431155755730762508e-02 4.205134171226119211e-01
1.746146143681554241e-01 -2.917566065147890741e-01 -7.390918673936461847e-01
2.414832290344995913e-01 -8.530879410633159798e-01 -3.773969139538370099e-01
1.569422070562963567e-01 -1.637315424051308532e-01 -2.621083552983571319e-01
2.240628876418154503e-01 -9.072298274349105407e-01 -2.901401854973709171e-01
6.637397636431824344e-02 -9.558161677318482985e-01 -2.387259607768204839e-01
1.979240019014257557e-01 -1.239384095865629087e-01 -4.512901513689686062e-01
-5.434924278357283756e-01 -1.622316258814891776e-01 -7.583149734202030423e-01
4.719592621413661732e-03 -1.461443277504240190e-01 -1.738298243636689777e-01
-5.330567431697150749e-01 5.361049716666408393e-01 1.060979047516588843e-02
2.236868450053414448e-01 -8.957347551860568302e-01 -3.169233187407338725e-01
4.463037898685681681e-01 3.782559672800948070e-01 2.633519694070152184e-01
3.015858847465288095e-01 4.898318366465094775e-01 4.571907791296390966e-02
-6.127321165949224657e-02 -2.207374875207170073e-01 2.421850530839993187e-01
5.886881119632102477e-01 -5.159932747543388709e-01 5.423320962180659954e-01
-3.082163135097998677e-02 -7.417514724342353372e-01 4.158160306971422360e-01
-2.058561204902231712e-01 1.882449187276374891e-01 4.129376564109005776e-01
2.936624214098539909e-01 -2.362806790433407689e-01 -6.709058934012683550e-02
2.088993317530921934e-01 6.722357951860986613e-01 7.220047804303008077e-01
-1.190507851785108928e-01 1.970169792295251021e-01 -9.175006201790947280e-02
1.492965231291513428e-01 -2.768451736173430100e-01 8.756046205942060734e-01
-4.770071841445469585e-02 2.386906637039058199e-01 -2.389453629778827068e-02
5.778339361081954451e-01 2.628720642449823841e-01 5.269604098443571027e-01
5.182030737929861353e-01 -3.372969700906204293e-01 5.894273112436737572e-02
1.126205754308934465e-01 6.137944302147328723e-02 -7.391916553944449797e-01
3.580192995317230675e-01 1.913363173092349212e-01 2.001174152999534994e-01
5.870520656701577744e-01 4.680801571117385734e-02 3.878131877476628242e-01
-6.005122885146162437e-01 -8.893928648326841768e-02 -6.506861756186351764e-01
-1.378689895664796661e-01 -4.465274181582166990e-02 5.157868637622528007e-01
-2.609949643290004340e-01 2.749450961821490735e-01 3.770047173484785130e-01
1.952760398895288518e-01 -2.060071992459741597e-01 -1.991265081707825624e-01
4.515114164228770099e-01 4.046953828966904920e-01 2.738538662179543781e-01
9.680915087680158626e-02 2.950142988278823264e-01 -2.676078088742427363e-01
-5.181828654468165207e-02 -5.602927225000426947e-01 5.504266431514075464e-01
-1.949957002283453367e-01 -3.702143225613059307e-01 3.264611698688815039e-02
1.236860719089680483e-01 -6.928639326184006242e-01 -6.477895821984264169e-01
2.328157662079428369e-01 2.788662437378254810e-01 1.092905346203318223e-01
-7.062903720256624718e-02 5.237954755565130821e-02 3.113690988047201347e-01
2.902615058754612343e-01 -8.290077428384643454e-01 4.424728445985185998e-01
4.665711636091531833e-01 -2.977923975573898430e-01 2.490683298945428614e-02
3.150161684486690872e-01 -6.816751812061871973e-02 9.372834751044999413e-01
1.491767912256642958e-01 2.949183210056642301e-01 4.168166055509980872e-02
-1.552280205528410589e-02 -2.335219139691351309e-01 5.115824528137097316e-02
3.066379334363594222e-01 -8.210932998660764870e-01 4.500282613214900973e-01
7.954163988140160180e-02 -1.141768663987110521e-01 -8.349582571131617392e-01
2.091428631883351097e-01 3.758169644344166449e-01 1.633838770874952934e-03
-1.404472564803392332e-01 -3.368672844211327566e-02 6.112417804518814890e-01
9.568113332487582223e-02 1.813504603433118423e-01 1.450501193165110447e-01
-6.003993740082452790e-01 5.127475506307107578e-01 -5.420653991494789326e-01
1.254485691233751810e-01 -4.619772547698090294e-03 -4.023308788945650916e-01
-3.682669806733903095e-01 3.719373058960949718e-01 2.026030990565500511e-01
-1.125144796510391537e-01 -1.339939173876045497e-01 4.383525694517744764e-01
4.414991146015107698e-02 -1.152442133995375817e-01 -8.672272902590842936e-01
-2.626271285798584820e-01 2.843273597151282361e-01 4.498473600884199675e-01
8.492570205318147880e-02 1.365934238426450287e-01 -3.635747354446403068e-01
6.409798637241505281e-02 2.800305053860223103e-01 -2.034829313207110746e-02
-1.753876978553693677e-01 2.196126728652676996e-01 2.282712016744738448e-01
2.095451299856310179e-01 3.301466866673432032e-01 5.157570910874503117e-02
-5.649403737665127379e-01 2.151978274826255033e-01 -2.580047912857564296e-01
1.467549761134656350e-01 -1.349008692188955194e-01 -7.516403373211122396e-01
9.786952472034617101e-02 2.492120810733535752e-01 -6.753586287716969450e-01
6.340729710940659625e-02 -1.480635526927695789e-01 -1.972059556706653172e-01
4.209054790946562541e-01 -8.572700229753931200e-01 2.085098319388091481e-01
4.546875917649881998e-03 -1.477425985520741114e-01 -1.719189105122303496e-01
-3.288841857088306564e-01 3.497065109028408836e-01 2.778049600059661617e-01
1.275763667699678916e-01 -1.365974813088584594e-01 -2.711074453871507584e-01
-5.999269437809278127e-01 6.121023060272696714e-01 -2.890347629439490862e-01
2.937795678154198065e-01 -2.426439705895332977e-01 -8.712275225883084340e-02
-3.998038945463882055e-01 -2.462049252265726407e-01 -2.324707526420565218e-01
-5.868820660606517414e-01 4.811128109262998165e-01 -1.527812957143464823e-01
1.346766179572704003e-01 -3.450404441783119780e-02 -7.371421714185898422e-01
1.585000307126205321e-01 -1.289005568601582670e-02 -6.554611278808987196e-01
9.314265906755621327e-02 6.522319327834597003e-01 -4.555253574344331757e-01
1.110512988995330241e-01 5.433071200001293732e-02 1.974980893135089843e-01
-5.039936754537489572e-01 -5.880997845503576488e-02 -3.062001184569045353e-01
5.907924454656638957e-01 2.042132558469106907e-01 6.194774560531595142e-01
2.888287285787982106e-01 -3.089967788955954586e-01 -4.902503323340414165e-01
-1.471469365496598236e-01 5.762200579889748681e-02 6.768440977026041194e-01
6.514364037494412285e-01 -1.925216880328767810e-01 4.751435241528232933e-01
-4.290657153889557707e-01 4.121314176358197301e-01 1.308508857432039707e-01
2.967812286532305333e-01 -2.253060366776482304e-01 -3.515460683404235398e-02
5.123445531679687859e-01 -4.543006153126704083e-01 -5.447059956622923166e-02
6.418067635170985330e-01 -1.403338723230107832e-01 6.058614239262074541e-01
-4.945812775890108537e-02 -4.440426241488679843e-02 8.117477296329916880e-01
1.325811830561947624e-01 6.307490384313972909e-01 -3.897442834562940273e-01
-1.954973599939731632e-01 2.429539976597716311e-01 1.629336197031330258e-01
-3.615146746231026054e-01 -8.938947209501620084e-02 -2.168621721357554821e-01
4.952059617460411768e-04 6.905538028258847438e-01 7.145214835583650892e-01
2.893291706222297366e-01 -2.107723620958017186e-01 -8.446602150438553211e-03
-3.133654327534310946e-01 -7.364194617581516500e-01 -2.142516303005590761e-01
3.916694176270131278e-01 -8.881440874789463535e-01 7.419412693580149099e-02
-8.419251956548810811e-02 6.589341504430942242e-01 -6.497071186321030645e-01
1.847236723324071628e-01 3.805733642013336970e-01 -4.282626485290228630e-02
2.519685039721854536e-01 -2.139614297958296607e-01 -3.912686024624547482e-02
2.256117843097454057e-01 -2.059221416254830572e-01 -3.054825079011970201e-01
-1.129329833804720434e-01 -1.733996171304444389e-01 4.379191035982263891e-01
3.182521916273395313e-01 -2.845353432599098120e-01 -2.047638702735992411e-01
-5.842037385636689173e-01 -1.602963519825174599e-01 -6.510307246831114059e-01
2.236843295085265693e-01 2.851786274293325318e-01 9.981406367773695831e-02
3.508505465269709522e-01 -3.326735869146546509e-01 -2.665444872671020593e-01
4.511608325789630003e-01 -8.129885019629335963e-01 3.022168110339891189e-01
4.980154692550145534e-01 -3.057201879112011675e-02 8.538567432122167178e-01
-2.187765973762539895e-01 1.257862151958793751e-01 -1.392195227712414440e-01
-1.278135594322869772e-01 -1.172825197067737524e-01 5.239804530048696174e-01
-2.159348348316380839e-01 2.468487202386084600e-01 2.216957859551412502e-01
-9.738200857017402512e-02 -1.544576487346956475e-02 -9.399174368552589698e-01
-4.377515492734964653e-01 -3.372579743054940904e-01 -8.051544047916247004e-01
-5.017621611264359155e-02 1.016619516275802521e-01 -9.023906606304094025e-01
1.391298397121665253e-01 -2.839358511795823103e-01 8.694236613005941194e-01
1.357055527174932663e-01 4.553588262294915312e-01 -4.359021632287934933e-01
-1.737549223428208334e-01 7.423621905731300208e-01 5.833921825620606016e-01
4.911635182081638407e-01 1.230708563033292291e-01 8.451725268405509972e-01
-1.896293043068544293e-01 -7.374016439369159848e-01 1.362013397574658169e-01
-1.577718408727843136e-01 -3.390754350240151593e-01 5.458604137603124268e-02
1.957490105056073904e-01 8.589044491002814086e-01 4.499915510168949195e-01
-2.877968258777059973e-01 -5.801136497372975098e-01 -1.297776415107055985e-02
-2.776940455011221442e-01 9.702501623536519126e-01 5.218205759358902213e-02
3.661872810993819227e-01 5.687946522121932746e-01 7.166609087110891174e-01
7.410634564378638933e-02 -3.758572685997785268e-01 -8.274059723071672812e-01
4.649772275594729609e-02 -5.310575861996712499e-01 6.839284522726566395e-01
4.245823574377185494e-01 -3.055144128532970571e-01 -4.155893738914066132e-02
4.294956803970617631e-01 4.541481005192992138e-01 2.447512374581604921e-01
5.252205300947361544e-02 2.734835112477331243e-01 -1.573039595367253449e-02
2.595811912654669706e-01 -1.992011661190186411e-01 1.550673217616128701e-03
5.841684220860038357e-01 -6.366229201029202089e-01 2.093619876703252947e-01
-3.546995769065188764e-01 1.012882068980714562e-01 -1.653193394284810658e-01
2.911474192709118114e-01 -9.385428405957486897e-02 1.290222518106356187e-01
6.378321805903690578e-01 -4.471111480180950948e-01 3.626520399115260029e-01
4.411595068756367088e-01 6.006072204374670598e-01 5.059990272079720741e-01
2.255526986216428373e-02 -1.910125824410681405e-02 -8.740518490368803795e-01
2.401353645671021053e-01 7.810362573422855448e-01 5.641919944447841839e-01
2.730166128433416106e-01 -6.346785155488606778e-01 6.838223992874832291e-01
2.024875523217408435e-01 -8.869587740134490250e-01 -3.560974194189017727e-01
-2.015076279877980325e-01 9.965694537838113432e-01 1.674343653597898732e-02
3.682207337055948271e-01 -4.139603185415839381e-01 -3.678962597420394887e-01
4.661966620431548525e-01 -5.546912196700917175e-01 -2.162864745091821750e-01
-2.830112404701922157e-01 -3.554526904368492946e-01 -9.499664324927309389e-02
3.042904880727190786e-01 4.720790289105560311e-01 8.332021182011846161e-01
-5.765887062971133403e-01 3.921623884989430264e-01 -1.691871944970103625e-01
3.538405997620081012e-01 5.753164939786262755e-01 7.223972743855230361e-01
-3.410306011428249628e-01 -8.523067122102083448e-02 -2.089901880569904613e-01
-1.283139164484002614e-01 -2.839908500487881571e-01 -5.552191533849400173e-03
5.339008325945660688e-02 2.764583750494428727e-01 -1.479862503068278823e-01
-2.020197760405044451e-01 2.462167199334876488e-01 1.579184809796954359e-01
4.099249025207511998e-01 -1.210093341691680230e-01 9.013805164085371135e-01
2.096012589942464754e-01 2.051598870942574204e-01 1.431671382377164292e-01
-1.937780801147139242e-01 1.002353225782875445e-01 -1.594009783387500823e-01
-4.449870988071262801e-01 6.892315332581740173e-02 -8.974848497324355856e-01
3.706669288978140520e-01 4.593352437350068929e-01 1.556740185028889778e-01
-4.583253949137621602e-02 -4.379871864313365504e-01 6.392365733003808614e-01
-6.241883685539307836e-01 7.268671341272235631e-02 -6.475386866912902217e-01
-1.949581741783786015e-01 -3.815380016863536006e-01 4.853443429168224910e-02
1.835932420465758719e-01 -3.697541466034405810e-01 -7.284652878135234877e-01
-4.087160741821788817e-02 5.172936730983485748e-02 2.820665297348814438e-01
6.468569866491749587e-02 -9.907016127136526826e-04 -3.175204205482865527e-01
4.024106818075741665e-01 -4.121488154336416243e-01 -2.679204861329936294e-01
4.430844964697432942e-01 -7.572001438685738162e-01 -1.748408189257929235e-01
-1.620663596370366666e-01 7.709697589430705156e-01 5.673234467857719565e-01
-2.524099163788936021e-02 -3.343313759297307786e-01 7.258936678829069900e-01
2.234174890539294689e-01 -9.437175748537722786e-01 1.725220584329816842e-01
8.693226516070257093e-02 2.797192804487609874e-01 -2.609675327220696839e-01
9.322220824567029052e-02 1.034796634963476014e-01 -3.806336464809638165e-01
-5.159756043409927800e-02 2.032207297992799089e-01 -1.341577333780736847e-01
-4.963767353539696447e-01 4.234179869633036275e-01 1.133916992001337415e-02
-4.567737967713390024e-01 8.037599263037668029e-01 -3.956847423593725099e-01
-4.424573047179471419e-01 -5.554033035778502825e-01 -4.089770523356681120e-01
-3.822083622618718812e-01 -5.843110882849098520e-01 -2.239696885381178282e-01
-3.403942989278971321e-01 2.171112735139976019e-02 -1.935993486378988215e-01
-2.847552442954565111e-01 6.613806044935914841e-01 -6.954873768709215476e-01
8.834589382691757087e-02 -8.269641194513674964e-01 -5.256414241225180195e-01
-1.132332642653336857e-01 1.451889413210346036e-01 2.816841800557222664e-01
1.260389945298654446e-01 3.296084760803396074e-01 -3.865148086199404198e-01
-3.147233978121231623e-01 -5.782803808152257030e-01 -6.956532174281970793e-02
5.509660144216265154e-01 -1.683028497938162671e-01 2.300357589063923847e-01
2.217960565989257962e-02 8.126677156255855961e-01 -3.938473932077138362e-01
-5.290698070743073966e-01 4.404415417403518829e-01 -3.795713143109158416e-02
-3.040877583252428740e-01 3.786614856728288125e-01 4.585089413642026712e-01
1.956281230891543377e-02 -3.928942012878800516e-01 7.449501770700126535e-01
-4.552368313945904799e-01 -3.921829092632177494e-01 -7.451999955078679738e-01
-2.867621423335974806e-01 -6.414131596943621894e-01 -2.506279676419310640e-02
-3.938141640677825794e-01 -8.431712143875554066e-02 -9.194176098515141060e-01
-6.138355377010066283e-01 5.714777540566285535e-02 -6.806590644244702171e-01
4.539664332229490507e-01 -3.358859830892251680e-02 2.133981924179391698e-01
1.377554287345190698e-01 1.285375794772896374e-01 -5.647598265488994462e-01
-7.230240135926065126e-02 -7.794617948017636133e-02 -9.335002251864057410e-01
4.026980400569758478e-01 -6.692543726843399599e-01 -3.338962836593061256e-01
1.397856626806660840e-01 3.937511688220823314e-01 -3.439357866478244818e-01
1.032944776345426502e-01 -7.920511887393645589e-02 1.791560265847139954e-01
1.894655471792577872e-01 1.383295601433917610e-01 1.676394499789798098e-01
-4.291720775833164636e-02 9.263775819454167504e-01 -2.678444555978894970e-01
5.763218533802358379e-02 1.630615718467618991e-01 9.150552361332792151e-01
1.735365761774613214e-01 1.176001707259418938e-01 1.737522833764127417e-01
3.203488550653835754e-01 6.137696610819098897e-01 7.136898184983193616e-01
-1.568622131410269405e-01 -4.046341516599368249e-01 2.247319273273001572e-01
4.828752572970880785e-01 -9.495670769781111575e-02 8.621924442876485184e-01
-2.074732756319708771e-01 -4.842504576970972918e-01 -8.477855977879301674e-01
1.713259408850570653e-01 -2.434958672732665669e-02 -5.635735202997617099e-01
3.873459597119405240e-01 1.137273199694851106e-01 2.152266968265186542e-01
2.486093463331552067e-01 4.139209040022454045e-01 1.674317484810084605e-02
-1.894081876651671215e-01 2.193366146960163687e-01 6.654049938181113566e-01
-2.156076823026402967e-01 1.945131714277967272e-01 5.134640564366763638e-01
-3.932644679291071033e-02 -5.480696344152417021e-01 5.777447140294015293e-01
6.510354192920929373e-02 -9.652602566625109737e-02 -2.577220576671496177e-01
-1.675444092188075468e-02 -1.343224003356738028e-01 8.197047555723140366e-01
-4.001106987907370183e-01 -3.927759412487628055e-01 -8.065044190402997915e-01
-1.171915780427429526e-01 -3.185916225532567925e-01 2.534733744648161036e-01
4.988921529521617715e-01 -5.164115076388037240e-01 -1.241843982303647287e-01
5.025176616016636261e-02 -1.368503070226418095e-01 -2.046317027828746249e-01
4.056786451078257805e-02 -8.322891949185029503e-01 3.695654793755426826e-01
-5.718269526106178891e-01 5.346482241985829331e-01 -9.506664910066266183e-02
1.400717034809453032e-01 2.631043802124728437e-01 7.562651942268723559e-02
-2.493704004575373334e-01 -8.185203849524108621e-01 -3.401759709984075175e-01
2.480363636949773631e-01 -5.288678489853404496e-01 7.663326009171869124e-01
-4.344995353984756892e-01 6.143780979146548082e-01 2.686547896589667195e-01
-5.207548162767036137e-01 -1.912196944903302165e-01 -7.812019662084571658e-01
-1.164928839932992261e-01 -2.007847303305026199e-01 4.537763041572149825e-01
-1.838739310408185612e-01 -2.649052024871748415e-02 -1.912370381100155503e-01
1.275587196141436397e-01 6.100528419934013735e-01 -4.131200565718587403e-01
5.338843573313302171e-01 3.608122673572944361e-01 4.349133556642446607e-01
5.961782353128125544e-01 -5.511488893402384237e-01 4.733791732912396300e-01
-6.185292783873119760e-01 3.736804153298260434e-01 -2.877061073931865831e-01
3.483300204249432930e-02 -1.841853946190536995e-01 -1.224728250992399986e-01
1.730515363044628219e-01 9.066825690639495061e-01 8.614552018549018197e-02
4.151658670398579165e-01 7.802898056903052881e-02 2.243549352249104845e-01
-7.189913608117122490e-02 -7.314238169343646456e-01 3.699315924539276490e-01
-1.450346993004711649e-01 -2.075329330428382635e-02 5.382446641213799454e-01
-4.373162035786157253e-01 -4.509619665101780583e-01 -2.865295205364367659e-01
1.820975981523895518e-02 -2.185347599546899888e-01 4.028905123571701469e-02
-3.686926028859156823e-02 -2.168144762825940375e-01 1.910716001278218446e-01
-4.528209262046357236e-02 6.388247199400887144e-01 7.345947077656714841e-01
-5.420023223366723375e-01 -1.558143692760803334e-01 -3.842894016061154105e-01
-7.286762332242532891e-02 -7.528480715662119183e-01 3.440097045197352266e-01
2.177631286418898193e-01 8.567341159206058876e-01 4.200995061581873635e-01
3.828309533482387450e-01 -3.043058294132936492e-01 -1.048933996054461082e-01
-9.591634537998258714e-02 -2.868381834969997990e-01 6.940125378638845044e-02
-4.426803850940055352e-01 7.329544700966031390e-02 -2.162984718343096968e-01
-2.668047183496665142e-01 6.192591771548712209e-01 5.636942553497180652e-01
-2.828705461302810642e-01 -1.600855822117843719e-01 -1.813113555020250678e-01
4.012722401578231457e-01 2.984114753497127404e-01 2.162287227766765962e-01
-5.308982532582257746e-02 9.527976728578840815e-02 2.683478318817471009e-01
-2.655926159012662879e-02 -1.457605983922774240e-01 -1.663255832952235391e-01
-6.377814765248359663e-01 1.474813998997979714e-01 -4.795978448245323267e-01
6.251660064305463171e-01 -5.145304029452397732e-01 3.484862532638793864e-01
-2.866818876772114777e-01 -4.445563189472860888e-01 -4.906628533580053436e-02
1.705177643319208403e-01 1.410264548192296796e-01 1.663559235885690435e-01
-1.427216192232537151e-01 -3.951402047763560299e-01 3.137949596370276373e-01
-5.885733265769197420e-01 -1.372962604316314006e-01 -6.569829054434555005e-01
-4.189654243418217128e-02 -3.899660002163651829e-02 -2.275739229521873963e-01
-5.006727388386006394e-01 -1.563815067415908269e-02 -8.522072385163995678e-01
-3.260347488625640611e-01 8.825701576590399000e-01 -3.845556054686726233e-01
-4.541824417994538843e-01 4.181442997239405157e-01 8.695850047330493104e-02
-2.534797247323943292e-01 2.641637858327005040e-01 4.136693124329594018e-01
-5.150703561722393964e-01 -2.455658780042212497e-01 -7.604751983391810910e-01
5.901540595430048164e-01 -6.274998477638047412e-01 2.655872725267865442e-01
-1.742750387555189739e-01 -4.277747345328045125e-01 1.835941259219665000e-01
-5.554792629708762419e-01 4.308486338688297668e-01 -6.963667465230636289e-01
3.517698211923114826e-02 4.013613698304829835e-01 8.706623542856337661e-01
2.155092000455211820e-01 6.962282584148871134e-02 1.793107168459749656e-01
-5.932758122292286496e-01 -1.514629509549382247e-01 -6.013561895878342112e-01
4.907304609506533133e-01 4.956407669336241884e-01 4.336610543729993439e-01
1.316654890853759530e-01 6.783881832493907638e-01 7.350931227029984250e-01
-9.989469676904401407e-02 9.933350049534144244e-01 1.862093763246150946e-01
-1.123375597482286214e-01 1.364425241789980758e-02 -2.068592370652439782e-01
2.064953567137025325e-01 3.097520685246591410e-01 6.854748058454421256e-02
-9.366395557200085653e-02 -2.066412397445317739e-01 -1.005490366341485614e-01
-6.238537718134598009e-01 4.452064393678057952e-01 -2.922951062977264258e-01
4.790673170563433669e-01 4.256222583401977899e-01 3.297697356301876881e-01
-5.887177846804335646e-01 4.596545982536839325e-01 -1.654529209118127675e-01
-2.157989219948662774e-01 6.159919129274382676e-01 6.244183879497674505e-01
-1.171739642313702062e-01 -3.160435063995196137e-01 5.050988376605872743e-01
-1.731860875107108233e-01 7.766511592121864149e-01 -5.705666054838315349e-01
-6.905431342016056517e-02 2.303381841075729242e-01 -4.274753651541933486e-02
-1.084648771764869582e-03 1.760616828646461018e-01 -2.211661498766103184e-01
1.532572638236111631e-02 -3.033897503833683507e-01 7.853238457699316388e-01
3.303248056980236935e-01 -1.046059731940736509e-01 1.273440814047454017e-01
1.725837596113991568e-01 -1.530661985243737810e-01 8.311267818980962174e-02
1.249198224655638095e-01 3.469447546694893747e-01 -1.238417930859974370e-01
8.622427525707259191e-03 -1.951860206434009870e-01 -9.738444444924836130e-02
3.991654047474598177e-01 1.024316311301568527e-01 2.197829462725618965e-01
-3.088226835597303599e-01 2.293547289649107701e-01 -3.502349342783842717e-02
-1.851584368679313197e-01 1.218604156907932695e-01 5.727318379852956998e-01
-6.544281756135120198e-02 -8.059722242634259626e-01 2.850071962095732658e-01
9.160132825312254645e-02 -5.815525513378684390e-03 -3.474589092761213305e-01
-1.227289235225214881e-01 -6.253409600467324525e-02 4.565790928464987797e-01
-4.000531667043777939e-01 4.536965806703170401e-01 2.625609995575932665e-01
-4.324924462194121855e-01 -5.809240005660765149e-01 -4.657997671321962851e-01
-2.614492714891785696e-01 8.507986887217202643e-01 3.865253689079579669e-01
1.709396969427849355e-01 -2.229550573876605546e-02 9.417870752244048571e-01
1.640960090651138736e-01 -1.199252941724981564e-01 -7.132286721515378458e-01
-5.891683452592502146e-01 -1.689043776310837353e-01 -5.983072847971157016e-01
-5.852806305912655604e-01 1.932618478282753516e-01 -7.436998164548090928e-01
-4.429967565618733727e-01 2.514583595964557938e-01 -9.732836495503925656e-02
-3.298118920442622559e-01 3.217215331728913164e-01 1.625408129232799037e-01
1.313797228626756297e-01 -7.277337011269657818e-01 5.651694296406838403e-01
2.037773329961863333e-01 -1.674226426948928481e-01 5.488798036821634918e-02
4.917911068679542974e-01 -3.089837389752875252e-01 4.671082428253772040e-02
-5.840706152758525782e-01 5.662275442432245232e-01 -1.360955903644827658e-01
-1.037728540633963900e-02 8.658608509657229890e-02 2.420993119180348263e-01
-2.290478064703678485e-01 5.695952032493700745e-01 -7.681191210676541203e-01
4.692987595255663225e-01 1.872616233893481252e-01 8.491667567469229905e-01
-1.824755950929438097e-01 -3.570385477710894540e-01 3.646109156654173122e-02
-6.264926037554030547e-01 4.204013230512672616e-01 -3.063848194076984610e-01
2.141275336221823769e-02 -1.737418924862389469e-01 -1.398209769312399320e-01
-4.745706984806877249e-03 -7.166936056494521701e-02 2.614363064339896847e-01
2.387505174718420331e-01 -1.976728706452068884e-01 -4.652917485507637174e-01
-4.963404835296620909e-01 3.899231973954754848e-01 -7.826004480666269858e-01
-1.721086234094842959e-01 8.606765399828174568e-01 4.587912971875148238e-01
-3.833902442432589042e-01 9.191217112501388620e-01 -1.267753775022076035e-01
-4.222972933662783590e-01 -5.471374144363059244e-01 -6.206906142839754281e-01
-5.495931417287533982e-01 -3.416809330519325616e-02 -7.921870648167100848e-01
-5.040879298949433318e-01 4.599103636365903802e-01 2.929241720044453712e-02
5.710171709338964785e-01 -4.236374125684015945e-01 9.707640515887874799e-02
-1.942224665714548104e-01 6.212386020786505592e-01 -7.247272535177546882e-01
-3.532371334096519599e-01 1.673650017536464640e-01 -1.206083130871561243e-01
3.437697571850997225e-01 -1.109018194100195587e-01 1.260666957349114992e-01
6.400347210332504311e-01 -9.268975677024032800e-02 6.067181572214417340e-01
3.074207589962045795e-01 -3.002280142336721247e-01 -3.660825130482894818e-01
2.884991692129463825e-01 -8.493622533743102609e-01 -3.265065934544633675e-01
1.303754457700299352e-01 7.054161193625350934e-02 -4.597059807881279103e-01
-3.946942811990432620e-01 -1.158265787326622914e-01 -2.337664205904946002e-01
-5.398791496685581004e-01 4.793719193702727366e-01 -3.455413126495217313e-02
1.508423752050440381e-01 5.434109497481406370e-01 -3.736050241185020493e-01
-1.047194055138231557e-02 5.351691120584765697e-03 -8.947128286576608858e-01
3.610651731379683760e-01 -8.486980952572924508e-01 3.566488546763116885e-01
1.502380275991029024e-01 9.305319057562332352e-01 1.510873193465545605e-01
-7.830835336640014355e-02 2.323650619637273596e-01 5.274530544230354029e-02
6.468224035517890214e-02 1.298666682466532163e-01 1.847201393620774845e-01
-1.454830564302374285e-01 -4.726979515673990218e-01 3.602673001332178937e-01
1.480847169375469341e-01 -1.993025143822889644e-01 -1.333555527582375722e-01
-2.799871375467650747e-01 -2.404061660553113433e-01 -1.526793878183561604e-01
-1.272886345866207879e-02 -8.027210119486605233e-01 -5.825879414083121599e-01
1.035256397717808918e-01 -7.652900356071205834e-02 1.803839734886852619e-01
5.960912758541992984e-01 -1.775757409096573314e-01 2.936458274891805553e-01
-7.770074724701456909e-03 7.032603597086690694e-01 7.022128845760059468e-01
4.865744876808508756e-02 -1.567718214692533085e-01 -8.657118883706768075e-01
-2.802805938391844665e-01 4.029148567882502308e-01 5.457834442264684061e-01
2.326046738477789977e-01 -6.755917174957685178e-01 6.450972109406397648e-01
-1.212148961667971203e-01 2.165908819920332740e-01 -4.741467507661114439e-02
1.785286958588097883e-01 8.766229367772334635e-01 4.246557183743154273e-01
1.040393114837165206e-01 -1.256217820498363724e-01 -2.604898408728740233e-01
-4.770252126457752984e-01 -4.923157186323168233e-01 -4.794709318859725622e-01
-1.566441308475461092e-01 1.066156576176193055e-01 6.826490711144378443e-01
3.491109375010844063e-01 -2.702515602149809237e-01 -8.316028342590259248e-02
1.124602855982626270e-01 -9.115645169870707498e-01 2.656796708717592548e-01
-3.955518762927927590e-01 1.548088412239677636e-01 -1.473475269017525124e-01
1.514456383085051872e-01 -1.972171221021726262e-01 -1.507607378232148354e-01
4.436357221433680914e-02 2.600209744936370915e-01 -1.752318141387931294e-01
-1.413254988312394600e-01 -1.091681727497371135e-01 -1.772636492093670468e-01
1.751050618129360581e-01 -1.282904302586733158e-01 -3.652423527416672200e-01
6.449742960862990815e-01 -8.213111348591987937e-02 5.503219342588018259e-01
3.424995479504238660e-01 7.331734090554647976e-01 4.927575402864918241e-01
2.685436097806759292e-01 7.310155367698887297e-01 -5.548331783665949070e-03
1.944029141912609615e-01 3.901666643207100105e-01 8.974333160717172797e-01
4.926198113169302784e-01 -5.222876565291294515e-01 -1.419623449189702791e-01
4.898899909240934658e-01 -2.093589531400458781e-01 8.368998492222664565e-01
-1.494633088068596238e-01 1.582861218501403489e-01 3.162353331698332659e-01
3.816476570549297564e-01 -8.500283265388849374e-01 3.277598211097701442e-01
5.732986545747646989e-01 -5.921705905825497274e-01 4.799659648549894353e-01
-3.564774217639368054e-02 -1.697949095073029435e-01 2.494569312497143254e-01
1.323263422726215222e-01 -8.630420674108673154e-03 -4.135611779853554104e-01
1.600229860877102894e-01 -2.052406485691911087e-01 -8.691290045650608420e-02
-2.576763518427130795e-03 1.395374922737138527e-02 -8.879882138093235788e-01
1.895343489336527021e-01 -9.473871358708397805e-01 -2.049900935552693149e-01
1.229372224906346428e-01 3.844640106501759358e-01 -5.083455938460704759e-01
1.573146632519853427e-01 -3.907157207849991098e-01 8.291055801828117744e-01
-2.227771020600034790e-01 2.467287198211945976e-01 5.828602807580234024e-02
4.556519851122214915e-02 -1.272339372296396424e-02 -2.941252534206770797e-01
-1.457867244155565123e-01 1.387426074371383988e-01 -9.341014676044984144e-01
-1.638284152342379674e-01 1.461115482064133560e-02 -1.927217162067687006e-01
1.162463882492676265e-01 9.251735796084864516e-02 -7.152153384966351002e-01
3.996248867897200796e-01 -8.823519364324738934e-01 1.029588436133768992e-01
3.685461355547868800e-01 4.565213932849114808e-01 1.531725718994987884e-01
3.795041542811521118e-02 -5.765836799656804956e-01 6.433319066647785744e-01
-3.832910049716211631e-01 2.715764670339463338e-01 -2.316335726922090499e-02
-1.981016672832402459e-01 -4.457515708983652014e-01 1.273307664460792965e-01
3.037921439872123819e-01 -4.645485459451580423e-01 -5.467912364718331419e-01
-5.890541387713238430e-01 -1.678187428358271505e-01 -6.037315569043214536e-01
-5.613640140312513571e-01 4.358906842913800039e-01 -1.094229176164575462e-01
-1.545225169188269715e-02 2.142516798993401306e-01 -1.582265228037023908e-01
5.066644702507524523e-01 4.022189818107088644e-01 3.835990614726122461e-01
5.877647868587796420e-01 3.740192312334331831e-02 7.344448156939311634e-01
-5.956765147295171869e-02 -2.596012667107852057e-01 1.206801684010458814e-01
-3.848278653173847763e-01 -2.241942397288485822e-01 -2.229569356851271722e-01
2.224731528227665289e-01 5.571710039133734860e-01 -1.503758849869938630e-01
2.046785485043081387e-01 -1.657055737821558627e-01 -3.669371650714765010e-01
1.642754533465123901e-01 -8.315476860323989250e-01 -4.771732260502171141e-01
1.244725310068160590e-01 2.822095917872780024e-01 -5.275352103075545696e-01
-1.212488500221024779e-01 -8.357916595506963142e-02 6.578189886136620590e-01
-3.743086609410176124e-01 -1.648373399126767946e-01 -2.216880385430138600e-01
-4.379899559230512190e-02 -9.375354498880580367e-01 -9.389089081907272399e-03
-1.251979589148341787e-01 -1.135513020964260406e-01 6.102588833445006244e-01
5.609660556618178973e-01 -4.030599310636987509e-01 8.666575008000577951e-02
8.421943381703120594e-04 3.393162752453041109e-01 8.709140338385072955e-01
6.313872605044108521e-01 -4.518099319513151357e-01 2.983701778327683130e-01
9.801291791016195076e-02 -9.733989884259495184e-01 -1.054229800724756777e-01
1.231697622927649255e-01 3.039668589686834732e-01 -5.313048483400124589e-01
1.475694384254828961e-01 7.193886151954746733e-02 -5.606623318063417294e-01
-1.011577326819296380e-01 -2.857387362417095900e-01 2.558881763642196772e-01
2.848897386080766481e-01 8.090377305234139893e-01 1.768419680935562621e-01
-3.229335597822584614e-01 8.208541642910864855e-01 -5.001960925331992991e-01
-2.272115774421957710e-02 -1.110971076691480014e-01 2.682377257263709458e-01
-3.173244623676100273e-01 9.010740941598446296e-01 -3.476789593711858140e-01
-6.101893833651717697e-02 -1.693259275966498278e-01 2.948533109027243193e-01
-1.014241619190099225e-01 1.387221874498033858e-01 -9.193162174049958058e-01
2.614795385184200405e-01 -1.874916246804289588e-01 2.452329351641676855e-02
7.648067277075235038e-02 3.565182310093770734e-01 -6.676995017388329678e-01
9.348502187065850511e-02 2.642055799891884216e-01 -6.783710714062829439e-01
6.245465432457836252e-02 -1.523255464006341986e-01 -1.903026958809395930e-01
-1.725108727957812282e-01 9.747972490224808828e-01 -1.937546220714355116e-01
1.533511810547975307e-01 -1.687891351819618413e-01 9.107799943789446351e-01
-1.270398392679203126e-01 -1.293959085532195852e-01 5.603277226536486078e-01
-5.561963746544992260e-01 3.213653175854367938e-01 -1.765157419565187291e-01
3.170180887720303042e-01 3.909548661407615255e-01 1.117460082221312656e-01
-1.239222376197345599e-01 -6.391667749495077988e-02 6.630613971535046502e-01
-5.757959394180929280e-01 6.769413093099555523e-01 -2.480109920989283789e-01
5.410455543392882483e-01 1.599862095180042687e-01 3.539865100039293333e-01
-1.234704562258332333e-01 -1.212658079339226647e-01 4.884451458303148419e-01
1.242313584701585094e-01 2.499826731674577585e-01 -5.582546799639176438e-01
-1.186449162798534906e-01 4.831737945900633213e-01 7.610844732933360612e-01
-7.921168396498980135e-02 2.865747825815726513e-01 8.250611453258004380e-01
1.023603474713588729e-01 7.928807913166873167e-01 6.201037089330517782e-01
8.852859051891355524e-02 3.088216174383014989e-01 -1.660842894487315757e-01
4.230349055964852667e-01 -6.538307547646929896e-01 -3.009600499613961366e-01
4.115123108213836201e-02 7.323016292701137187e-02 2.196421193702720598e-01
6.212694600730699346e-01 -3.360884764121756518e-01 6.134898227918754721e-01
2.260057700573492034e-01 -1.644289744536341080e-02 9.484337852115577450e-01
-2.277143743757380490e-01 -8.230939151063149106e-01 -4.042932635535908537e-01
-2.718064577643880542e-01 -4.727465450911969569e-01 -9.798176995475554873e-03
5.561431084549822018e-02 9.384435442470170363e-01 -1.105595478313238372e-01
-1.111806820255643174e-01 -8.988562111555071787e-01 -5.709217882571692750e-03
4.787565925857419774e-02 -9.728042924146318438e-02 2.055310538869531689e-01
-4.291411825130234114e-02 2.037240589953647762e-01 1.384106136538731380e-01
-3.036792251466453041e-01 -5.795346528292818489e-01 -4.655366868787498558e-02
-1.365594650686863532e-01 8.060963260397808750e-01 -5.227602302887744967e-01
3.940807434589506664e-01 5.145483457498202240e-01 1.907090507228247356e-01
-5.857189756178731166e-01 4.275247376310374881e-01 -6.498737541332847423e-01
-3.109110682390883174e-01 5.422827738628296368e-01 5.150484909510893994e-01
-2.109612985519438572e-02 9.968168202479531503e-01 7.500352534318611986e-02
4.780371868073146069e-01 -7.554584781363098411e-01 -8.021022753497368540e-02
-9.243139206758750615e-02 3.650110953375974854e-02 -2.129359241876867537e-01
-2.220516079556482947e-01 2.118463473186487367e-01 4.265857510315927414e-01
4.061229382431120749e-01 -3.239631797466808183e-01 8.476531490016805392e-01
-2.192097006266424952e-01 2.535225546987375234e-01 1.222546793321715314e-01
-1.217321743394524924e-01 -2.865143505469999741e-01 8.920290836241337451e-03
1.285982936268589005e-01 -1.888122198322086109e-01 2.903710657426491343e-02
-4.302157185362763814e-01 -3.799372559325402965e-01 -2.611892411178158846e-01
-7.719692386795981576e-02 -3.055432088674541191e-01 6.541140118318361507e-01
-1.253521877307357535e-01 -1.152652212032944656e-01 4.977917571395923946e-01
5.174792499152087721e-01 1.852372435006152951e-01 3.282874476452490864e-01
-1.157923407453724379e-01 4.462671092078690505e-01 7.729721746872524335e-01
1.906351864149733455e-01 3.351015973609709486e-01 2.820957233595628236e-02
-3.489494384076651801e-01 5.257751225944582441e-01 4.404892186442097013e-01
-5.497739882156501556e-01 3.219753816464558938e-01 -1.655585662086847820e-01
1.413146016058965948e-01 9.635596570111086556e-02 -6.098024835921668219e-01
-1.255988538211240402e-01 -4.087344187041195287e-01 -8.882583745673923170e-01
-8.750638751261298476e-02 -2.806022228692020004e-01 1.858823293907500562e-01
-1.858337832825624203e-01 -2.215275410874720241e-02 -9.597370045622809487e-01
9.988343307109498470e-02 -6.788798168969137903e-01 -6.722658642647675320e-01
-4.732047112926678345e-01 6.745320263260601301e-01 1.680127420494380019e-01
-1.748360735474985619e-02 6.150057337887838704e-01 -6.339601860427516167e-01
1.907072224830844154e-01 -6.336556937199234740e-01 -6.393176478790508765e-01
-1.327820221573445918e-02 8.039303280347634417e-02 -8.832719713226802050e-01
-3.862051564131111503e-01 2.732558051657887899e-01 -2.340014371247880337e-02
-1.105537569833271866e-01 7.209235972082783661e-01 6.439058177636224345e-01
1.480418485134311346e-01 -1.614227290401994419e-01 -2.536378635224139089e-01
-5.074464343612530848e-02 -2.540872225058771749e-01 6.716732908730625728e-02
2.551183391643467857e-01 -8.801033035810275074e-01 -3.133325972423982586e-01
-1.333026535064545381e-01 -7.663887520689700861e-02 5.978441213976932733e-01
5.966004868311056697e-01 4.242436516086112684e-03 7.235780208554406512e-01
4.362428568328628464e-01 -8.035608641380270756e-01 -1.174259029402176246e-01
-5.882732144768441085e-01 6.351437664580025233e-01 -3.717799389757294737e-01
-2.635987854453792356e-01 -1.333786755185758510e-01 -1.819511818313688245e-01
-2.132280797823717933e-01 6.520472723615556854e-01 -7.027509128513491632e-01
8.778144441250355923e-02 8.431347513181347564e-01 -2.594087017645332338e-01
-1.141408282039011596e-01 -1.375171014975674552e-02 -2.056744432321128135e-01
1.631082713333782963e-01 5.024035031188472944e-01 -3.214386144307540549e-01
6.022282355920214325e-01 -5.351199744657197943e-01 1.759381499349309819e-01
4.276711670975306134e-01 -4.988164497205471726e-01 -2.853391628946966851e-01
2.346813074623717021e-01 -9.533379083740184390e-01 -1.025116339257766684e-01
-5.412585587104570273e-01 6.974723368918410715e-01 -5.439636500400447938e-02
2.875732840442939420e-01 8.209708263275491413e-01 3.122396194468626818e-01
1.137951144876840903e-01 -6.636711919087232570e-01 -6.756969593166984867e-01
3.425922882085264964e-01 -1.595227656527591631e-01 8.442914608079199468e-02
6.862845797941653780e-02 1.060210109787276672e-01 -3.398293326163555617e-01
-3.810973554789923168e-01 -3.760604053877646957e-01 -8.319290927883196129e-01
-1.891325154780780227e-01 -7.539246294522891079e-01 -6.051879057371399862e-01
2.384126608319989959e-01 -9.568616793542354948e-01 -5.896903726656910205e-02
2.141503316737881080e-01 -2.054916861334014078e-01 -3.387615449428849762e-02
-1.602704555899812366e-01 5.891768787627204434e-02 6.256228399823224873e-01
2.921804964527669468e-01 5.123239364510288052e-01 2.045644455393800035e-02
2.115433639587277759e-01 -3.095835234280396309e-01 8.779260372295903947e-01
6.369483886774796044e-02 -6.948305582242388090e-02 -2.787210813398717790e-01
4.400413504233155471e-01 -8.163996370807613534e-01 3.191430892483691495e-01
1.457533333385090946e-01 9.034426893125138136e-01 -1.806547501544443490e-02
-1.422064371196106458e-01 -8.884895003341662933e-01 -5.951833430726134744e-02
3.102814961439202823e-02 -1.308898495038459953e-01 8.617089536571375108e-01
5.047454933417281353e-01 -4.697300829124050892e-01 -8.283285958684490080e-02
-3.117886426911511966e-01 -2.701600975778767344e-01 -1.606167057914851815e-01
-6.024029311697910449e-01 -1.040147658341130654e-01 -5.313081701977723226e-01
6.288630862915784991e-01 -2.324966540704988816e-01 6.386489940277393362e-01
-2.670417534876590171e-01 6.455387176734448396e-01 5.522329910768093431e-01
-4.438268767818290272e-01 -4.179324469621753524e-01 -2.895355244081273538e-01
5.527612733974127668e-01 -1.443932369517606992e-02 3.084391775172570238e-01
3.407351018130643228e-01 -5.267071279756727620e-01 -4.821991413992303133e-01
-1.108532597235121694e-02 -8.139243423029658420e-01 -5.671212105175946760e-01
-1.636985951389447191e-01 -5.012210624403831138e-01 2.960605314002535682e-01
3.689248958485250030e-01 7.205266065843347612e-01 4.146436128233882412e-01
2.733481130582012253e-01 -9.436646692601138309e-01 -6.751135905077353117e-02
-6.010062303818020091e-01 -1.215325171383380143e-01 -5.654124975171727074e-01
5.964090299976834153e-01 -4.441736869126004794e-02 3.625940175466053628e-01
1.299027329241093931e-01 4.136878034997039100e-01 -4.652976124302363181e-01
-4.824556645038455827e-01 5.510099036085469582e-01 1.409481876546997969e-01
-6.393345835325361382e-01 4.142972136900587854e-01 -3.975691259544978928e-01
3.343427737824348767e-01 -3.205846822597185342e-01 -2.959688928002676689e-01
4.426125551316664741e-01 -6.662600299949186233e-01 -2.536408244556044300e-01
1.888057726101707856e-01 3.878957740226066653e-01 -4.678834351257516594e-02
-1.843372165761774928e-01 -5.850388917539173228e-01 2.372783584270692081e-01
-3.543794157082651997e-01 8.793520816260755879e-01 1.975773876541380980e-01
-3.949607849313477304e-01 -4.276429190177942763e-01 -2.099423307531249616e-01
2.946374268169422161e-01 -2.730702330362986818e-01 -2.766689841265026484e-01
-1.220983189470697117e-01 1.389103297136023152e-01 -9.269224538661604562e-01
2.024397817834408531e-01 1.782295415193643484e-01 1.541373477496306155e-01
-5.649894601360082591e-01 -1.790012609264151899e-01 -7.012420399859332631e-01
-3.522688498812271557e-02 -8.469142371210670872e-02 -9.171328292300253704e-01
-1.183606653131312053e-01 -2.630262701434866179e-01 4.328458878679773414e-01
-1.491163163987243578e-01 -5.103022127716118073e-01 3.489966271920613705e-01
2.034027737014448556e-01 -1.221114319345490556e-01 -5.012660632954489826e-01
1.926891008711833775e-01 -1.639797274561133056e-01 6.203337813658721389e-02
-3.773426280088899576e-01 3.139655461098458389e-01 5.233242899858697728e-02
4.428892342248508807e-01 -1.214699648177941793e-01 1.615863603286102901e-01
2.030297359796255641e-01 4.706326561827650079e-01 -1.341855193210481079e-01
-2.186373821931526518e-01 2.527306039651537328e-01 1.120441608878138262e-01
-2.964171260221857285e-01 3.003459044726063953e-01 1.803556204790146000e-01
1.618313940741295531e-01 8.436798546428474488e-01 -1.175081271647268749e-01
-1.185572471082165374e-01 -7.622149113685032784e-01 -6.251660876594055116e-01
2.430790141663389803e-01 -7.850912184956515549e-02 1.386832797308247545e-01
4.542215515539651527e-01 4.234991176840474658e-01 2.815573939212944743e-01
-4.084597672042679095e-01 6.322870297354296065e-01 3.233762241995178921e-01
6.109971968985584284e-02 6.786870430173183033e-01 -4.862692559491445521e-01
1.034291178793174115e-01 9.471004799796765017e-01 2.711058099075162042e-01
3.101861440246816426e-01 -9.028702341050032221e-01 2.563426449147034880e-01
-2.285496245506832003e-01 -5.378622172652545164e-01 1.134102809939454837e-01
-5.974047708631990972e-01 1.671244131999180191e-02 -7.154892633308498340e-01
-1.080949812064013471e-01 2.121729129584548623e-01 1.561534902938957747e-01
3.125265542832825205e-01 3.206061090399638380e-01 1.388179916512858048e-01
3.364492911615313830e-01 -3.474157612174352816e-01 -3.669780429322683779e-01
-1.575206045651494080e-01 1.677241276423586669e-01 3.152115856478819866e-01
6.356969276258840618e-02 1.448769249164308659e-01 -3.249415432319883168e-01
-1.860084215682354658e-02 3.393323161429327994e-01 -8.011966725740932160e-01
-8.546094877245699606e-02 -1.159151667336043162e-01 3.655975174121981475e-01
1.227579119724042933e-01 3.495889599742703635e-01 -1.627430669432062549e-01
3.168125030754370131e-01 1.127286984448703927e-01 1.898425447986864523e-01
7.397941617060604935e-02 -6.150547252771295659e-01 6.405508483825210764e-01
4.781246697886686881e-01 3.503479891217512465e-01 3.065664661587572115e-01
4.866526888040026422e-01 -2.567981922823584506e-01 9.105576910736901119e-02
-3.296989188993622033e-01 3.882360506469096917e-01 3.809614843220271996e-01
-1.621097809000230927e-01 2.381734681262394349e-01 7.255763712584850644e-01
2.672836816112169611e-01 1.544779529383358829e-01 9.450266648638354638e-01
-6.195443798905930083e-02 8.977091235394006608e-02 2.800292695754806882e-01
4.802286960416270872e-02 -6.201750085172760274e-01 -7.384069822813732475e-01
1.972811277179409295e-01 -7.209581072391156066e-03 1.738800616993999848e-01
