-4.041671444190310658e-01 4.265213813188207803e-01 8.246969190576309838e-01
-8.730565933362479658e-01 4.753815261427340455e-01 -1.184034497937445085e-01
1.557397111261033251e-01 4.210382962595773937e-01 6.772179491595773371e-01
-2.210262778878253898e-01 4.648947105941284019e-01 -1.913239249233500416e-01
2.138194846118220693e-01 4.707318539045269867e-01 -5.491041638644941214e-01
2.559207013579997692e-01 4.668215435634548438e-01 -4.759120645144079842e-01
3.172773909395257275e-01 4.796793232778018279e-01 -8.163466950795168486e-01
7.644725891751795732e-01 4.188108219082729566e-01 4.269168527637501875e-01
-3.879568758852319776e-02 4.895679814044433531e-01 -8.768000579495897062e-01
3.327344257984667930e-01 4.355940806739631577e-01 2.381277681803141977e-01
-2.447038751894555775e-01 4.676441166119242321e-01 -2.457449262799157319e-01
5.268443630161168123e-01 4.499358701547496175e-01 -2.043528693904329840e-01
5.205798582405426478e-01 4.176331089640394345e-01 5.770802879538956542e-01
3.318710897375983238e-01 4.709380199191561256e-01 -6.130204670266073963e-01
2.307083691273237036e-01 4.433023096169448340e-01 1.033517483548119509e-01
7.999884251578832650e-01 4.504226801727593266e-01 -3.524762577193465418e-01
-2.148366893939054889e-01 4.834941583406551224e-01 -6.425510815876073201e-01
-2.788277013022684159e-01 4.591645075600704895e-01 -2.439694258507513203e-02
-6.054201347022061253e-01 4.738623088016921114e-01 -2.154432597255394877e-01
5.000916610346903823e-01 4.095255354077576015e-01 7.826554877940085087e-01
5.323448720916983401e-01 4.562283286046189823e-01 -3.587104753089550013e-01
7.789820300640277750e-01 4.501835879023449727e-01 -3.362260341267963026e-01
2.559706749890733324e-01 4.156076494634013407e-01 7.580141230473805836e-01
4.286982711704099835e-01 4.559827086889060577e-01 -3.010366883501709445e-01
3.584734815271741204e-01 4.388674088570819753e-01 1.464072042535164986e-01
-6.341194059064162447e-01 4.437206093707191101e-01 5.251238978346841613e-01
-2.307640790838195177e-01 4.388954209981271726e-01 4.399673338331921424e-01
-7.924348482996989018e-01 4.746149269240015345e-01 -1.401913245635261485e-01
3.215055001317432271e-01 4.105705870062423823e-01 8.466527228625504442e-01
-5.869024420924351393e-01 4.929428854999330367e-01 -6.844187946900718300e-01
7.452464024309235491e-02 4.227672281667282927e-01 6.761155894504679020e-01
-6.015202412335993731e-01 4.740280725204689127e-01 -2.213845893839890555e-01
-6.026920641983258831e-01 4.782351328171273175e-01 -3.221646456768380573e-01
-5.790399306051929873e-01 4.919375815283424380e-01 -6.641230660822946552e-01
1.865537860755052679e-01 4.540921466150462660e-01 -1.345708008613255291e-01
6.435820607629560985e-01 4.133094911745375244e-01 6.198328374201972357e-01
-5.779677060956425194e-01 4.647848131189040721e-01 -1.043778135238282966e-02
7.474965853890783718e-01 4.287740623921509897e-01 1.953387873463747482e-01
1.684739917548209176e-01 4.596466824633556603e-01 -2.593740523779839435e-01
8.293031500924021859e-01 4.322055957769854739e-01 7.180917412560247626e-02
6.106764740807565373e-01 4.170998064481425405e-01 5.449400809687245939e-01
-4.503893104906241951e-01 4.694932835239579716e-01 -1.875901121794370241e-01
1.299245408983523975e-01 4.345963790838298091e-01 3.634393282512038970e-01
-9.010968211092620361e-01 4.651379272866234538e-01 1.424083900637710398e-01
-5.817202977212228010e-01 4.475583311316029822e-01 4.064921309957502671e-01
-3.563629427402076333e-01 4.641812729623972511e-01 -1.065541105263171223e-01
-6.074571089308573590e-01 4.599789707386844895e-01 1.200800179344689717e-01
-1.594447155700185609e-02 4.435022436573769489e-01 2.217003182968775854e-01
-1.198416954237223192e-01 4.477638992722715039e-01 1.709006420411712523e-01
-4.609520082717410427e-01 4.770702882571343229e-01 -3.648765232552774185e-01
9.005633702046710320e-01 4.461599204965507881e-01 -2.999910042630726248e-01
8.674730387735224424e-01 4.148710552682891572e-01 4.704087167087956378e-01
2.160501426168635331e-01 4.114753670527470653e-01 8.775118931694461111e-01
2.292809174699579067e-01 4.837495288802005633e-01 -8.704735816470405840e-01
-6.846550319797527484e-01 4.820469076010260312e-01 -3.730777057462260071e-01
-7.910373109527785163e-01 4.618932765510916916e-01 1.656271495856274367e-01
3.951247909463797559e-01 4.445075738747121252e-01 -7.789112241648813752e-03
-1.030084138989681430e-01 4.401052295689251159e-01 3.470234862806695908e-01
-6.166407035870887787e-01 4.605197998286354455e-01 1.116350608359258645e-01
7.018763904678004817e-01 4.292841415701331154e-01 2.058292926051730198e-01
7.013162772846704973e-01 4.611658867864601996e-01 -5.620520118030709611e-01
2.501971868913564490e-01 4.691052450260967954e-01 -5.280776971192219227e-01
-3.477088194343766481e-01 4.433426213344374145e-01 3.912123915160582444e-01
-6.730171927252327491e-01 4.458607467935705171e-01 4.929828396052817752e-01
5.113292585495765596e-01 4.448904638214629670e-01 -7.504104830341204457e-02
-8.793868861728547648e-01 4.614837957470116492e-01 2.196104611380752525e-01
5.755138860212164476e-01 4.364643188144236019e-01 9.592856275995031989e-02
-6.566925009994513118e-01 4.551109607678144320e-01 2.619558230944347699e-01
3.944359509682575093e-01 4.486144854229846546e-01 -1.063973545596442055e-01
3.443175144836566060e-01 4.790021064549648822e-01 -8.135322383040385352e-01
-5.759258511993067264e-01 4.583064698553986349e-01 1.446322760148661679e-01
-3.773341115758030440e-02 4.555083532043522343e-01 -5.669544340565854657e-02
1.992608419005907627e-01 4.159607955311732663e-01 7.778233828970513297e-01
7.120861075568128973e-01 4.335524295393767269e-01 9.789065437034827344e-02
-5.517008453539730128e-01 4.420474897540681569e-01 5.242805512216802688e-01
-1.022846712691789089e-01 4.509808818660892005e-01 8.462336015000980483e-02
1.890651850374359677e-01 4.120283644492195307e-01 8.776628408726721009e-01
-4.973569659980544566e-01 4.620666214786113279e-01 1.480164330813261118e-02
5.878301772208235215e-02 4.436465820900367119e-01 1.809075375356521687e-01
3.968019035093438007e-01 4.791860750142228897e-01 -8.441728051649911579e-01
8.854582963479888935e-01 4.223090641140372914e-01 2.822158956219098513e-01
-6.798450888210565424e-01 4.810250040166177965e-01 -3.508577286419456431e-01
4.619332838980705902e-01 4.237612451813415060e-01 4.587136411260793190e-01
-5.725948687885930311e-02 4.864392023289063616e-01 -7.921951607327468725e-01
3.463498880152847126e-01 4.782318448272330214e-01 -7.959883640814606753e-01
8.789848178326536976e-01 4.156165628875202467e-01 4.466980112458557306e-01
2.871425088528897773e-01 4.615167021959296068e-01 -3.636874174832965823e-01
4.546507583789324847e-01 4.370014213686418403e-01 1.433404314395339829e-01
4.739134435235236587e-01 4.634420315049790906e-01 -5.033402744068100620e-01
4.799510130184968526e-01 4.204743093219803773e-01 5.289121722948270099e-01
-7.587209851694993734e-01 4.733530829723071043e-01 -1.266233446175365207e-01
2.016216506605898462e-01 4.324760989733921757e-01 3.787236411649736456e-01
-7.958539005269494870e-01 4.539860343401053155e-01 3.585499538726480973e-01
4.751562150608137219e-02 4.376558669080646835e-01 3.308746081287053942e-01
1.345636013225751382e-01 4.840767245331538127e-01 -8.310600804555388077e-01
3.402766558120748353e-01 4.635450865154016609e-01 -4.390919223370841062e-01
-2.378661688592795531e-01 4.922483540349517628e-01 -8.419755417054043400e-01
-8.493914603838566002e-01 4.649331903727866311e-01 1.215223268534364465e-01
-1.154162102889584318e-01 4.910293585626545609e-01 -8.737502168706930972e-01
-5.015208249280496133e-01 4.867410924683331364e-01 -5.776275664063724724e-01
8.204328973300361039e-01 4.417351332945069209e-01 -1.533668185969104814e-01
1.837201507364247298e-03 4.752396173152336201e-01 -5.518614362528256878e-01
-2.561423617302463485e-01 4.796216991288151932e-01 -5.286218418179476908e-01
3.867619685408678620e-01 4.677508383988446261e-01 -5.636379861198496100e-01
3.520306379013898312e-01 4.578797708505168984e-01 -3.084607475717266456e-01
-3.729905815391182933e-01 4.881270748421808192e-01 -6.752029425556066444e-01
-4.808570531654812741e-01 4.818467048270455022e-01 -4.700202778812362925e-01
8.426763961495746802e-01 4.138986801809730331e-01 5.062193631868423527e-01
4.281101244783466209e-01 4.236684554048732454e-01 4.778388778188069064e-01
-4.808145854084666104e-01 4.406242539616799236e-01 5.231751265119410910e-01
-7.411364365388906084e-02 4.561867268375933704e-01 -5.487380045667691192e-02
-3.160304215119003057e-01 4.306441229329791009e-01 6.813523297113582844e-01
-3.429471466213364628e-01 4.565586660461741220e-01 7.040635156371589931e-02
9.012753213249450335e-01 4.304896484122238132e-01 7.721411401247930961e-02
-3.024657428095754996e-01 4.715815686013666852e-01 -3.117708515192986751e-01
-8.725672128841359676e-01 4.803918149771638779e-01 -2.393660704795063654e-01
7.843897136351366539e-01 4.352129369241077295e-01 2.177755608588937200e-02
-7.318534823896190034e-01 4.577022877334897544e-01 2.370517544129092102e-01
6.081782569321848853e-02 4.116206273516851422e-01 9.515270491999945346e-01
7.082968258646772375e-01 4.585973109457174290e-01 -5.036502944821665828e-01
2.809976267922032478e-01 4.504586054510526516e-01 -9.418442273314470148e-02
7.425595515232731314e-01 4.565987342913517266e-01 -4.726054991689025986e-01
8.401932993237839487e-01 4.464067471906592033e-01 -2.757923427275529860e-01
2.936337831994294545e-01 4.821021264698653885e-01 -8.629154777850980285e-01
-6.894675774890025588e-01 4.788116706462258731e-01 -2.927245418489795026e-01
-3.954691593939497207e-01 4.942290817584485407e-01 -8.110004730414311913e-01
7.447732887942409841e-01 4.583818251585395354e-01 -5.166728420770700936e-01
2.705493885262195142e-01 4.282864058989689915e-01 4.452514170588272036e-01
3.519468713133013793e-01 4.280226791480907234e-01 4.109599342239120268e-01
-5.033415245523644721e-01 4.442462333533667151e-01 4.471557015885677666e-01
1.687746663003672765e-01 4.190382315379153066e-01 7.188986593291639693e-01
4.179911174074713576e-01 4.379833855813658472e-01 1.379868640408181690e-01
9.167114100522508746e-01 4.428304374548593381e-01 -2.278337112569233103e-01
9.006363144922782671e-02 4.792740310620411948e-01 -6.931226428914883941e-01
-1.690583751133941104e-01 4.722734556002893824e-01 -3.950580312860274002e-01
-4.743300176718382444e-01 4.702273207910425135e-01 -1.933212944821240120e-01
5.339670914709475635e-01 4.332743846006598676e-01 1.935334016332725116e-01
7.842267528901092355e-02 4.131214191448433493e-01 9.065759067634119317e-01
-2.399773483109548522e-01 4.940880254048712339e-01 -8.852464973166229711e-01
-3.081882461614812718e-01 4.859751048283875718e-01 -6.557121937306794601e-01
-3.021214154844999444e-01 4.775539728539660578e-01 -4.558423161942243285e-01
-3.083204395378158491e-01 4.374540901749703892e-01 5.134225332137737352e-01
3.269965483237740611e-01 4.260077923669218225e-01 4.719656703778611906e-01
-3.413511598670643798e-01 4.435544515380146491e-01 3.829338502560823421e-01
-5.585257538936359012e-01 4.929490688062821979e-01 -6.987376402915107532e-01
6.721393145089483712e-01 4.685920004309776510e-01 -7.264078319633665570e-01
2.141312013075696574e-01 4.309920424503148606e-01 4.082339738625678227e-01
-4.559085000703929635e-01 4.622533599712265739e-01 -1.039488780339517873e-02
1.454466141725773154e-01 4.486106094526385313e-01 1.802855449750240258e-02
8.962140053370533377e-02 4.225485847349482182e-01 6.738450507599219597e-01
3.274603971437769490e-01 4.469665325938966816e-01 -3.324730299987256610e-02
3.753270262197965779e-01 4.403199208387414965e-01 1.029944821532008670e-01
-2.437515222837395232e-02 4.854541585516566893e-01 -7.848821994918713241e-01
2.931004699789934234e-02 4.350687003493567961e-01 4.023009113029010764e-01
-1.401188487030455565e-01 4.454710748099778850e-01 2.362694865126888644e-01
9.492703112977305402e-01 4.276184052966500171e-01 1.224278065898952300e-01
-4.965400823419915954e-01 4.631097025433549286e-01 -1.073833458270087408e-02
-2.697812283870577033e-01 4.587323602163546066e-01 -1.850209949807745530e-02
-7.895647675851610314e-01 4.641334781984859936e-01 1.109162618792957217e-01
-6.524484054787806908e-01 4.417254624830054266e-01 5.823476698572824795e-01
-5.375144779880886015e-01 4.416103632324494543e-01 5.277287629539615388e-01
2.962728568437659193e-01 4.130350304151415575e-01 7.998741408235094941e-01
-2.165507770084248440e-01 4.517207559105991255e-01 1.238554235503550871e-01
3.290807742904007793e-01 4.153315351043666559e-01 7.281594029282054681e-01
-2.749698541279819719e-01 4.921981430461696005e-01 -8.222380747222822750e-01
-5.020311539818859137e-01 4.645150458782595360e-01 -4.185681514442211870e-02
-5.300577954519807289e-01 4.340108920241157464e-01 7.071074677697737343e-01
-1.236223286306846331e-01 4.619856408547727833e-01 -1.698711384896111343e-01
-4.609278489131624634e-01 4.729367000860093539e-01 -2.652936250674851615e-01
6.824230729015118291e-01 4.260947542878318339e-01 2.923886029316673518e-01
5.430967893024997162e-01 4.628125806734908476e-01 -5.227208613031141260e-01
5.421131310863577246e-01 4.644866799916316791e-01 -5.625655386848149586e-01
-8.115290946068732802e-01 4.845458568605271465e-01 -3.699331555808448302e-01
-4.477822097372527455e-01 4.664767905587752783e-01 -1.162123725449155931e-01
7.518842021098955941e-01 4.371259913130137176e-01 -8.084122520330444539e-03
-3.698480829193461772e-01 4.791127118058835510e-01 -4.595794527356882320e-01
1.658789295083555604e-01 4.264585696430656658e-01 5.415584973286948767e-01
-4.939677644127221656e-01 4.496858172525686204e-01 3.114132114815466590e-01
-3.729209007857844926e-01 4.758182893879041031e-01 -3.786690010275265417e-01
-3.281019361051606409e-01 4.836350970579980091e-01 -5.893880063106924361e-01
4.457334850354139899e-01 4.259277488514461307e-01 4.146031001361857316e-01
-2.875344833662379918e-01 4.402014731283687698e-01 4.368474546031351768e-01
-5.087049719791784108e-01 4.878347718201722083e-01 -6.003913580515046755e-01
-2.346274821108076114e-01 4.789051309540194312e-01 -5.221002270156005487e-01
2.861909776537889250e-01 4.604271776515457826e-01 -3.369611910637198560e-01
-1.217228426154288029e-01 4.172790305004931977e-01 9.063445482058775093e-01
3.792695106309978970e-01 4.631344418263946272e-01 -4.486688549349586719e-01
-1.020712334367922247e-01 4.771269484946465411e-01 -5.454483754711905164e-01
3.648104020991296270e-01 4.279641169196755635e-01 4.059475482625594100e-01
-7.148756870782415618e-01 4.445541375594390665e-01 5.453663617812722908e-01
-2.777102779258495691e-01 4.818694226895490207e-01 -5.720087376936510148e-01
-1.291060312306508973e-01 4.781658245091229831e-01 -5.569793334794981288e-01
-4.758114836435130002e-01 4.518268139134089534e-01 2.507615717607135086e-01
1.529552670847553753e-01 4.436884890384658053e-01 1.328730309170138568e-01
-9.280462074288535479e-02 4.676557941704786447e-01 -3.218769933351248169e-01
6.293117887810701916e-01 4.687040012769709829e-01 -7.077205155172340278e-01
3.078980904465882795e-01 4.682772838757876532e-01 -5.369416190303677450e-01
2.565225970324302440e-01 4.238902380984674867e-01 5.581772523216100845e-01
4.013485471347684637e-03 4.646758936881212887e-01 -2.984250660240457820e-01
1.357863477960815635e-01 4.205553747969100198e-01 6.988171802173397396e-01
1.515667189389860101e-02 4.874030862221289118e-01 -8.515799670028106894e-01
3.022673653321432119e-01 4.328180231857232108e-01 3.202279806392809847e-01
-6.896717562851004679e-01 4.887618606840113955e-01 -5.323631592264511658e-01
-4.197276631539554326e-01 4.818812772845652015e-01 -5.013781553126238633e-01
3.568635399513787609e-01 4.501693060434966975e-01 -1.250975736555874906e-01
-5.908563616049181677e-01 4.853100797847135772e-01 -4.985390557434080661e-01
-8.852880558918065079e-02 4.587636946352353640e-01 -1.097652490766662520e-01
-2.369659076812078713e-01 4.755608216951741629e-01 -4.403545161748003145e-01
6.115370144462106694e-02 4.684872546251758751e-01 -4.187891597143975631e-01
-1.321987795706319919e-02 4.372898117061234102e-01 3.700225651947319228e-01
2.440224994159789773e-01 4.110810027058807159e-01 8.730457730940754946e-01
1.436753407910799363e-01 4.373279394152897459e-01 2.907584776923008429e-01
9.064385492977129755e-02 4.274446085926527084e-01 5.553693485823044673e-01
9.060398574883583578e-01 4.472796856453840064e-01 -3.297053812116454430e-01
6.708200143933341908e-02 4.207194011956036372e-01 7.291725481318380719e-01
3.560262274991635723e-01 4.301976303072048702e-01 3.565194875438310596e-01
9.812598919949096221e-02 4.128760137261024976e-01 9.026498963334813608e-01
6.823382597802002403e-02 4.366687606730802473e-01 3.443124046124969029e-01
5.549068281086440013e-01 4.337408641385402941e-01 1.718377791536168375e-01
3.010782362029154058e-01 4.137509166563196339e-01 7.802259674099550901e-01
8.718981381468496883e-01 4.486344718097384776e-01 -3.452990678452178552e-01
-4.318164486684777925e-02 4.675947476699173766e-01 -3.451853070693329806e-01
4.889788663203543106e-01 4.398660803100836181e-01 5.717744003821312315e-02
3.825709307363997502e-01 4.192606542729022112e-01 6.067806869488509003e-01
7.427145761176721928e-02 4.251004935708154187e-01 6.200241562590768085e-01
4.790977864715267320e-01 4.750763904790854530e-01 -7.862481275285155835e-01
-7.485510072994248087e-01 4.597952462643594695e-01 1.949617540386170411e-01
-5.851996844952335186e-01 4.554293697202188573e-01 2.185842049698960010e-01
5.168916276965556111e-01 4.240806661135285149e-01 4.235741090366235695e-01
-4.239787081130908519e-01 4.729434448219629883e-01 -2.839066415271412347e-01
-4.245264349695171968e-01 4.679298112040803925e-01 -1.628342961895108132e-01
6.629160127819021531e-01 4.614856942727058597e-01 -5.505823505471592050e-01
-1.541584849139203406e-01 4.557645071177229279e-01 -4.730515335003729858e-03
8.523862526750148882e-01 4.443564434350453785e-01 -2.324807171829227914e-01
7.423143220072597748e-01 4.452631452508408749e-01 -1.993625699553991104e-01
-1.845214496210845212e-01 4.506118043181785993e-01 1.345807751775015548e-01
-1.614969250942116519e-01 4.748115956469436960e-01 -4.599879556937748748e-01
8.104399575785591059e-02 4.217631114976525541e-01 6.970534144025370971e-01
-1.554572655317160434e-01 4.293799667211696813e-01 6.316289885041416197e-01
-8.791604784107395210e-01 4.741398293535953878e-01 -8.543795306610581231e-02
4.177497675701208335e-01 4.415372247730360300e-01 5.248093206081241857e-02
-2.502031133667688700e-01 4.270461427965435708e-01 7.351715285384391452e-01
-1.346303098052824554e-01 4.886681750585907813e-01 -8.072651594696563793e-01
1.068253620087944167e-01 4.175603748131387905e-01 7.854405519060673191e-01
-6.688637366124294825e-01 4.855241259833009693e-01 -4.647434123895966551e-01
-6.740135593297534866e-01 4.794724415262304751e-01 -3.163621466766783907e-01
2.911349210090324879e-01 4.398464013670364547e-01 1.564447182663518399e-01
1.690390853806391092e-01 4.426338997060710878e-01 1.502509449391518093e-01
-4.127476589264765794e-01 4.571534130905834936e-01 9.093127528091447809e-02
-1.373291111986578994e-01 4.379373005788140816e-01 4.163957170718348144e-01
-6.737141168201664365e-02 4.391086444124559507e-01 3.532399851320646156e-01
1.443129620587343676e-01 4.594660230332976991e-01 -2.429564507877876589e-01
5.157712133031692181e-01 4.395538893364469568e-01 5.132066542852031787e-02
-4.669362561507492404e-01 4.746676682486046239e-01 -3.039994020743767567e-01
2.724457552892708412e-01 4.259380442859637683e-01 5.008860573735682831e-01
2.581830721903687897e-01 4.619596168405955550e-01 -3.598981745504913898e-01
7.795036813531480702e-01 4.433052635156707888e-01 -1.707596918243448059e-01
-5.941936038669327624e-01 4.413655528341379197e-01 5.619298940582088120e-01
-6.591656708055928515e-01 4.691281269904562512e-01 -7.453978467788884010e-02
2.750524232740382269e-01 4.218176252776860147e-01 5.988620843042056219e-01
-6.736482106218225629e-01 4.795155676749729978e-01 -3.175836675479056792e-01
5.803654038366555523e-02 4.841773474744406891e-01 -7.952708022392683818e-01
4.716667212941082488e-01 4.772894971523734542e-01 -8.358601809860202181e-01
1.309965703462721009e-01 4.849751538275025586e-01 -8.509257060701173048e-01
-6.492467957467533690e-01 4.784992577657600221e-01 -3.052814423126158916e-01
2.428834201874070786e-01 4.818774347840305561e-01 -8.321596088394046520e-01
9.535714153440092433e-01 4.357365038268474766e-01 -7.531797751228400117e-02
7.758480281237081222e-01 4.281361686808367595e-01 1.965509846901972446e-01
-6.317416814737827901e-02 4.260459243323496681e-01 6.658781867661293097e-01
5.616185992521035564e-01 4.636373817999963620e-01 -5.518425204306428578e-01
-4.308823762103869415e-01 4.478423396511916899e-01 3.243284780474591233e-01
1.818624777079987376e-01 4.869346605833889119e-01 -9.235380274235935882e-01
4.219868420829551298e-02 4.304445799820539320e-01 5.072788651902838675e-01
-3.972935654264716510e-01 4.371261145561490813e-01 5.657534224039161286e-01
-7.141367338867428138e-01 4.870522320424965912e-01 -4.789546906387135428e-01
7.584564996430745998e-01 4.432252736601935972e-01 -1.583225261839111275e-01
-4.845366672772393746e-01 4.592099679467164797e-01 7.722825254360500546e-02
-9.534358278360252625e-02 4.924741731404234102e-01 -9.185849222540092285e-01
6.342898917901335087e-01 4.481591251452903824e-01 -2.151966445585161425e-01
4.591190045567715150e-01 4.364915352505866486e-01 1.533944499140847961e-01
6.439869875056167814e-01 4.218669715906496198e-01 4.134461068440290488e-01
5.663151297832780262e-01 4.507826593673268656e-01 -2.444651469947239364e-01
6.625028873511491778e-02 4.421291822127086379e-01 2.137391035150881524e-01
2.477926150345825251e-01 4.126744884962734172e-01 8.327696125239023583e-01
1.237291881273907407e-01 4.770263916474271615e-01 -6.557787164344370812e-01
7.141331813979285847e-01 4.203751608038213128e-01 4.143624839199992471e-01
-6.092091911099527524e-01 4.851054847491358957e-01 -4.844450656718196080e-01
4.820451806956355112e-01 4.540076740204018746e-01 -2.800887791887580747e-01
-4.362923333245298241e-01 4.719591348511340545e-01 -2.540418146274099898e-01
5.017519626220222351e-02 4.838695576166716639e-01 -7.839293393230587492e-01
5.432331945204860874e-02 4.848968805442658292e-01 -8.107530899483383902e-01
-6.841247734892717813e-02 4.184659399470061492e-01 8.511266033232826045e-01
2.351674925382362183e-02 4.890584405437678472e-01 -8.956387840747727092e-01
-2.238196913278198141e-01 4.734084155902412161e-01 -3.950588402092289897e-01
3.579671362412635560e-02 4.243172503419785357e-01 6.581079897341373108e-01
-7.262212303372052313e-02 4.289395199833642702e-01 6.008775157581097703e-01
-6.247287175344874433e-01 4.601968643391772806e-01 1.234546309606805725e-01
-4.913482907265822042e-01 4.332271291767722521e-01 7.066619606649142682e-01
-3.968423750389692417e-01 4.527152753806373831e-01 1.899217911977071904e-01
-6.670950315418519572e-02 4.917963150744348311e-01 -9.165509553452102498e-01
9.000193120859065754e-01 4.254829527924824384e-01 1.984729746807630535e-01
-2.343933560421153361e-01 4.671463374816180458e-01 -2.388999462841300270e-01
-6.247010516051290097e-01 4.848520734912656338e-01 -4.706035155104429935e-01
3.448405879825278686e-01 4.493781965116575017e-01 -1.000328789568821902e-01
-8.134338073890409193e-01 4.766650531587904305e-01 -1.791014047013273491e-01
-2.926141640718915027e-01 4.720715573268828846e-01 -3.284960479062300487e-01
8.694496013175499749e-02 4.640858359141709633e-01 -3.256199033622065309e-01
1.778430013997655797e-03 4.677680987768510490e-01 -3.718127992160124018e-01
2.625718289145891893e-01 4.460894814492776805e-01 2.028645581788059843e-02
8.945471741524385623e-01 4.328567084607564674e-01 2.354169593084689399e-02
9.734076092929572210e-01 4.229611732635982779e-01 2.225865502435044052e-01
5.742255619534498701e-01 4.078507231642525821e-01 7.859898581179758370e-01
7.864172061636617306e-01 4.403094996662520466e-01 -1.020318085451009799e-01
3.871745108591490014e-01 4.421601278724399120e-01 5.274037835989558304e-02
-6.161879543231638667e-01 4.542102909736430716e-01 2.634307281273121082e-01
-4.199556964402365589e-01 4.817867772050814512e-01 -4.989873956536016730e-01
-1.893193063651347485e-01 4.553858415562948569e-01 2.195059239080866809e-02
5.712859133884763685e-02 4.592196806257599073e-01 -1.934856506008772181e-01
-1.443953417900448177e-01 4.335475801375177074e-01 5.256904616281636855e-01
2.641425849713778806e-01 4.811375629066302340e-01 -8.249488221079931405e-01
-8.392227211125802278e-01 4.715974928008631051e-01 -4.412558889539002632e-02
2.508953774555699456e-01 4.249948194741638985e-01 5.343733367198406636e-01
-5.198176415329510552e-02 4.520427430586408390e-01 3.392010718673177383e-02
7.339964442286303625e-02 4.117682404318988576e-01 9.416877335219139278e-01
-4.114292091695799791e-01 4.405949691406167990e-01 4.892332141743808149e-01
-7.660079940382683583e-01 4.684726189463225832e-01 -5.394344489268616642e-03
-4.000264824253538243e-02 4.139879870926849725e-01 9.448322987306478904e-01
-3.058223442717998286e-01 4.667669158591927769e-01 -1.940901571971733464e-01
2.218496782222279806e-01 4.439433960158263304e-01 9.232894436051740372e-02
-3.096402667637855322e-01 4.931302574861908261e-01 -8.273838769547127159e-01
3.481344139008691208e-03 4.142511905853474841e-01 9.167769769186634443e-01
1.586614531177900078e-01 4.456968059811176053e-01 8.163512519128418576e-02
-6.366252903447634504e-01 4.529336639413173438e-01 3.043952277945522478e-01
8.353937961074487939e-01 4.152084713299815655e-01 4.782977211856757060e-01
-4.533319421922797354e-01 4.676193524885001174e-01 -1.409700873680879707e-01
6.573537731465589617e-01 4.441065800738729918e-01 -1.290712615097726612e-01
5.816220653866568391e-01 4.141892365795936115e-01 6.295758381780724999e-01
-2.936455446905902877e-01 4.733280993824354743e-01 -3.582562413125525147e-01
-1.203585780595472637e-01 4.164756803874241076e-01 9.250192781063231173e-01
5.436154501974680420e-01 4.496897595390204061e-01 -2.067976849197629974e-01
1.156823943878652061e-01 4.514467860516122588e-01 -3.544375580170722878e-02
-7.675129230408576919e-02 4.749966260053921085e-01 -5.067637182811659535e-01
1.471117966612679184e-01 4.830762516278663266e-01 -8.132205424037947106e-01
2.585251587596998357e-01 4.756702017883180367e-01 -6.904127865015284859e-01
5.093682063785804903e-01 4.171263427117609668e-01 5.948888740956839172e-01
4.876119663188091535e-01 4.342004638175172571e-01 1.943677594099951222e-01
-1.676631363859048540e-01 4.358303215441018397e-01 4.823086755310321827e-01
5.579478558650480258e-01 4.479683274051551867e-01 -1.724782481024018377e-01
5.074635636395788962e-01 4.396474635615415516e-01 5.321449622342454278e-02
-4.946966172463395650e-01 4.807064356873205213e-01 -4.356357841617653492e-01
-2.743248686405571068e-01 4.489321555813576281e-01 2.198935767502002148e-01
6.573786826479346979e-02 4.877916354415108291e-01 -8.861993576519532345e-01
7.986612274497989494e-01 4.437892715859237946e-01 -1.919877133178842787e-01
9.741789039699468855e-01 4.297251627629490311e-01 5.922936971405050322e-02
2.032109776704339454e-01 4.408570333353431514e-01 1.759991947233133791e-01
-4.843945233527278682e-01 4.662744551640267687e-01 -9.305497533303280777e-02
1.514630749076555094e-01 4.665013829798465572e-01 -4.160373048893853953e-01
7.531768278734640720e-01 4.444364339723496649e-01 -1.848679096984562897e-01
9.580630717223681536e-02 4.270659627543984538e-01 5.619146036376422293e-01
3.616480549462326999e-01 4.338729289655874899e-01 2.651593322743244774e-01
6.935073139615339777e-01 4.250962136925185986e-01 3.109126075525631139e-01
-5.897820542647430608e-01 4.406310749239967239e-01 5.774235542252265097e-01
1.787992540832254729e-01 4.784380071290633141e-01 -7.172894486129509639e-01
7.848846896105265980e-01 4.339355888076320555e-01 5.230690518078473517e-02
1.599115439296859009e-01 4.172627611178534313e-01 7.661027569784525371e-01
2.135803644971058790e-01 4.091612357145353873e-01 9.345020159656937109e-01
-7.765907091615681379e-02 4.600038492376673505e-01 -1.450734094250067940e-01
-3.749673458610792709e-01 4.796612964173512794e-01 -4.702407909879311454e-01
-1.822123224829727273e-01 4.231016622624349521e-01 7.962589996881754839e-01
-8.356004968666405075e-01 4.770974732366826676e-01 -1.784512549521998503e-01
-2.569611185987101809e-01 4.727555931351483665e-01 -3.627805591540832486e-01
2.230624863726904938e-01 4.220625710986852797e-01 6.189214540625110894e-01
2.675046447693795737e-01 4.797474932659098190e-01 -7.931352275384484507e-01
1.067903508130890189e-01 4.577968515884501821e-01 -1.840024473139831585e-01
-1.901844114379018236e-01 4.719028949223620928e-01 -3.755804559971743228e-01
-6.725867755921793867e-01 4.404838660655767124e-01 6.223188511812053347e-01
-1.945291896263789955e-01 4.885978967208604584e-01 -7.756614358267179821e-01
3.513452314231863549e-01 4.530227692707068377e-01 -1.910935553495174688e-01
-1.066876612894106235e-01 4.500800733942584286e-01 1.085261300812575963e-01
9.231109707832935163e-01 4.366098139593945771e-01 -8.114918706812887517e-02
1.351042019288677676e-01 4.345468099071470580e-01 3.620471940487243190e-01
-4.571711496820758391e-01 4.700805933068126774e-01 -1.983542919968557250e-01
4.863016921572949625e-01 4.177213411695247514e-01 5.920711753902921926e-01
1.395376939747644887e-02 4.502063741984539402e-01 4.524087864792663422e-02
5.633467698307999261e-02 4.524429541976422442e-01 -2.981029051105233210e-02
-1.307858555003308942e-01 4.875108561954898390e-01 -7.813003615018948578e-01
-6.981632362055898433e-01 4.647711076446379708e-01 4.991193042826317511e-02
1.966851735861754324e-01 4.102932622369702131e-01 9.156634828017250483e-01
6.497677682687824641e-01 4.525131454055653646e-01 -3.278315715575027545e-01
-4.920814136541334233e-02 4.587857070398476123e-01 -1.299303431359638827e-01
8.026681243329092386e-01 4.537108868850698307e-01 -4.330406444426275758e-01
8.282455216213392701e-02 4.609519906839359971e-01 -2.480552967939205211e-01
-1.207595930982067883e-01 4.645465008809248619e-01 -2.330021823315512053e-01
-2.407218890055594640e-01 4.243516296334592375e-01 7.953588791043474382e-01
-7.042249038074288592e-01 4.793690212177227350e-01 -2.987843325814497630e-01
-7.457502932125131823e-01 4.459605632575917578e-01 5.268970396244068155e-01
-4.445887280503210692e-01 4.454084686086067779e-01 3.898145870051912265e-01
5.592475349224035330e-01 4.121223431576441776e-01 6.905484071169093463e-01
4.047681337907410581e-01 4.779695052577485614e-01 -8.188386158320724029e-01
2.964061622165129473e-01 4.417693249000164135e-01 1.074814764854459398e-01
-8.141540693014258645e-01 4.530896023629965574e-01 3.892868154681218273e-01
5.359930891913967654e-01 4.402535712349433528e-01 2.436471187085395562e-02
-4.043435129659787020e-01 4.673732711788387562e-01 -1.595032993924421771e-01
-7.975659870614522362e-02 4.155612444193206301e-01 9.267772134072217449e-01
2.215577679252555554e-01 4.218826030662851112e-01 6.240089957247877406e-01
4.324454018667467370e-01 4.208959903978325423e-01 5.424740278925287429e-01
-2.331678877829259089e-01 4.661049132101208192e-01 -2.144197332193955308e-01
-5.311921837897954912e-01 4.506307436507576702e-01 3.072340571802890663e-01
6.446432825912609133e-01 4.115207223521421542e-01 6.624016385523073813e-01
5.176762419256869530e-01 4.072721157062708652e-01 8.281687005011061364e-01
-7.965976412198640944e-01 4.575953930352822385e-01 2.719571993570030211e-01
-2.322363309054811531e-01 4.853060072411686243e-01 -6.775174058246919984e-01
1.288244734937503688e-01 4.269529265111896565e-01 5.481505257605372439e-01
6.471262772665016261e-01 4.100021812254190379e-01 6.977495941747374752e-01
1.691330746988308487e-01 4.467961007719773447e-01 4.991964826842261449e-02
-5.342259983191116612e-01 4.397131733929741659e-01 5.717976891631453285e-01
1.176065326994468335e-01 4.613567631493845633e-01 -2.751762523412633055e-01
-3.778810641089682676e-01 4.472591775508127920e-01 3.119130859789345789e-01
-3.424373810770354187e-01 4.933153351960792299e-01 -8.154659532583017345e-01
-5.294531221164144180e-02 4.915862723776553977e-01 -9.183633038695834250e-01
-8.201619953031755172e-02 4.695262637114983040e-01 -3.723314020653352152e-01
1.694303249673797043e-02 4.412213751972209885e-01 2.602333873258426133e-01
-1.045965480129487507e-01 4.199266280644880500e-01 8.340011532715135845e-01
-4.099814440569941598e-01 4.605795856280711087e-01 6.999528822305629491e-03
1.300718132433047736e-01 4.339413577196200578e-01 3.791479184894077648e-01
-4.923612621226524655e-01 4.310682725742465693e-01 7.591834284755141216e-01
8.862124151061652466e-02 4.469777544942822867e-01 8.574635634147714791e-02
-1.359888230002530285e-01 4.938809872371174303e-01 -9.321846483194887734e-01
4.266239506163458928e-01 4.395280597181787652e-01 9.645858277330601749e-02
-5.109097398973613258e-01 4.432073122499613493e-01 4.759667183115954270e-01
-1.170357914904989749e-01 4.579008632095303843e-01 -7.474119985040840464e-02
-3.893428356755276876e-01 4.490231054290139689e-01 2.751363060976341202e-01
2.946412730157769166e-01 4.623207761454057874e-01 -3.868053301120974452e-01
-6.351006473122219331e-01 4.632674716368495038e-01 5.465041470676208074e-02
5.522691133669554997e-01 4.484290448940909668e-01 -1.807431343336836360e-01
-3.870524184791256928e-01 4.396424492895228964e-01 5.000107733500002150e-01
-1.563017968065647245e-01 4.585209646928346539e-01 -7.007453651822020957e-02
-3.329287496786614287e-01 4.499126167912251839e-01 2.255340522768997658e-01
-8.438603915549849344e-01 1.544888057728460717e-01 3.664762147356620536e-01
-9.078632357975887635e-01 -3.710493195896701901e-01 -2.602682991763855536e-01
-6.039441448372039056e-02 4.629652358435416143e-02 9.366262690824638248e-01
-4.860089895166875285e-01 8.495711767681152216e-02 7.883862834743793346e-01
-7.842841187580239515e-01 -1.870459877724340858e-01 -5.390679487343175147e-01
7.456007635195109895e-01 -4.445357315785309488e-02 6.216656169801022536e-01
-7.681550334575095729e-01 -1.475092925351511042e-01 -5.611496326157409120e-01
-8.376344618506376127e-01 3.676032589688299490e-01 3.794716627141261900e-01
-5.704235365525291840e-02 -1.652489404767798764e-01 -9.853004030024267168e-01
-8.528521541871253442e-01 2.677019953166135391e-01 3.438520903905581960e-01
-9.110595679135321534e-01 1.632837264826725865e-01 1.351071290089241594e-01
9.869003291393415589e-01 -3.552259182689451733e-01 -2.084711759498174971e-02
-1.513953176119181288e-01 9.803498177788794177e-02 -9.599838214286009475e-01
9.151170508897791267e-01 -3.952271562208871103e-01 3.257221837944066500e-01
-9.110484830540751533e-01 -1.123459176585472480e-01 1.561599317932898245e-01
6.942045253011589478e-01 2.588484275590094974e-01 -7.130463933255996034e-01
2.701844466527409394e-01 -2.498581667142923679e-01 -9.617031948361504101e-01
-4.997886479300197582e-01 3.848045584419146903e-01 7.875070252446372265e-01
-8.913451653973707423e-01 4.657049514728657247e-01 -2.220511256077062068e-01
9.634975328848496279e-01 -4.053431472138806502e-01 -2.441099197879184612e-01
6.597676365268806409e-01 1.373903616432825547e-01 -7.465852910071970605e-01
7.744093875306485852e-01 -5.036517485769944485e-02 5.878873805592440549e-01
6.560795484449910564e-01 7.749241927733367674e-02 7.158134872218649969e-01
7.123370992449318262e-01 -3.984414356899416143e-01 6.345457142498699410e-01
7.149635808171458384e-01 -9.660923818688205156e-02 6.507627662085690989e-01
-5.991506000706026125e-01 -3.339581195380370571e-01 -7.643298290451615573e-01
-6.939667191814258285e-01 -1.259088783497152308e-01 -6.570061745331597924e-01
8.782983763592602244e-01 -4.129108683257268764e-01 -4.796321760694730041e-01
-3.936306750147243738e-01 -2.207192809841924119e-01 -8.936166986261701028e-01
-4.718107897660480665e-01 2.715228537746487425e-01 8.027364406114967377e-01
9.805347199724024909e-01 -4.468912009442571054e-01 5.454321288721365735e-02
9.502781986892067101e-01 1.533855335163879230e-01 2.835143955136984473e-01
9.909135858801011443e-01 -1.622787147317900081e-01 -1.383062510200506155e-02
-9.145094368467182600e-01 3.195815289376313095e-01 -1.085740986838932554e-01
9.194058314413449118e-01 -3.680859386231082886e-01 -3.894250701886491917e-01
-6.435234538613179844e-02 -4.059391845051872894e-01 -9.950762310520856468e-01
6.504055043829098937e-01 -2.136638323013067831e-01 -7.629313669548115628e-01
-3.479075923877120724e-01 -1.292461137071753696e-01 -9.099543849985913813e-01
9.233789405978973797e-01 3.088770572997019404e-01 -3.857868366009481464e-01
5.058130613444543622e-01 -2.943535051296519711e-01 8.003071077648198361e-01
9.842062570162908308e-01 -1.969153993856990331e-02 1.152163051592603599e-01
9.842840988558171356e-01 3.194053073479987126e-01 1.711168936226918347e-01
9.915227374569949292e-01 2.960289942370405436e-01 -1.394516902735435104e-01
-1.638933999137912323e-01 -5.583037999791887196e-03 9.185303291980649876e-01
-1.682629995820256741e-01 -3.848419089692157319e-02 9.163773149568341658e-01
5.643464966425166818e-01 -3.698590246055833419e-01 -8.323262538600241234e-01
9.631891311764708696e-01 -4.165212438921329086e-01 1.691216788925451464e-01
6.692318447575938967e-01 -2.870893595454331870e-01 6.826454399723490551e-01
-3.940234696415481630e-01 6.607232944815702447e-02 -8.785784213604811432e-01
3.597692065066564471e-01 -4.531797414403601447e-03 -9.252843922317530723e-01
8.134577823175525024e-01 -2.113565956516257754e-02 5.391499371427289633e-01
8.445796455527866398e-01 4.555046603584759213e-01 -5.317695706175790127e-01
7.418844961740841404e-01 -1.459252728373279795e-01 -6.729637079949911671e-01
5.528575938554960434e-01 1.131160093000683764e-01 7.938705076627798896e-01
-5.367235869817476024e-01 -1.419721341650061197e-01 7.471908146009047513e-01
9.726878040286675020e-01 7.372668451001443413e-03 -2.240652418805841040e-01
-4.604590350276637212e-01 3.028875911431238022e-01 8.106884135567316019e-01
9.895173940589667705e-01 1.744592043580702190e-01 1.139857031826859712e-01
1.468831511548001623e-01 3.854131963556754470e-01 -9.605451890394807180e-01
-3.049263556314986134e-01 8.747293069632245885e-03 -9.203892333338279386e-01
6.134706705562035234e-01 3.836227118056728114e-01 -7.772895351156269284e-01
-8.689548992332534194e-01 -2.050014181706142358e-01 3.079205987603477190e-01
9.891320082882147924e-01 -1.623603403293487624e-01 3.268028562891096139e-02
9.990384086585801793e-01 2.340339520398328210e-01 -2.966466816229007541e-02
-5.350942916512446690e-01 -3.659753323580600126e-01 -8.166445604941491299e-01
2.833625787730231771e-01 1.143751798947364173e-01 9.121805721642711751e-01
1.705109879665524519e-01 -3.978666342206574336e-01 -9.877914809273159458e-01
-7.681902918481468001e-01 1.918174906844076141e-02 5.063301201220659076e-01
9.910899966530565264e-01 -4.895935668700689136e-02 4.336040013346376815e-02
-7.138343519138540261e-01 -1.754842209122643021e-02 5.804976914356634321e-01
6.767595813719446962e-01 -4.149618372813183576e-01 6.680815488235207766e-01
3.310150196956944679e-01 -3.718048110624116998e-01 -9.478989984856053264e-01
-1.657639635571460934e-01 -4.505136363331033178e-01 9.015885244759066497e-01
7.761437270456439386e-01 -2.765638514742350951e-02 5.872916972023014548e-01
6.542087619736909332e-01 -1.531720400024134954e-01 7.037680768164136236e-01
9.014189893259758057e-02 -8.224904373040742289e-02 9.344320077032708394e-01
-3.196693711951149042e-01 -9.692027397354990859e-02 8.684548465822053975e-01
9.810157923552507153e-01 -1.107078605959668505e-01 1.202331127941454886e-01
2.679640257854653540e-01 -3.565400981161944149e-01 8.941140439166851417e-01
8.353756829352255719e-01 2.395017663913095451e-01 5.262368971205079182e-01
-8.984848810175480871e-01 1.032664920648360546e-01 2.028018571613394161e-01
-3.315737086726277538e-01 -3.309928766338309236e-01 -9.268545095218627683e-01
-8.960874378534371409e-01 3.609032458950252233e-03 2.168007913924426822e-01
-5.644393652585836252e-01 4.541948768477309384e-02 -7.708353373335632419e-01
6.249272133357745007e-01 1.586172890977282646e-01 7.457436758860134240e-01
-7.857396123904096807e-01 -2.277317444571436422e-01 4.766314157826318509e-01
8.169429773923477800e-01 1.627822241375927459e-01 -5.752232698594493820e-01
-8.736364186336889048e-01 -2.772539026476993906e-01 -3.637372716952999574e-01
2.930061253402077570e-01 -4.088823580571329663e-02 9.022270100440117346e-01
-4.404730988691558657e-01 -3.319999594945566290e-01 -8.749362887773707298e-01
-1.753170013597998289e-01 2.413543499163921802e-01 9.251281698960952538e-01
-6.608665723647249024e-01 5.217035217742265613e-02 6.422842686253706912e-01
-1.166162540741951664e-01 1.527930767102355369e-01 9.333417975318804016e-01
-8.056979341103431835e-01 -2.768422502791988427e-01 4.428149999139133208e-01
-8.525400681946736503e-01 -3.446620186413079656e-01 3.495815600385365762e-01
1.798754784298166320e-01 -2.195558571327340946e-01 -9.795039032196144468e-01
-9.077183669841127900e-01 2.084929273883033007e-01 1.514377042103395576e-01
8.774037483062215870e-01 3.172658632436729520e-01 4.639658337975087199e-01
4.424911986105712347e-01 1.976798452417284635e-01 8.587530177596685022e-01
5.889019588953079420e-01 -2.163406812940396051e-01 -8.110458107576900000e-01
-4.240355512836995189e-01 1.874520382463269463e-01 8.284381499683136640e-01
6.041716128944304431e-01 3.828452268970058969e-02 7.545250914474218584e-01
-7.797552369147102702e-01 1.575873874342446079e-01 -5.205565124776697639e-01
-9.218208371425198333e-01 8.347739624382653767e-02 5.394308187866561632e-02
-9.256395431355317616e-01 -1.241188921975827121e-02 -6.486661226529570612e-02
1.000000000000000000e+00 2.977438902433277579e-01 -4.052593478285190093e-02
-1.782637029906593840e-01 3.692278640492769881e-01 9.291305621425605121e-01
1.784875548339126261e-01 4.581252345722363062e-01 -9.537108432602495744e-01
-3.742853984171600201e-01 -5.534495165830776581e-03 8.478245644017220473e-01
-3.763212161185435223e-01 1.192931463131657877e-01 8.508140944301966213e-01
6.632506997111035085e-01 -4.761974115116641704e-01 6.766397704377511424e-01
6.820702133111925525e-01 4.583934932300239851e-01 -7.196090113441021563e-01
3.436967220468831741e-01 -4.481589214278918210e-01 8.666646178123009747e-01
8.637519302716518688e-01 -4.985487417170932078e-02 -5.048537464373279438e-01
7.840738445035496662e-01 -8.087291615567217262e-02 5.738946953997396960e-01
-7.531408516522262175e-01 3.562349293915098580e-01 5.324084513622231452e-01
8.574159237914096288e-01 1.549224687011050150e-01 -5.141742473108815714e-01
-6.370935027088784341e-01 -7.315259754226681455e-02 -7.138582458852270607e-01
9.513149886148984935e-01 -6.466238691449283267e-03 2.631822393117112524e-01
9.710774758192639577e-01 3.955296894409255914e-01 -2.482742135491923241e-01
9.256447495444302120e-01 3.445659888278591043e-01 3.679982194682004937e-01
-8.405864863716138169e-01 2.625260256999710773e-01 3.733407320980496880e-01
4.028583049886548251e-01 -3.742184440254933131e-01 -9.206206118559991936e-01
-7.204520119851168802e-01 -2.778249054687073616e-01 5.681731076508579337e-01
6.582597142472822460e-01 -4.494265117075966764e-01 6.826554995603675291e-01
-9.195634853391891905e-01 1.280905609710065451e-01 7.163156905825780740e-02
-7.382868310390731104e-01 3.565052910814819342e-01 -5.682830278146094871e-01
9.105195379916813936e-01 1.853585449973518817e-01 -4.141596792124379589e-01
-9.021649716263704377e-01 -1.405200327845419206e-01 -2.545322959776201710e-01
9.952225815573539913e-01 4.136678344544916230e-01 -1.250510529145848482e-01
6.195866561402340045e-01 1.629401732263186242e-01 -7.784031631939183349e-01
-9.014991585933239682e-01 2.347221076687550645e-01 1.823251289579963519e-01
-2.812443445232902239e-01 2.613431403611270465e-01 -9.166424321036179546e-01
-1.244885646001183399e-01 2.138049465355564838e-01 -9.597086950157535101e-01
8.534778669162654818e-01 -2.061454437874642720e-01 4.647520886843532484e-01
-6.903581239945884018e-01 -1.450752881950572726e-01 6.062674232532531127e-01
2.737305219815261426e-01 3.959712576594989208e-01 9.278359493776174860e-01
-8.079680327190414957e-01 2.214744201479477703e-01 -4.666043503319907693e-01
8.326970955269846764e-01 -3.599639667485439731e-01 4.866033643241335360e-01
-9.034985484952128276e-01 1.070695487274882646e-01 -2.156923066227262598e-01
4.265280859976524480e-02 -4.643038060216927998e-01 9.201107017692691237e-01
3.477167362024290442e-01 -2.331034522706445511e-01 8.757437564002572561e-01
-7.083622039216376232e-01 4.863161279599222953e-01 -5.989511595912890840e-01
1.920966021485589204e-01 -2.260817662170324649e-01 -9.777209029592111023e-01
2.571257145260652521e-01 -2.338740931052436522e-01 9.025672408448164319e-01
-4.949325774989750681e-01 -2.535071831876876680e-01 7.730974942655969295e-01
3.202880898134133902e-01 1.016130887173265912e-01 9.009725287347858380e-01
-8.316572641373424224e-01 7.634517781786134827e-02 -4.316786221058320216e-01
9.023729645867428761e-01 -1.871225344522207956e-01 -4.305480103198252584e-01
8.544731320195516622e-01 3.637808150724239353e-01 5.060224142610185716e-01
5.759797995973884310e-01 1.686704805612165847e-02 -8.138118133589988812e-01
-1.472787329893858466e-01 1.444157436057342814e-01 9.275111346503028820e-01
7.003470573604825278e-01 -1.170292781101350821e-01 -7.153760947521408120e-01
6.530738667604791825e-01 -2.906401809259067659e-01 6.965970216866904652e-01
1.709639127919399676e-02 8.437829205757121920e-02 9.428429083538938382e-01
-3.353082495057434498e-01 1.126051833101016503e-01 8.690044045986561327e-01
9.882508326570461632e-01 -2.656931966248145538e-01 2.742736546548458360e-03
3.871656817238826043e-01 -1.059374722968533800e-01 -9.182702283632450113e-01
-5.896387095997126515e-01 -4.257322015291454403e-02 -7.552082107746451722e-01
9.969590554368435997e-01 3.897847434888063733e-01 9.819230835157953530e-02
-6.005916495911758357e-01 -1.885144284991305541e-01 -7.544383158463087158e-01
-8.330667891889105281e-01 -2.866702966657651563e-01 3.912514215047201427e-01
-9.150949820458674777e-01 -1.609022935706061752e-01 -1.955219605739227373e-01
1.953719967275564517e-01 3.414644452576181544e-01 -9.555939680077306653e-01
-8.987868342982862080e-01 4.274467831949897434e-01 1.840207534494507635e-01
4.148669598041799383e-02 3.516163684150410140e-01 -9.677838623434532606e-01
1.617190904777064120e-01 4.546455082092953903e-02 -9.719757387586452912e-01
8.394541690954397950e-01 -3.774206890461183073e-01 -5.474838715432404079e-01
3.771171408723726914e-01 -4.938169556509671709e-01 8.519469960001998521e-01
-8.007273877041177768e-01 -3.530386843062212621e-01 4.509589289470867790e-01
-8.614151701959085194e-01 -2.127776837766703344e-01 3.274034444249723785e-01
-7.928035697204711685e-01 4.286912510579262703e-01 4.690547777526231088e-01
7.790440511006229141e-01 1.613717772486037150e-01 -6.245439964260552923e-01
-5.787238576777744559e-01 -8.489096046265176554e-02 -7.668450093094556497e-01
-9.275190745199661801e-01 -2.929321059645783598e-01 -1.309202870625803539e-01
-1.915697975842310108e-01 5.879997694865895380e-02 -9.529436923706778861e-01
-8.811691156695602434e-01 4.227365405063056025e-01 2.573025453219616177e-01
-9.249059467377905852e-01 -2.053173692883570878e-01 7.336034971531836535e-02
-7.774014212138370405e-01 -2.111325200313668438e-01 -5.516973304657538657e-01
-1.206622474790389477e-01 -3.016060708472719787e-01 -9.834731868536775723e-01
2.867090202618577388e-01 -2.100146137239080890e-01 8.959857796895768223e-01
-3.539737037769286609e-01 1.668221623833613942e-01 -8.923275276913825715e-01
5.173853985351716256e-01 3.295892304366572767e-01 8.269806427462473852e-01
-9.036592584755941404e-01 3.114169094825803841e-01 1.664094995333898208e-01
1.569537683730505839e-01 4.213264179317787739e-01 -9.579752851583562823e-01
-8.057811361753922652e-01 1.492812556762393161e-01 4.445169495067246013e-01
8.726948183055602826e-01 4.326201677843408838e-02 -4.886738110631869692e-01
9.538158198902948470e-01 9.882365780350213513e-02 -2.995772107303056875e-01
2.460453895019944215e-02 -3.460191414962885403e-01 -9.967379613343915201e-01
9.344839918462241046e-01 -4.344224009439984907e-02 3.091513693861654977e-01
-7.467410861027516944e-01 -8.300287167878863531e-03 5.373089330640536954e-01
-3.572447979688556652e-01 -1.349541048245835317e-01 -9.061763768477717473e-01
