-7.887634641494260801e-02 5.127249925637067385e-01 -2.295551228367061214e-01
3.963696988946154853e-01 7.251954504862494488e-01 -9.513401191968084980e-02
-7.087882611198872418e-01 -1.991040487683479743e-01 2.830768856213456974e-01
1.755197654347670222e-01 2.978326219668175345e-01 3.700820945780195492e-01
5.510039411129232789e-01 5.197065962083345925e-01 3.895698187178835425e-01
-1.103302232172987674e-01 6.299805524831763037e-01 -4.493114882865009152e-01
-7.917521203426272636e-03 5.700482748946074096e-01 -2.505902413268564222e-01
-1.894021688739684073e-01 5.056010918001164756e-01 -3.287218137330976120e-01
-9.536142002812388885e-01 2.520972937413996917e-02 -3.221113990260623949e-01
-1.985319091727467677e-01 3.769334213684118473e-01 -1.312537220929955450e-01
-8.504175741511832420e-01 5.593573401913636695e-02 -2.681776034901485195e-01
-7.858096296024128513e-01 -1.050096734300271506e-01 5.491050975688028385e-02
-5.779517532913414080e-01 -1.040749121605166333e-01 2.614176222271521466e-01
-4.639031608478867419e-01 3.109630240659301270e-01 -2.908866590447083955e-01
3.403968167919846910e-01 6.479441551393645415e-01 -2.710328462188627691e-02
2.669351054477372975e-01 3.923162594243885248e-01 3.098490964814858972e-01
1.596447798982869315e-01 2.195912471350272566e-01 4.798294857911686861e-01
-5.535610217407189726e-01 -5.459217018902789986e-02 2.063704823103946484e-01
-4.899985520501573544e-01 9.800745054098260189e-02 2.494641000634143652e-02
-5.590013920621993426e-01 -1.896054411006256324e-01 4.177198762982228253e-01
4.544395882344077209e-01 2.549754162687963843e-01 7.180202019538173275e-01
3.693168946715981726e-01 8.393940338701231241e-01 -3.055774719057738897e-01
-1.136754294703189172e-01 5.473895325765881781e-01 -3.200409454271843646e-01
-1.172272925397645632e-01 4.747887386322872105e-01 -2.070187281332805662e-01
4.479434419636219716e-02 1.010953946510094806e-02 7.012653134752081518e-01
5.640143787093201966e-02 4.860699512851643367e-01 -5.137901442716095307e-02
-4.382873403280978519e-01 -1.911662653565115166e-01 5.410274073303037445e-01
-8.315441996057078011e-01 -3.334231838317295860e-01 3.759113480656033901e-01
-2.162228498782500230e-01 3.010959000882341141e-01 -2.718351733611039725e-02
-6.595648260332069857e-01 3.008281996954845217e-01 -4.704160091451148329e-01
-5.459758586574678940e-01 -3.297547384149757121e-01 6.557955452496179172e-01
-5.464738899240627612e-01 -2.797422349147247744e-01 5.749910079783464578e-01
1.211129238089282273e-01 8.447039790073557208e-02 6.582362222455057088e-01
7.378324720752156562e-02 6.501025884422617640e-01 -2.973753570765684806e-01
-7.878627012832869481e-01 3.175189236566539758e-02 -1.667450156195960376e-01
-3.063341952825086034e-01 -1.019134220640072613e-01 5.297607057290451005e-01
-2.437899827175416811e-01 -1.347469397494861498e-01 6.450715953244423595e-01
9.274926441096118142e-04 -1.514462796919983090e-01 9.167803956646748409e-01
1.417879418464058350e-01 1.455443881804041328e-01 5.808583685411208286e-01
-3.976117650834565254e-01 4.485750682705590409e-01 -4.455139612425486617e-01
-2.020047639713113685e-01 6.541332850433950741e-01 -5.798348339692721565e-01
-5.986337230107806606e-01 -3.624537667040850231e-01 6.556051580718594840e-01
-7.898932507150147053e-01 -1.385908347869671264e-01 1.047459264792031386e-01
-4.975131893203631472e-01 2.222565359981222011e-01 -1.820830704061432714e-01
-8.611991839911630198e-01 -1.509514268014821026e-01 5.323613295247889288e-02
-7.391059211243161675e-01 -2.676965276658291315e-01 3.628777273060765918e-01
1.884981211998177641e-01 5.437570405808611618e-01 -1.181626796588787151e-02
-3.206729299881797696e-02 7.825518895919121309e-01 -6.159790615965229366e-01
-2.737219671659302245e-01 1.418487937536897225e-01 1.709822986278868306e-01
2.171694241135750658e-01 1.426380959465716747e-01 6.609610185704758445e-01
-8.930582033222139726e-02 3.541933973433706306e-01 1.456543848262161801e-02
2.410491315889838060e-01 8.240221548012469643e-01 -4.092549690084626990e-01
-5.876988615550253758e-01 -3.110632624340154972e-01 5.840290898657617413e-01
6.654958388043413775e-02 7.849811892520331957e-01 -5.211917005648730727e-01
3.053334010841350921e-01 2.192457054239140279e-01 6.261782282407041267e-01
5.226609351511966040e-01 7.606054362004802671e-01 -2.561008616832859824e-02
-3.896486185003747438e-01 1.741139801071491799e-01 3.162976801270073798e-03
2.388962661714750801e-01 1.649899576960327241e-01 6.468126986000687362e-01
-6.342062226331597607e-02 6.735974805476149796e-02 5.010442647689478113e-01
1.334327321728311644e-01 1.022082716594161361e-01 6.420828500298533248e-01
3.025020427136278500e-01 3.666610266774398275e-01 3.866368908572876406e-01
-3.342534292765820814e-01 2.612264214947189744e-01 -8.128011385273617440e-02
-5.830849904657905425e-01 1.742286005046185526e-01 -1.905972246300181860e-01
-4.695923009590352581e-01 -2.083485790490888501e-01 5.372898335472972020e-01
-6.930490869872497905e-02 3.184909682551889665e-01 9.190895687046093943e-02
-1.051863225132854962e-01 -8.377860664398324719e-02 7.019344711933142023e-01
-1.661663781614631796e-01 4.532680575596610417e-01 -2.214369604285286730e-01
8.352082018216891446e-02 7.854844991601168669e-01 -5.050163759837688060e-01
1.393813885517650730e-01 6.371210005781862140e-01 -2.108850000114132206e-01
-8.604005805623371472e-01 8.175883859734872638e-02 -3.196325349327118759e-01
-4.787454089202504148e-01 1.491628681208806151e-01 -4.593366280435038501e-02
-9.276835513780956610e-02 -2.456204430351045520e-01 9.742343088490966752e-01
6.430735424042438586e-01 5.797671814622830100e-01 3.852653855562717111e-01
2.409591374947513687e-01 2.553596249705800680e-01 5.037685537867705454e-01
2.595822164895069672e-01 6.757868909258046841e-01 -1.526839593111344595e-01
4.246896489379899109e-02 6.703479119634977446e-01 -3.612206165401676272e-01
-7.458117637262717814e-02 -1.703690018549588181e-01 8.716017820903444457e-01
-1.228675933120313285e-01 -2.036072844697730255e-01 8.766518934228215709e-01
-1.600618563743876344e-01 4.197778265966143479e-02 4.450895602342328505e-01
-2.720874344213631280e-01 -2.725214809165442398e-02 4.441470101488742550e-01
-6.776093152594112601e-01 -1.677373928378801948e-01 2.639122519862566185e-01
-9.048960112632311592e-01 -3.057057966056077047e-01 2.580001296468504846e-01
-2.536959241665951437e-01 3.853468010736849636e-01 -1.999671433895590100e-01
-9.055987483750206346e-01 -1.891461628774707832e-02 -2.032098449913522231e-01
6.440445533404685063e-01 6.362700096068929501e-01 2.955092990055620539e-01
2.386827331002576158e-01 3.876875209571394865e-01 2.890087727144982632e-01
-2.236468532787335706e-01 -1.464241299537489827e-01 6.839795945613889039e-01
-4.557889102511966661e-01 -2.609299762896503672e-01 6.355342725829418171e-01
-1.819834685767519333e-01 1.938331266644878759e-01 1.793147345569718054e-01
-8.598988419714935771e-01 1.106979199549902593e-01 -3.655985354170617208e-01
3.361942545864696763e-01 4.707228153918570634e-01 2.532592104681809508e-01
-7.709687842796875135e-01 -1.982945426711415493e-01 2.195515883079880992e-01
-1.281063831993357882e-02 2.201674321220088715e-01 3.063242552400721186e-01
-8.160949934750473256e-01 2.484059282237964517e-01 -5.428837263898604881e-01
2.227415934774307563e-02 1.380308167526300353e-02 6.727980553912823458e-01
-6.349939348342661383e-01 -3.302479392082497411e-01 5.675050858648698071e-01
3.682554795103664680e-01 7.791177202414550917e-01 -2.098526885906707995e-01
1.557553771446138768e-01 1.847162380721860675e-01 5.319368201418424036e-01
-1.014282552263304216e-01 -2.399281163300154285e-01 9.564278602512709115e-01
-4.141342280525552866e-01 5.303860783392504441e-01 -5.934140516314574398e-01
-1.326056033709560045e-01 6.547861817572041554e-01 -5.114338943408521798e-01
-1.000000000000000000e+00 -1.505657167415608844e-01 -8.628432622888007608e-02
-5.623899613880847248e-01 2.174275653892292770e-01 -2.392527423962270972e-01
-8.578471410432823019e-01 1.136029046128905207e-01 -3.682099478607462895e-01
4.082476720249253455e-01 1.254785949450160643e-01 8.797307211180063202e-01
-7.111223042615530954e-01 1.244980462811799519e-02 -5.895538948062524487e-02
-3.875196131769806929e-01 2.608890084721594005e-01 -1.340429976731903894e-01
-1.838446919055548578e-01 2.349235947142866709e-01 1.114723232255315777e-01
-7.404996157770672716e-02 4.389145079277738393e-02 5.280907911346727213e-01
-4.603994535990447723e-01 -1.044781316509991870e-01 3.797023257503938654e-01
-2.278614531540693600e-01 -1.941596876835955665e-01 7.564119547442409441e-01
-3.069278391099587444e-01 4.249469724748485278e-01 -3.168243666479010345e-01
-4.166739801606437754e-01 5.204578353273667246e-02 1.721255990744602338e-01
-4.239637703834225890e-02 3.120259598110028398e-01 1.292179354592887242e-01
-9.766247145555942977e-01 -1.920495688931376510e-01 3.719358978129180815e-03
-5.859833111662460237e-01 7.461195013507326834e-02 -3.354105445420425130e-02
7.808940917873369303e-02 5.739538094264089452e-01 -1.707923608899810930e-01
-6.689964219623237840e-01 -1.472122007029985913e-01 2.395736293034355924e-01
6.606219300058905342e-01 7.282116310702553275e-01 1.644660275614454048e-01
-1.067354325363768924e-01 -1.445681759023621227e-01 7.979953527661871604e-01
4.531637253524795073e-01 6.877165617463606440e-01 2.188170798577890666e-02
-5.493546888501812386e-01 -2.054426731771525627e-01 4.528037325523225909e-01
5.391358443111409215e-01 3.437002745137073267e-01 6.603102594769146849e-01
-4.782011237812219817e-01 4.009955940531577667e-01 -4.497621764638163322e-01
-5.984772875984688545e-01 3.189575285213984424e-02 2.254625194496847826e-02
3.061621904792912185e-01 6.684917909684456871e-02 8.717139770345510019e-01
-3.826097127711279300e-01 -2.874154680417622121e-01 7.512946711896983931e-01
-7.866262154574377163e-02 3.213792396007908447e-01 7.790672290077764461e-02
-8.006862309175940551e-01 -1.832591946974909403e-01 1.656700875499312331e-01
-1.221359473935169082e-01 -2.022254103033535588e-01 8.751651631505829032e-01
5.506262189503490639e-02 1.677970916385611855e-01 4.583387374192827157e-01
2.132591190306769857e-01 4.411176619086280559e-01 1.777728673857532915e-01
3.945182279491568078e-01 8.089581783043687802e-01 -2.314864236459312219e-01
-1.382747821319522397e-01 6.519567639836895134e-01 -5.125639131546033678e-01
-6.782948699702708861e-01 -3.951007717219377491e-01 6.283084402896940146e-01
5.772729819704089382e-02 3.976937787195883311e-01 9.185531372740259048e-02
3.221039905393062730e-01 8.091533880991131911e-01 -3.042664415924152266e-01
6.769997617108942656e-01 6.377379975176995508e-01 3.261311419041589277e-01
4.402955798414812105e-01 8.463336170142339299e-01 -2.456905331192725528e-01
3.470774939032793271e-02 1.227674732226656518e-01 5.102741770763311591e-01
-2.979322361646732364e-01 -1.297974830523430587e-02 3.953660349528643758e-01
-4.548101597392251727e-01 -2.193485686964480753e-03 2.210550157189676013e-01
-1.768846769237253092e-01 4.827509056347961680e-01 -2.795042439361819508e-01
-4.605502324674671244e-01 3.785908014515964592e-01 -3.961226757726203918e-01
-9.508841473136127043e-01 -1.541279275597118303e-01 -3.141306336250588443e-02
-1.604047126416958610e-02 2.326049072488881597e-01 2.831209686337325393e-01
-5.021297108914913876e-01 -8.191691385581590171e-03 1.833327176293750305e-01
-2.024243031878720234e-01 2.212731576347199136e-01 1.147980845989268750e-01
-1.180402925932705072e-01 9.248224452181727506e-02 4.060453954722999526e-01
-7.627654532903493934e-01 -3.514742946323156647e-01 4.737248498349715398e-01
2.258878739383956558e-01 3.356058584018570268e-01 3.598333067776944838e-01
5.178945275293463935e-01 7.980325848692200186e-01 -9.047751088743705150e-02
-1.257334220654318102e-01 -7.525679546486135907e-02 6.676888694874172359e-01
3.088669786109857554e-02 6.037246969881251424e-01 -2.658329324907872104e-01
2.203835723308899819e-01 8.431546295748890696e-01 -4.606568854070534624e-01
-6.019494888863816673e-01 1.977480583475018094e-01 -2.472410512142210193e-01
-3.289351524669127946e-01 -8.911986228679330546e-02 4.866005241795442471e-01
-1.701618180248480883e-01 1.426506402499362614e-01 2.733297403696126615e-01
2.450704479468678865e-01 5.932371128679596595e-01 -3.465427084394186868e-02
5.365936079544941784e-01 2.669834107758333186e-01 7.809520943277702409e-01
-5.471711880670933059e-01 1.640376708792971039e-01 -1.382936766124964467e-01
-5.549098246119372746e-01 -2.146646494242978459e-02 1.518300516384129550e-01
3.808921051601085739e-01 8.058566317374201704e-01 -2.401421733151486992e-01
9.841912783769758699e-02 7.217687288653138467e-01 -3.877975279297247169e-01
5.015086988063694601e-02 5.009886159062223454e-01 -8.158931794154819506e-02
1.185081995513005554e-01 3.665916301140356159e-01 2.026215215600724318e-01
-1.973868617379728220e-03 -1.196545536323660175e-01 8.628282835927003624e-01
4.383839623888031722e-01 1.805484331410320831e-01 8.214619720142068982e-01
-5.322727987033956110e-01 4.987897243715118112e-01 -6.609030505248837395e-01
2.177322165676643662e-01 5.644101569660548989e-01 -1.572419798305908084e-02
-1.275059067042405292e-01 3.178502246098211526e-01 3.469475741432203469e-02
-5.789410436796330606e-01 -4.017077105403387693e-01 7.383429645833506916e-01
-3.090866657771606119e-03 -2.366442711869715804e-02 7.075770800143059702e-01
4.776151898451996280e-01 8.196703741793849307e-01 -1.655302161398135852e-01
2.564151632569732220e-01 2.512285861186012714e-01 5.258690457910248917e-01
-8.471186688170144474e-02 -1.988062968059454150e-01 9.071261434194859419e-01
3.733278143623810358e-02 -1.264729559816391569e-01 9.131117918552250634e-01
-6.966829921773298739e-01 1.531271209242785758e-01 -2.703942176569568145e-01
4.580520333066251948e-01 2.895766742653070880e-01 6.660752777263464486e-01
-2.966355166335051252e-01 -8.299718802273207963e-02 5.090921914184117769e-01
-7.405527297886281834e-01 -1.774289232722781051e-01 2.164852508893720384e-01
-1.682567354559283690e-01 5.524788314125612665e-01 -3.828336889188466152e-01
4.228645775594995770e-01 6.628482038164903445e-01 3.149231941777178023e-02
-3.603705353308453985e-01 3.698770802206217123e-01 -2.818787782799525576e-01
-2.230386063353464732e-01 -1.222771417684756640e-01 6.458149458545374699e-01
5.519259494268310418e-01 5.000624776267841298e-01 4.220354744832902627e-01
9.449332370623433897e-02 5.619261715224576070e-01 -1.350635572330084744e-01
-3.624866094359701085e-01 3.026757325608473992e-01 -1.760897408285342081e-01
1.913718587942677685e-01 6.630981760073639819e-01 -2.005690663693243114e-01
-8.305727341309050438e-01 -1.901592696331239410e-02 -1.279669387109153844e-01
-6.996943276054197192e-01 1.836242732063635835e-02 -5.701317940375563026e-02
6.246792801834041287e-01 5.020710714776648320e-01 4.916161361820228226e-01
-1.099916150993489050e-01 -6.460673622361352841e-02 6.663410239847072924e-01
-6.826213280272123152e-01 -1.042580524032023642e-01 1.569664833381870517e-01
-1.217885849634528228e-01 -1.861215306567155225e-01 8.496544327488235737e-01
4.852841808379660948e-01 3.991043866458121037e-01 5.174561143324614143e-01
-1.669475917947066124e-01 4.721165415480949035e-01 -2.524841522956719486e-01
1.087039903492905031e-02 2.129115801355981330e-01 3.416732816542378259e-01
2.212028108912729440e-01 2.496570197124552970e-01 4.931547460435851682e-01
4.986505494326838872e-01 5.813738469360617556e-01 2.381581725016035378e-01
5.256038815684880294e-01 7.559391876472033589e-01 -1.517231805382656361e-02
4.424453954218001556e-02 3.341029290178894051e-01 1.804719990701904031e-01
-5.536184140747029137e-01 3.800358093781649460e-01 -4.915783904556408901e-01
-3.735433601887711008e-01 1.643926770031075846e-01 3.488957733060243233e-02
6.287243967244369180e-01 6.318722938544707457e-01 2.872395779388628445e-01
2.086833659232080473e-01 4.976260562602660142e-01 8.245707080959721602e-02
-1.035282344578620783e-01 2.702712624168354671e-01 1.350883132246628038e-01
-4.316850381028430883e-01 5.538501226349495932e-01 -6.486542618300813468e-01
-1.787665559400687110e-01 5.398110587552820139e-01 -3.730101906247077492e-01
-1.217246666976414815e-01 6.108692927129353439e-02 4.527704878812672806e-01
-3.894131667834844768e-01 -3.503310845770435389e-01 8.455112514443817728e-01
-4.541137436167658747e-01 -2.681054810437475955e-01 6.487325111197421723e-01
-9.129896860386590429e-01 4.436809407689837337e-02 -3.122205244872855445e-01
-4.192535294693495174e-01 5.887298884800624688e-01 -6.922209556690784860e-01
4.206823995276639527e-01 1.496565709482440554e-01 8.533513412232712758e-01
4.309402341263535718e-01 7.964512966253047832e-01 -1.749555308847584034e-01
-5.029921977548789114e-01 1.029815368108870782e-01 3.956378162354856967e-03
-2.438786644145393701e-01 3.257123556849899626e-01 -9.438648556598240591e-02
2.483887917167835191e-01 3.645777400567253718e-02 8.626989589537810144e-01
-3.426408086856762014e-01 4.546388556138603043e-01 -4.002400346959041899e-01
-2.182911846813537227e-02 2.713234723404268633e-01 2.151569106814245902e-01
4.837959300132353979e-01 1.974887808085580010e-01 8.397052768194545047e-01
-3.737841313509599472e-01 -9.606474182119215111e-02 4.528706780613808158e-01
-8.969814952200069191e-01 1.297838063568997613e-01 -4.333546011864141678e-01
3.843280186569174028e-01 1.648573049850121375e-01 7.925625463117406122e-01
-3.718077870073154823e-01 4.240009559531390249e-01 -3.802321591562969894e-01
-3.671997286873454613e-02 5.963682335427954451e-01 -3.216760265388599049e-01
-5.705750190301202007e-01 5.509757190464298349e-02 1.321302636014166747e-02
-2.320775880839269778e-01 5.068346011925770611e-01 -3.734087434693592056e-01
1.924043535754031697e-01 5.630504042368823514e-01 -3.888697937429719947e-02
-1.457488456419013534e-01 -1.725223675917584576e-01 8.038403910224247717e-01
-7.565290639279290130e-02 3.954625229714752721e-01 -3.803849904365468743e-02
6.315646279960962506e-01 6.317314512433129803e-01 2.903080156111009780e-01
4.386430992531749617e-01 8.390566165552049149e-01 -2.356593726071943840e-01
-2.206827579714642495e-01 7.056988550676419891e-02 3.385139019159068563e-01
-4.757957284113737556e-02 5.976410798443683170e-01 -3.345873103976826912e-01
-4.952483445139904128e-01 -1.543712079260466385e-01 4.249426315888999994e-01
-8.463298174920707018e-01 -2.361263057928886799e-01 2.048833685577089170e-01
-6.459736610261682666e-01 -2.445043361559499639e-01 4.188370889160905608e-01
1.619023250477631681e-01 6.641849342024050973e-01 -2.318049262664508003e-01
-1.426828867876414608e-01 1.497285660800523610e-01 2.894633516109261784e-01
-7.249283349706505675e-01 2.908409508089698225e-01 -5.197900120185945383e-01
-8.852864917251048738e-01 -1.686296601542421336e-01 5.751773648965943786e-02
-4.457485969240743140e-01 -2.227275217276356578e-01 5.842393432009250764e-01
-1.107422281712259066e-01 6.920392785506228606e-01 -5.493728142001970127e-01
-2.291043744500105214e-02 -3.749588658304954525e-02 7.099526573763528248e-01
-5.656342126716362717e-01 1.686857259782875013e-02 7.954252455274006539e-02
6.085476641053690766e-02 7.226232779426962072e-01 -4.267612018493019965e-01
6.220073397122779513e-01 7.252319711061607777e-01 1.306080372904684372e-01
-4.541154731318293725e-01 2.657924107197677244e-01 -2.085604789679811888e-01
-3.373404059909742014e-01 -3.148469869264512444e-01 8.406440668362700208e-01
4.546309747988182791e-03 7.554867057024333699e-01 -5.358798567043762118e-01
5.042171940869346614e-01 6.663775717911415430e-01 1.072365413814963114e-01
4.820583545713801321e-01 5.663618798203537974e-01 2.456590243313873101e-01
-7.062961882254571444e-01 -1.178323671850292631e-01 1.550710826645688156e-01
-5.889796242747504795e-01 -3.590576583675772482e-01 6.598130292919787143e-01
-2.397283275577521966e-01 -1.707120189756990147e-01 7.068860821507652048e-01
2.802206442497812144e-01 3.714747693262204220e-01 3.566098619162995642e-01
5.426128650221652139e-01 3.012017813503193309e-01 7.320305318264055394e-01
-3.657875921986287193e-01 3.349784808557813021e-01 -2.312623225049444675e-01
1.113520707482742178e-01 6.620612670354724116e-01 -2.789816914312152063e-01
4.477266946002193548e-01 4.017747926891229726e-01 4.755835602179800392e-01
-8.338430649072168244e-01 2.128792196850088914e-01 -5.035986274909746152e-01
-6.335728982811918986e-01 1.262007282298530098e-01 -1.640022347031153960e-01
-2.860470179986193684e-01 -1.658959416575818691e-01 6.528006425698972270e-01
-3.876280251792851295e-01 4.921925719776785724e-01 -5.055605651124454036e-01
-6.289146042936250014e-01 -5.682672692125907091e-04 4.421511180414444686e-02
1.787401252587244305e-01 5.161636270788303588e-02 7.686594929940839815e-01
-4.025067857045359215e-02 2.482742223832336004e-01 2.337327122261787515e-01
-4.381763600210403786e-01 9.920528113196186437e-02 7.488266761273316974e-02
-8.557351936610184673e-01 -1.411380379964447540e-01 4.294650346230403926e-02
-9.628335975039699068e-01 -6.035392735697879540e-02 -1.939460654430084363e-01
-4.416857583862343617e-01 2.954163070922850021e-01 -2.436895060106938904e-01
6.342828722573977673e-01 5.271911336360333156e-01 4.608908471419729258e-01
-4.638210128330074733e-01 -3.736570004046720350e-01 8.085045585200879570e-01
-7.804942973660695948e-02 2.120047226830019671e-01 2.541453580120016098e-01
-4.460414993601268807e-01 -1.342512697362086005e-01 4.418780196989800513e-01
9.015486785119647406e-02 8.111123800491596425e-01 -5.395287706745609535e-01
-2.368433012870001242e-02 5.628664197345309983e-01 -2.548363852921792239e-01
-4.092571348993137570e-01 5.804291789239274246e-01 -6.688887107016552314e-01
1.810392480202386439e-02 7.253008340146408495e-01 -4.738423451122456553e-01
5.951117727265231583e-01 5.937790436824379459e-01 3.147698109968745106e-01
-4.251241913304426578e-01 4.394986169106227525e-01 -4.584720165269251524e-01
9.683572225414763257e-02 5.914583825445568488e-01 -1.801399686451845283e-01
-2.783979044961950033e-01 1.947687879346517437e-01 8.132821630636502541e-02
2.631601093140518710e-01 4.995661948532502394e-02 8.558055658180788727e-01
-8.166176635416907414e-01 1.908942790674631185e-01 -4.510590895226658237e-01
4.286005752915501565e-01 1.558889738927658197e-01 8.512677361672167375e-01
-1.111907884337153818e-01 -2.359602186664814250e-01 9.402869343291517801e-01
-7.871363786324798717e-01 -2.068133530107394702e-01 2.170511468147852396e-01
-5.541383965010123758e-01 2.376761658456341131e-01 -2.635088254207490488e-01
-2.841272912075503143e-01 -7.362397255124099316e-02 5.065586830635068205e-01
2.965186483166427078e-01 6.484649700812127326e-01 -7.184944403806513280e-02
3.362536201824919968e-01 8.576844543763556539e-01 -3.680339578357358366e-01
5.751436188181019427e-01 5.559760188515190382e-01 3.554883528798974401e-01
2.038262330371253261e-01 4.315007704352206291e-02 8.073582243994160690e-01
-6.308117435262683426e-01 4.009973761789760727e-01 -6.024859373334627843e-01
3.006556560045332560e-01 3.637676975441539451e-02 9.151336625951368431e-01
9.371775463381992743e-02 5.426424181027833527e-02 6.793239273955719026e-01
-1.832483091853530366e-01 4.357715824624888712e-01 -2.104367710710088324e-01
4.584025682566136850e-01 7.638317552577214009e-01 -9.509545694886573086e-02
-6.416618496647152892e-01 5.612322403788637393e-03 2.153435003876350701e-02
2.422987186512515212e-02 4.187359779423378559e-01 2.454577231069657653e-02
6.185987713674451216e-01 4.342433828130436990e-01 5.944436032841268203e-01
2.856523941550433432e-01 8.522080153216718967e-01 -4.098781140606123086e-01
3.089615240081289849e-01 5.411998897125276375e-01 1.128402559590708787e-01
-3.205780029685920685e-01 2.529196508066540103e-02 3.112501954415567429e-01
3.547220133858338675e-01 2.234288759627526544e-01 6.688855233860179217e-01
-6.593503782275346170e-01 1.030263379641224719e-01 -1.525867280702943030e-01
1.967428528981175206e-01 4.094751626232998598e-01 2.120537038706433175e-01
4.855896056448418818e-01 3.939184873335210280e-01 5.260888692436418435e-01
-4.621866269883408984e-01 -1.617820047138154582e-01 4.699279150236768676e-01
6.574755849823199494e-03 -2.034140251919584058e-02 7.119138354523122381e-01
4.602410256041957748e-01 6.595225018066520617e-01 7.423592726074708381e-02
-8.176983513124865821e-01 8.190333039923214375e-02 -2.771314617619390908e-01
-2.918553906929874028e-02 7.607829487772363453e-02 5.213045298953977724e-01
-5.731642377480004047e-01 1.832770243184191905e-01 -1.951985505446455771e-01
-1.353573346478833539e-01 1.734313503914807486e-01 2.587341298184624439e-01
3.163028631672605562e-02 -1.357617200622294462e-01 9.223203430713310391e-01
2.836332616446423094e-01 5.958837798221210402e-01 -3.134005883168087094e-04
-9.209634809603256533e-01 -2.701953565729120488e-01 1.849011765113239003e-01
-5.627944513981070207e-01 8.860660209797761866e-02 -3.280694980274610068e-02
3.790284554551031637e-01 7.228490918983786484e-01 -1.087201883444601641e-01
-3.067764144235532453e-01 -2.338750114708594008e-01 7.412117124267884050e-01
4.350938960325838600e-01 5.775811922174897139e-01 1.806455385425505544e-01
-7.440463937823594831e-01 -4.011999412240802726e-02 -7.490820841373011657e-03
-1.832213562640651883e-01 3.981208503537997379e-01 -1.499532131688436354e-01
5.591613511482301790e-01 4.119350663045496241e-01 5.707841731406887442e-01
5.666515630267514592e-01 5.687217244678330896e-01 3.265241085508276964e-01
-3.776773250450166652e-01 -1.598634390973399655e-01 5.514176032729717347e-01
-7.724897871895047841e-02 5.462300023601887045e-01 -2.817262897254264598e-01
2.269219797613571399e-01 2.408468156077316902e-01 5.130247807905251589e-01
-4.485962695746534834e-01 4.063981011551670575e-01 -4.288108503466263044e-01
5.803496841060791223e-01 7.752958595983047152e-01 8.531622920713913955e-03
1.373248622002060382e-01 9.473342591476498903e-03 7.948842508284579278e-01
5.041182036350241868e-02 5.899467887379208353e-01 -2.241702188957240827e-01
-3.290198908165601899e-01 -3.079802299154035250e-01 8.379444960425054267e-01
-5.257255539825018698e-01 -1.879768252675553253e-01 4.484046569106798774e-01
-4.025373231823177744e-01 3.536994457734642383e-01 -2.980992632040017631e-01
-3.466917345122078609e-01 2.036012109021565208e-01 -1.197374607963120133e-03
3.505173528116339865e-01 5.085793677023384696e-01 2.068055834519162695e-01
4.352816253234967903e-01 3.680615733159896541e-01 5.172635350042094071e-01
3.153435864730223526e-01 6.255922527159272217e-01 -1.628369131704782494e-02
2.710468604159929629e-01 2.166791813495876073e-01 5.959880340007049915e-01
-8.557586997534382123e-01 -1.568491065744654633e-01 6.815057909584311402e-02
-7.473292832167942601e-01 -3.017008448911351337e-01 4.092498820125174408e-01
4.517733048083745206e-01 7.046073763024138792e-01 -6.631659355743678257e-03
2.943135012326494881e-01 5.511258505635487914e-01 8.224332067397370494e-02
-4.701570528795285808e-01 -2.236019380377353427e-02 2.380791469817348793e-01
-4.795386026327042028e-01 2.800360060371696047e-01 -2.568732252609161604e-01
-2.949628187646034516e-01 5.273804226099351178e-01 -4.693302810034347128e-01
-6.232976671771651711e-01 1.392793053573993245e-01 -7.194916500394104020e-01
8.732500886676032303e-01 3.712261828876361469e-01 -2.216352392547809858e-01
-3.888318136988009877e-01 5.879548970326119450e-01 -7.058576779835457060e-01
-3.986687280467204331e-01 -7.323342595218692574e-01 5.177786575628963162e-01
-8.594593119388026503e-01 -3.537009540582634615e-01 -2.779107113554511455e-01
-8.095495438470210470e-01 -5.023450254043764218e-01 2.300716918384120846e-01
-7.421519313675080110e-01 2.489446947515067676e-01 -6.103162320562863785e-01
8.307349425706882506e-01 2.722255290478418910e-02 4.891045481076978785e-01
6.982055274933532951e-01 2.869475237658669631e-01 6.079813145465345903e-01
9.054724627550372329e-01 6.715965744892492262e-02 3.543131674405829434e-01
1.381295266481932515e-01 7.158852524935116479e-01 -6.306433611361755842e-01
7.831472130402840071e-01 4.741038218029596796e-01 2.767533723609267304e-01
-6.743071923219605690e-01 -6.411974913947928734e-01 2.908530494225728402e-01
-6.162717269044946100e-01 -7.091640765694992021e-01 2.819508571108707007e-01
-5.980636430906479534e-02 4.172244356609776661e-01 -8.545293700684470917e-01
9.377026726495653053e-01 2.841095547746849137e-01 -8.398456664692448281e-02
7.685818857546804495e-01 4.998049831888782824e-01 -2.534774956578955685e-01
7.443477592913924079e-01 5.753327539537237412e-01 2.200156068898243000e-01
-9.571367371487569942e-02 -7.800666153332980191e-01 6.240155563716754950e-01
-8.977872178888850474e-01 -2.603608186893446308e-01 -2.745748799240785298e-01
8.632336959214274019e-01 -4.619781559624346751e-02 4.618430440809026538e-01
7.059228013152598624e-01 -1.780626166497111529e-01 6.442927719394613284e-01
-3.366917737679140932e-01 -4.381347989508931340e-01 8.287524207897358774e-01
-7.100327050570685028e-01 -6.998669227361998812e-01 -1.304482429553821821e-01
-5.626628030421221283e-01 -7.800407078223359214e-01 2.561260757673491928e-01
-2.654702783546571410e-01 1.266660955913071485e-01 -9.347757879558176164e-01
8.564866762963779800e-02 -1.918588607653736733e-01 9.829989831597716332e-01
-3.109514372322381703e-01 5.797600124035924285e-01 -7.294891528107995127e-01
6.857278843321502615e-01 5.309054327533822004e-01 -3.904884316808729383e-01
7.688203205250699890e-01 4.355423284289809405e-01 3.776535401906221390e-01
-4.761776369985095125e-01 -5.979032211553523268e-01 6.063615092072502932e-01
4.423395897170078750e-01 -2.689298595001685666e-01 8.125354762296904676e-01
4.850964046325627610e-01 6.888580680855027616e-01 -4.374064595317346815e-01
-4.977211300365100288e-01 -5.029983530453205898e-01 6.924501845340130801e-01
-1.934183522468916894e-01 -3.057850793287494318e-01 9.507833176726673274e-01
-2.270362477746179775e-01 5.876652021784600777e-02 -9.753993414337855938e-01
2.417133517359840722e-01 7.049664468109564375e-01 -5.994176679056194557e-01
-5.318742927928343800e-01 -6.872650396339131940e-02 -8.184056910628844106e-01
3.446686958673546575e-01 7.657545492319614011e-01 -4.753844644471770242e-01
-5.378277252863525870e-01 -5.638916861375899980e-01 5.941392652845562949e-01
4.605655831475755080e-01 -1.245974974473039593e-01 8.389589476027579096e-01
-5.502957077443413336e-01 -5.079153530349934664e-01 6.481174013756320074e-01
-8.911481319775438337e-01 -4.076952652716399617e-01 1.239597118430103423e-01
6.004215798666057147e-01 -1.548408565686081317e-01 7.346399657808238004e-01
-8.382095327541505547e-01 -4.788632762593866277e-01 1.695539051783787887e-01
-7.513306858652789300e-02 4.543229484276176677e-01 -8.321240918469108294e-01
2.498235070024644733e-01 3.902755351634360492e-01 -8.571986992911786452e-01
-9.245076666493702577e-02 2.910165711574380643e-01 -9.172968086674594401e-01
4.019716016032693351e-01 -1.427967683275098154e-01 8.699615984848142469e-01
3.646725932709266038e-01 4.565428644487057874e-01 -7.682675477783255102e-01
-8.683442364021591864e-01 -4.155570223964076826e-01 -1.350151081500191308e-01
4.727503264926264381e-01 2.955068552443657374e-04 8.547179497782406710e-01
-3.624995662297876287e-01 5.305223592831835588e-02 -9.104811485761629131e-01
-7.825488722550743015e-01 -4.989123109431648495e-01 3.307464333974133308e-01
-7.869562207669246190e-01 -3.854937311188102456e-01 -4.307326083976026343e-01
8.746463543409037644e-01 -7.936167064652897840e-02 4.537686256828846743e-01
1.190550313540864880e-01 3.570788012320985638e-01 -8.959207295823128359e-01
-7.824912339712110088e-01 -5.522286031382731553e-01 -2.237734051465066487e-01
-7.415670396350868554e-01 -6.431003499302524462e-01 -1.659355155367827905e-01
-2.212398425011790903e-01 -4.017619808260502468e-01 8.825348998738733464e-01
-7.153880727064021450e-01 1.149667896874220496e-01 -6.437943619161168307e-01
1.511870234243497535e-01 7.553980001381882525e-01 -5.929367614765217454e-01
-6.043394020373070719e-01 -4.216188755308057923e-01 7.016462588832945713e-01
-2.766939942056000357e-01 -5.564399134774800082e-01 7.506411151982204100e-01
5.047469554553525306e-01 4.659329025989953910e-01 -6.819583878732661253e-01
-7.759427207695182016e-01 -2.126290289497478059e-01 -5.372841919948544431e-01
9.290336617105050543e-01 4.021817951714040662e-02 3.249657095635515858e-01
-9.628986898510734083e-01 -1.264688584393093042e-02 -3.102196837657326678e-01
-7.381611708467129551e-01 -5.488675965093172682e-01 -3.984671680538567906e-01
3.538628736828727250e-01 -1.298017866643220997e-01 9.001243403400062126e-01
4.124685195696030371e-02 -5.500538187699974824e-01 7.995625040321586718e-01
2.778938949835185190e-01 4.849449908275453303e-01 -7.757897770027119000e-01
-6.442462949409124562e-01 -6.668076075293616345e-01 3.051466791548920199e-01
5.530840769290791270e-01 1.563867524648607510e-01 8.005429127260766942e-01
-2.669798971918304620e-01 3.594482202827975481e-01 -8.421165450165480904e-01
-7.813464261201686911e-01 -5.117635703028302618e-01 3.032932755689707327e-01
-1.564667436047086913e-01 3.083694711233294083e-01 -8.951355004031298357e-01
5.328990856466748749e-01 2.088555885751939567e-01 8.208428535640732715e-01
3.733013532376324717e-01 8.573801164935529462e-01 -3.398396339289837531e-01
9.324697717701883881e-02 4.408255236542393818e-01 -8.423682036275398355e-01
-2.960033975389444461e-01 -7.251609278480387610e-01 5.921340195909551296e-01
9.397657850365321863e-01 2.437305051784832144e-01 7.651932534865939217e-02
4.503534484107225566e-01 -2.852760368476691677e-01 8.035145784400463675e-01
6.931976937641166625e-01 -1.687263453391772416e-01 6.562534059564200106e-01
7.890049286825370420e-03 -3.671473941337125568e-01 9.081792530719915435e-01
-6.344451993680524926e-02 7.338870062015793172e-01 -6.577908625209851756e-01
3.614047610426073254e-01 -4.032491703875500377e-01 8.045357550937856095e-01
-4.289104978315216865e-01 1.935720574639659963e-01 -8.345441716909486329e-01
-1.483929098947747993e-01 3.540573521130626067e-01 -8.747427453629796901e-01
-7.350080958652628338e-01 -5.378919832036522797e-01 3.634181917443595755e-01
4.417080720361705182e-01 -1.364008310456875095e-01 8.480513794277576567e-01
-7.546797539203909944e-01 -1.607779771122415380e-01 -5.813360988942474217e-01
7.952832965254414965e-01 5.952806918926016599e-02 5.305068790415335966e-01
-4.703029949791818765e-01 -7.475313154658171089e-02 -8.678037187957985399e-01
-8.494300510986683150e-01 -6.555736495486089166e-02 -4.726289693513316403e-01
5.801685522358667191e-01 6.343556880330898373e-01 -3.937070749059163322e-01
-5.364742609374522075e-01 -1.125732616209866449e-01 -8.186798572906572868e-01
4.255298810969355139e-01 7.843989009634289022e-02 9.022884593505298145e-01
-6.069823443344272151e-01 -8.009001766268657452e-01 1.051835453361780609e-01
6.232924796370979958e-01 6.861021655737705727e-01 -2.212254653320087361e-01
3.595788767261579588e-01 3.813992157628685042e-01 -8.346678182510873789e-01
-9.184706891976166521e-01 -2.667517186044712774e-01 -2.092562555899780963e-01
-2.985275906570874493e-01 1.794644294669753837e-01 -9.018294994179718582e-01
-6.450353188304278618e-01 -7.075657231013917636e-01 2.205275722407049332e-01
-2.159351001517482438e-01 7.018708309852571270e-02 -9.759734094288307071e-01
4.871095238384772208e-01 -2.339119936581573189e-01 7.966419153064999703e-01
7.122443098293702590e-01 5.920857208213382572e-01 -1.919121713206909385e-01
2.213563439714124337e-01 -6.759145563329040929e-01 7.135416178681753818e-01
-7.006510308207446469e-01 -4.829160652903701223e-01 5.182393836689345168e-01
-2.709824997227228138e-01 -8.458065024963362655e-01 4.875431185573561588e-01
-2.744661365850379897e-01 9.719627063522866262e-02 -9.411290698975109947e-01
1.271438152089151251e-02 5.057319364765335834e-01 -8.037951357305797018e-01
-5.300807927101210959e-01 3.906394914948049246e-01 -7.232183014330550996e-01
-1.127094294928717710e-01 2.895131840203788443e-01 -9.139994966664257703e-01
3.111414726864475400e-01 7.161885057740124960e-01 -5.510151198333812506e-01
-7.123568210090133190e-01 -2.612023987233680344e-01 -6.160728925597864780e-01
5.834748713855313351e-01 6.480109445966718562e-01 -3.673450279312272526e-01
1.748800784296213329e-01 4.793372215329566033e-01 -8.054668114953683622e-01
-6.819793151409532239e-01 -4.831616743127131186e-01 5.433971985899336277e-01
1.334795462444895442e-01 3.182246700507560533e-01 -9.204596774208416710e-01
-6.416587794983679149e-01 -5.988516526058964562e-01 4.264087700296551042e-01
-6.705480103438214989e-01 -5.423406073160216279e-01 4.711410421268265591e-01
-6.878950833448786994e-01 -6.796846409174204240e-01 1.626887281539766139e-01
6.202742736453081135e-02 -7.356073548715889032e-01 6.823855077802915003e-01
6.191718950633443574e-01 6.771003514204420037e-01 -2.494999823064374400e-01
-9.570837002550545147e-01 -3.018308337998353297e-01 1.907312535784704000e-01
8.657883323386954544e-01 4.009422588277605226e-01 -5.339744764573416819e-02
5.776381286511214075e-01 -2.489838761643345388e-01 7.353309868086483903e-01
-2.426310089499293943e-01 6.907473060031700252e-01 -6.829671674152162364e-01
8.938092429797310778e-01 -6.123015866757080400e-02 4.226872906573774791e-01
6.882057769769831523e-01 3.063858223396892511e-01 6.168806315472336044e-01
7.404634028336848361e-01 6.017510269522989841e-01 5.112645016665064157e-02
5.560600320953056341e-01 4.730358046923272552e-01 -6.339419747113513859e-01
6.532976304577925442e-01 2.838296084943388586e-01 6.731892705325768222e-01
1.220630699715337664e-01 -4.176571687460739479e-01 8.652605884813691084e-01
7.796546588368584441e-02 -7.086925219448346747e-01 7.006995563988565046e-01
-5.112195436280504435e-01 -8.545960972817834289e-01 2.188930726736225685e-01
-9.264361188799711266e-01 -3.528523385243987343e-01 9.330367521108799689e-02
-9.339742842265060796e-01 -5.696530864757643094e-03 -3.627430061115232141e-01
-3.938846838752151358e-01 4.416513444726744703e-02 -8.947905921417793618e-01
-4.595565417051948771e-03 -2.915105451654775859e-01 9.512107609263026342e-01
-8.041463435316104080e-01 -4.597335047376984729e-01 3.627694674954775600e-01
7.114243058435737455e-01 6.353935222067396138e-01 2.244428704740926428e-01
-7.006557559682704550e-01 -6.290559371535532351e-01 2.518415368628502682e-01
-9.711502846984435000e-02 2.221277178225185001e-01 -9.501544077838750546e-01
-4.492712780859303701e-01 2.006565586655233158e-01 -8.214508817303600718e-01
-6.223243944359275748e-01 9.918567626170735063e-02 -7.254272720946786102e-01
7.889330619383111420e-01 3.566047408307980726e-01 4.026145271293650185e-01
8.127572321668136146e-01 2.254559100552923634e-01 4.418863224755156804e-01
4.806260502044372718e-01 7.035024173028809891e-01 -4.230845282747112690e-01
5.322851535907541232e-01 -1.639906414556508915e-02 8.065831134242477107e-01
2.733884194635330389e-01 7.919081711897241194e-01 -4.979205606814013918e-01
-6.764273141156259550e-01 -3.715877968297766065e-01 -6.369586081274999367e-01
6.900030375294452512e-01 6.774439281481279274e-01 3.349330322220437500e-02
-8.023783771760341077e-01 -5.310731403404982398e-01 -1.712049414010314574e-01
-3.870862714129407745e-01 4.297744362905820958e-01 -7.727325093018941882e-01
-9.285570980784294548e-01 -3.495321004510114626e-01 9.962848406836087578e-02
9.506387424119138174e-01 1.967942763426353825e-01 1.243645296277110235e-01
7.828131079003112225e-01 4.494445271946342357e-01 3.178846129768317375e-01
1.069740290990540132e-01 7.923035475006069417e-01 -5.775791126080732640e-01
3.214207940184533874e-02 -6.477820782927566912e-01 7.383573463986302654e-01
-7.765790919237725021e-01 -5.550788589276889340e-01 1.976860508036984709e-01
9.276261724271696041e-01 2.048753941091557007e-01 1.899330349808780460e-01
2.684821922459008081e-01 -2.288698556195087885e-01 9.069346187441235108e-01
-4.956794393670750365e-01 -6.549793971800492720e-01 5.240574132813510255e-01
-2.937125232007362086e-01 -5.068989616025181277e-01 7.859667458212075131e-01
-9.173645363279671061e-01 -3.602332379433029197e-01 1.998625869443888536e-01
1.775249638388255724e-01 3.584238700075974560e-01 -8.909445516559856282e-01
-2.559867860821541177e-02 5.599329706550921770e-01 -7.701490121730311111e-01
5.018134903257914781e-02 7.028277138593734819e-01 -6.635232325219898586e-01
5.970621670246267776e-01 7.263497308107897954e-01 -1.989368127326029412e-01
-1.174343158851491042e-01 -7.844025703002902583e-01 6.141806782126081332e-01
-8.254945944804551461e-01 -4.793923474516094685e-01 -1.908274761766940997e-01
6.066013769721786408e-01 1.173092371382803778e-03 7.447261101740998424e-01
-1.723749104811377886e-01 -6.797069015422808613e-01 6.824910635364337397e-01
6.869213691964315416e-01 -2.227890682274643874e-01 6.568674171865253042e-01
-8.814517710482893120e-01 -2.056974865746907521e-01 -3.560321672492453016e-01
6.603058567514729083e-01 3.100532897906842500e-01 6.569417962250942988e-01
-3.776019154899679098e-01 -1.792500644559442914e-04 -9.156118144742037002e-01
-6.659389277135236984e-01 -7.686433378724484289e-01 -9.581719829854781767e-02
2.622068041778331526e-01 -6.707831265198617166e-01 7.105624161014442164e-01
5.088136052678504662e-01 8.227268077631882948e-02 8.367727827332609447e-01
5.383824487894905975e-01 -1.572134824740251124e-01 7.800637067600947328e-01
7.413690313331342541e-01 5.886650419921317656e-01 -5.999869668824039243e-02
6.095791040291732577e-01 1.650529457717994086e-01 7.421135726640196717e-01
8.386997445070079049e-01 2.637849420382181176e-01 3.634772175941192729e-01
-7.289139468297116675e-01 -5.476237303131081813e-01 3.574215705547314492e-01
-9.291510881489387086e-02 -7.858825543513884293e-01 6.201651845100305538e-01
5.488997934700217129e-01 5.984078028056447757e-02 8.002334443114622609e-01
-4.868264633436008015e-01 -3.926422752810541650e-01 8.077663117807296622e-01
4.149550830609545493e-02 -3.250688193363843737e-01 9.266895860092650983e-01
8.156685926560248712e-01 3.556044944646125638e-01 3.360352121265637870e-01
9.105904605071435398e-01 6.856943274350268958e-02 3.440731572029846475e-01
-6.966365910839726894e-01 -1.452865806758238919e-02 -6.644195147611218211e-01
4.348987607676945144e-01 -3.507275067228685095e-01 7.912248252850290209e-01
2.170498189799614508e-01 -3.657216097325481918e-01 8.684166059807578719e-01
4.054825015562755763e-01 -1.995707216050005839e-01 8.523083532196111811e-01
8.042783638415912373e-01 4.934754782318753752e-02 5.205347921523374444e-01
8.672475784749342220e-02 8.027266525560994292e-01 -5.756844374409941789e-01
1.240236772578651586e-01 3.726973345382493252e-01 -8.855017289474397257e-01
3.142510548968196482e-01 -3.683587374089965505e-01 8.358119928668957810e-01
-8.051952381950664428e-01 -5.474951496303951393e-01 -3.882876216830205215e-03
8.288021141496074717e-01 4.492151702544225356e-01 -1.425366753475511561e-01
7.382784768234627037e-01 6.054147995987785302e-01 5.978536143234037398e-02
-3.250553297954138499e-01 -4.118118526277950164e-01 8.533997111040128036e-01
-4.797055180348796521e-01 -7.272457165994359318e-01 4.501618666310382988e-01
1.546573395735437451e-01 6.910918092132810608e-01 -6.457381739063213777e-01
8.497891910309818275e-01 1.314948460340454039e-01 4.223172864204031707e-01
7.443474589280949516e-01 3.342130954569664247e-01 5.107950290744844857e-01
-6.010601377971676318e-02 -6.218603420434100082e-01 7.485900782703792666e-01
-1.108139026028309576e-01 -2.905525000105839695e-01 9.608536475645320651e-01
1.275402827992182797e-01 3.657304127866441990e-01 -8.898851377471075352e-01
-9.196571595903448859e-01 -3.606698295656424191e-01 3.799248387284542838e-02
-7.001632252418100721e-01 1.023385706167383169e-01 -6.583920288709784741e-01
-3.390360050428911087e-01 -6.442976970897245081e-01 6.463916624293238877e-01
-8.956405067547765775e-01 -3.830756002057115750e-01 -7.219495944317692870e-02
4.783030302582914617e-01 6.305122470539209489e-01 -5.175725766067542644e-01
5.108962601621901412e-01 7.571387395308549761e-01 -3.064199443992382532e-01
-6.393499736668041278e-01 -2.597262200882421990e-01 -7.112367687998877308e-01
-5.519204187978991039e-01 2.467610811299864038e-01 -7.492779170514924925e-01
-4.638947535571166236e-01 3.551043469141552666e-01 -7.672112494854790299e-01
-9.800448200122268139e-01 -2.355056660133946489e-01 -2.564599026377812133e-02
5.104597957826086940e-01 -2.955402110821103157e-01 7.671627424780509408e-01
-3.942869283783386608e-02 4.261494454114221897e-01 -8.510840185193506713e-01
-8.003284427222496777e-01 1.044379418374035556e-01 -5.594512367528269303e-01
-3.042813647579045155e-01 -3.765994834093485122e-01 8.859410885199358043e-01
7.239588737292661502e-01 -1.100450883327875745e-01 6.298717181519716268e-01
-8.326517675859792522e-01 3.658480413050581997e-02 -5.161966880737222096e-01
-1.244624344461840587e-01 2.730020512593407389e-01 -9.194715561498463252e-01
3.748671553129236389e-01 -8.077024120293888054e-02 9.019316603261368082e-01
3.227119788722900839e-01 4.482831979910763542e-01 -7.913646382795185286e-01
5.913247541318553679e-01 7.998007755162737098e-01 -3.008736949581025666e-02
1.596319940202460541e-01 -4.707995866183995459e-01 8.313791887797552516e-01
7.794772667872278404e-01 2.760246046017409416e-01 4.766723154542940044e-01
-6.123308612243261173e-01 3.646587407341178033e-01 -6.839308399202632671e-01
-8.788971632019941804e-01 -4.147918882246595662e-01 2.040724185770234622e-01
-5.499827679804137892e-01 4.565685909782325469e-01 -6.928985209680705859e-01
9.030333600029385455e-01 3.363790377193174308e-01 -1.520152448651603330e-02
8.904241090028228722e-01 3.357567702214727112e-01 9.102880765207108094e-02
-7.941420140462474020e-01 2.124025331076456469e-01 -5.662673780524487555e-01
-8.266956964870098012e-01 -5.127310742867386972e-01 -1.217482530818925039e-02
2.039347042250125031e-01 -3.504972692145451596e-01 8.789201373696112762e-01
-3.915560748629549614e-01 -5.407874198458982873e-01 7.169857793293314963e-01
-3.178832933295805407e-01 -7.287727609875108703e-01 5.763677105939361001e-01
-7.285211123684315337e-01 -2.463944571817550111e-01 -5.970483181509801396e-01
2.952274285726543823e-01 5.143250155574082827e-01 -7.453688474432004218e-01
3.071133308344629539e-02 2.837770723120712768e-01 -9.382971571802737332e-01
5.230067549010199990e-01 -3.283841235939237713e-01 7.513021141823340576e-01
5.077739453910035117e-01 6.350757675312157513e-01 -4.826303880454148598e-01
2.515754717669049789e-01 -5.880777789150426482e-01 7.548228492651523069e-01
7.710824340638422481e-01 5.479683590461655873e-01 -4.236921699309151301e-02
-3.594250388160707965e-01 -8.446948279453742048e-01 4.222646146091160735e-01
-1.269353344277970308e-01 -6.114868309982721684e-01 7.459506459643006071e-01
-8.999696645724323263e-01 -3.858319390961991169e-01 -2.591378245232994759e-02
2.763978903070653526e-01 4.717409188065703196e-01 -7.870107609731438192e-01
1.884985197765881026e-01 5.923103149332280548e-01 -7.156619851214116590e-01
4.236094319701581325e-03 4.330911108064701698e-01 -8.490474172426473176e-01
6.918725938814918042e-01 5.233965130630925389e-01 -3.924258556317474778e-01
4.265556113431524521e-01 6.445865215588734987e-02 8.992417150229767842e-01
8.837571192816218169e-01 1.918867005711132612e-01 3.181367232542958168e-01
7.700573851637252387e-01 5.361761870231663840e-01 -1.214470804804727577e-01
-7.460401176220107233e-01 -3.556448522804823709e-01 -5.293557185544854882e-01
-8.436839862619879282e-01 -4.806763433851486966e-01 -5.388346616893830571e-02
4.777589610950401799e-01 -6.517916348670117765e-02 8.396674479105362687e-01
-4.584900231420203087e-01 -4.230321035942953278e-01 7.935120194309174257e-01
-6.114259358115669007e-01 -2.807004603000889387e-01 -7.419759646826464827e-01
-1.182605322671773929e-01 -6.632752121845358895e-01 7.090061236458892191e-01
-7.732173632381571238e-02 6.049090172786102393e-01 -7.423828426732008712e-01
2.753722166950763328e-01 -2.512784909920336984e-01 8.957901589045241808e-01
-3.275580855306766681e-01 3.719130300071584599e-02 -9.340165178851722594e-01
6.928540188120451138e-01 5.535264455198445344e-01 -3.337958675752241144e-01
2.578736622111509336e-01 5.212232525677049644e-01 -7.523765858388820060e-01
8.424336667222968034e-01 4.380563768677371850e-01 -5.325274676960094905e-02
-3.491095454340469861e-01 1.916135814088248956e-02 -9.272524406080374648e-01
-1.321199426203903959e-01 -5.161962668111230723e-01 8.136506170489695711e-01
5.279160724786772230e-01 -3.804899132391426075e-01 7.343619819532415383e-01
-1.214562828518400556e-01 2.108676128142707440e-01 -9.494934404861548050e-01
