-7.296181278858052122e-02 -5.830514845854087858e-01 7.116122826064280593e-01
8.045063903395292815e-02 -1.185206100079088248e-01 9.374864130810880436e-01
-6.413054962287680072e-02 -4.016319169743302608e-01 8.002303414050750963e-01
-3.079631564507465114e-01 -5.521962736559548057e-01 7.285562308480629801e-01
3.107328232989940431e-01 -2.478359704989369083e-01 8.724470286766405902e-01
1.291803183870991745e-01 -3.158236297768892697e-01 8.406480035758333580e-01
1.065633984305010412e-01 -2.686301458655437902e-01 8.638978300658887166e-01
-2.610819956878541737e-01 -1.951693743417103333e-01 9.027197178257566623e-01
-6.885890515116679933e-02 -2.681107113903865025e-01 8.655403537733995512e-01
1.807748574622584092e-01 -4.916523630986152638e-01 7.542847409888452370e-01
-5.211960284183685121e-02 -7.299175870096950847e-02 9.607928352747603373e-01
1.253962423296297590e-01 -8.513695116151426268e-02 9.534504232077348762e-01
-1.558587252211947240e-03 -2.773872178234020325e-01 8.604727509837205579e-01
-1.221710351842946601e-02 -7.067750489922991486e-01 6.506484913907907286e-01
2.301940882863768856e-01 -6.167018230881804453e-01 6.927624277521269303e-01
-2.009663039756575675e-01 -5.524660429334871115e-01 7.275773946339172404e-01
-3.833508770123802284e-02 -2.879626421998702779e-01 8.555940087387290394e-01
2.670021064788664633e-01 -2.318300030336707951e-01 8.806177953651137535e-01
4.058622309821163787e-01 -4.108755087678344631e-01 7.919912250372996843e-01
-1.445853180918316438e-01 -5.237845427790549513e-01 7.411522089502928790e-01
1.340781513557778859e-01 -4.792978771935280657e-01 7.606939385722135682e-01
-2.977719188610894463e-01 -3.190645301419187674e-01 8.424433092707305226e-01
2.142811573104978218e-01 -1.550691447212727281e-01 9.185600925970244246e-01
7.268910378469206623e-02 -5.822779720620748778e-01 7.108374854381416252e-01
-7.331427251519079258e-02 -4.770114629279787466e-01 7.634533269608619888e-01
-2.348919127232050319e-01 -1.598766639247475307e-01 9.197654420319474333e-01
-3.908018930598900487e-01 -4.011644587033368348e-01 8.030447025459918065e-01
2.081111800069298801e-01 -1.078873523271656892e-01 9.416740140960988548e-01
1.720193243114035431e-01 -3.890973917702147400e-01 8.044886155514402448e-01
-3.036098983039099974e-01 -3.931650027177229223e-01 8.062650929656781651e-01
-9.542332037270018219e-02 -2.610243179544167735e-01 8.692148533095739316e-01
-1.244058416146493345e-01 -2.960641062530093848e-01 8.523148756701111051e-01
-1.954921222662633074e-01 -1.280165192973858612e-01 9.350285729059498729e-01
-3.833886147534132805e-03 -4.145956199289159705e-01 7.934156711125560646e-01
8.047212238087998737e-02 -4.128266267488809316e-01 7.936131098186298694e-01
2.613945909631552600e-01 -6.165778524772309588e-01 6.925760567759396968e-01
3.619795349351626612e-01 -3.841114273489834585e-01 8.054223585945802233e-01
-3.844537969785016274e-01 -4.689783533649038438e-01 7.698432531584288308e-01
-1.141292404513388203e-01 -3.032999255908698233e-01 8.486962583597403853e-01
1.508080177103987285e-01 -3.917972727440563463e-01 8.033366666585167737e-01
-2.950937868842379297e-01 -2.920998422266826711e-01 8.556039475701656682e-01
-2.803855767571951096e-01 -2.960376938184717810e-01 8.535624807236289469e-01
-2.225391175775385255e-01 -3.664852227111702332e-01 8.186659175489779949e-01
-6.227786947104976822e-02 -2.283295939386046358e-01 8.849354806115149463e-01
-1.593144469900150684e-01 -3.947863276184740977e-01 8.043302956971820628e-01
-1.950458220579070201e-01 -8.850742492909616232e-02 9.543392806452840604e-01
3.280758290641558883e-01 -2.795663995744666619e-01 8.567981494194626402e-01
3.059185697877165877e-01 -4.447242701054829883e-01 7.762351966487317512e-01
1.186050231454806314e-01 -4.071340635810395958e-01 7.960941013072113659e-01
-5.852014527097373908e-02 -4.142520272613960941e-01 7.940165198625845910e-01
7.477540950984228052e-02 -2.076461482328113561e-01 8.939618215803341039e-01
-9.748031999820448712e-02 -1.143066876820298255e-01 9.409548655577598675e-01
-3.742888198682800538e-02 -1.733230932876209940e-01 9.116290165685001501e-01
3.446267517953510717e-01 -5.792184818314850547e-01 7.101805497453572702e-01
1.494474466332755824e-01 -6.237236003972642662e-01 6.899689613279742506e-01
-4.036978089805978720e-02 -4.728896220090240687e-01 7.652075321783576856e-01
-2.545164814904342099e-01 -3.029388288774331750e-01 8.499840497392308070e-01
-1.654203688881825118e-02 -5.318895073179010780e-01 7.361764961441281674e-01
6.944424472429694406e-02 -6.205534177927620743e-01 6.921520063280431900e-01
-5.817052780082747343e-02 -2.837904994073954801e-01 8.577905959007205983e-01
1.906838154678154595e-01 -2.483550949876373037e-01 8.731435270995712150e-01
8.314749391219490582e-03 -6.549159665215488202e-01 6.758375677284043093e-01
1.408163642195115195e-01 -5.304756740936066306e-01 7.356220500464758505e-01
-2.777080151337610880e-01 -3.641481288340394085e-01 8.202451208877784561e-01
-1.242669662483289611e-01 -3.725879954129692195e-01 8.149046475307591963e-01
5.240095530859392031e-02 -1.725498748919730152e-01 9.112959401056140996e-01
4.957757294475984705e-02 -4.772046330805534420e-01 7.623861162107958833e-01
1.624503328681439485e-01 -3.056429341770167674e-01 8.453615368527722662e-01
1.738678124420613702e-01 -7.956953409348097028e-02 9.557883982328660988e-01
1.576347675641175394e-01 -4.624970977775259562e-01 7.687206252640172988e-01
6.698536935482782284e-02 -5.160787714122045955e-01 7.432444820855055312e-01
1.194289806098995793e-01 -3.602337536194626377e-01 8.190150564668784439e-01
-1.099812999140255265e-02 -4.291826816396707711e-01 7.863414150694228999e-01
7.768156408243855060e-02 -3.610719509316072107e-01 8.189357602510599632e-01
-9.724358243730950313e-02 5.487137655418268256e-01 -7.506170792380604251e-01
3.127392310311515877e-01 3.443721272599646888e-01 -8.537559381727534147e-01
-2.391632801464322056e-01 5.999512476998221100e-01 -7.244459533504069570e-01
6.942444856256152486e-02 5.392342777656321529e-01 -7.565704783950231160e-01
3.062619998972888058e-01 5.091200970316209773e-01 -7.731667048248791474e-01
-1.918665332084802111e-01 2.002572498875196672e-01 -9.202129754618918467e-01
-2.229304727121915741e-01 1.227113553917412031e-01 -9.578758235924608178e-01
-1.131502275790545048e-01 2.627169537580543723e-01 -8.903022987057725990e-01
1.414576330488415690e-01 6.098265652115009150e-01 -7.226312411543944769e-01
-1.047727748986936186e-01 4.344608046750658703e-01 -8.064106755886452094e-01
-5.799937361248191925e-02 5.415136409863414713e-01 -7.544475466643664197e-01
1.464173359689564247e-01 7.272737962351043528e-01 -6.652557686903712852e-01
-4.613877687021689100e-02 1.029569606917429270e-01 -9.689323043271571567e-01
1.220418618861353333e-01 7.422878295016053229e-01 -6.577231253928165211e-01
2.816893670579186382e-01 3.990755171342010854e-01 -8.267680994900843405e-01
2.022133845725923862e-01 3.831370274604731785e-01 -8.339306085408182412e-01
-3.832573274751568393e-01 3.929528997881551744e-01 -8.244976377325813344e-01
1.089831995698051503e-01 2.671351047836516002e-01 -8.899008088365617519e-01
-2.612015640184623955e-01 6.347561111426504032e-01 -7.072569532075381193e-01
-2.818035004893358897e-01 2.872295316666708676e-01 -8.769841751885519843e-01
-2.744163822138772843e-02 8.068506250010232250e-02 -9.799680471014996508e-01
6.889949778348762599e-02 6.906351700915620562e-01 -6.825531547260393905e-01
-1.840398807153411087e-01 6.624536540180209210e-01 -6.943276462323394460e-01
3.252216882832912326e-01 4.093092611897756194e-01 -8.221098668114075192e-01
1.756822667037468422e-01 1.925720536934648064e-01 -9.268793427663019058e-01
2.584630461285273295e-01 5.112963422151365345e-01 -7.717244717364543094e-01
-8.224832684914555603e-02 3.016768489865960245e-01 -8.715011482764110085e-01
-3.695749574611228438e-01 2.502015482004698588e-01 -8.943907358576251854e-01
3.323628879948234971e-01 5.526087499167118278e-01 -7.521136425152034066e-01
1.014036247661814633e-01 5.583928797358184842e-02 -9.931339462519096495e-01
3.282088895386768290e-01 4.436859125538633597e-01 -8.053282954632596802e-01
-1.653920516108596528e-01 1.326038196119664891e-01 -9.534952959392342109e-01
-9.818498925103369412e-02 4.005514757153990080e-01 -8.230395867739933591e-01
-2.837490760837245163e-01 5.369024255990674233e-01 -7.549147916680560844e-01
1.305563543983595809e-01 4.971501262465894966e-01 -7.776274534869493937e-01
-1.150305471338026048e-01 3.076992647304195305e-01 -8.682975616979821121e-01
1.061066638047094696e-01 7.353220301302627604e-01 -6.610022564622748398e-01
1.275948607626332387e-01 6.681465505972629115e-01 -6.940114579868384981e-01
1.592210140949940900e-01 6.595206797963960588e-01 -6.984786069384766316e-01
2.273458066268283506e-01 5.750944315892613234e-01 -7.402901052924154568e-01
-1.778517790834456824e-01 4.664705995737504773e-01 -7.901840357805859361e-01
1.256434371638223135e-01 4.623974807296151734e-01 -7.945775882237253729e-01
-1.927587871040458978e-01 6.624056107409204142e-01 -6.942821159623971949e-01
3.812059953224761211e-01 4.844866712287544952e-01 -7.858021283370307808e-01
-3.255959073355016442e-01 3.936330855288492914e-01 -8.246215572794796111e-01
2.162186049031828705e-01 7.007371424049478881e-01 -6.787808873842618995e-01
1.098591006294508676e-01 1.591840188934734168e-01 -9.426802309897838184e-01
-1.931740948294008720e-01 6.622847934873846709e-01 -6.943378906856976229e-01
-1.096699804203227734e-02 2.434875719550159967e-01 -9.005115436250449301e-01
6.505080830514625712e-02 3.722072027296738361e-01 -8.381879724790159969e-01
1.156326819214136686e-01 5.900671137388827647e-01 -7.320863356144463596e-01
-2.169306879524479648e-01 4.391677124340769289e-01 -8.032218659958204610e-01
-1.994798426932216928e-01 5.816783947211242589e-01 -7.336928624670633337e-01
-2.736796446642915659e-01 5.020895490478926027e-01 -7.720129668806364753e-01
-1.585981091702848012e-01 5.093226230632149631e-01 -7.693879925738091874e-01
-1.581244636825088756e-01 1.568060035686060782e-01 -9.417214519508277926e-01
4.615474626956086318e-02 4.857722867137315159e-01 -7.825214734362979652e-01
-1.211798308928197510e-01 5.841079434872084031e-01 -7.331249656510917534e-01
2.365144500672332339e-01 3.489121590663507022e-01 -8.509331437245021279e-01
1.029153798594571595e-01 3.354155613470227726e-01 -8.564734966598706034e-01
-1.867677495553956291e-01 7.141250778597426629e-01 -6.690461902239166481e-01
-6.641402289223820483e-04 4.696449059960798866e-01 -7.900348276200717113e-01
-3.370617482427333278e-01 2.969857764619209806e-01 -8.717773713864318541e-01
-3.248056050760548819e-01 1.976160827993630464e-01 -9.204518151230665080e-01
2.593436427094087393e-01 3.199335825419449275e-01 -8.652801917205009685e-01
-2.332264491070855927e-01 4.016495835807081249e-01 -8.214338191445313964e-01
2.950093893175252946e-01 6.191902735391778823e-01 -7.192692142248606757e-01
4.062963052104792000e-02 6.063634362100065456e-01 -7.235260839657178256e-01
-6.468641479485649770e-02 3.910473896928921139e-02 -1.000000000000000000e+00
1.350189829588847035e-01 6.854335436416133520e-01 -6.856193826207326314e-01
-9.611320368885636900e-02 1.806024556233019329e-01 -9.305792882880581374e-01
-1.839978430519110530e-01 2.107020938105474972e-01 -9.151692418287373787e-01
-2.880502338730931422e-01 2.732524123365037694e-01 -8.837675202698737076e-01
3.097342716972657506e-01 1.708014616045485656e-01 -9.385831370325284917e-01
6.185827980200611642e-02 6.183833501291775558e-01 -7.178181224096334967e-01
-1.022428252100816976e-01 9.031629661396174680e-02 -9.746676588710811995e-01
-1.708695688699619075e-01 6.950511417227733801e-01 -6.784964356703729882e-01
1.835239150834405975e-01 2.715173188245341152e-01 -8.883485831727055970e-01
2.855267660235346130e-02 5.773175793010626444e-01 -7.376297147832485690e-01
-2.299827485448650843e-01 6.439537894730483769e-01 -7.030077366564723151e-01
-2.363868912717492776e-01 6.720884223422820547e-01 -6.892032714410862848e-01
8.465199196449849084e-02 3.995038319575368035e-01 -8.249990211000759466e-01
-2.101213960573944037e-02 6.176714502442786081e-01 -7.175101589121402057e-01
4.589843351991781256e-02 2.754832788220397122e-01 -8.853203956640040007e-01
1.398096585648427037e-01 4.969261994922947179e-01 -7.778101679669885415e-01
1.378681946622282994e-01 1.179570237756199791e-01 -9.630559892320780246e-01
5.787377456380356222e-02 5.208946127334861398e-01 -7.654444936548276957e-01
1.498462835574254359e-01 4.804038927181323304e-01 -7.859666367256518127e-01
-7.731924563095546321e-02 4.137601863388864487e-01 -8.167476026743747397e-01
1.736798300858569122e-01 6.425828372390310905e-01 -7.068732175379454086e-01
2.269169825960350440e-01 1.933567614562606840e-01 -9.269012940973075931e-01
1.405900356931390760e-01 4.408595945685241935e-01 -8.052248168781913629e-01
2.818781857649550471e-01 4.458924412016897487e-01 -8.038828804027601249e-01
-2.652998533787951363e-01 5.337727675036642028e-01 -7.565907814674904808e-01
-3.528382032162220572e-01 3.329889567831039177e-01 -8.540521343081639571e-01
2.020696647903286736e-01 4.339403663981089565e-01 -8.090939760875911491e-01
5.728973636661253283e-02 6.468913861724979730e-01 -7.038456470808108767e-01
-1.136553459158776563e-01 2.918640677711301645e-01 -8.760495715255387505e-01
7.335091305068279499e-02 1.903781205179700953e-01 -9.271418320199557028e-01
-2.460982041022484190e-01 1.112102816771275149e-01 -9.633147979818398321e-01
8.069982352591745234e-02 2.911155363217844960e-01 -8.779539579832957852e-01
-9.870545071691368133e-02 1.214887592782483705e-01 -9.594568280122568460e-01
-1.499385830722695934e-01 5.290624981811792304e-01 -7.598065912846544423e-01
1.515984837830091914e-01 7.238605236663595566e-01 -6.669653785279905378e-01
1.901745853327365884e-02 7.136789965128708113e-01 -6.708931993460960364e-01
1.431339551112933151e-01 3.210579857541303594e-01 -8.638106366551697723e-01
3.062137201776278170e-02 5.926052443959699545e-01 -7.301726299026489730e-01
3.537918821008083636e-01 4.036891585798206283e-01 -8.250834391200074780e-01
-2.539714593717704028e-01 2.813322293543915054e-01 -8.800874150972682886e-01
2.952865427948495602e-01 4.878373313451303539e-01 -7.834840244696149592e-01
-1.784325003698022938e-01 7.230477041066195598e-01 -6.647502943227459049e-01
2.436959841501850632e-01 2.868554665780750912e-01 -8.813267500769365048e-01
-1.439659289729951219e-01 5.507120344459984773e-01 -7.492703729739267349e-01
-3.207498944647955152e-01 4.769395121114073932e-01 -7.839351070171846070e-01
2.883302349748025351e-01 5.450723521707431241e-01 -7.554493019573645940e-01
1.268191801300249111e-01 5.451262079196408372e-01 -7.541444966636365876e-01
2.254483965708254656e-01 6.893497847047367344e-01 -6.844207210543704623e-01
-2.889183370619566871e-01 5.469514057436405396e-01 -7.499613733673241578e-01
-2.694712102643171958e-01 5.974404797727901339e-01 -7.254334468792646984e-01
-1.012786528325903823e-01 2.747694103846765046e-01 -8.845043604073934418e-01
1.023127803468883296e-01 2.963957059520380133e-01 -8.755437999831603424e-01
2.234532214700415131e-01 6.376358014128454821e-01 -7.096855961546140179e-01
-1.637801495983684519e-01 3.309160077015035895e-01 -8.565620391627219998e-01
-2.973067327916315561e-01 3.601367525142446513e-01 -8.412203553960615476e-01
-1.734834653694729834e-01 1.891669350201168887e-01 -9.257800529373433340e-01
-2.599987804677015291e-01 6.660820831381333296e-01 -6.919525984709871125e-01
1.113279865382410007e-02 3.574801436887984907e-01 -8.449605768932139105e-01
3.627722995768246916e-02 5.764717698005989988e-01 -7.381043389267423205e-01
3.663591054668238201e-01 3.656555841390042305e-01 -8.437758422515233558e-01
-3.281467310842751672e-01 1.998994724203042583e-01 -9.193091199613558917e-01
1.610683002537212916e-01 2.228884057464449453e-01 -9.119433452601202195e-01
2.789109996040011752e-01 4.574780802419695092e-01 -7.981956888797339111e-01
2.493632620693033153e-01 5.919480805569242721e-01 -7.322253894479457959e-01
-3.304069793131432231e-01 3.537431304069882376e-01 -8.440839005695567332e-01
-2.513318990785655752e-02 3.512752570811999986e-01 -8.477067985144204343e-01
-2.075119605507424470e-01 4.302666877931783929e-01 -8.076477374848831658e-01
6.673346371221874559e-03 1.323001027157690579e-01 -9.550057925561380445e-01
2.028764367715481520e-01 4.928183697673302333e-01 -7.803175228503683725e-01
1.294553767179002224e-01 1.817437032957969489e-01 -9.318069225885736717e-01
3.275587709816116799e-01 2.055906892934579733e-01 -9.217173234716624641e-01
-3.357927099204962573e-01 3.919860711473529546e-01 -8.253459943027597889e-01
3.794799640151188536e-01 3.511166974681872999e-01 -8.509871190154660869e-01
1.378573165344944285e-01 4.099697575492318724e-01 -8.203038540514260291e-01
2.181091101791460818e-01 2.430874357514350437e-01 -9.025204566433471243e-01
2.149663242304295230e-01 2.603452331510720530e-01 -8.940590089577622468e-01
2.583156273299757610e-01 5.798803548543868258e-01 -7.381956287681475937e-01
2.705108956287574085e-01 6.125531569322193448e-01 -7.223198821763070487e-01
-2.525354487991631758e-01 4.454644819055415539e-01 -7.998618176077653130e-01
2.176508962535856073e-01 2.451092127510374474e-01 -9.015284726151293615e-01
3.614069363738725005e-01 3.559519271173120503e-01 -8.484803289335250964e-01
-2.199924027427341278e-01 1.331140914013827503e-01 -9.528136451977129440e-01
3.793288929109240315e-01 3.817527334421307317e-01 -8.360093265949806174e-01
-2.509139495729574287e-01 5.251786554411294050e-01 -7.609059358539135287e-01
2.275803572672767394e-01 2.952934269979907711e-01 -8.770742392717809643e-01
-2.598006085674242072e-01 1.627091133963408653e-01 -9.380308431513357803e-01
-3.519344753802767789e-01 3.335165384087704910e-01 -8.538013767599772486e-01
9.816785202351575867e-02 4.873017541407513864e-01 -7.821855063856921753e-01
1.679414426167331886e-01 6.665640672878567763e-01 -6.951044363301004392e-01
1.210704600708132628e-01 1.255728315017086150e-01 -9.591999929648677981e-01
-2.950951683083104932e-02 2.213040663228774407e-01 -9.112092961985259754e-01
8.722142211967473524e-02 5.193969514167369184e-01 -7.664089417208147514e-01
1.745928778098440604e-01 4.644338438454306828e-01 -7.939695712560231877e-01
4.405270099303856129e-02 5.329274372887066180e-01 -7.594527765829466315e-01
8.259511631137529675e-02 1.620971607861006469e-01 -9.410403110832625817e-01
-1.107065818388221351e-01 5.657347475917510193e-01 -7.421897080486919984e-01
1.017536205944029326e-01 7.186097067416957751e-01 -6.691377111973848546e-01
2.316323068269321162e-01 6.326318241504099715e-01 -7.121965616879493144e-01
-3.534945806925148815e-01 3.696860377377830797e-01 -8.361073664695747309e-01
-2.579243104511339535e-01 4.050218544608968907e-01 -8.195897642107656811e-01
-1.736767430960479142e-01 2.441543086615350910e-01 -8.988976395604644232e-01
-5.302526345565697352e-02 1.515765329930447991e-01 -9.451098444308291269e-01
2.234208359542611266e-01 2.889573360408375646e-01 -8.801387469372028427e-01
-2.308150144086623667e-01 2.589115965118681251e-01 -8.912311662896943432e-01
1.545445699200857226e-01 7.539958830710573323e-02 -9.839924339180849966e-01
2.226425312252459376e-01 1.423674668781698405e-01 -9.517938589576656616e-01
3.041308839075105783e-02 6.836424568138170788e-01 -6.856669335490314099e-01
3.577741138412026678e-01 5.105316642701424046e-01 -7.728844082221801859e-01
3.675245220775497090e-01 4.526316671996277186e-01 -8.012663254097882604e-01
-1.507453664320882181e-01 2.248637111156374102e-01 -9.085094740094790122e-01
2.777669084136034638e-01 5.058865334321965834e-01 -7.745218909762537907e-01
2.663788836731568743e-01 4.386272321385156214e-01 -8.073118299995563074e-01
2.085410234945358487e-01 5.357083263626034597e-01 -7.593953683448230185e-01
5.263548559918447556e-02 3.080073116351986218e-01 -8.694741699986031636e-01
3.867156202620837813e-01 3.460078135756686213e-01 -8.535419008099959237e-01
-9.627270058470610570e-03 6.751616166222359494e-01 -6.894958908524082553e-01
1.652983495712727069e-01 3.318640032326674039e-01 -8.587035022302502707e-01
2.490250077258099881e-01 6.098173641625176389e-01 -7.234872132394223332e-01
2.369527826810114424e-01 -2.540878477612578124e-01 -2.396284345153378292e-01
2.596916063055828006e-01 2.304208737873998381e-01 2.271352977550260277e-01
6.304031719180054616e-02 -2.010600747728395477e-01 -5.108642200582838022e-01
2.377714346234815201e-01 -4.946426943213068639e-01 2.474873632614306151e-01
1.871658682974013388e-01 3.264782422411715013e-01 1.389207480284434526e-01
2.315337085658966398e-01 -5.851095744587969660e-01 4.205359194838494408e-01
6.406682429465733464e-02 -2.847213325187317179e-01 -3.398487000536267177e-01
3.411626405845307186e-01 -5.777451476481787473e-01 6.507089039740907577e-01
-3.849914417499812891e-01 -2.392266321494002645e-01 2.076676326966400421e-01
3.663010740299357249e-01 1.419366307758263279e-01 -6.744248777077642698e-01
4.881522859650525015e-02 -6.584624004072986425e-01 4.181175840124697896e-01
6.022806307389370201e-02 -6.817298866876210228e-01 4.687844688043788510e-01
2.690400604754265013e-01 -1.123850830536372719e-01 -4.669566519941348304e-01
3.654902774390780262e-01 2.823346906154250088e-02 3.401321845971101987e-01
3.036444357287189089e-01 3.977476513024474913e-02 -6.928758672972835653e-01
-1.490421209065971031e-01 -3.554084747137476463e-01 -1.420031810759125601e-01
4.279905395854622513e-02 5.309854663141774234e-01 -1.811318902618768156e-01
-4.019787792921009073e-01 2.860443150199999326e-02 3.587250237208838843e-02
-3.953289527405010051e-01 -3.625796028549840844e-01 5.919273997973636403e-01
3.813220288042681316e-01 -3.237268685431226589e-01 3.179161565485946750e-01
4.030528264548633999e-01 7.963313574918398988e-03 8.381952993313665501e-02
2.978951967635908860e-01 1.465071652458166951e-01 3.186547657980797199e-01
-2.815246473133996008e-01 5.074138351253894008e-01 -3.783039117424206177e-01
7.372332344310826568e-02 -4.484927186461122872e-01 -2.110635176924496349e-03
3.100119242263226216e-01 3.533315728020278157e-02 5.195240302252219777e-01
9.852763055480706633e-02 2.158731289210868987e-02 -9.472942296657423933e-01
-2.541141062666460448e-01 4.040078832922034957e-01 -1.166086717521578886e-01
4.111248063113928652e-01 -3.512805602574443631e-01 7.362102462151026705e-01
-3.938027150850330615e-01 -1.883443586191046737e-01 1.772339153251733523e-01
1.316794646708831749e-02 -1.185559731744290912e-01 -6.909015987140511017e-01
3.359017972666837881e-01 -4.183452979336497179e-01 3.159775447300620099e-01
1.046445231281840360e-01 -3.383842279027290956e-01 -2.107643000178834325e-01
-5.468278754604052883e-02 2.763429865615714132e-01 3.365757926129510080e-01
3.775909124430589237e-01 2.973746700452506442e-01 -3.004162027945360136e-01
1.768138900684678716e-01 5.193036778427204819e-02 -9.414132745272203451e-01
-1.930273261294463416e-01 -4.100097646370166604e-01 1.809800386795944183e-02
3.513713232026806077e-01 2.927109399724759364e-01 -1.573634155032483661e-01
3.998486391715249666e-01 2.637379918445149074e-01 -6.138308380836712264e-01
-3.443289019456415301e-01 -5.238577787392720841e-01 5.956841461022600592e-01
3.974882386302108772e-01 3.538753424120585911e-02 -2.468148897060595259e-01
-5.191520793574939951e-03 6.308639330840355441e-01 -3.796742646236520025e-01
1.988929022103186894e-01 2.086646496013663254e-01 3.678011210645679707e-01
3.358630318799418757e-02 3.144477350813504879e-01 2.646128908959709536e-01
-2.925273348664104156e-01 -5.454762543134333841e-01 4.782234132965055839e-01
-3.856712847477952177e-01 6.214582405282802202e-02 -4.395861627564340290e-01
-3.866564151295254770e-01 -1.188475645124049268e-01 -4.078871423398851975e-02
3.420512445754972375e-01 1.871754155507806550e-01 -8.677318949261083603e-01
-2.278553324486285447e-01 4.933157937908343171e-02 6.434254999883067816e-01
1.687531214855859663e-01 2.705315042840804596e-01 2.749200706592018206e-01
-3.923119521705568102e-01 -3.593747458966072283e-01 5.420515781115239351e-01
-3.563394904403450747e-01 -4.448400065124970965e-02 -3.674360397497217212e-01
-4.542160662046867969e-02 -3.608960744064709791e-01 -1.900844113953070180e-01
3.177184069118290100e-01 -5.555258194449904652e-01 5.366638839431425723e-01
3.248444868407875386e-01 -8.025747308023915838e-02 -3.930236621809507502e-01
2.905350818451412631e-01 -5.135456298355894900e-01 3.856004108060787638e-01
-3.603121301085495110e-01 4.383444586571256379e-02 3.106141398491811811e-01
4.022343837490210960e-01 -3.617523688552871236e-02 -5.123464845812080587e-02
1.868387928692376576e-01 4.572713712458451041e-01 -1.307786951598562120e-01
-3.526747098942119019e-01 1.175318107067835488e-01 -7.244215804809746029e-01
9.866627183397960743e-02 4.910465956180079528e-01 -1.225622050273410119e-01
-5.905117370411127470e-02 1.612334343017770288e-01 5.699431050658779752e-01
1.771386613779925290e-01 -3.639942428001427532e-01 -9.775899248093074256e-02
4.017506547415437002e-01 9.673387786027246027e-02 -1.006754416176500744e-01
2.316786411333948137e-01 3.773870685333692854e-01 -2.844731427233932949e-02
-3.601103480693520487e-01 -5.094474803793623829e-01 6.352965341520110387e-01
2.661743862567571561e-01 -6.303843959337041003e-02 8.241071726060881231e-01
6.373272248286282471e-02 7.548314505377993200e-01 -6.470754272766381376e-01
3.910918806528037028e-01 -1.339212884529793202e-01 1.400805319972115923e-02
-1.962886990770102980e-01 1.279968100389067796e-02 -8.512550661270681385e-01
2.150189678426615292e-01 -9.315086672271520596e-02 -5.984762751603662778e-01
4.211589253730019244e-02 -2.018120239294087792e-01 -5.158308184068242097e-01
1.824252673718189111e-01 -4.582938667285685885e-01 9.930042973720046295e-02
1.367170887970698967e-01 -4.330020292908156598e-01 4.225033489722154756e-03
3.313601856579270755e-01 -1.392559270620687684e-01 -2.549978520670511672e-01
2.915179904620389673e-01 -3.431420220762400053e-01 4.550705231307319854e-02
-2.766173878968901101e-01 4.420568860069613026e-01 -2.365651299584782818e-01
1.587065513973456854e-01 1.440273277978980637e-01 5.457338332432348782e-01
-2.324025062341578129e-01 -6.361733399874299963e-03 7.486151326645904547e-01
3.224631862796782378e-01 -2.186800847798668068e-01 -1.236753057822793100e-01
-2.503254228091455480e-01 -2.502647713080786152e-01 -2.256785772934828960e-01
1.814223109874896905e-02 6.466110926553404470e-01 -4.132989028907812501e-01
-3.052594063007740277e-01 -3.879980663122527540e-01 1.826131031053831455e-01
-3.622091079140927761e-01 6.204680369012972874e-02 -5.673644555114941701e-01
3.191228103604202282e-01 -2.850399376702506538e-01 -6.412292050775350279e-04
-3.664533053126828310e-01 3.244598340778956924e-01 -2.705862944252044877e-01
2.322624659357627186e-01 4.927013536908398383e-01 -2.683205465959048186e-01
3.978285485399718491e-01 -2.280410565870476247e-02 -1.347110741979613557e-01
-2.498716660979341808e-01 8.822228491429252861e-02 5.277944711012558798e-01
1.529165276706254684e-01 -2.989759319708917285e-01 -2.541028841546156269e-01
-1.381812112384782076e-01 6.593551337193536144e-01 -4.893535046386714438e-01
-2.121755451124042735e-01 4.821404131032230866e-01 -2.086104681574612596e-01
3.972124757802438788e-01 9.218499157958072454e-02 -1.889878384184902685e-02
-2.569329038256721806e-02 1.296555261139979015e-02 -9.596279132318814575e-01
-8.160484426430777982e-02 5.998676653796384262e-01 -3.335039167982308261e-01
-2.277250744576551633e-01 -6.882637085435164837e-01 6.436608753221280121e-01
-7.184063554349059966e-02 1.353994858293719461e-01 6.175932994350572525e-01
-3.997970932690333989e-01 -2.875087732326223056e-01 5.185413231856852434e-01
3.786594198491643470e-01 4.376914762825264149e-01 -6.098043903880601135e-01
-4.081094015562578559e-01 1.969293392793835806e-01 -4.241961163516516642e-01
3.998187752774889359e-01 -3.167131088316748055e-01 4.376198975998351615e-01
3.485312035511204942e-01 -4.381841210953625887e-01 3.981856299718760650e-01
-4.087772800619433600e-01 3.067847926945890813e-01 -7.209973667263267494e-01
-3.549490109173444319e-01 -8.451814598606408047e-02 -2.886635515918800632e-01
2.180961465846472380e-01 3.986778275766266616e-02 -8.629102696054697930e-01
3.920389968577210893e-01 -4.201781657580036348e-03 2.462064531871996642e-01
2.150699479381782131e-01 -1.615614327325300692e-01 -4.600545226238970109e-01
3.897598968645103468e-01 -7.403320355323744079e-03 -2.391802827849308366e-01
3.387862849223174933e-01 -5.974342289411544993e-01 6.822716351092077414e-01
-1.391149089696729346e-01 -3.495994545951316423e-01 -1.626507209692673317e-01
-1.106320443101362766e-01 -5.521895541125411144e-01 2.327444365179267005e-01
-3.018813231436583422e-01 1.950475384922132072e-01 2.019521381803241200e-01
-3.669098753748765707e-01 -1.672268086341919258e-01 6.947115951474494011e-01
-2.224241076516534910e-01 7.897143324726325908e-02 -9.530876624760309390e-01
-2.789574199982662595e-02 -2.101320934119433603e-01 -5.025140778715007084e-01
3.576513334777061681e-01 4.007898567386892347e-02 3.502187889128866582e-01
-1.746871111873733728e-01 2.725646884917434440e-02 -9.057053715082581391e-01
-2.724902502210707067e-01 -1.854275936315103457e-01 -3.173524576555833976e-01
-2.121767807896858260e-01 -5.118161704844508275e-01 2.544370334091757835e-01
2.234013858685419962e-01 -4.127854755094214068e-01 6.003702332243348455e-02
-1.969973603618415114e-01 3.716966554455689020e-01 3.482612477736028722e-02
4.033180734708590176e-01 -1.757333615733852605e-01 2.162221093122660698e-01
-3.330381673902443329e-01 1.720659597047380918e-01 1.589505100907469826e-01
3.593223846860224002e-01 -9.138833986734068437e-02 -2.469209994447685297e-01
-2.911213618447199836e-01 2.955717229570217416e-02 5.602790018961160134e-01
-3.969884817627046258e-01 -2.887833927196595263e-01 4.489633767822425736e-01
3.042642327912833955e-01 -5.955854310735685386e-01 5.823931008342653204e-01
2.297146943546405362e-01 2.263465729718799890e-01 2.875341550285939185e-01
-2.982779461086071393e-01 2.398416235084421463e-02 5.539740522940020950e-01
-2.446997872462315302e-02 -3.243299512837317933e-02 -8.668148973884596264e-01
-3.499049896263740078e-01 -3.481407011683441688e-01 2.473716418749445090e-01
3.665142818473817177e-01 5.199576397756544566e-01 -7.114691115103543018e-01
-2.794717648466109594e-01 -4.096345079018609558e-01 1.642045088678490417e-01
4.051240275976464300e-01 -9.952606884144511723e-02 1.140627879992053423e-01
-1.010776283320233421e-01 -6.699968324031342279e-03 -8.943836020467321735e-01
3.955541809570731204e-01 2.048239731676364771e-03 -2.055487873923582398e-01
-2.831782596049972622e-01 -2.874008425564137173e-02 6.957993999907881033e-01
-3.985255016939362460e-01 2.465168879413315306e-01 -3.214999220382184220e-01
3.535782881639948916e-01 1.876815151387061231e-01 -8.230162005835878203e-01
-1.792778860130185559e-01 -4.610069833834600228e-01 1.068535733374537389e-01
3.768932749380378699e-01 2.385055855638796019e-01 -8.043702092875807397e-01
3.223654033707545330e-01 3.552373793436784388e-01 -1.853554941904971831e-01
-3.740199315360139276e-01 7.546965463711476085e-02 1.815235740143938958e-01
8.473626078031849806e-02 -1.357493796914485407e-01 -6.345046321945829737e-01
1.906251301966744027e-01 -5.498630499875196698e-01 2.943175892989047804e-01
8.824446962338632072e-02 -9.160996882773934924e-02 -7.226098347899945207e-01
3.246050367764983791e-01 2.480538885301617757e-01 3.233207569556592609e-02
-2.649713839055995446e-01 -2.719110436770518779e-01 -1.529153687844936327e-01
-1.721907421913263306e-02 2.130157364575596124e-01 4.739590408948336497e-01
1.998376495574491485e-01 -6.427440171938828550e-01 4.935927898613920450e-01
3.512873948272161595e-01 -5.707419494305272512e-01 6.715376307992237948e-01
1.647998907396315549e-01 1.925477478508982043e-01 4.397677011215591070e-01
-4.955417241614372414e-02 -6.277499278813384320e-01 3.581848667294811328e-01
3.855665846313083844e-01 -5.549595722409812748e-02 4.064869334901441422e-01
2.879084484960907631e-01 -1.156833926586162305e-02 6.716623353650394979e-01
-3.864120227485977055e-01 -1.678844349006485548e-01 6.381236122234407171e-02
9.159554079374535029e-02 -2.576774522626623654e-01 -3.825507399412478304e-01
-3.587674441218179355e-01 -2.769573941899052816e-01 1.353665714569811662e-01
-1.570239181008687146e-01 -4.318118269517474128e-01 2.298145616308827285e-02
2.594381298007092385e-01 -7.307332863089004149e-02 8.576674410163580564e-01
2.169450012986013920e-01 -3.064313182858366957e-01 -1.643827031381239756e-01
6.559101435963406168e-02 3.180997922641479181e-02 -9.847601338496126955e-01
-4.108345751807962465e-01 3.766417160159650224e-01 -7.674591996961053209e-01
-3.862888744803194552e-01 3.494856826288975649e-01 -4.246270839384972962e-01
1.898985249480351217e-02 -3.653866007525018444e-01 -1.858041090733975331e-01
6.871002321864817103e-03 4.296599153190328590e-01 3.174682273471585853e-02
4.074119600262288143e-01 -2.638000055061082150e-01 6.406085766500481116e-01
-1.809828487806002528e-01 1.748218919963598090e-03 8.037340108990321808e-01
3.442207551012262390e-01 -1.764928231863518715e-01 8.586484396672926511e-01
-3.568196504256317958e-01 -1.236397019713169655e-02 4.368325021594232083e-01
1.551325798663206745e-01 -1.683576372230685958e-01 -5.172239959316472513e-01
-1.885757473056493549e-01 -6.472182220706793609e-01 5.025634103206197967e-01
-4.056572891161270844e-01 4.541801784440369777e-02 -1.150197964150548591e-01
-4.098233941688227411e-01 3.027268711132362622e-01 -6.476010070951216946e-01
1.149194478484344278e-01 -7.243636256033063603e-01 5.812816650580816535e-01
-1.658440697672068920e-01 -3.808139520661209532e-01 -7.329453828322475550e-02
3.587112053303020409e-01 4.987539883628617221e-01 -6.263623243512608241e-01
-1.448927896126330217e-01 -3.844592871028518211e-01 -8.587651637452180242e-02
3.973489195665889651e-01 3.631313904738230347e-01 -8.386360862175611386e-01
-3.991166752896413983e-01 5.546047135681721890e-02 2.876950656972197123e-02
-3.716074181806749421e-01 4.293527326744455558e-02 2.581027407496970238e-01
-2.078029339250029792e-02 9.227441513946145479e-02 7.202425563774282891e-01
-6.276505915420424464e-02 -4.472238878991886546e-01 -7.623547264859911396e-03
3.745317646447120508e-01 -2.972300441973794172e-01 2.295743007602560615e-01
3.588596341105013687e-01 -4.278367772555679016e-01 4.167777386730404099e-01
-4.031413208980700880e-01 -1.075079552045838938e-01 2.080646851849229928e-01
-1.300979177351125173e-03 -4.218565527138454230e-01 -7.125200722151141253e-02
2.131107249399566139e-01 -5.871572961521809297e-01 3.982168843278834358e-01
1.957945483807219111e-01 -4.478728903396446415e-02 8.952286339896688983e-01
4.711489225000640643e-03 4.466646241424304109e-01 -2.966869745335733253e-03
-2.222511747331428200e-01 5.014192199272594630e-01 -2.617997985493077384e-01
3.858174135499816693e-01 -4.092703863784110108e-01 5.111074618408506520e-01
-2.299149804258080187e-01 2.900601498316955906e-01 1.538730952403212782e-01
3.814523945383628267e-01 2.863558579082031708e-01 -3.026380321911736893e-01
3.210000690380892530e-01 -6.495572140562594354e-02 -4.351133882291959298e-01
-3.305164397732051063e-01 6.389672087787562349e-02 -6.893600815178058117e-01
-3.112602592748200392e-01 -1.064943497941688993e-01 -3.892968872258079638e-01
3.858291906989040343e-01 -1.781231283346748351e-01 6.687784338940430118e-01
-2.774984984199819760e-01 -1.391318203728547920e-01 -4.030594541519377239e-01
6.587488007654215827e-02 -5.642099546112375741e-01 2.308898501860918995e-01
-1.930615618329463434e-01 -6.717487301790925347e-01 5.589644118720726862e-01
3.165896907732201893e-01 4.336464928562957510e-01 -3.320522129846015247e-01
4.850285105194401813e-02 5.092985100572845480e-01 -1.382237860496879356e-01
3.922613335125733208e-02 1.455238342253810553e-02 8.779314120138221877e-01
1.574716081705202220e-01 5.255729916501362675e-01 -2.395423786326429938e-01
-2.628729532368810906e-01 7.300628566885311588e-02 -8.734259237300314727e-01
-2.687430950302827637e-01 -1.076498338088085066e-01 -4.866987942993989957e-01
-3.935744704741625521e-01 2.031396182876605335e-03 1.882003063674201337e-01
-3.145347856883123905e-01 -1.000099657031267852e-01 7.585655480295009356e-01
-3.637716288889346339e-02 -1.689318852845978769e-01 -5.854875844103443194e-01
-2.803504945517880098e-01 5.947940908087675366e-02 5.248565806831405611e-01
6.825506098076872252e-02 -1.355435074280005037e-01 -6.424415216877337187e-01
9.184509606502666568e-02 -6.455630147141293573e-01 4.077921313325353347e-01
4.018552234865125916e-01 -2.544454984025453295e-02 -7.651612382514867694e-02
3.775185933551043482e-01 2.049234658433644607e-01 -1.014081542096204047e-01
-2.230925679739135803e-01 -4.133429819003072159e-01 6.689853172658119518e-02
4.016802077609473720e-01 -3.106420928614330723e-01 8.285719468200289928e-01
-4.027833984298462844e-01 -1.101929345009282357e-01 1.616301032613041422e-01
3.292877828489285674e-01 1.154307663989703608e-01 -7.693704716233612517e-01
3.985179083371578335e-01 8.272172028318287851e-02 -3.210427137180202894e-01
8.887942052832693840e-02 -2.232496679607149925e-01 -4.541154683004184900e-01
3.889317737982796452e-01 3.171990260695371489e-01 -4.299855138264242482e-01
2.204409811324530705e-02 5.357021000298251012e-01 -1.867028973072538678e-01
3.161170795860263061e-01 1.474035483292826521e-01 2.683810211246103195e-01
-3.397546577552288394e-01 -1.782296270117993409e-01 8.329207250158640052e-01
4.002793801599395240e-01 -1.123107447062432207e-01 6.007766528604816664e-02
-1.701427467765143087e-01 6.019978836427229973e-01 -4.016625326275443109e-01
-3.441689845697861738e-01 2.481886046775906851e-01 -3.038235411823013085e-02
2.724077623332653644e-02 3.192994141436541339e-02 -9.964033125681251990e-01
-2.048557274114952420e-01 2.860433177797105930e-01 1.981082269096764437e-01
-3.886201654386611803e-01 -1.675293104873482319e-01 8.113362961304906862e-02
-4.041666054065247704e-01 -4.662937108163558303e-02 6.711596100565828116e-02
-1.243019825834070502e-01 -2.943822802070752975e-01 -2.879529152038030615e-01
-3.820948920687410877e-01 -4.850549102522172529e-02 -2.252583367621016353e-01
2.658474877775492407e-01 1.756713317439635991e-01 3.288821074607584105e-01
-4.008041965806992124e-01 -1.649965450928551070e-01 2.345328052302449173e-01
-7.614005018704679550e-02 6.380368587607741782e-02 7.616033795709649112e-01
3.619652214796343151e-03 4.506032088247481915e-01 -1.099327518437458531e-02
-4.012854433412708088e-01 -2.085848451923484614e-01 3.684647131028039868e-01
1.794921298659636066e-01 3.212999111290591459e-01 1.585241815669204968e-01
3.207842216403715141e-01 -4.227675037083074017e-01 2.794882292497118392e-01
2.333979058341929813e-02 6.478302502376973582e-01 -4.165293963566062407e-01
-4.024122616798018748e-01 4.382793837000208415e-01 -7.216561695661422027e-01
-1.945551022453268220e-01 2.102779570670280096e-01 3.648084274863980236e-01
-3.889915167615568548e-01 -1.157070380024476791e-01 -2.882969731944207831e-02
-3.941795966174040378e-01 -6.570818506371178813e-02 -9.080408121492122842e-02
-9.793635816218633494e-02 2.411568912415159027e-01 3.889553321058022983e-01
-3.939918504333774774e-01 3.203319736962562114e-01 -4.222719474673486961e-01
-3.629276877345558594e-01 -2.364203580228469714e-01 6.894575920522302837e-02
3.942423349408684663e-01 5.111722330858722331e-03 2.060005878280875280e-01
3.692952492974789780e-01 2.390597170117449988e-01 -1.273154277214390839e-01
-2.544641208785153874e-01 6.112343025562830823e-01 -5.351712115265112590e-01
3.910929301842780426e-03 5.227594130652509774e-01 -1.586404214275191626e-01
-3.814295661582163266e-01 -7.371844431164367717e-02 -1.753698877883809459e-01
-3.346756038915925657e-01 -5.629328586889179586e-01 6.412352870188827714e-01
3.969060260630968839e-01 2.155805253847097730e-02 -2.277488039951464371e-01
3.133246440557262424e-01 -1.790688542471321754e-01 -2.287806003812556666e-01
-2.645504082072333008e-01 4.356376127952498178e-01 -1.996790642257440240e-01
3.524460800612826405e-01 6.369340930370304132e-02 3.218560469162844995e-01
2.082047255129094443e-01 -5.220479130362511849e-02 8.948305547865448295e-01
-3.804754361206455493e-01 -1.157421907113476006e-01 -9.119065768929354721e-02
2.244311642061304624e-01 -6.186527787502409115e-02 8.922003974127205028e-01
2.147982100517988047e-01 4.280902144416697808e-01 -1.075676013198836184e-01
2.764756921379794563e-01 -3.566661066960666315e-01 3.987562896496095466e-02
-2.890316613838251891e-01 3.469583679684479227e-01 -7.220557873535440874e-02
-3.951448803916923214e-01 2.706515357813473743e-01 -8.200216175465295798e-01
2.081547393947389690e-01 -5.350219179412208509e-02 -6.883774164494980141e-01
-4.105965408643694192e-01 3.846259429072955704e-01 -7.636042488570004005e-01
-3.410840193174486390e-01 9.440403237423536376e-02 -7.184375731564701661e-01
-1.697842579752504577e-01 -4.140357364338944635e-01 -6.191181405281620141e-04
-8.646193876541716228e-02 4.855476257105378890e-01 -1.027710225044247000e-01
-9.122070473735603702e-02 -1.285182551900966863e-01 -6.493827710703573564e-01
2.527909347554112562e-01 -2.196360845798879351e-03 7.226521872135186486e-01
-3.641111669992275202e-01 1.859412821919575465e-01 -8.212663075427132364e-01
3.836571329423841270e-01 3.503385584357863181e-01 -4.575102351511396992e-01
2.576294566804013253e-01 5.745257002324106743e-01 -4.835491922527684894e-01
-3.865873683128637217e-01 1.644422362636032697e-01 -6.538965138148592482e-01
-3.412984072078198428e-01 -4.054842978528300779e-01 3.342580348774352728e-01
9.845343449938714908e-02 5.957009721124343349e-01 -3.375176460648608989e-01
-4.058736774809387216e-01 4.235615621250787277e-01 -7.344045030698084231e-01
-3.756686419245203190e-01 4.797204066322142690e-01 -6.200028945153041038e-01
4.073034881035675348e-01 -1.140966357886635668e-01 2.219825335563634094e-01
-1.736151904927755452e-01 1.990202102033409026e-01 4.121373103515567071e-01
3.727714221787354898e-01 1.098359084458808560e-01 -5.775414736511418345e-01
5.290024248092399517e-02 -6.193438270928172118e-01 3.393247052643868500e-01
-2.421669647743301401e-01 6.228158906359795299e-01 -5.377372104682973664e-01
-3.265711344438421704e-01 2.462031765188642807e-01 3.134747518328361016e-02
-4.551591141555365316e-02 4.041723777297059894e-01 7.831153031343524029e-02
-3.572893021701269156e-02 -3.491935970071320394e-01 -2.163008349869054436e-01
-4.070641045716635875e-01 2.774796324517424528e-01 -6.919103861517718057e-01
-3.915973211066289261e-01 -6.669484478407583516e-02 -1.133451917478092152e-01
-3.301455890208608301e-01 -6.342142033518291533e-02 -4.235435260382238165e-01
-2.772340993257020880e-01 -5.422853922765351609e-01 4.353533196014868767e-01
-1.016971985854090987e-01 -6.500976789570142023e-01 4.282605324215010278e-01
1.834919412489434687e-01 -5.236009608514859970e-01 2.329025394663586379e-01
-3.810295481605194268e-01 1.726316905819387792e-01 -4.813283921284278177e-02
1.922223234079215026e-02 1.839837262404585283e-02 8.726849896283396246e-01
-1.139895493351728989e-01 3.539312468033378178e-01 1.494186641228509582e-01
3.967671219912159986e-01 -4.330345542002497217e-01 6.324040118901609331e-01
-4.020739401715968109e-01 2.865787017333914499e-01 -4.345524921199483415e-01
-2.153354383205518530e-01 1.623101754722876267e-01 4.339400787493490341e-01
3.022465696979928507e-01 -4.698837502302262714e-01 3.253017781113002327e-01
-3.922902518012273410e-01 -1.056580569086980753e-01 4.041077340769347326e-01
3.596748366447491962e-01 3.788482508569282481e-01 -3.764299211407375334e-01
4.862165612710449974e-03 6.483833910064175088e-01 -4.157451319075798901e-01
-3.071769370491050921e-01 -1.654935764460066239e-01 9.102066003649126325e-01
2.087637639968468461e-01 -6.818476996103446375e-01 5.841044018494397916e-01
9.827072794023246349e-02 1.571679041685370981e-01 5.637126758541712856e-01
-3.366531025598550053e-02 7.582764033085692690e-02 7.515143037575521268e-01
2.586957821681440395e-01 4.272005927924472646e-01 -1.796124991804445570e-01
4.691385618632117060e-02 -3.364861382930882661e-01 -2.396665026780886720e-01
2.809225179420321017e-01 -6.486078402986593383e-02 -5.374389275066677740e-01
-3.319793748913558162e-01 1.119939503494034316e-01 -7.855824422943736840e-01
4.506653922085946534e-02 2.841602294752819113e-01 3.242069721215901090e-01
3.629402446779618485e-02 2.542082176601243720e-02 -9.811810785930323853e-01
1.061972989234233056e-01 2.702663787086564962e-01 3.266974461951391850e-01
-2.658820666801667287e-01 4.781790342133397931e-01 -2.879319011804650219e-01
-5.560988031964793354e-02 6.343952593069330792e-01 -3.943681119104403554e-01
-3.360973207194754009e-01 6.951361766381496110e-02 3.530907748094513354e-01
-3.736836382028824732e-01 -3.966569468177021385e-01 4.692488877020521976e-01
1.864785450563381797e-01 -2.990346256282239712e-01 -2.188753013147126947e-01
4.015448797660192137e-01 1.057514868317137452e-01 -1.178265702647259272e-01
2.392304845796447144e-01 -1.589251144437306973e-01 -4.279992389503367578e-01
2.331943030406808115e-01 -7.594550534196370384e-02 -6.054545755813927066e-01
-3.505041337686171099e-01 -2.370177105859054278e-01 1.512057006400355751e-02
1.680732581364191847e-01 5.999126263972867079e-01 -4.037846756652546110e-01
-3.878949513672796945e-01 4.444682822557037387e-03 2.315032649355551475e-01
-3.041679117583431791e-01 -4.744080431106126317e-01 3.602077222151185976e-01
2.863887160030546553e-01 3.375508046707996201e-01 -5.196489619478666250e-02
-4.045637410175907389e-01 2.580969425314899590e-01 -4.152425066094151962e-01
1.521087673808037000e-01 -1.242641707308762278e-01 -6.096087540486635481e-01
1.129766468102192251e-01 1.735697311383883057e-01 5.212292141848011706e-01
-1.521677758564290994e-01 4.958938376923043845e-01 -1.690353897441219666e-01
3.712258539695819648e-01 -1.270358307868428571e-01 -1.213586775233921611e-01
-1.597320249203587061e-01 -2.311518113236148142e-01 -3.880148043139606817e-01
3.990574468540224462e-01 1.237425947677543575e-01 -1.154393538721349283e-01
-3.717733991973730667e-01 -2.272811547485847627e-01 9.543928243209033602e-02
4.011392778135951520e-01 1.601748416921953966e-01 -4.119716297023763851e-01
4.105267586885469888e-01 -3.121786085671297006e-01 6.300210697851512665e-01
3.589514796288073017e-01 1.273636184744225686e-01 1.599009757266315890e-01
4.005643416758969955e-01 3.682148096789115976e-02 6.084332110718596032e-02
4.074958341215609847e-01 -2.890478020145245686e-01 4.869608052537405252e-01
1.950059798235826702e-01 -1.343440882202678356e-02 8.314342605725175694e-01
4.102380410821291901e-01 -3.005488943499017851e-01 5.935508572646448489e-01
-3.607147295833484368e-01 1.680829937338397806e-01 -7.982953443458302711e-01
3.979641989308940753e-01 1.239103612588537962e-01 -1.001087212647143593e-01
7.730370030120968516e-02 -7.388898248475225250e-01 5.914677437932345239e-01
-1.560903013034929850e-02 5.851258620000341359e-01 -2.865350151871756679e-01
1.317260636390525097e-01 -5.816876746033425860e-01 3.026335441080231781e-01
3.983254091010669518e-01 -3.491279958023744134e-01 4.852372136117923951e-01
-1.616647735485659057e-02 1.229199660334029109e-01 6.582123891027683582e-01
-3.047234734554626345e-01 5.622647155119745443e-01 -5.414836919509018465e-01
-3.031570878197726859e-01 -1.351145086200681023e-01 -3.510760675055636382e-01
1.235799311126880608e-02 1.840282522717803515e-01 5.341381448610742488e-01
-2.325172688082493000e-01 -6.664280156723316750e-01 6.063405099562193534e-01
1.893877172550794546e-02 -5.350177356939332940e-01 1.609206105986406843e-01
-9.143624424186706789e-02 8.581545486559361002e-02 7.089754276830370072e-01
-2.024317341720622276e-01 -4.415156259602024957e-01 9.544898082458404265e-02
2.498749928518955443e-01 6.110224772927171089e-02 -8.532958876803284909e-01
3.517465842827451894e-01 -5.132538846628176277e-01 5.589891811586036319e-01
-2.467916549988233843e-01 -4.809032588538134090e-02 -6.512689780135911821e-01
4.005695522035901956e-01 2.558542397572285965e-01 -5.790547588721381977e-01
3.598746536501658544e-01 3.615604029098123950e-02 -4.963739931270578776e-01
3.120525467046496026e-01 -9.275731987975024961e-02 -4.049949075741360316e-01
-4.022119394537199133e-01 -4.464285747473734078e-02 1.575577841239741428e-01
-1.464993417741679294e-01 3.005110123488234919e-01 2.328749904067982379e-01
-2.386484085223147533e-01 -1.368566650628941783e-01 -4.810188569348849419e-01
