-3.018272388791460314e-01 4.868050393806612475e-02 -9.420920595625591476e-01
3.781480875379263917e-01 -3.634388376314942048e-01 -4.873285164126421320e-01
8.970482877425299817e-01 1.849130168257847318e-01 1.787516298496835687e-01
-3.434451828559340059e-01 1.788715394495560274e-01 -9.311136411934324286e-01
5.398349800984230118e-01 -2.266483421503691364e-01 -2.923798757894002787e-01
5.964778588852396313e-01 2.265619747476124990e-01 -7.422649254834573496e-02
1.695990373145306318e-01 -3.760835229039742877e-01 -6.782165328057732090e-01
4.189084644603192076e-01 8.560695108345206528e-01 -1.332283559582518903e-05
3.936171634898072980e-01 -6.664787034256666187e-01 -5.855670262922385572e-01
4.851903102603832840e-01 -3.795357498392106788e-01 -3.977028947439883444e-01
3.682558142899605702e-01 -1.789385741307843516e-02 -3.683939854168421513e-01
4.067642895217906673e-01 8.301058148111492008e-01 -2.045703569291428686e-02
1.711529141240140722e-03 4.588119142342176882e-01 -5.194150564360664468e-01
-1.391449802997417051e-01 -6.109633421498636419e-02 -8.374243907324621095e-01
8.876891481254718386e-01 1.808400337608678451e-02 1.087088790498279139e-01
2.737398329002316277e-01 3.739149965693570610e-01 -3.079132663165266570e-01
2.062702836510194038e-01 -2.905617463142149970e-01 -6.138507485810162922e-01
-4.564532983344065514e-03 7.022175152676793930e-01 -4.350182652999290411e-01
8.335992909511054094e-01 -1.516228180912094874e-02 4.811926264516620116e-02
1.143617377524649426e-01 -1.970778989459327224e-01 -6.613492969294426649e-01
1.228361168940576287e-01 4.141950510570011623e-01 -4.277607708509348905e-01
4.975090530863293115e-01 6.239482735578325556e-01 -1.565938840984241673e-02
8.403205415834498482e-02 1.416314310920566977e-01 -5.631907657004506795e-01
4.721642892809430059e-01 7.651169326443986174e-01 1.390832528916871244e-02
7.957546307704577160e-02 5.628461156048728542e-01 -4.114234162673120476e-01
-2.656034789617073288e-01 2.775393434883420274e-01 -8.251261072880101688e-01
3.313093272033530434e-01 6.559632025585813153e-01 -1.522207148196407789e-01
3.109777446632654430e-01 1.547765213097277159e-01 -3.556914389375023244e-01
3.901740385671589872e-01 1.427433155025919775e-01 -2.894267504399865021e-01
5.199562948340745727e-01 5.378031990915659311e-01 -2.746899151158028671e-02
-2.937616033473339563e-02 -3.885316195168586617e-01 -8.604834067091907679e-01
5.734871529661653144e-02 3.519742263782213443e-01 -5.092407140485990524e-01
7.325792301579523436e-01 3.315821334919118457e-01 8.612967388581319050e-02
3.738250901982487218e-02 -2.367412383128282560e-01 -7.447494806013813529e-01
-2.842104865801929336e-01 2.859566801122304658e-01 -8.386278660788957229e-01
7.658842820246686278e-01 1.004255119875028801e-01 3.039608656081031410e-02
1.910920163565859031e-01 -3.116057807964862647e-01 -6.351845157814528520e-01
9.714148998680668945e-02 4.596681426638682399e-01 -4.338894505057097062e-01
6.073818048363670563e-01 4.687187470906978293e-01 2.504849369894810926e-02
6.061220083351271937e-01 4.100391346318351116e-01 2.226492940578776378e-03
1.730602436510572384e-01 -3.237078654083805906e-01 -6.557598271026332526e-01
8.277328053874468683e-01 -1.077289131082794088e-01 8.654042971672257223e-03
5.241592972969225661e-01 6.020081013766280797e-01 2.399405518905491604e-05
5.883434192266179252e-01 -1.506131365125447097e-01 -2.209524276573034685e-01
5.848975996217465473e-02 1.657242103692511126e-01 -5.770889250553796757e-01
1.858831593404554686e-02 -1.409318261837227970e-01 -7.261046397137953523e-01
-1.902777857278401263e-01 -1.500287526027908602e-01 -9.159639451828809342e-01
-2.832233867061375587e-01 3.465844501574693037e-01 -8.153290122013953090e-01
6.123460838868735046e-01 1.510655475325877739e-01 -8.797307171160309580e-02
-1.204256489998170902e-04 5.362105013476554660e-01 -4.924322158026197549e-01
1.269758915883120176e-01 1.073808146399070906e-01 -5.375107620031712719e-01
7.082804956578026001e-01 1.898996586947872267e-01 1.204550308571307460e-02
1.602941566309467880e-01 -1.958707052857710518e-01 -6.198900664321890241e-01
3.631320452021595258e-01 -7.021059435396888038e-01 -6.259604428568337209e-01
8.364394061282234283e-01 3.059139554038973752e-01 1.693750272336261853e-01
7.632533718527868827e-02 -2.764359893582989391e-01 -7.246549622023593651e-01
3.767705059341758256e-02 4.479223007008191759e-01 -4.913280927090506456e-01
1.475188432232807378e-01 2.556780390816435489e-01 -4.643342711127607103e-01
-5.357277230855162810e-03 1.450176057796302154e-01 -6.417540653682345386e-01
7.913572440552797682e-02 3.678526053534986739e-01 -4.839160607718669405e-01
7.728057737798782467e-02 8.258540556368521024e-01 -3.162237686745166254e-01
3.043017170697288054e-01 -1.432813604616889162e-02 -4.241798830974355394e-01
-2.401322838115447222e-01 2.828268240065240913e-01 -8.004279071445096205e-01
6.402725324296534293e-01 2.527528242672804071e-01 -2.543819134406361329e-02
5.571040755311096326e-01 -1.454147790125810413e-01 -2.469237827354137382e-01
9.220019058544458579e-01 -2.657487139623268546e-01 3.439777006318027464e-02
4.329649470285620305e-01 -4.274928331956910355e-01 -4.620671169845774195e-01
5.101978713389453413e-01 3.043927047118862861e-01 -1.224871575726334677e-01
5.229064415498865248e-01 -2.994715146428943431e-01 -3.344220953508763028e-01
-8.965891790595341415e-02 -2.278091601421587953e-01 -8.548815472941072580e-01
-1.971286594642850942e-01 -3.899781147588312485e-02 -8.810267143399806988e-01
3.508734757134757132e-01 8.714659646121338810e-01 -5.506854810394078148e-02
2.276016216377323986e-01 -5.020855234333702066e-01 -6.730162543068941572e-01
-5.770656665516059672e-03 5.055301105224347946e-01 -5.088215392625926592e-01
4.422143392759277924e-01 4.278700081030567537e-01 -1.375329040007924331e-01
5.716235134891516356e-01 1.196204495330939199e-01 -1.359610943971415187e-01
1.529449324802656662e-01 5.246479673801411892e-01 -3.600361170534184252e-01
5.610130764960812311e-01 -1.771822977407298549e-01 -2.551796801627866373e-01
6.412567926976995292e-01 4.973618575704513711e-01 6.588628729941314877e-02
6.976499422781480275e-01 1.431463057127506378e-01 -1.473380207196730261e-02
3.142930041754545267e-01 4.815480152043417200e-02 -3.921552691732373974e-01
5.591129471227131997e-01 5.837972660726941099e-01 2.450039681497218763e-02
2.138106496203665344e-02 5.604431249202380672e-01 -4.642734694403387041e-01
5.480070766932227944e-01 3.481257956515088070e-01 -7.255690820657664797e-02
7.763923235560840075e-01 -5.478307667504347389e-01 -1.999179205257385905e-01
5.652774488942172715e-01 -4.187807479484005890e-01 -3.407044958829558712e-01
3.305725432716835055e-01 1.346587232934136902e-01 -3.456340005306903218e-01
-1.801869073907396979e-01 4.352291244481181209e-01 -6.905512808649882928e-01
5.499224743027768536e-01 6.774675575564904628e-01 5.092940659856441676e-02
4.229069800431314308e-01 8.829125648105448088e-01 1.348231286943214757e-02
-2.331419761030738280e-01 3.766018889092850319e-01 -7.595124059355697899e-01
1.242085765221128957e-01 8.566940543680838793e-01 -2.629186838112804181e-01
4.563201323305254298e-01 -6.182329379411363179e-01 -5.117406521761624916e-01
7.808627457929384619e-01 3.169701383922458038e-01 1.238389501761229250e-01
3.866114353535629600e-01 -4.107299654849381754e-01 -4.972578029926079668e-01
-5.935504780867217195e-02 9.247517105373384005e-01 -4.016571505223640592e-01
-8.745194993983139431e-02 2.107226926073489937e-01 -6.907612086552450403e-01
6.099880245639084375e-01 -4.549628225053956587e-01 -3.141611471048570969e-01
8.829715905095815165e-01 1.039867324231557588e-01 1.362596338421558639e-01
3.489678722057560356e-01 3.173265537661565938e-01 -2.616663780479298596e-01
1.928841590674821860e-01 3.446340585321716055e-01 -3.909357572057277075e-01
-3.289835049485092394e-02 9.335553622801104900e-01 -3.747788745380777331e-01
9.209909683319904630e-03 -2.504169780574949655e-01 -7.749613616344690481e-01
5.477678567931311138e-01 -6.089976941163447455e-01 -4.266725778525238266e-01
4.855097058840398550e-01 -5.880237732867734657e-01 -4.745073874982995155e-01
7.540122618414606404e-01 -2.026753071415701435e-01 -9.227771084383330769e-02
9.236968919069955541e-01 2.135273871765669129e-01 2.131263890281186735e-01
-1.167094231148863848e-01 7.853654553038591501e-01 -5.044075231128810621e-01
3.569795595604859373e-01 3.554244075325652119e-01 -2.404258693694483195e-01
4.039317422849198480e-01 7.953117873640894731e-01 -3.585150263562224271e-02
7.288522118590999854e-01 5.244057517378497568e-01 1.540995082253567017e-01
8.252098420324316397e-01 -6.156769268662116990e-02 2.346968387963292019e-02
3.095867700335396266e-01 2.984883122002458533e-01 -3.037951496717491429e-01
4.621349972918188942e-01 7.142288844249059521e-01 -1.386294412193836770e-02
7.584043801950966779e-02 -1.254242264267752816e-01 -6.692504341307190519e-01
4.678826055897517544e-01 -6.903536745760537885e-01 -5.280836373913039283e-01
-1.215480818835942278e-01 -1.969863670985133874e-01 -8.719583375704379469e-01
4.846347128030400464e-01 -3.717936283439233214e-01 -3.953362901620160463e-01
-1.438472327649370497e-01 -2.642083757950448517e-02 -8.288015422007571908e-01
4.819040936681910914e-01 1.023101670935232660e-01 -2.224717660673993236e-01
8.890763820444016474e-01 2.845069931660287321e-01 2.084590105988026465e-01
1.863622233570401410e-02 7.229327434372816441e-01 -4.066428303852573367e-01
6.323569084129045947e-01 -6.737307973085617796e-01 -3.750788174361385785e-01
4.652779238677559048e-01 2.629880360259792549e-01 -1.779056107483517335e-01
6.410175230872593444e-01 -4.664259096882896194e-01 -2.906935827505093828e-01
4.363400533188437902e-01 8.610179321008407660e-01 1.738097752254480141e-02
7.291061860146177409e-01 -3.654949508788299384e-01 -1.747197673888455371e-01
-1.512372773472356602e-01 8.522634049634256748e-01 -5.105013862886551568e-01
2.713864423804753234e-01 -6.925243584866962454e-01 -7.043368577447988166e-01
-2.575038231592819415e-01 -5.819810809628003234e-01 2.408689597169934860e-01
-4.905819093350833326e-01 1.855789913383270873e-01 3.165643939544769969e-01
-7.447326723872144116e-01 3.346230473146295514e-01 1.447441684770738868e-01
-4.480003644928939877e-01 -5.440270913921829710e-01 8.480911182096903533e-02
-7.786541648912114200e-01 2.096276007868279612e-01 6.823800495172839542e-02
-4.953519706886092555e-01 -3.476005247251915398e-01 1.151589467177033949e-01
-3.181546951683855012e-02 -2.030044212663159042e-01 5.825140021957372349e-01
-6.158385978233130720e-01 6.288921550683052031e-01 3.686408882134857290e-01
-6.235342228194893366e-01 -7.166379034221628253e-01 -1.357482001588390386e-01
-1.215223034251939997e-02 -4.906167049306546235e-01 4.937248827437663024e-01
-7.325639831196517626e-01 5.273914424789812871e-01 2.268867941416136680e-01
6.686494350122272612e-02 2.381506652854711512e-02 7.544931747902438035e-01
1.658779382664487267e-01 -6.167758322437995044e-01 6.060391875355133351e-01
-1.539282867517560438e-01 -6.797523696285751038e-01 2.971996080105739901e-01
-5.032762798767382445e-02 3.557878267744167822e-01 7.726013124727511006e-01
-7.437914384040940075e-01 -3.163951385411837292e-01 -9.513323229767456368e-02
-1.602037935424852622e-01 -6.504275701639700147e-02 5.188887493434828357e-01
-4.837683900487926153e-02 4.354721506605099268e-01 8.038069137913366191e-01
-5.741789795671780050e-01 -3.527490512288590230e-01 4.287094412262092841e-02
-6.512310716241291875e-01 5.399058825803977335e-01 3.041358967549404602e-01
-4.278942990290720561e-01 3.320484072461858394e-01 4.266958301827827316e-01
-8.208940555473416278e-01 1.629338600047853247e-01 1.325689753714523120e-02
-2.592915967370983954e-01 3.901079260217795164e-01 5.987083239212321883e-01
2.886506284524036903e-01 -3.426373613388060679e-01 8.170267268873206978e-01
-1.424862324749698317e-01 3.619698877596078113e-01 6.925991360053584955e-01
-2.657621928192968053e-01 -9.388111250456430135e-01 1.015550769501382539e-01
-5.391399151628996078e-01 7.123008073900104486e-01 4.679656616729196972e-01
-4.532314627611241376e-01 2.078808426572313905e-01 3.581606919325298066e-01
-2.009954100072973704e-01 -2.255681739001698938e-01 4.231108643682376380e-01
-2.924335558842323657e-01 6.398882170222162102e-01 6.614737479941260601e-01
-1.415458499474368248e-01 2.579565676154607634e-01 6.549792593011840580e-01
-1.000667139599066419e-01 2.611347351130913763e-01 6.931909514812086837e-01
-5.387231891444300702e-01 -9.695803658127358227e-02 1.691095106988272090e-01
1.561173860301730831e-01 -1.835416462450514541e-01 7.575149341392796165e-01
9.025661979969140658e-02 -4.437032638712301025e-01 6.025118363282480072e-01
-4.895035944163015490e-02 -4.645312412204385955e-01 4.705132426310132399e-01
-8.890204017566617489e-01 6.072046867626905431e-02 -8.536683625089175331e-02
-1.338823978134550674e-01 5.543936623047578394e-01 7.714312924833155449e-01
-5.547350054646302819e-01 5.621867112984613168e-01 3.985352963046471797e-01
-6.918846319268594502e-01 4.062649868375237117e-01 2.184219922448785156e-01
-6.571686350790426623e-01 5.309643087209585666e-01 2.955280715163324246e-01
-3.079936801334789420e-01 -4.921187126934493117e-01 2.290139210750154752e-01
-7.255624673395271174e-01 -4.911675028640757890e-01 -1.434797761455144649e-01
-4.427155399798139990e-01 -4.060437835671361073e-01 1.405480535506941908e-01
-6.489085420691972361e-01 -6.967550331693911358e-01 -1.510530141521166103e-01
-3.300702128864496654e-01 -9.495111119237285013e-01 4.017833305162475666e-02
-2.984511341341529178e-01 2.553328202462074037e-01 5.139090453079537824e-01
-3.451911880935403798e-01 -8.848600469530353285e-01 5.058199157725955242e-02
-8.559598396452748614e-02 -3.581878058034628776e-01 4.771136329331265857e-01
-1.977334746537076360e-01 3.261427868343685366e-01 6.300218235173712378e-01
-4.701278701815768679e-01 -5.789608900947322834e-01 5.213457643465071317e-02
-3.099260870972276871e-01 -6.037786831186888747e-01 1.860015485575505778e-01
-7.995761623939553475e-01 -2.506068521192252319e-01 -1.206175695616213545e-01
-4.043752950111961786e-02 -2.466816127133765468e-01 5.586655012590415748e-01
-3.267392885393937685e-01 -4.794913930663224910e-01 2.169450723395572045e-01
1.728180243646887659e-01 5.874102568809500338e-03 8.424644572349917482e-01
-6.673108218922867430e-01 -6.325496171575587523e-01 -1.437440000464386969e-01
-2.164813517451797675e-01 -2.488619173531634310e-01 4.006705327544268780e-01
-1.306666596509807043e-01 -8.026462333540645977e-01 2.725290839854656033e-01
-3.859149833909084060e-01 -2.514308780826763901e-01 2.484340677269885334e-01
1.095963689023411458e-01 -3.563304847649079732e-01 6.520868187438882968e-01
-2.516318316772452879e-01 -6.046499230941778658e-01 2.377300977460544695e-01
-6.367984677577098740e-01 -1.184156639398067090e-01 7.360442256701960062e-02
5.552514777231777610e-02 -3.541870236658771209e-01 6.045994103843901346e-01
-8.159006600332319170e-01 -4.734388539100181093e-01 -2.175870953907040328e-01
-2.731758753530584283e-01 -9.096604509283066076e-01 1.057140651827853522e-01
-7.200272231653276345e-01 2.572314317336436562e-01 1.381875525196707699e-01
-5.572193535400387088e-01 -4.092821450485507606e-01 3.711067702235054666e-02
-6.774613496171589810e-01 -2.708858272487987273e-01 -1.908003816920306878e-02
-2.309133300367862962e-01 2.262325009276390797e-01 5.634532511606320515e-01
-2.571260917031715776e-01 -4.000258453182616303e-01 3.084852590897347868e-01
-1.307358939589617075e-01 1.136880268930123006e-01 6.112872773059061515e-01
-1.905686282871975334e-01 -2.733422576717567942e-01 4.147561438509387854e-01
-2.198206014403047692e-01 3.258650590722645402e-01 6.101976294847298865e-01
-2.474403063072885267e-01 3.664815522395938330e-01 6.005542998246119479e-01
-6.719906815044098813e-01 5.290245149938962443e-01 2.815762784410440478e-01
1.749020185411201966e-01 -6.226183267045530823e-01 6.119364539512318624e-01
-1.695389658053543525e-01 4.384941630305796423e-01 6.967391676517916688e-01
-3.903352512731024238e-01 1.573296578450013583e-01 3.956288548928985627e-01
1.398513916285290259e-01 1.505188913611563983e-01 8.665119557618795598e-01
-8.155353673161382932e-01 -1.001725266098915101e-01 -7.924349487548726367e-02
1.890075557076620894e-01 -6.896279110683206648e-01 5.997540385779077665e-01
-2.095937791499006830e-01 -3.046233100820869844e-01 3.862023125774496357e-01
-8.251065699393729247e-01 4.650453962394337504e-01 1.212030885130146313e-01
-3.103890670790615536e-01 -9.462934199114836353e-01 5.894130596371734143e-02
-2.328325215460574915e-01 1.729961312978970378e-01 5.420551506046508150e-01
-6.316764310934809279e-01 1.676427321320678732e-01 1.839496513741043782e-01
-6.749085751547625467e-01 -3.208167363946922146e-01 -3.526292556628279895e-02
-7.404031427924743225e-01 1.710144368285179683e-02 3.120449632100881845e-02
1.416103595247326929e-01 4.841466785562517638e-02 8.303288902616146050e-01
-1.645939906218298332e-01 5.993689009940924572e-01 7.606389010294705155e-01
-3.036124168592025940e-01 -7.254458770596804440e-01 1.466518335862022349e-01
-3.709124560171824236e-01 4.554554696336626241e-01 5.232051691925673209e-01
-2.356999320594631853e-01 -3.145091506184767294e-01 3.592368905093996090e-01
-4.659824498415531258e-01 -6.938937691691610121e-02 2.442530856439636966e-01
-6.211495411161361835e-01 1.274232422340028370e-01 1.784776728644036081e-01
-5.310353550137588696e-01 -7.488559854497133239e-01 -6.506917677572347791e-02
-6.434440200695530632e-02 -9.246696256785054135e-01 2.866290776926995743e-01
1.491969865986751131e-01 -1.882688343167210898e-01 7.495878328644421940e-01
4.812920522798403572e-02 -2.023806228051572842e-01 6.541269189838835318e-01
-2.919071958178592330e-01 -9.069657497528671453e-01 8.998532967129377336e-02
-3.787517460857637852e-01 -7.435894502187543331e-01 7.285154927268100433e-02
4.764262239106643870e-02 -1.983236371088203387e-01 6.551925456727470953e-01
-5.226625785008208736e-01 -5.370997725550262780e-01 2.070495227436770780e-02
-8.733449717316584815e-01 -2.151951882164110097e-01 -1.733917567808797577e-01
-1.535745839090842391e-01 5.379485803097299179e-01 7.477675560654017950e-01
-3.297352377314257676e-01 4.616533517122763941e-01 5.622638376536345239e-01
2.571086569852507608e-01 -2.512756276887327944e-01 8.226445746863513264e-01
-8.377918113346938256e-01 -8.474415703916973741e-02 -9.341144917014788940e-02
-1.916679623574464031e-01 -7.207435640697078538e-01 2.483452739115374619e-01
-1.841639294484224976e-01 -8.214362828066206212e-01 2.178138650185272029e-01
-5.831047619886748912e-01 3.013102282098032991e-01 2.767434375398561963e-01
-2.316846239899783555e-01 -1.336029010243815207e-01 4.297132979344785442e-01
2.355978402145432193e-01 -5.609783856693911080e-02 8.756057988217610388e-01
-2.767510439619073892e-02 7.724796319817794910e-02 6.898358934818904498e-01
-6.482619384059892242e-01 1.347435142467316438e-01 1.569758413039454015e-01
-5.998247287446161202e-01 -4.571729409209903117e-01 -1.863938820693267218e-02
-4.004445875542840538e-02 2.589974904196293282e-01 7.459943116724857548e-01
-6.169167554032637391e-01 4.808864850563940863e-01 3.129522339884287518e-01
2.664643553768139550e-02 -8.328352396501860211e-01 4.018307209687098092e-01
-5.109808589081162866e-01 -6.663833157928905626e-01 -1.666784421967748564e-02
1.372507413263080733e-01 1.656627575298224575e-01 8.697893801358994592e-01
-4.044027376034806665e-01 1.030141735009828668e-01 3.629845839715186151e-01
-6.186079184553362753e-02 -9.613367771656486926e-01 2.752887866245697923e-01
-6.229646383735720772e-01 3.770418851378489200e-01 2.691549497339434938e-01
-7.281685033416700481e-01 4.030027976531199707e-01 1.848180624209768974e-01
-1.084469300505528089e-01 3.248709551378927141e-01 7.092751361226341533e-01
1.942346377383909473e-01 1.739378050860886371e-01 9.237298091912959919e-01
-9.745508315482053208e-01 2.593238704455723687e-01 -8.830181460636420121e-02
-6.701162679432741687e-01 -3.327344549285874420e-01 -3.539054154115475054e-02
-3.392923173188887032e-01 -4.358553923496090166e-01 2.218711951221872813e-01
-1.548252011191855217e-02 2.371658574325273897e-02 6.809290572517747719e-01
9.628143234043538834e-02 9.336544516625657625e-03 7.754055147235922041e-01
-6.760115809711907398e-01 -5.229274482170572780e-01 -1.109794258882769447e-01
-4.227893961097012876e-01 -9.400706843235892562e-02 2.737174444971561815e-01
-5.339192128176240004e-01 7.097928252018345097e-01 4.716998635773032023e-01
-3.372864141538616800e-01 -8.507356992798403850e-02 3.533659111391688201e-01
-7.541806766311703880e-01 -3.347066419669706416e-01 -1.111805260798196943e-01
-5.534432698783846305e-02 -1.288651647799441725e-02 6.318024041244018063e-01
-5.615748150749370060e-01 1.333745571828939269e-01 2.338722289164674173e-01
1.558598072525042011e-01 8.487963916567428657e-02 8.565353009785708904e-01
-7.534261344406716354e-01 -3.979351252323044541e-01 -1.338859041828295571e-01
-1.627340385189350591e-01 1.403619942791060338e-01 5.925791259013597490e-01
-4.173832413066834168e-01 3.238796484817086374e-01 4.330606625184649783e-01
-3.706125451221429778e-01 -7.548414192287343782e-01 7.595852546707888842e-02
-4.089109011907313684e-01 -1.584515475454739697e-01 2.622807668941484760e-01
-2.660194389772128631e-01 -4.059013482220233393e-01 2.983719247889856652e-01
-2.140306318383598527e-01 -5.171683521210187484e-01 3.036508791035946730e-01
-6.768974737886592763e-01 6.856885589516509283e-02 1.069388209662791439e-01
-7.369719660908902181e-01 8.492753846831944953e-02 5.934727925831614903e-02
-6.325317850047850188e-01 -7.914489675445220973e-01 -1.714439189919813311e-01
-8.976589337082697684e-01 -4.056034439661294622e-01 -2.655061698242078827e-01
-9.425587211672782628e-02 3.854591104890915942e-01 7.443491008129831110e-01
-6.207889866070050999e-01 -3.045149073686680419e-01 1.908792497449500122e-02
-6.827683814953515729e-01 -7.304596647910105434e-01 -1.937488091569019300e-01
-5.005092667006014184e-02 7.416168665171250785e-02 6.687154469396435763e-01
-1.437928833654808503e-01 -1.253311345904910556e-01 5.112499977913581573e-01
-1.139082023736168597e-01 2.287472616320012364e-01 6.688564848572339239e-01
-2.242821141636932580e-01 1.747315496985036576e-01 5.503314545880689801e-01
-1.822988198566913576e-01 3.702392981711331577e-01 6.601083076995591936e-01
-8.025344905165923692e-02 3.364235410004961513e-01 7.387206135989966560e-01
-2.245818844983998031e-01 6.450959225339091274e-01 7.239837997219106258e-01
-9.889239416873732980e-01 6.512668022072998220e-02 -1.729410638136058831e-01
1.402244762887036866e-01 -5.862875113846127695e-01 5.944065562623607191e-01
-9.812829696177807759e-02 -3.483534268921442134e-01 4.695599031698741710e-01
-6.423533696210561583e-01 -3.038706401316509376e-01 7.139976031774897139e-05
1.716299820162142942e-01 -2.199349376957236424e-01 7.579094310472742624e-01
-3.163978908185591243e-01 5.490800200632774963e-01 6.064992262831823133e-01
-5.414107288635998660e-01 -4.685575594955654899e-01 2.930869638896158730e-02
-8.185645423695766532e-01 4.277438822158396436e-01 1.132519819684622286e-01
-1.818623437051341829e-01 4.071893391115525840e-01 6.741605315953097532e-01
-4.748384710322963165e-01 -4.874215380601953362e-01 8.177571758048134132e-02
2.483908561101713375e-01 -3.483221238401558728e-01 7.789769710465007657e-01
-4.269596786170412606e-01 -4.505196948545713009e-02 2.880952541760264385e-01
-4.934005609942183623e-01 -7.350738427311459544e-01 -2.636919880463398785e-02
-9.233217496472623242e-02 2.946497568807449063e-01 7.124894663193924726e-01
-4.121733648528966287e-02 4.777908384869207215e-01 8.258471885747109553e-01
1.663839045260754601e-01 -5.388725256267109520e-01 6.352961710564277720e-01
-2.776512787713116825e-01 1.414348090354551057e-01 4.903666853317404373e-01
-7.291899574804872053e-01 5.747358564739367681e-01 2.474053245255788958e-01
2.567676949347941218e-01 -1.334453470611291770e-01 8.659085742702626876e-01
-7.107057215789384097e-01 2.667104172107727655e-01 1.500155929980810932e-01
-2.778266644163718824e-01 -4.252517083823553756e-02 4.221897936463808176e-01
-4.018321333748067770e-01 -5.451440034129346746e-01 1.256195462531744800e-01
8.358097728401833737e-02 3.079897846937691419e-01 8.744941337821060534e-01
-4.861506821531709210e-01 -1.123266767950232004e-01 2.103686353140652165e-01
4.507511256487406470e-02 1.438216585005150649e-01 7.794102736087435979e-01
-7.186703165695637052e-01 1.706846831880528825e-01 1.073979565567913380e-01
2.816737612441107541e-01 -2.310776851365576590e-01 8.520469616107610999e-01
-8.678444645080828357e-01 3.012243897422016703e-01 2.246881625888259848e-02
-6.144842360955154320e-02 -4.349745992411246931e-01 4.702825169191237609e-01
-9.474967280560155913e-01 -4.670433690487538897e-02 -1.773010591177891504e-01
-6.107284598289841604e-01 1.291905253721301883e-01 1.884360758794904889e-01
-4.589465280766058530e-01 4.174033753983856232e-01 4.305299298575463451e-01
-4.361260796514435101e-02 -7.002086635322480879e-01 3.881361776565265265e-01
4.684297422040833991e-02 -5.871157236652216893e-01 5.107203696897202327e-01
-1.778221327766096524e-02 -8.096643472795796992e-01 3.707281419248697474e-01
-9.055122205169527927e-01 -3.892847610493400667e-01 -2.664844070390984809e-01
-5.529925664672733499e-01 -2.825881075366568629e-01 8.773062710641331419e-02
-4.882052034365880200e-01 -8.296156899460945811e-01 -5.668769307812718955e-02
-3.198913136472460450e-01 -9.231377868978898338e-01 5.901872225463625915e-02
-6.227178312698673501e-01 -5.457266998073289077e-01 -7.182381919717974184e-02
-1.217425683511583062e-01 -5.673227033252602365e-03 5.751828502952276434e-01
-9.793833603510470054e-01 2.215444768756277272e-01 -1.065859134527809282e-01
-9.285831458216120549e-02 -6.766459383743154143e-01 3.528773504656403381e-01
-3.996658506192646843e-01 2.768515017678924162e-01 4.314915107031298547e-01
1.579425811504048816e-01 2.261353389270296943e-01 9.106251314632842764e-01
-5.110249554062218369e-01 1.115177441414349629e-01 2.709262999730495669e-01
-8.424900859215928017e-01 7.888573090361056380e-04 -6.598018083895464125e-02
-3.154097054212138401e-02 3.548465258155695246e-01 7.890277882419487465e-01
-1.501240349215288983e-01 -2.070820083311969775e-02 5.442818877570407832e-01
-3.145079030190805480e-01 -6.730157972178844039e-01 1.563096319664842304e-01
-6.852277190125107831e-01 -4.147297769838190207e-01 -7.920174788897450802e-02
-5.673504434934129731e-02 -4.648956587215517522e-01 4.634275847138369375e-01
2.498264058675206123e-01 7.020684448005526379e-02 9.350123287895454327e-01
9.988552467209758923e-02 7.500049769013319989e-02 8.029032286503409166e-01
-7.935671770223796662e-01 1.425154968832157421e-01 3.010714183420469536e-02
-9.192189670341770480e-01 -2.733091425167620825e-01 -2.358404324321370649e-01
-9.114210316956740388e-02 4.606624567353871935e-01 7.749362540622860562e-01
2.922462208033127160e-02 -1.779284216652157746e-01 6.462884422476760093e-01
-3.921936595169866480e-01 -5.237593062962165869e-01 1.421328172332239903e-01
-7.578046608238996340e-01 2.252977976524991877e-01 9.264858735616916807e-02
-7.767088107417772225e-01 5.569827454521965038e-01 1.984116226402169447e-01
-2.506715559101174162e-01 1.891683412851836998e-01 5.321065221924382582e-01
-5.963174193128216727e-01 -7.883698195262658359e-01 -1.379697310892539774e-01
-1.283272920764629565e-01 2.480298126273208781e-01 6.631115776232369141e-01
-1.768101085940135819e-01 -5.191186074432780906e-01 3.361638092189173088e-01
1.307456390957930648e-01 -7.574386759153821647e-01 5.226587870754083598e-01
2.436470038852071862e-01 -6.973948912937005806e-01 6.456694850196397217e-01
-9.699587439429051550e-01 -1.340768881448231864e-01 -2.296638161495003216e-01
-5.809376227884082144e-01 3.388913958520663461e-01 2.925743260187603778e-01
-3.208216949174469979e-01 -3.258522137983373979e-01 2.790378620054125292e-01
-4.777439588432363937e-01 -4.469056075286529928e-01 9.416242468599704540e-02
-6.022143154851596902e-01 1.577598031679466328e-01 2.066019789674061746e-01
-6.795484368931167807e-02 -9.500327301268682856e-01 2.740271716310531125e-01
-8.419501558812704511e-02 -3.905525579098388378e-01 4.663974931890289555e-01
-8.820194437672040921e-02 -4.817461623753496042e-02 5.894159922493154014e-01
1.398657872385661860e-01 -8.262684733030295492e-01 5.053519042935478156e-01
-2.390334153147669338e-01 2.196167496244616213e-01 5.537566480179006989e-01
-5.743968010634500354e-01 3.130900831533068862e-01 2.888744102376895606e-01
1.433801232433359607e-01 -8.407600893896844951e-01 5.031314793634449334e-01
-3.089051577399088422e-01 2.898204159670912938e-01 5.173266841211409117e-01
-5.839147007305186543e-01 -5.198990833373988707e-01 -2.762675330275414509e-02
-2.207804077013618693e-01 -2.491124911514626394e-01 3.967392726405956638e-01
-7.805167343614980435e-01 -2.464404298401328686e-01 -1.020589272067624481e-01
1.903316053415040343e-01 8.341005395867182037e-02 8.867716365892202024e-01
-8.046849529649103827e-01 -3.749742946683970457e-01 -1.711647846091387815e-01
-6.341729930845974028e-01 6.151314636224708421e-01 3.471820867993118953e-01
-3.601880782210887810e-01 -1.377159189241180526e-01 3.134522917873882597e-01
-8.182949410701246817e-01 -4.320690747011415311e-01 -2.044282183096571837e-01
-9.103765884192890345e-01 1.761054328512208500e-01 -6.177141249780746662e-02
-6.609410619096579564e-01 5.882829017006294681e-01 3.133535762386129297e-01
-6.145238165660199536e-01 -6.824466573163862071e-02 1.120443881905930916e-01
-5.073460097555908543e-01 3.276893076462720766e-01 3.541419292035304367e-01
-5.175392691448952309e-01 5.069538192520729458e-01 4.113245242128853452e-01
3.428393280464474002e-01 -4.139805641774218503e-01 8.390320174860522728e-01
-7.075095496108384507e-01 2.868175659900537022e-01 1.603041786806506663e-01
2.864143848656486302e-01 -5.559691712679045716e-01 7.361492959380159240e-01
-1.607081649461657713e-01 -3.328689891826610014e-01 4.194080648506272602e-01
-6.263806659458454051e-01 5.349477776085333897e-02 1.464713365347062313e-01
-5.255386728002341412e-01 -4.312579946932029173e-01 5.727252313966999658e-02
2.235845226133881258e-01 -4.854553737514346046e-01 7.061216700463509577e-01
-8.350658863391459130e-01 5.232460121598691005e-01 1.338304787766945725e-01
-2.899333441424621349e-01 -3.070410381578877468e-01 3.135734838639389621e-01
-4.411541542347541256e-01 -8.051334239194427589e-01 -5.623546606274124754e-03
-2.372007380499451534e-01 -8.239399788043465511e-01 1.695317654302911370e-01
-8.163121063509770625e-01 3.465685049542907015e-01 8.524809675923135377e-02
-4.422493938784194389e-01 -4.568827001378907848e-01 1.221662833563271905e-01
-1.413623999227049954e-01 -5.974203059890408340e-01 3.388624029542481320e-01
-5.268696741515616067e-01 3.063145820347490389e-01 3.288059002186403679e-01
1.737080020389070723e-01 -1.366956993374563722e-01 7.905430870773719754e-01
-3.670644446143478401e-01 -3.749859145032229946e-01 2.195804289875972204e-01
-1.742317992981814168e-01 -1.117780853602137470e-01 4.890825379746293056e-01
-6.236699264627191264e-01 6.347892731286782775e-01 3.638288221120077881e-01
-6.522491059015793624e-01 -6.256012432841979720e-01 -1.277262548928442543e-01
-2.756057852639933747e-01 -2.873756594469998871e-01 3.336378909746599009e-01
-8.590385807926315120e-01 2.704513870409002152e-01 1.895305301292212266e-02
-1.081617681527884643e-02 -9.218150876392560145e-01 3.354796870059585379e-01
2.273114533222454492e-01 -6.022676657174375059e-02 8.666802232902911518e-01
-7.159198369127524053e-01 -3.146542768563468928e-01 -6.960310272463050840e-02
6.401359533030416549e-02 9.417566422127472692e-02 7.779634651502199683e-01
-5.775977619599248492e-01 -3.371216611588223611e-02 1.577841029120328198e-01
-8.855275161052101884e-01 -3.168851059114333180e-01 -2.218699478875488240e-01
-3.033984444192872054e-01 5.179472968211893402e-01 6.065948687107148851e-01
3.058412454778205447e-01 -1.289648686331717475e-01 9.113828244133375112e-01
-4.743018729746629747e-01 1.787538098283801835e-01 3.285771186726320625e-01
7.086343791652664759e-02 -9.017968354222181127e-01 4.158129383904957121e-01
-1.265753702024152161e-01 3.702824469535184737e-01 7.098794958909091513e-01
3.102044496780730354e-01 -4.841841279355425520e-01 7.839342890255783791e-01
6.668997088066803969e-02 -2.195657001855160495e-01 6.643454645170234762e-01
-7.167575973692382751e-01 2.413207385754916889e-01 1.352239147338939740e-01
-4.701749579707203974e-02 -4.711777996134168256e-01 4.697814841678614184e-01
-5.112795828425044098e-01 -6.140022084226055554e-01 2.433650692324550429e-03
-5.579299928104126671e-01 5.525711487388951237e-01 3.921270944230965116e-01
1.453900747963103590e-01 2.503854191642251314e-01 9.083836619629301889e-01
-7.220391791624344302e-01 -4.255802693007537663e-01 -1.160825794379225506e-01
-2.519828229645581508e-01 -4.146810833263822604e-01 3.076588011688201063e-01
1.832862295963278987e-01 -7.924175867707946574e-01 5.566384000366180196e-01
2.303803984420693118e-01 -1.146465897045321480e-01 8.492984200047015708e-01
-1.536890642826359010e-01 2.932809730010617622e-01 6.571980421441238063e-01
-4.073801828571232270e-02 1.668588277817824317e-01 7.113062198266970615e-01
-6.149446558394913165e-01 -7.271235756042068177e-01 -1.319557512595101734e-01
-8.786200900517596168e-02 -9.654724486828577534e-01 2.505432202499309202e-01
-8.830438801165867435e-01 1.800233464365451341e-01 -3.591748056859043331e-02
-5.251231446525306268e-02 -2.302370199062603595e-01 5.539644620347414783e-01
-7.847361466640362382e-02 -3.750628057651481662e-01 4.772335354613789771e-01
-4.309052883767581776e-01 -5.359549131253110721e-01 1.030579689939759847e-01
-4.169248448545180841e-01 -2.413192154648167442e-01 2.244843399947785423e-01
-7.622394605776625642e-01 -4.836785775362833495e-01 -1.734594346130866604e-01
-6.462331768550158007e-01 -6.824950898678338040e-01 -1.433914934366219418e-01
-5.049341311974608892e-02 -2.750427350815026761e-01 5.391999523618640211e-01
2.401855743990710113e-01 -6.712751770499407744e-01 6.522367080249982241e-01
-1.468356663351551017e-01 -5.997236189373180704e-01 3.331236828243624992e-01
-8.185168237695547022e-01 -3.502153086693983453e-02 -5.781565878624614352e-02
-8.203529332511062533e-01 6.716884507248369052e-02 -2.166961731089757023e-02
-4.933098826278857763e-01 -9.110372448315437466e-02 2.118235274804875223e-01
-7.061535757717305462e-01 3.215573932447810535e-01 1.743601786092489336e-01
-5.954751208616465563e-01 -5.549951568683950676e-01 -5.092598454585033074e-02
2.416290193315161206e-01 -3.498420763151680220e-03 9.004399591017303583e-01
-1.420691678337064334e-01 -3.445619834745121124e-01 4.317271931295943999e-01
-5.119331434306263057e-02 -7.240170188948664709e-01 3.725641166277509631e-01
-7.356269833920821011e-01 -3.945971708987172644e-01 -1.167588887655430646e-01
-5.467760057291255471e-01 3.962648959189945530e-01 3.442912810981517135e-01
-5.523074841707490412e-01 1.082264074785871527e-01 2.328483125868137105e-01
-6.051340735147742872e-02 3.352628993836359039e-01 7.559172596510784770e-01
6.028230584468816100e-02 -9.192793175548004125e-01 3.999008389283535414e-01
-2.375890378349203025e-01 1.204885940793931631e-01 5.183931047890789623e-01
-9.109331587807280028e-01 3.561923753630769629e-01 4.319840278483927896e-03
2.240003432596038985e-02 3.864573620325791325e-01 8.488797781200232428e-01
2.329019657489113937e-01 -6.378183094289113786e-01 6.581040791976450199e-01
-3.124967939767014924e-01 -6.622896169651941722e-01 1.620714113542258972e-01
-5.739754625531001686e-01 1.792052880797860015e-01 2.397459267864820998e-01
1.324683373201035741e-01 -3.697399010356343663e-01 6.675508921077309976e-01
-3.044818787127278603e-01 -2.671139881068861910e-01 3.153464214793819109e-01
-5.087871221909534558e-02 -8.658930775482306386e-01 3.203855117337593428e-01
-8.943609253246833646e-01 4.483140052885471460e-01 5.317963529810863788e-02
-2.265430514016304187e-01 2.002567858888287811e-01 5.577507802930803393e-01
-1.550502012118471981e-02 -4.157829808840110553e-01 5.184014029280529234e-01
-1.827323304820956118e-01 -9.214413891848414195e-01 1.821146541515214767e-01
-9.145548326392456406e-01 1.332624868922484551e-01 -8.134358183783116369e-02
-4.438164527466308407e-01 -7.030685530828094665e-01 2.973838790701576612e-02
1.084356761649177964e-01 -1.711221359440264211e-01 7.195323234663050238e-01
-2.439804939431363118e-01 -8.264808182213110310e-01 1.625386595250179755e-01
-8.263028248518761165e-02 4.447260857965371073e-01 7.766438555182342274e-01
-8.436794224388903807e-01 -4.707167633055571732e-01 -2.413841263299809081e-01
1.179344682256176918e-01 1.170086261097170455e-01 8.345518083252223551e-01
-3.545662128788429346e-01 4.439699946543293474e-01 5.335538385906886116e-01
-3.414636460336993862e-01 6.583636557714988014e-01 6.245263896015365024e-01
-7.296496422444664898e-01 4.083781973434228441e-01 1.854831455563574205e-01
-9.379360591931155955e-02 4.236563716989413253e-01 7.588855196033872375e-01
-9.510315514053749864e-01 1.314226387975055976e-01 -1.145937852198193746e-01
6.263291704348990241e-02 2.311060574554592850e-01 8.273614860855351694e-01
-1.049002021938319762e-01 -4.657110369992223387e-02 5.750990963668045630e-01
1.064064629627696074e-01 -5.380840232054564520e-01 5.820341193445248695e-01
-3.966647901799844056e-01 1.320598099007206649e-01 3.806335605072422301e-01
-6.349312993027436125e-01 -1.286938711132259439e-01 7.147118152978602923e-02
3.339986291939042173e-01 -3.206250325501271425e-01 8.656569546544674587e-01
-1.841535751805656665e-02 -2.810797616059957163e-02 6.591479007973162219e-01
-6.723801308751784500e-01 4.814610026008572796e-01 2.636416507174499935e-01
2.953712535304815479e-01 -4.930164383409991746e-01 7.674239916029368391e-01
-4.126965974296749606e-01 -3.873988536900246915e-01 1.742459141100739517e-01
1.601949363912700541e-01 1.674769927405818093e-01 8.909469795439042272e-01
1.464509400418657903e-01 -6.074344467703044481e-01 5.921469351109113211e-01
4.428707230040444115e-02 1.495124688188760043e-01 7.808108465464583814e-01
-1.070168935806622978e-01 -6.357173883855981034e-01 3.553687882952070165e-01
-9.260284507466520765e-02 2.798324326900306080e-02 6.136462655227794549e-01
-2.788314385978548499e-02 -5.392660314442392355e-01 4.616904400580845724e-01
-1.707012080286879063e-01 -5.117863977131583697e-01 3.443295487369836261e-01
-2.092522335492537910e-01 -6.828629950127926840e-01 2.466509166226848460e-01
-6.187461655041228692e-01 -6.745418308309807376e-01 -1.159076921175230535e-01
-2.207142781202060811e-01 1.590853000683284946e-01 5.477318670356290387e-01
-4.285781810815495474e-01 -4.889413055400033126e-01 1.225193927682659278e-01
-3.498552459126647585e-01 -1.290005212312849980e-01 3.259010041116833789e-01
1.863222479809302501e-01 -4.276995292130577053e-01 6.942059069645188929e-01
-9.951651635780852656e-01 1.096379748492820883e-01 -1.620555101236005879e-01
9.822443565257175935e-02 -4.795943329605191208e-01 5.963553304974378300e-01
-2.530938289477032699e-01 4.278154547644245215e-02 4.758163012435953632e-01
-3.919840633477233993e-01 -5.148999925983113179e-01 1.455957484084334785e-01
-4.968747113163795026e-01 -1.822472459839107883e-01 1.749396508087555369e-01
-2.417093982710680489e-01 -4.790600433285604476e-01 2.930273976128646707e-01
-2.896630119704866058e-01 -1.136309352011305035e-01 3.853293918058577905e-01
-1.857447787353395940e-01 -5.126112356152809912e-01 3.305922190738881938e-01
2.481778375150504035e-01 -3.570931727360271979e-01 7.755436204342369688e-01
-1.200690624064865847e-01 -7.271148363464763342e-01 3.099198147336114650e-01
-8.237807337205667046e-01 -4.428314392434108404e-01 -2.133059074222718454e-01
-1.297537762063329381e-01 -1.371101847987542810e-01 5.194300840064338676e-01
-9.818689198615090374e-01 -5.753754382225387265e-02 -2.119974868493876008e-01
2.156643954441926359e-01 -1.501861314572688205e-02 8.729965964405616008e-01
-8.646529166283530854e-01 1.657381859868903295e-01 -2.477828923689283369e-02
-3.097052714447296462e-01 4.601616059085189558e-01 5.795969284174082858e-01
-2.650346858322822907e-01 4.381671484349271006e-01 6.113505255702883501e-01
3.018695456939133812e-02 -2.213107772366407489e-01 6.311068223215481332e-01
-3.348160099791857025e-01 -8.231966652121710526e-01 8.264634455359463894e-02
-6.303102259640045446e-01 -5.693950592340908390e-01 -8.735455234903227728e-02
-3.506815246290477806e-01 -7.103704639463073178e-01 1.101982485190492606e-01
2.373947635747080953e-01 -3.385508041105027011e-01 7.727716095627289450e-01
-9.306173590859015965e-01 -2.147212274882234206e-01 -2.243547806255851151e-01
-7.372907020461344496e-01 -1.142938437204088498e-01 -1.460060308452876265e-02
-2.848179894077541019e-01 2.242949503574669101e-01 5.146055868931476152e-01
1.080615160148223203e-02 1.342132210243736912e-01 7.452588860063308340e-01
1.132691202356069099e-01 2.059971010853915985e-01 8.632901536803668785e-01
-7.479744602042087687e-01 -9.305967182270839799e-02 -1.628862513160625816e-02
8.047955017514631104e-03 -3.203156817984165738e-01 5.747313537761382651e-01
-2.892790518457417082e-01 3.614163173437001664e-01 5.613237594585714918e-01
6.182746154663324584e-02 -6.668841874372914980e-01 4.946050940917350314e-01
-2.876341661453258869e-01 3.962733018469369872e-01 5.756810471577500365e-01
-8.328058708054036918e-01 -6.109508325233500153e-02 -8.021513895177011244e-02
-1.306577945969687737e-01 5.739658563519111079e-01 7.815474616317421575e-01
-2.946913123821224278e-01 4.898764881640753632e-01 6.039900827366661007e-01
-5.759572220276296672e-01 4.265615469656935388e-01 3.294378617924103581e-01
-6.588153557199664945e-02 -9.576802127512609175e-01 2.730507177920541984e-01
-6.117355592673674458e-01 -2.565465393730724797e-01 4.490827991608378755e-02
3.527943464082535646e-02 -7.627081727302574832e-01 4.354689872912482218e-01
1.112053759419705801e-01 -2.909528436979780808e-01 6.776972638152795048e-01
-8.365717741791365292e-01 1.754698882018146389e-01 3.893599122999708700e-03
-5.886569603077421720e-01 3.095178136915700540e-01 2.748207063034796005e-01
-2.141333247238726423e-01 -1.253386388781972394e-01 4.484405389884411619e-01
-1.359769350382075415e-01 -3.758483410450629836e-01 4.255986063989916635e-01
-6.731005724045160399e-01 -3.497803820101160754e-01 -4.435804679033730075e-02
-5.983376310865928804e-01 -1.555669576882605376e-01 9.420903116803013011e-02
-9.727219177447422593e-01 1.215313821960634227e-01 -1.376183726660825113e-01
-3.012065898515733919e-01 -7.423919360217727803e-01 1.425340808680365112e-01
-5.069766848541875648e-01 -8.738101826369352176e-01 -8.978984489135784230e-02
1.240278198335436760e-01 -5.016983197576277975e-01 6.112219837830829006e-01
-4.936781617973909353e-02 -5.287921296314591624e-01 4.463796537084939731e-01
-3.669067710937620186e-01 3.413532246023947003e-01 4.845918484492997003e-01
2.665098152277254329e-01 -2.314777896506519175e-02 9.153904506316541401e-01
3.772099594089076136e-02 -2.348953720897589414e-01 6.328109518613598272e-01
1.697166779463512298e-01 -4.341015371395498534e-01 6.770116830730574797e-01
-5.742348084052941726e-01 6.221470328894305180e-01 4.032946878682444058e-01
-4.067497717967404336e-01 -6.942001699369135803e-01 6.611420844502610694e-02
3.193572790222355962e-01 -1.774523731747823241e-01 9.055226922990720073e-01
-3.787679977659701852e-02 3.322930803597602956e-01 7.750312831354062570e-01
-9.715923057407536145e-01 4.273642192210734547e-02 -1.657446494523192593e-01
7.569166357836319692e-02 2.930601366140527797e-01 8.619294730997788534e-01
-1.835965083849023793e-01 2.503691743011688398e-01 6.146269198070987150e-01
-5.972027687988799155e-03 -6.572023500621826386e-01 4.376471321330508424e-01
-7.281379547446861222e-01 2.119639053025267061e-01 1.142075787973933221e-01
-5.346532653343327723e-01 6.212021543591416117e-01 4.382875066650484541e-01
2.782582998338100078e-01 -4.618660135468022898e-01 7.636619610755992493e-01
-4.228088057626036012e-01 5.547823598220147367e-01 5.135938420316729092e-01
3.074670742209026919e-01 -4.109629896352515743e-01 8.085640469501659267e-01
3.195412117752322034e-01 -4.038720520321018026e-01 8.219669096739709024e-01
-8.019993731437645712e-01 4.027704784974930896e-01 1.188088881237203270e-01
-5.848398339160115755e-01 -3.604363965870542863e-01 3.050947073008544036e-02
-1.095949777404363890e-01 -7.685256729094129824e-01 3.039601791081961712e-01
7.948214213190674116e-02 1.259866911006955192e-01 8.035375808206338677e-01
-1.242605350800802394e-01 2.231477152905713968e-01 6.575424651753395411e-01
-7.693863633493349674e-01 -1.758678595786186682e-01 -6.602604052185252759e-02
3.262129136109186422e-01 -1.928661321415515439e-01 9.059447310281788512e-01
-1.278140018407683542e-01 -6.749801471903125183e-01 3.222815005724329329e-01
2.146987686706636478e-01 5.034702719875615989e-03 8.795492245042054735e-01
1.383735559497964729e-01 1.696084072608507465e-01 8.722508639120485352e-01
-4.903561535884106148e-01 -8.904147587054259683e-01 -8.108908268304065858e-02
3.972175393794103587e-02 -4.751137237429594040e-01 5.457752639723448818e-01
-3.513050135996705348e-01 6.995270269825524245e-01 6.309594738852245532e-01
8.145296265269098140e-03 -2.376105988044252826e-01 6.053989629589683341e-01
-2.266094095727525515e-01 -2.379870888208011070e-01 3.956482647144990983e-01
-5.421305806196540233e-01 -3.105914759463087038e-01 8.707483746098999833e-02
-7.785712296917636499e-02 -8.730486393101604126e-01 2.936507910359318907e-01
1.167506422144447831e-01 2.919229480402121824e-02 8.010241671763150828e-01
-8.633673326395039371e-01 3.694544650983925815e-01 5.169490236805310973e-02
7.127435519271987929e-02 -2.956362758383426215e-01 6.403112967115168752e-01
-3.835102660832062638e-01 -7.108188495244568417e-01 8.071981022098359548e-02
-1.137277536906694357e-02 -2.785699597644534231e-01 5.728263929748805827e-01
-5.831206772134948924e-02 3.025018445592552174e-01 7.457692327570276669e-01
4.126777939825090197e-02 -5.880560464151907141e-01 5.053946117989579490e-01
-8.848360159483104059e-01 -3.406673083074491792e-01 -2.300461203024143086e-01
-1.000000000000000000e+00 1.695025054459075864e-01 -1.442372509623454924e-01
-6.309975757199783875e-01 -6.591015855751526376e-01 -1.211378027329814283e-01
-4.999419202457898725e-01 6.864256228448233355e-01 4.933978838392407140e-01
-4.195940410762246664e-01 -2.486687679251695648e-01 2.193834854314214988e-01
-7.307415444767207946e-01 1.480179668530252624e-01 8.823845553637123251e-02
-5.905590079142082338e-01 -7.433361557488905591e-01 -1.161766062555800727e-01
-8.788076702859549671e-01 -4.306649073768539782e-01 -2.579405803744241887e-01
-3.061853618893455309e-01 1.534473839922710116e-02 4.182661732350188566e-01
-2.029826194606659251e-01 9.674985197673495463e-02 5.405154898137977115e-01
-3.905651989358654430e-01 2.753540238958349651e-01 4.390637429895052901e-01
-1.011188388702224765e-02 -1.511533027944768903e-01 6.210653001870340972e-01
-5.544392441098788815e-01 -4.338424092778264685e-01 3.051172207262228819e-02
-1.820326177185587480e-01 -1.935884248463413115e-01 4.518673631498237864e-01
-4.804952104638819943e-01 -6.648436614081495444e-01 1.112195928666303082e-02
9.426559138329160259e-02 -3.507160167047196908e-01 6.404740147913052795e-01
4.064304217893398019e-01 8.349778332941133474e-01 1.722114465877930822e-01
7.364006238059223053e-01 -1.111731978288303530e-01 4.610969787706586942e-01
4.632282531863182173e-01 -7.663726215008107578e-01 -1.721377639993847963e-01
-2.855510217002562579e-01 -8.612439965028656497e-01 -2.185010285216801018e-01
3.239843167433863469e-01 6.722489126865214271e-01 4.537682561051257224e-01
5.949737369403932385e-01 -6.803741365932833816e-03 6.363173473530661095e-01
-6.056102733339369104e-01 5.979680782928685767e-01 -2.828163855690956074e-01
-1.499015224721249040e-01 6.237231082212720823e-01 7.625182090401471102e-01
5.208061346103505240e-01 -1.605064579025290150e-01 7.109104542205266775e-01
4.283217434175061733e-01 -2.627660453959677622e-01 7.996597026746662396e-01
7.365011152075237599e-02 6.689877963191128707e-01 5.907312468552508022e-01
-3.324638698706360307e-01 -8.813744600352351188e-01 -1.645316304480132219e-01
-2.157511843472061375e-01 8.646215314755147929e-01 -3.129518334253852396e-01
6.553405654197216323e-01 -4.970613876298759504e-01 3.043779102751064114e-01
-3.435518197363189863e-01 -3.780979734978343054e-01 -7.852884738605896420e-01
