2.393531334710226055e-01 2.272545907724281833e-01 -2.947914400648526251e-02
-1.740070058064666636e-01 2.354164948191034001e-01 2.732061675104324391e-02
-2.522108977464563861e-01 -3.999812218181829637e-01 -1.072290754792496886e-01
-8.007539925424785876e-01 3.632824256709564770e-01 1.397869269563676298e-01
2.858488674904112181e-01 -1.428333928959098498e-01 -1.200811275978805048e-01
-1.930705724159859360e-01 -2.804150311949577534e-01 -8.781437879002615410e-02
6.263112868748167417e-01 4.579225296221274832e-01 -2.828937998943710508e-02
2.209987548425003390e-01 -8.152597120544496923e-01 -2.648523742402383863e-01
-7.108634947583130081e-01 -5.209889644551285448e-01 -7.387515932764950055e-02
7.710951487041330932e-01 -3.135067095013325256e-01 -2.235061752418698311e-01
3.990442224738295351e-01 -4.100662853156227250e-01 -1.960851319764426171e-01
6.954409967933604664e-01 -1.712060619479701118e-01 -1.809904670154031114e-01
9.437472139367716895e-02 9.458369290956151199e-01 1.537083635979397400e-01
6.193135437391416032e-01 -4.817403074515745898e-01 -2.417100606960614628e-01
3.166749164208220724e-01 5.464240525021698547e-01 3.305153449532780702e-02
3.959867629069915296e-01 5.591411163932044071e-01 2.541148598548855636e-02
-5.189399160545298262e-01 -7.503350922555570568e-01 -1.517000716748133082e-01
-4.559608771911185521e-01 -7.060905031603790238e-01 -1.499775114895455230e-01
-3.956806833978668836e-01 4.970526532504315753e-01 1.164653106132392396e-01
5.734297896292879226e-01 -2.249511046654985302e-01 -1.770345077417457835e-01
-4.611783582003254889e-01 -4.086697391931706225e-01 -8.143808901775553832e-02
2.653377540511996369e-01 -2.619163302043190367e-01 -1.445196290290367558e-01
6.804469945540296827e-01 3.818064975285904161e-01 -5.284749404011675200e-02
-3.282654800056419853e-01 4.116191795562473832e-01 8.801683254595937811e-02
6.047115972931209338e-02 2.297117286739446818e-01 -5.144204129152920441e-03
4.619352836252917927e-01 -2.837032982078250831e-01 -1.756184815489672257e-01
5.151916035514184644e-01 8.190615982261499617e-02 -9.929572957191615257e-02
-3.842304969714313567e-01 -2.603503137467769873e-02 -4.380371159761265940e-03
4.338518510825759567e-01 -6.193576409344552225e-01 -2.484536571204579158e-01
-3.163789509553874540e-03 5.274836978852021074e-01 7.123934692869460239e-02
2.289541681136206958e-02 -3.540666211114256168e-01 -1.333184821116731034e-01
4.799830655514865652e-01 -9.749757496164454529e-02 -1.355409084410803822e-01
9.096900478019688263e-01 4.960892126745291425e-02 -1.590942836719603792e-01
-4.309877352744508894e-01 -3.723614537486153453e-01 -7.716814794133236566e-02
-5.201927635846435166e-02 -6.780704699616568742e-01 -1.972718703399218010e-01
1.405353854163902128e-01 2.349643576077094786e-01 -1.458699397767674807e-02
8.632500114842505123e-01 1.637610248649537803e-01 -1.268823885618549085e-01
-7.010221489384498295e-01 -6.748375778011389547e-01 -1.102782300112413599e-01
-9.781065489930225176e-01 6.803913713210059389e-02 9.600881392732246722e-02
-6.323094356049695497e-01 6.368107052261977596e-01 1.797954552844828191e-01
-5.289720106816211409e-01 -4.402783242723600637e-02 1.075217987316545547e-02
-2.753952123949405806e-01 9.918999606654690937e-02 9.720445721317250154e-03
-4.438125411394054920e-01 -6.734164515993944500e-01 -1.441386693880885306e-01
3.616404442479753678e-01 -9.723218595865282254e-02 -1.197519623220224261e-01
3.257539363957465683e-01 -1.881366978027876058e-01 -1.357190789364460248e-01
-4.082876907131703370e-01 4.985653896196234336e-01 1.184859306487123093e-01
8.408829142996001593e-01 -2.992983827301756022e-02 -1.680933690827595695e-01
7.311396469532226439e-01 1.744052422192661211e-01 -1.068960698457557396e-01
-3.703962355860209721e-01 1.953357424267928022e-01 4.427886078879967463e-02
7.493529098790547849e-01 -2.443691830403185161e-01 -2.048452356687404108e-01
5.075564617382467558e-01 2.161662287750232836e-01 -6.765430699899187272e-02
-3.800714353333743412e-01 -5.850617188833318050e-01 -1.324552287662851824e-01
-5.368192157833354683e-01 -7.379104932819853246e-01 -1.464895799007749078e-01
-8.309098646619164641e-02 -5.698051474668629490e-01 -1.684453732799737202e-01
-3.580211132138418507e-03 3.574914609079993255e-02 -4.087709088822522735e-02
7.343224218696142724e-01 4.095339743165410384e-01 -5.368280499038929898e-02
4.361769026634639834e-01 -5.666398837332926597e-01 -2.367369847373555491e-01
-3.095398135218844216e-01 -8.810891415600231591e-01 -2.093574304454624835e-01
6.301924317206647475e-01 1.667383169339457238e-01 -9.522854799730470776e-02
-9.160103219294304377e-01 1.955123467623031408e-01 1.168343601812678600e-01
-1.396231316721635307e-01 -5.132377306368522962e-01 -1.480280817048005571e-01
-5.521697442861536187e-01 -6.127793981043737348e-02 9.900290863852330772e-03
-5.535884232874297428e-01 -5.230174928774905529e-01 -9.524064704001711235e-02
-2.338095767246365364e-01 -1.074330757208367404e-01 -4.294024084923613732e-02
-2.094577321329386677e-01 -9.311533219548612239e-01 -2.340792735364397026e-01
5.623958829213385746e-01 -1.839490270786461601e-01 -1.662148702948579304e-01
-7.348558222419278030e-01 -1.006005781889612177e-01 2.521024493563966268e-02
-2.418715641064719257e-01 -3.421902306681844363e-01 -9.542026849749646322e-02
2.907842797098832976e-01 6.569274193647364202e-01 6.169996782867562257e-02
-5.529825462231412470e-01 6.366999291314051623e-01 1.692271911524963479e-01
-2.628159678502325347e-01 -4.998236838195280196e-01 -1.285951149248307779e-01
8.006626914056975686e-01 -2.260826856422345349e-02 -1.610777166144604922e-01
3.155382906586080144e-02 4.819232323981726962e-01 5.623217516700371871e-02
2.033840041770207108e-01 4.269123560647020699e-01 2.084618951654816296e-02
-9.110730576711573159e-01 -1.351544093358625909e-01 4.074828715520856237e-02
-4.541816600644747459e-01 5.149868073127006340e-01 1.283314635664166425e-01
2.750883022740655548e-01 -8.315112937339113053e-01 -2.757484040112854196e-01
5.025649733965217303e-01 -3.102663776121072914e-01 -1.870778219031748735e-01
1.226455785213259458e-01 1.774427858714089923e-01 -2.533084167092540182e-02
-3.422192831804842655e-02 1.518530886133995506e-01 -1.031963942419819938e-02
-9.594204105361918700e-01 -3.240196265245082197e-02 7.061324841076879744e-02
-5.789296498233991589e-02 -3.508224250300519785e-03 -4.261379268682759930e-02
6.804536290016013345e-01 -6.111907605131570165e-01 -2.793654512432204862e-01
-1.899335302292809446e-01 4.121802966764304132e-01 6.975972908522266869e-02
-8.502082000217260349e-01 -4.980838958369436797e-01 -5.013047762212639868e-02
3.985948155442864405e-01 5.513066095559797652e-01 2.327769633657037276e-02
1.473296060170357566e-02 3.375156635224777490e-01 2.552630347349019516e-02
-5.312324519308697646e-01 -7.122973453323656612e-01 -1.413893620717363020e-01
3.726536277154779420e-01 7.662566676970401502e-01 7.575865321382536932e-02
4.669693115201724032e-01 5.654700713243727694e-01 1.742122821031749993e-02
7.154342277143100892e-01 -4.821702194487771376e-01 -2.545831151141557114e-01
-8.965192048208808773e-02 4.066073199336158739e-01 5.516045632555633543e-02
-7.272661270815463652e-01 -3.606848331087974535e-01 -3.512745909629724772e-02
-3.564974141006522768e-01 5.359101854421502442e-02 1.009760124889510710e-02
7.382968462449483737e-02 2.821057398363116531e-02 -5.288496366272724819e-02
7.603610617068142785e-01 3.125800390808945450e-01 -7.926008692649144649e-02
-7.454623790737026079e-01 3.992592271124486558e-01 1.406451874054870932e-01
6.494878029249745444e-01 -4.010609281767867906e-01 -2.273162547935561884e-01
-3.458103214242376211e-01 -4.686235001362269448e-01 -1.104474792122316362e-01
6.676696471726444315e-01 -5.129504279602826317e-02 -1.499460543250815125e-01
2.431858504490499451e-01 -4.959117344954991902e-01 -1.949532603516635210e-01
-2.695378751437603193e-01 2.051223997593178139e-01 3.310668986830026667e-02
-1.887741441561663625e-01 2.849271587389716198e-01 4.057735384092552022e-02
-3.025610219588413807e-01 -1.120738151450832443e-01 -3.486140295449204757e-02
6.686348920450878586e-01 -5.442801022075920425e-01 -2.625313823955685022e-01
4.749573920359504986e-01 2.019505466089182300e-01 -6.656450860447897522e-02
4.366585791408508777e-01 -3.581334258810131566e-01 -1.892376553895674385e-01
-6.916236601169785114e-01 2.748849537663257125e-01 1.051181401519321462e-01
3.948357206966040533e-01 6.822572801424033884e-01 5.364904847441998720e-02
-1.722975344281548749e-01 1.795784801221035898e-01 1.435595734799958653e-02
-2.507390474028469152e-01 -9.371992815966270207e-01 -2.299719231667688990e-01
5.402734931941960417e-01 6.643375111439686620e-01 3.023178264236685980e-02
-3.070509991431709107e-01 -3.518803273836382806e-01 -8.896800268769816666e-02
1.421457050094087904e-01 -8.119759300485992481e-01 -2.536232774129594247e-01
-8.143604623683993460e-02 -6.889447166537264466e-02 -5.440033466346732433e-02
6.583711982123521267e-01 -5.199140827247316077e-01 -2.556090367347745862e-01
-1.411454396005799583e-01 -6.452477167251172707e-01 -1.779391506224914377e-01
9.129764688131708494e-01 -2.182487406578822453e-01 -2.206332849807313978e-01
-4.315502160317872260e-01 -2.346000091844780977e-01 -4.566800766866942890e-02
5.894037577863501243e-01 -6.429786054755383118e-01 -2.745156742624864643e-01
2.742222066527682522e-01 -4.758950296407200575e-01 -1.945120678353480792e-01
7.328041822191259935e-03 -2.279849628229689840e-01 -1.024884347417067687e-01
-1.109162151843062216e-01 2.367982117699089228e-01 1.925068173979723948e-02
-7.150022974467424852e-01 3.140603679127182968e-01 1.171617740448867712e-01
-3.976246775079808060e-01 7.899883779972263209e-01 1.835465655792088424e-01
8.746414258626163951e-01 -3.037558727423732979e-02 -1.726817489667719641e-01
8.752081524905860332e-01 -1.015830693838297577e-01 -1.890005295087230086e-01
2.960910394296561998e-01 3.238957703749132389e-01 -1.497467960976992321e-02
-6.890505306868569546e-01 2.741927231043643776e-01 1.046182487717971787e-01
1.754315763251367288e-01 -8.801934185974393809e-01 -2.736085573683166849e-01
-2.674866465622040002e-01 7.614489202600533968e-01 1.597402173513992607e-01
7.125996269055059895e-02 6.624193117427314148e-02 -4.386792888838676047e-02
-2.990656194310221672e-01 4.842577452894140655e-01 1.007059153821435460e-01
-3.799641809713515395e-01 3.811113104139439156e-01 8.792859637315926513e-02
-8.592879917376269328e-01 2.270796634776027501e-01 1.164966028312528074e-01
5.319593819566368342e-01 -2.519001402546694208e-03 -1.207828662778596823e-01
-8.020226063134024974e-01 3.973076548040274658e-02 6.614870695783077459e-02
-5.158363391387617014e-01 -7.565538681371067886e-01 -1.535311476538954722e-01
5.356070241263677367e-01 -5.652108615154227689e-01 -2.496258323550869795e-01
7.190591706901260372e-01 1.523785114592145218e-01 -1.103151226119637313e-01
7.421472246237485748e-02 7.345321902304243755e-01 1.081860666762292089e-01
-3.616351561691699135e-01 -4.847446921975621659e-01 -1.120217464310906547e-01
5.700479997377511099e-01 1.925748592522948666e-01 -8.134132112591738184e-02
2.708960419876296766e-01 -3.526149108124649878e-01 -1.659480186773551191e-01
-9.064818587886412926e-01 2.319434630705008091e-02 7.625973833328468510e-02
-6.891489843061188170e-01 1.894126567695376129e-01 8.529177116820226001e-02
2.945881490860500773e-01 -6.867274069595628028e-01 -2.453127401974794231e-01
-8.317070246011297741e-01 3.251141489227949433e-01 1.351940233965015503e-01
9.198685553401024784e-01 -1.379099103510440794e-01 -2.032228301527987113e-01
8.464643244391967247e-01 -5.061466156385242832e-02 -1.735536783885728296e-01
-5.024006030585117522e-01 4.967777968563253932e-01 1.305862958097823157e-01
9.415535965947989805e-01 -1.833844422788409867e-01 -2.164782956194090946e-01
-3.982748258151452836e-01 -1.567977850992084699e-01 -3.234268053171038271e-02
-1.378518668559419458e-01 -1.212527860939054992e-02 -3.395247520369332889e-02
1.356407775767515533e-01 9.114566834859784139e-01 1.403812375509850552e-01
-6.412241811242943568e-01 6.942073847100743711e-01 1.940732906184685358e-01
9.027372723823609002e-01 -1.092513184706716545e-01 -1.944085448447842313e-01
-7.910993653993753094e-02 5.084876937878858305e-01 7.699975752895991954e-02
3.806768688993937833e-01 5.933748494196817713e-01 3.525546889773481518e-02
6.093286068745542572e-01 1.387559833778094220e-01 -9.883880318027188361e-02
1.480596295030379150e-01 -2.745789755031565194e-01 -1.318212326917881372e-01
-1.478290847407855435e-01 -1.701374894802767102e-01 -6.867132309864319717e-02
-4.300968404516089527e-01 2.548240962353651162e-01 6.578356674801182080e-02
2.201831981732204901e-01 6.711021643175948959e-02 -6.346260491426708450e-02
7.254465328656758416e-01 -6.011329570109572584e-01 -2.830509330678667168e-01
-6.700771710967000638e-01 2.617464155523431257e-01 9.925739818190330854e-02
-2.465650018994670900e-02 6.665281207985787604e-02 -3.102635788257618321e-02
-6.249595464412631696e-01 7.359088685486130377e-01 2.014243414568529233e-01
-5.157443149777957148e-01 -5.288686062726914994e-01 -1.016050679637289650e-01
-4.653685301842429567e-01 6.702296415922056605e-01 1.652314040920591920e-01
2.958627571348657614e-01 8.699746390674150121e-01 1.096241698322258235e-01
-5.640330903625456749e-01 -5.857589626422696760e-01 -1.081647305755936567e-01
-6.678069104588822691e-02 -1.806513214510900300e-01 -8.184147285404790029e-02
7.767735887166669073e-01 3.768940797854510305e-01 -6.677043966047363499e-02
9.425304855798932735e-01 -1.194402446010824764e-01 -2.020215308807329635e-01
2.212250799147847113e-01 -5.858624455513815610e-01 -2.125536108182319306e-01
-2.307526508961699196e-01 -1.515080822825888747e-02 -2.229560013405859978e-02
-3.459224003603904585e-01 1.858251056350082031e-01 3.885663479668977072e-02
3.163121982323571779e-01 1.965946331429506699e-01 -4.670142213341570148e-02
-3.243374766217341776e-01 -5.514388972163545288e-01 -1.321927354392913867e-01
9.479083081319168436e-01 -1.468240953529295623e-01 -2.089829275550854348e-01
3.613884459637760616e-01 1.498963144512390488e-01 -6.334487540672838202e-02
-8.628673114529855637e-01 3.145070560841627394e-01 1.369157709310164228e-01
9.192643466206278369e-01 -1.609863736302944992e-01 -2.084066033187508549e-01
2.118219731738638090e-01 4.833939148756731252e-01 3.260899816035740112e-02
-3.830324428980513840e-01 3.267219006870061837e-01 7.592937268529517669e-02
-3.610756820995751903e-01 -4.203905019137455512e-01 -9.741597961819301044e-02
-2.214958645553578298e-01 -6.540962797105656090e-01 -1.692786079715386527e-01
3.298011215653247619e-01 -8.879746751843040076e-02 -1.135962537603844857e-01
-7.039548153502438455e-01 5.166845275736473564e-01 1.619150102439902150e-01
7.571653683010207692e-01 1.723635966963857069e-01 -1.108207650974560449e-01
-3.470768454504760681e-01 7.136580944587381792e-01 1.594164267306183991e-01
1.986761494020655439e-01 -3.937979699118691196e-02 -8.489611231238596012e-02
-6.545598381258178888e-02 9.436451096140687778e-01 1.744507869978891290e-01
-8.206456786223154110e-01 -4.950974828340996142e-02 4.826676372732921494e-02
4.395639181634093395e-01 -7.556890704303020900e-01 -2.803119995103182660e-01
5.370752246197332130e-02 -6.508778881587319598e-02 -7.149332354452950233e-02
2.930582549145082094e-01 3.754009215000030791e-02 -7.989348836969335788e-02
-4.391149633757990833e-01 -8.522237834343073803e-01 -1.855515497092364574e-01
1.666486555164257699e-01 -1.851096961481817349e-01 -1.138825797660853734e-01
-8.923601620476158125e-01 -5.727129544757302015e-02 5.602750473496186101e-02
-3.353568191197269233e-01 5.286165385538681150e-02 7.121517348268016807e-03
-8.818228344990233225e-01 -2.164626394568555934e-01 1.831317977666547039e-02
4.248126975908347869e-01 4.333841703662252853e-01 -7.106627754483567545e-03
-9.204501611162829722e-02 8.331533667469895876e-01 1.527798515758972131e-01
3.221078035290767527e-01 -4.362515809439548309e-01 -1.918330902705139840e-01
1.407675376754197183e-01 -5.378459819537059206e-01 -1.909070944257721392e-01
-8.105051055388844405e-01 3.470953319997875930e-01 1.373903944807474686e-01
2.281943086125971798e-01 -4.268932068947261516e-01 -1.772166721455353255e-01
1.214905457390632187e-01 1.777715723656468072e-01 -2.510233028133472197e-02
-6.918229223301520792e-01 -6.360480242436117315e-01 -1.026523998066754539e-01
-1.527551135633811175e-01 7.338738107495078600e-01 1.382014620882150990e-01
-2.140654703924179669e-01 -9.064735121955249664e-01 -2.278370564073745608e-01
-8.771333061189433566e-01 1.119298947424568619e-01 9.260101434484219185e-02
-5.709868197619911712e-01 -4.408228358628061422e-02 1.632376571590511000e-02
3.817521580333974041e-02 8.179394728343826193e-01 1.320023327336844465e-01
-3.551310833369973885e-01 8.370558204337269492e-01 1.886356915901816478e-01
-3.610607990038232074e-01 5.411870643017685500e-01 1.219318304131835340e-01
1.748641867843876985e-01 1.918010204207419023e-01 -2.899566999297349679e-02
-2.410569853123617490e-01 -5.000381758346034156e-01 -1.315359361229369306e-01
3.425449887215228223e-02 5.809686101151706472e-01 7.846692785633503642e-02
4.320504628236646050e-01 9.795281813486855782e-02 -8.458532391253786864e-02
7.971932439649586088e-01 5.817254683731087894e-01 -2.275931761690587821e-02
8.679390349942940341e-01 1.201860654111820276e-01 -1.374456666339183009e-01
-2.803328489322288730e-01 -8.966901860186097251e-01 -2.167980265480771163e-01
-2.860004591305861932e-01 -7.616436313544847625e-01 -1.852386913135359581e-01
-2.464570129748689942e-01 7.351934297855627909e-01 1.509560013677508916e-01
9.456524771507686111e-01 -1.461668620378162378e-02 -1.785246874378124127e-01
-5.073895124382444832e-01 2.718000804801956605e-01 7.992867039132318940e-02
-4.950606487988979953e-01 -3.499704807305723531e-01 -6.354478786989960215e-02
8.334930260289113990e-01 -2.888927464065468853e-01 -2.261844058675170632e-01
4.258927297760044528e-01 5.545682942470634424e-01 2.039368595242613269e-02
-4.768550649529811336e-01 -8.528624542935511754e-02 -5.586100804052333488e-03
-3.743059091348741596e-01 8.756648651477223488e-01 1.999914179545286275e-01
-9.375451161853702586e-02 -8.425663820491898770e-01 -2.292489234880253635e-01
-4.242451114801042422e-01 -6.120887281120984680e-01 -1.327495488830200965e-01
-7.394512755477851140e-01 -3.476384296456573875e-01 -3.053190976923835648e-02
-9.029889639634234300e-01 2.007584691631513207e-01 1.163004642945420358e-01
5.081370144882255691e-01 7.104936886474374491e-01 4.503179679426581872e-02
-6.090575494594406836e-01 -1.045040661942944343e-01 7.600497212835117915e-03
-6.835804434925696338e-01 -3.161129926022716030e-01 -3.076605153744910864e-02
1.050477570369043323e-01 -9.204532103739690996e-01 -2.734379900881667158e-01
-6.913461555141092729e-01 3.646576749536755147e-01 1.255597178396300473e-01
-4.218089560563640372e-01 7.332141413999573309e-01 1.738097669302878789e-01
1.358293683098351634e-01 2.993883647149812033e-01 7.345127718832751692e-04
5.047426463891810933e-01 7.916776004068529771e-01 6.400215524597335781e-02
7.158740089343964552e-01 -2.793840415271112709e-01 -2.083830964587541634e-01
-1.786794652846949993e-01 -8.142099673262797807e-03 -2.761763442452238801e-02
-3.534253025244608604e-01 -8.919356457849764164e-01 -2.059990444234789941e-01
-9.518083824654885450e-02 -8.405478852381542687e-02 -5.603186181612144351e-02
4.798879006255545726e-02 -7.305271918156289179e-02 -7.255018763036311102e-02
1.089507867462921609e-01 -2.230038970150329258e-01 -1.148584218242406224e-01
5.302834454552868282e-01 2.921526655817693885e-01 -5.334124409196716599e-02
-4.013001938086322995e-01 7.706991848478302876e-01 1.796349178896108345e-01
3.050748397751358310e-01 1.373335336662067363e-01 -5.872622954202003087e-02
3.902944187698175194e-01 2.330771179400748794e-01 -4.821189589533227127e-02
-7.975932145370056014e-01 4.136957190027381465e-02 6.593385112485808386e-02
-1.779887117629499194e-01 -7.360298690586578596e-01 -1.937511958429057324e-01
-4.864127527462617784e-01 2.773728657787972729e-01 7.841197294056290179e-02
1.969109236708586341e-01 -8.181503314728922893e-01 -2.623103567710640127e-01
4.527413526558348722e-01 5.034052922559558718e-01 5.154328619524196388e-03
3.631135566472363796e-01 4.118136221918617390e-01 -3.827016085254508673e-03
-5.904584979231611852e-01 2.973863063079676405e-01 9.680559990613483989e-02
-6.426276403978778973e-01 -1.264582615881522931e-01 7.054082754369569129e-03
-5.593178735188807371e-01 6.000229516184238943e-01 1.617026416839729142e-01
3.937628804976638364e-01 -4.221949219761630956e-01 -1.981499295254595949e-01
-1.541380789040840971e-01 2.183713941128789526e-01 2.079168876267158128e-02
4.710069498577968417e-01 9.965537653796688322e-02 -8.937448420767044044e-02
-9.270268391230579441e-01 2.529503984997347188e-01 1.314009705284152341e-01
1.036477087113153450e-01 -7.149636287350484842e-01 -2.263767620345603915e-01
-6.043769418356634837e-01 -5.131622874110872701e-01 -8.624244894812788109e-02
-1.484789626112852090e-01 8.182589755542437615e-01 1.568826172039113065e-01
5.075695819240337858e-01 -3.152956315878357452e-01 -1.888902085913561346e-01
-2.498553700443803538e-01 8.481540092210089476e-03 -1.436585879938847600e-02
-8.128666353440929804e-01 -7.876242234694942612e-02 4.055992546986007113e-02
8.578242061851247824e-01 -1.980061754952998632e-01 -2.086856131080093435e-01
6.547719111692938687e-02 -1.191979251392769890e-01 -8.540088623300162718e-02
-6.662201261654161488e-01 2.322061284768797140e-01 9.200620709853397916e-02
1.403187584846182778e-01 7.094833370772461734e-02 -5.197263671205269026e-02
-4.119897382317248002e-01 -6.402616142055298498e-01 -1.408050015417377232e-01
3.367592878446564741e-01 -2.414005729793066435e-01 -1.493320150833439830e-01
-1.134614940584984244e-01 -1.327441161585540819e-01 -6.470900049800501486e-02
-6.024907416944046412e-01 -1.223502243552808816e-01 2.656763645237307080e-03
5.066991062856129185e-02 -4.439014246135450370e-01 -1.575024917151953974e-01
5.072556774031667937e-01 -2.605449815233914362e-02 -1.228683916560506378e-01
1.490376282574883138e-01 -6.562384290965211919e-01 -2.190132706450959310e-01
-5.700524113677863935e-01 5.579089738141251864e-01 1.535225136871285756e-01
-2.654736867278020274e-01 -5.317345368294713603e-01 -1.355212173363027905e-01
1.035796226280509824e-01 6.386321923373846632e-01 8.240712422830109851e-02
-7.585591648659945063e-01 -4.940476197552953197e-01 -6.139042222353140871e-02
2.333932600841844840e-01 -5.954594280066577427e-01 -2.163600420052602391e-01
8.935816257469723911e-02 -3.312397436056033206e-02 -6.894008662544214017e-02
-7.736500840455423633e-02 8.882735818210505396e-01 1.634025155457456413e-01
4.839887598673121016e-01 -3.192874861992740509e-01 -1.866667832335536792e-01
-5.308620478735265324e-01 8.780116359604628329e-02 4.107548239472611634e-02
-2.913739532301277690e-01 -1.778702337989565008e-01 -5.135734528047452424e-02
4.590244338768931787e-01 2.890762271427649299e-01 -4.457229663598145930e-02
2.422684333814879021e-01 7.125227300232460648e-01 8.083009620219928915e-02
-7.269672159142647194e-01 3.338918993074086461e-01 1.232758396354444175e-01
-7.827571897442938686e-01 9.339041215704513288e-02 7.582876719287741374e-02
5.184210940978969395e-01 -6.189667310178977866e-01 -2.596042179933648608e-01
-2.256056482111950257e-01 4.760408182746220761e-03 -1.843762882213401469e-02
1.055212376203092522e-01 -2.336701514375384425e-01 -1.168357425721489457e-01
-3.994022458207634185e-02 3.377611533470486482e-01 3.284868033967771467e-02
-1.028752552783438884e-01 1.750659327267438947e-01 4.099964344216531359e-03
-8.035773843463672739e-01 3.483055014656528670e-01 1.367457181622067919e-01
-3.430439430682999946e-01 8.248087077197419070e-01 1.842354979212134924e-01
-2.976300072384402418e-01 3.013274980599353059e-01 5.878607203276362686e-02
7.386908424357070402e-01 3.904319722890187694e-01 -5.862083660222956738e-02
-1.127821905014744497e-01 4.780746091428307865e-01 7.453732580419275555e-02
2.898273710423097116e-01 1.415108629218082559e-01 -5.574684489509578594e-02
-1.218858321492649749e-01 -1.111765187774707841e-01 -5.866947633571861082e-02
-5.669148532587890976e-01 -5.920082544299851701e-01 -1.092072819933355421e-01
7.240962202605433218e-02 5.477391625103992245e-01 6.581577620600509437e-02
-3.233542593597263926e-01 -5.323700782972380363e-01 -1.279735364621399918e-01
-2.392719336887320913e-01 9.497917081796977135e-01 1.989540429915507835e-01
-5.118074630217944732e-01 3.834447610944610729e-01 1.059836119047456726e-01
-2.083911656217895259e-01 -6.500272204848722701e-01 -1.700920855271156606e-01
6.727650589206592979e-01 6.728454225997057558e-02 -1.235735404638890894e-01
-8.738827274968750114e-01 6.272049666475230933e-02 8.094361661135397734e-02
5.122462699189911373e-01 -6.718618025371574376e-01 -2.708496816832723364e-01
-3.465416185164245655e-01 5.178467498036375405e-01 1.146778845697582344e-01
-5.465253659071287462e-01 1.270858635279799656e-02 2.602752049760273176e-02
-8.329498272913822277e-01 -4.840657358292030366e-01 -4.922646786038663985e-02
-2.383227134189711272e-01 5.956008730653299388e-01 1.180318200996213901e-01
-4.310598101820170003e-01 7.960345751390055513e-01 1.893695100118203689e-01
1.064576374801740333e-01 -6.054244208997202614e-01 -2.017627356462057264e-01
7.117044940161780797e-01 4.890416955502618346e-01 -3.253988954708318670e-02
6.966144279782919835e-01 6.944210432918344056e-01 1.631567372482622610e-02
-4.718678232131116590e-01 -3.528335408815904128e-01 -6.728035176165633735e-02
-7.409526484806320257e-01 2.746142078079353843e-01 1.116124820151748742e-01
3.210248089478539013e-01 -6.313636383181889800e-01 -2.361970440237730062e-01
8.078439557847545416e-01 -4.904967434459694964e-02 -1.680638155927614563e-01
6.973486865575990734e-01 -6.415993459347753003e-01 -2.885475397585651747e-01
-6.437581178097292467e-01 7.462608999189072057e-01 2.062842269293992670e-01
-5.854709826335523504e-01 -3.629694063115492253e-01 -5.449398404605476642e-02
-5.449760230770891445e-01 5.123213138521623966e-01 1.397905127775618261e-01
-7.925750110160870512e-03 1.204522715404443278e-01 -2.097753274023828746e-02
-1.494501149224426728e-02 2.400184571306849049e-02 -4.204637390281121961e-02
-8.204606659766043586e-02 -8.402358177715583132e-01 -2.302734068722842031e-01
-1.912841472692191624e-01 2.285825255577655368e-01 2.805791955810802568e-02
4.383535892200297185e-02 5.664820434361531598e-01 7.388898114733599698e-02
5.167680839256241221e-01 8.107019117025426880e-02 -9.969594934766173866e-02
4.422814674515556516e-02 3.594370606007268321e-01 2.660681416979713415e-02
8.320097734020700520e-01 4.830378160112556718e-01 -4.989871699457814475e-02
-7.958541614534265785e-01 -3.329669146383607559e-01 -1.968886028856514994e-02
-8.520332847846910918e-01 -2.220957892316070825e-02 5.866591954585537172e-02
7.934334559724364189e-01 4.438560487532886567e-01 -5.370963448074875246e-02
1.452270675970601110e-01 9.628312145721240611e-01 1.508264407152208053e-01
-1.548327373101786586e-01 3.109557028349973495e-01 4.200383633167486391e-02
-6.269627728056078597e-01 7.509454154969422701e-01 2.051206360527552675e-01
-4.726243002973608553e-01 -5.057719603349960513e-01 -1.020672831156108212e-01
1.483772811692313405e-02 8.551889796143105071e-01 1.436011702044848459e-01
5.619379043572515081e-02 2.155186868381958332e-01 -7.813356113720387741e-03
2.323262065665329390e-01 1.844321941220282424e-01 -3.831363518475437019e-02
4.744875203745622660e-01 -3.119595599668368857e-01 -1.837324082528153379e-01
4.939569686171204621e-01 -2.567145208370723020e-01 -1.737178139762761697e-01
-6.710127733282985618e-01 -3.846529388261546445e-01 -4.807132206822554293e-02
-5.909032160650503629e-01 3.457706349098937371e-01 1.079018725201572187e-01
-8.086818439944013504e-01 7.415293472499326875e-03 5.966212967883819523e-02
2.223278891412178437e-01 -7.221586395048904539e-01 -2.437913189017008320e-01
2.686487851006088556e-01 -5.746298964832424749e-01 -2.162941834551039832e-01
2.609244043304666527e-01 5.371013354968749987e-01 3.833444749071366481e-02
8.341077484399012087e-01 1.489937454294660568e-01 -1.263778467575607800e-01
-8.355119492759606192e-01 2.382567976260098197e-01 1.158862980384901264e-01
5.302992961263034433e-01 -3.319298100258351591e-01 -1.957056141440313146e-01
-8.694677350252015824e-01 -7.672466458516957744e-02 4.854737543988304344e-02
3.124966879876501791e-01 1.974288524561356728e-01 -4.600402161071918961e-02
-6.546667225403527413e-01 -6.704837490552796597e-02 2.220640194297299891e-02
5.706163624512401444e-01 9.996458517837661373e-02 -1.025426063528067783e-01
-3.345984123696787438e-01 -2.786231338420948056e-01 -6.859576663330206603e-02
4.043217784751263477e-01 -2.549834515132688439e-01 -1.614099056964355960e-01
-9.904969539572387738e-02 -8.181260520023009297e-01 -2.229699697376207324e-01
-7.975563592069950802e-01 -4.257227872855143952e-02 4.678059935151564208e-02
-8.007962228232257118e-02 1.992050905622275436e-01 6.576787126207746248e-03
-3.213389026152585481e-01 2.617290350811368217e-03 -6.203011415464947630e-03
2.155398363898751724e-01 -3.402216375460094255e-01 -1.557637789401627448e-01
-7.909550948572161011e-02 -5.305722789539982776e-01 -1.600268086009420665e-01
5.451243952262838643e-01 6.082170129820024113e-02 -1.080836384911308817e-01
2.462880795789369193e-01 4.913150802928379912e-01 2.983518941936741734e-02
3.185113973697938083e-03 -5.363461166185919948e-01 -1.722794672533741744e-01
6.831414221574938495e-01 -5.272614208632102339e-02 -1.523287956657359554e-01
7.692846863820601566e-01 -5.515755500696132296e-01 -2.775725096223360944e-01
-3.134117048869661804e-01 7.132666806785327163e-01 1.548528510350744014e-01
1.523087393489944985e-01 2.454287246063598937e-01 -1.376466576456087873e-02
-1.641465052036178152e-01 5.991419788796790158e-01 1.089811579961702248e-01
3.971146522849584581e-01 1.683029647931887640e-01 -6.389426741255185838e-02
1.576989703525257525e-01 -7.825139197253980772e-01 -2.489696829569673642e-01
-1.542774955357422983e-01 -7.954505296242890822e-01 -2.104572656755298588e-01
7.171894375595789795e-01 5.852578013820027847e-01 -1.132058061180030335e-02
-6.085394874111799135e-01 -4.697179567832558966e-01 -7.577894111573356406e-02
-2.257371157334272793e-01 8.463218362467362921e-01 1.735522103984500630e-01
3.155913342221081108e-02 7.627014235112742346e-01 1.202810475510295019e-01
9.197773199287474499e-01 1.605503951819369224e-01 -1.351275803518423579e-01
4.792229672009352126e-01 -4.697918881583311723e-01 -2.203656190677575344e-01
-3.520283787242792783e-01 4.207965596206497128e-01 9.326855034272556189e-02
-3.331491058777678038e-01 8.660724413535664246e-01 1.923332738825665467e-01
-3.510023972507674839e-01 8.451789761950803670e-02 1.642215190793169105e-02
-3.729055795646709637e-01 6.713266609403756302e-01 1.531927984118441888e-01
-4.776217107493572200e-01 -8.560651515234004583e-01 -1.813100558786897576e-01
-5.790754666391549899e-01 4.283962618289041679e-01 1.251780011655546920e-01
7.447807507626919010e-01 -5.363296779754905819e-01 -2.708379927694086753e-01
7.191030360539482080e-01 -2.913517725421101434e-01 -2.115422655228312299e-01
-3.575787675856022529e-01 7.408431271370208293e-01 1.670134920793650557e-01
-4.495339926670512132e-02 9.664540298610532210e-01 1.769289224671128091e-01
-2.259658003308534502e-01 -5.114176943390574825e-01 -1.361374735879994358e-01
9.765622105971324962e-02 7.409805582703440918e-02 -4.558404569745373031e-02
3.816190225605304437e-02 -5.433194100573083274e-01 -1.785187905897000771e-01
2.753967863070843625e-01 -4.864277450568482014e-03 -8.721923047570874499e-02
8.022488176890686384e-01 -2.601031341193261737e-01 -2.154645449024823189e-01
-2.275172695010283519e-01 -4.869844347696891118e-01 -1.303576936668549291e-01
-5.921727353249544024e-01 4.010873178386093474e-01 1.206891364490160490e-01
-4.984017399411931892e-01 -8.389696479458779166e-01 -1.746485395913748573e-01
-4.052404966319270857e-02 7.505283626485936832e-01 1.270844605868376165e-01
4.374676515781411590e-01 -7.642815771754583043e-01 -2.819934691667407844e-01
5.281310746527511091e-01 6.101320874318099108e-01 1.948053582493938438e-02
6.947246612942828969e-01 -1.250475716614377619e-01 -1.703658409105578142e-01
3.891430977535909053e-01 -2.870777327125330070e-01 -6.680057855850045356e-02
-3.318406550270467936e-01 7.376678514173918844e-01 2.627815893627479249e-01
-8.063013046823074292e-01 6.063905646176611861e-03 1.589506364919959780e-01
2.215824198473846096e-01 -2.577114646904920536e-01 -3.783194042004887209e-02
2.316937176235684195e-02 -2.566911430673026184e-01 -1.122896837697970156e-02
3.871458805390907976e-02 3.390519708330736598e-02 5.299422356356988523e-02
-3.950603321760085551e-01 -8.301458663151415340e-01 -8.645720234603639087e-02
8.164917871716101949e-01 -9.966271152135249001e-02 -8.084556415123833606e-02
5.745442186063367540e-01 7.380681937052614439e-01 1.424092115858589525e-01
4.009983016837180281e-01 4.360287275868684476e-01 9.657486785927331396e-02
-5.798423680981107387e-01 3.472873029894301133e-01 2.066909621195746061e-01
3.960403100083224603e-01 -5.039153909935605302e-01 -1.171810718014611591e-01
6.159778133975483128e-01 4.295135616265239320e-01 6.651666495305637306e-02
5.760597396564164363e-01 2.334130053944319660e-01 2.708862303623367496e-02
-3.567197919638606662e-01 5.091124540120104403e-01 2.139513673161270724e-01
6.612404684407285904e-01 -5.075347848938025486e-01 -1.532533165114394746e-01
4.854466509705143706e-01 -2.325117778398051727e-01 -6.715258253070673089e-02
-7.648831823609565372e-01 -2.817251517833133448e-02 1.456361085102090003e-01
8.397840576191000217e-01 -1.449613124260206998e-01 -9.427450709536462636e-02
1.112552260357999312e-01 -2.682307924374154884e-01 -2.556844047031470862e-02
3.059895324129322525e-01 -8.178756342955876280e-01 -1.768316962926455016e-01
3.242603436280520057e-01 -8.981305231864851191e-01 -1.975672950037746511e-01
3.852736640188572648e-01 7.110969542208159799e-01 1.614118132418303764e-01
5.455888463108108377e-01 -6.208479194833206316e-01 -1.637309278761011067e-01
-3.575477133193383783e-01 1.765522782313286299e-01 1.381996037390430532e-01
-8.912481558660694247e-01 -1.710299278771694464e-01 1.298428841377231024e-01
1.519841936203421839e-01 -3.181114394561095904e-01 -4.236005074479944760e-02
-4.910373547171869579e-01 6.762458918280591647e-01 2.699284958854475391e-01
-6.050084071328579866e-02 1.170286708482689009e-01 8.514218785330904260e-02
-7.421503434041278879e-01 -7.422716440245791247e-02 1.321090516048204766e-01
-2.621167872859939130e-01 -5.655455082345330897e-01 -4.376697609171258802e-02
-6.252265537250241145e-01 -5.547726978090588013e-01 6.949810098602682285e-03
2.296928135321691655e-01 -1.899936261631201551e-01 -2.346243679846870406e-02
8.853690735346314566e-01 2.584767951013645093e-01 -8.302931652938532608e-03
-5.687359951524547652e-01 -1.017043204221611818e-01 1.027933612492748505e-01
7.085137525868583086e-02 -6.858456108475277646e-02 2.534366168618501849e-02
3.914588205625999517e-01 -7.731388381352274353e-01 -1.779859385038427277e-01
-3.746220821617948782e-02 1.956349751773565071e-01 1.000114606423606473e-01
-1.303559892165228294e-02 6.846613790428323076e-01 2.083190402247973583e-01
7.549682115040219355e-01 5.667220130594272653e-01 7.934328864374660950e-02
1.084734574094241011e-01 -6.859414011737208217e-01 -1.204845752859336205e-01
2.943000379060368155e-01 -2.576554811380780685e-01 -4.748375453169039612e-02
5.205055561455708135e-01 -1.619332293370982778e-01 -5.571211983067984874e-02
3.039390237188672184e-01 6.329159386581395541e-01 1.543874257835715913e-01
3.230541098455869120e-01 7.591848248678844113e-01 1.806506863378939398e-01
4.881233054948473926e-01 2.735508803160069391e-01 4.793190633986448707e-02
-3.323506187200266915e-01 8.311464792276861135e-02 1.135362880973429939e-01
-8.320460161109896058e-01 -4.106657216349871020e-01 6.731018339426805830e-02
-1.580070097636257220e-01 -6.687840795056723131e-01 -8.115397261007477325e-02
9.009799534349995920e-01 2.974758479898834129e-01 -1.481456779507267030e-03
-5.298963094755529957e-01 4.668417219669125928e-01 2.273249438320009141e-01
2.533102100922685618e-01 -1.887904598957865776e-01 -2.632686336975127023e-02
-5.987970183902558974e-01 8.103945218549872542e-02 1.484751468697586008e-01
3.671787585367646822e-01 5.061318822958653652e-01 1.170612236323284039e-01
6.774540966482759385e-01 5.017767455135597743e-01 7.483039771116317684e-02
-3.285114958380848660e-01 5.770470581304676383e-01 2.256991928404226688e-01
5.662615649243637472e-01 -4.049734011375365900e-02 -3.409206602849131768e-02
-6.394742301901507053e-01 3.429359699417208751e-01 2.136237733699868635e-01
-7.162172771236827162e-02 -5.674676619321065152e-01 -6.952332343017206262e-02
5.886137463865033226e-01 -5.975890425805227002e-01 -1.641434945204892915e-01
-4.194859011369691526e-01 -9.479524804474210795e-03 1.039949887724138516e-01
2.783357480309304674e-02 2.553589164763738761e-01 1.049571770869319604e-01
1.707392798601702899e-01 7.524883415663794484e-01 1.993666280542799873e-01
-7.003447131127363834e-01 -7.093000376721442235e-01 -1.831648678907736930e-02
-4.158932440481765691e-01 -8.032284956532553810e-01 -7.754814732688741774e-02
4.109130831687597962e-01 -7.815549121560507739e-01 -1.824913491213427941e-01
-2.850012611653082728e-01 -8.136329135518912681e-01 -9.731783446306441210e-02
8.286343965315998705e-01 -4.166790245397310466e-01 -1.547754044656861616e-01
8.809219882127525270e-02 7.831318152290768220e-01 2.173411156436863834e-01
8.368033186969660309e-02 1.725353345032173691e-01 7.864156544353433087e-02
1.017745694962453318e-01 -2.269936187246181236e-01 -1.490160996378871346e-02
8.286105821572316010e-01 -4.452201654039048689e-02 -6.987782868883002374e-02
6.157309469236336152e-01 9.671110802924025307e-02 -9.367591204130091068e-03
-6.711114364488587336e-01 2.235169327128548322e-01 1.905873236498776824e-01
-4.909968446660372687e-01 7.953385184233455751e-01 2.970898671300239990e-01
-6.749214295683894811e-03 -5.815980766614803343e-01 -8.136860172832634241e-02
-1.337751090975622392e-01 -1.980011495877388172e-01 2.301788387341225858e-02
-9.159229321622932574e-01 -2.024320514082735001e-01 1.259590223755756022e-01
-1.107631897920903080e-01 6.038513614561069609e-01 2.028736555873464076e-01
4.945980275195593356e-01 -5.682227919405439254e-01 -1.449494034379688601e-01
2.052600852532426301e-01 3.356214613887026355e-01 9.968523584147724603e-02
-3.190798270810416559e-01 4.118833603296522816e-01 1.867694357065821931e-01
-7.817036544585516111e-01 1.939833233075372865e-01 1.985486134221047250e-01
3.007625983254547108e-01 5.494290847061049643e-01 1.357650286234168557e-01
-2.827658349371756086e-01 -5.011677265835363659e-01 -2.633709465846811870e-02
-5.017801000282775536e-01 4.125187087157863863e-01 2.111962726429386372e-01
-3.631260875204498501e-02 -8.037455844924191739e-01 -1.281145267829677803e-01
3.834761152669005080e-01 -2.931659900388406959e-01 -6.743622416525522911e-02
3.141673548859523768e-01 -1.261568273481504347e-02 5.772897806458693153e-03
-7.181424588189738722e-01 -1.240000316435736216e-01 1.175643544350550851e-01
6.911570873169696760e-01 -5.420195557352079918e-01 -1.650958815505859378e-01
7.219983454927758615e-01 -5.347544498371760158e-01 -1.675375840488054491e-01
-3.371208937090493241e-02 -3.367503909091176806e-02 4.720410872146349468e-02
1.439322985107547859e-01 -3.169440824228799691e-01 -4.102361704840916390e-02
3.065592232993600286e-01 3.647397550064138683e-01 9.286430966465598902e-02
-5.960024667874488369e-01 2.943197268870270666e-01 1.967560588221693163e-01
-6.212514860944029493e-01 -2.708997733573087138e-02 1.267935822454675510e-01
8.926427111809474013e-01 5.286197455728770117e-02 -5.617336192368418274e-02
-3.171351571268322678e-01 3.653793620822387012e-01 1.759027415941266936e-01
-9.103246701914891048e-01 1.364888903417950661e-01 2.025277635342194460e-01
-6.073245881257663958e-01 2.767631063928503443e-01 1.942559133550913752e-01
3.167307847979098506e-02 -1.852119715961149937e-01 3.946276299951510975e-03
-3.095170618599888401e-01 -8.513032030666163319e-01 -1.026526845508806546e-01
-2.874172905505179565e-01 -8.465649477504894049e-01 -1.045090050206064491e-01
9.121238270822531469e-01 1.698213063449409699e-01 -3.208239318192108308e-02
3.743737980966869716e-01 -2.280916482121814193e-01 -5.138207336743289000e-02
5.361949529081957433e-01 -5.852080041467890847e-01 -1.543524444931990702e-01
-8.613438651304501370e-01 -2.921995541518306316e-01 9.822788491187685322e-02
4.440092693763951770e-01 -4.232534839424310635e-01 -1.051562683670592274e-01
-5.179067003119417478e-01 5.051862314947503929e-01 2.344783953368442253e-01
-2.121717016165564906e-01 5.717185717818237256e-01 2.090214678929312175e-01
-3.361207079693371291e-01 -1.746087220980235832e-01 5.524691606731074733e-02
-6.003486119640519814e-01 -6.360675474650907546e-01 -1.490114394994722889e-02
8.437594742629948019e-01 -3.238405893469326613e-01 -1.356078198163862825e-01
5.636711691367025656e-01 -2.217681599780268187e-01 -7.509829058543844582e-02
-2.224416051144470219e-01 2.815717407864455901e-01 1.441996964541600312e-01
7.918772751507379137e-01 -5.124038347261067328e-01 -1.717263915515044592e-01
1.315442132533345687e-01 -2.494861235985468273e-01 -2.398903138982590860e-02
-6.887243585128507428e-01 5.770385005383064092e-01 2.735715776532526844e-01
7.140890361061636993e-01 3.655717944365197147e-01 3.889108137627407535e-02
2.230875088761856140e-01 -2.233470565999092772e-01 -3.019295545360852276e-02
-1.093709905359528667e-01 -9.057030891707482656e-01 -1.416626380253290240e-01
-9.545556796607885808e-01 -1.235650638616108687e-01 1.490842377328032431e-01
-2.358784093535186421e-02 -2.848677901729936845e-01 -1.144217087337970340e-02
-7.697134968473932082e-01 -1.685591585474823795e-01 1.142538554592312100e-01
6.578110760896450637e-01 1.258392825145096018e-02 -3.415090931368860300e-02
-7.923009280549617728e-01 3.662978998878700376e-01 2.392645052193068389e-01
-6.202351685553385563e-01 4.899779603001559736e-02 1.440152324311734788e-01
4.167803665616047759e-01 -4.040689591721752412e-03 -5.908874410217028472e-03
-2.649789022353724044e-01 3.982343667625353190e-01 1.764655819048471797e-01
2.326895300549906564e-01 8.631958986753893726e-01 2.163870869807921204e-01
-1.706480487593822759e-01 -3.872519881622205618e-01 -1.525235373594513791e-02
5.694723544155316786e-01 -7.362899882900678650e-01 -1.932391919457483731e-01
2.714204819397503243e-01 8.282721175403836567e-01 2.032729023688568393e-01
4.963279604242761267e-01 -5.754531830151365934e-01 -1.468286784165236114e-01
4.888926023203212651e-02 -9.039182923979214301e-01 -1.622891868865461162e-01
3.742887676066221636e-01 2.291975885967612314e-01 5.294353439608085604e-02
3.654462169659609683e-01 -3.750149883888940772e-01 -8.371089173213430712e-02
3.417187739997760154e-01 6.526390053704308469e-01 1.538653997783487326e-01
-3.341679455265062493e-01 5.833456216544481432e-01 2.278877608400459998e-01
3.966368825208990145e-01 -8.186868577152351945e-01 -1.890642961943969913e-01
6.709683987361187985e-01 -4.159273503263863359e-01 -1.336492293853125124e-01
-3.904012770161690016e-01 -1.942867346929807448e-01 5.797227217585148445e-02
-7.765375896172214132e-01 1.388333200895142394e-01 1.852814984965183986e-01
5.397126502117225444e-01 3.700989356146674458e-01 6.309940078614677261e-02
-9.481185198840942352e-01 1.282516563553549038e-01 2.056717484488212455e-01
-1.965464023961536189e-01 9.386499595218068537e-01 2.906471477569949058e-01
-5.079870934590208220e-01 -6.799852094718801254e-01 -3.719477036559352967e-02
2.302393483778598926e-01 -8.577700799968313028e-02 2.382476128371819322e-04
-6.135710837726912059e-01 -5.489035125943878546e-01 6.739578156460928823e-03
-4.421499206211401689e-01 8.272522955106600961e-02 1.280404074485423926e-01
1.229420137527295759e-01 -2.681402470715564257e-01 -2.710102627530346087e-02
8.259052632777749148e-01 -1.356512359410394497e-02 -6.245656020085389032e-02
8.036824392561600083e-01 -3.871068784005977231e-02 -6.523908844901078752e-02
1.919835669552445723e-01 3.581371721878468528e-01 1.065859207540468673e-01
1.412219035128068068e-01 1.837170512659078991e-01 7.354467525778735082e-02
2.944618668773980596e-01 9.260141919232489638e-01 2.225069560076323449e-01
-7.157082158921566906e-02 1.350493356342620521e-01 9.072422621562138689e-02
4.276308487890579935e-01 8.584544540753612507e-01 1.893966853856119403e-01
1.714100047926710862e-02 7.646781766752637211e-01 2.225613906177404955e-01
-8.180347546007046278e-01 -4.400369551494501819e-01 5.874800277925103231e-02
-2.666716269343069046e-01 2.838225844793247910e-01 1.505915678495319820e-01
-1.816541838802532560e-01 8.915855199184387070e-01 2.779318060448873751e-01
4.491537948398764413e-01 5.566438977863485960e-01 1.176887986371028816e-01
-4.491060571058530515e-02 9.135945930275661542e-02 7.721463758564520163e-02
4.565109166840641830e-01 7.045716888369538689e-01 1.504554697789101669e-01
-2.295012698496330106e-01 -8.498115547652865809e-01 -1.129469715141404734e-01
9.113512323891280464e-02 3.889222248334712195e-01 1.270117691203059840e-01
-8.927544718339235075e-02 -5.894266828705351235e-01 -7.218621490308563260e-02
6.568740282051556134e-01 -1.093582800972465602e-01 -6.184315650808799858e-02
-6.956324240389246683e-01 -2.474522793276474342e-01 8.641139480807603912e-02
7.184754889648063969e-01 1.766610867003164664e-01 -4.785175243285497669e-03
-5.017934864404062223e-01 5.853610897446769740e-02 1.304494871590682614e-01
1.753398505054379330e-01 3.924773412203454437e-01 1.166314558469552370e-01
3.601254539614749395e-01 -6.419361252106316196e-02 -1.210086857994259989e-02
3.263661097159715752e-01 -3.034377975909460234e-01 -6.218912807936730763e-02
-3.957256589901078647e-01 -8.537429522113833269e-02 8.352441974451066398e-02
2.837450098477870553e-01 5.972071283788759066e-01 1.489256275214240199e-01
-1.987921247473813796e-02 -2.219764085196710979e-01 2.411367558028110897e-03
4.301012136122705012e-03 3.273079063152957713e-01 1.244973964445638265e-01
-3.034394385712469999e-01 9.203318560804819859e-02 1.117282757090835854e-01
9.459128285206742648e-01 2.598249549936829661e-01 -1.604200600232232390e-02
-6.038153837367987720e-01 5.066654596410705702e-01 2.462335810673647873e-01
2.030174710019924111e-01 -7.504436339138541578e-01 -1.477639068150410351e-01
1.979165992721291026e-02 -4.981300951048343584e-01 -6.585577768979869462e-02
1.198188065247211137e-01 2.740475484743701284e-01 9.699496493045814405e-02
2.908126720975765661e-02 6.698074918997312110e-01 1.993330822458015683e-01
5.625042420461010551e-01 3.204329340680781568e-01 4.874073345118483391e-02
-8.408733859977033376e-01 -1.631264230090062606e-02 1.584410475074752300e-01
5.708889058110701020e-01 1.484744982006691305e-01 8.400150938733889558e-03
2.561800535146722679e-01 7.700961577846354711e-01 1.920276618202387542e-01
-6.960584207920507416e-02 -6.651078034793267424e-01 -9.206437839694003866e-02
-5.474006864078796442e-01 -7.229639162534917673e-01 -4.176054614637796786e-02
-7.978981668604329114e-01 -3.879074173934909386e-01 6.796323937872619791e-02
-6.641808345115856049e-01 2.686858104247447643e-01 1.999698833236455697e-01
-4.726767247566173169e-01 3.073162138201394611e-01 1.833300538647057998e-01
-6.244666075418338069e-01 -6.083902101376043037e-01 -5.382123215886438876e-03
-4.500577693761038667e-01 -3.248663450729583624e-01 3.611385625074395311e-02
4.614941995907470007e-01 -5.775939530958514867e-01 -1.426874143061103439e-01
7.608424234816496545e-01 -2.758967245014659619e-01 -1.136509815869230638e-01
2.353189363254660216e-01 6.045716252294564691e-02 3.292127655108683520e-02
-1.303955118799444979e-01 3.664630475024726608e-01 1.513311856605072392e-01
5.161475679423822571e-01 -1.026790543731156274e-01 -4.161618178768689696e-02
-4.228313571313693786e-01 -6.623900596298382126e-01 -4.449874290283279549e-02
1.644546723809160449e-01 1.845219108201537617e-01 7.064050835534359252e-02
-2.375301325362270122e-01 5.951938629373484391e-01 2.177468018628798130e-01
-1.052100086202485130e-01 2.074612603423170720e-01 1.117132755553090911e-01
-1.658927706134292468e-01 -3.785328597440105192e-01 -1.389539758999143622e-02
-4.326480563839994464e-01 7.516229172836278449e-01 2.793628189058241507e-01
