3.225584880196938863e-03 -4.726295418949603699e-01 -1.102733381617671815e-01
-7.666984187926514926e-02 5.810075347294086923e-01 2.211546189419383579e-01
-3.676974801847388008e-02 -7.906003069651559301e-01 -7.752941547237823805e-01
1.857533778688578441e-01 5.186793527660324976e-01 4.536088846668151486e-01
1.449736094353249460e-01 6.524920463465443410e-01 6.267018817070441061e-01
9.578975487815334644e-02 8.215346681675907980e-01 3.759641494340657530e-01
-1.720511139210345319e-01 1.333768258208370416e-01 4.187558181626735432e-02
-1.761460341927237605e-01 -4.392767934506336958e-01 -2.087599927692278534e-01
9.580662956059886326e-02 6.189318833835677491e-01 6.405743111225599140e-01
-1.325479283832318722e-01 -5.957409301723951556e-01 -5.941775297071373307e-01
3.134116026367040481e-02 5.335841713688193461e-02 -1.780548155074667682e-01
1.916448207595254360e-01 6.205323459532371411e-01 3.669915582421318101e-01
-8.452506488982348964e-02 2.802752529862247433e-01 7.692587718405043649e-03
-9.898698360214773506e-02 4.081417629922157175e-01 1.133340442748294041e-01
1.943810790456921567e-01 7.730564217031792307e-01 6.333357776146628648e-01
1.022154034357480867e-02 -1.059831894392131713e-01 -2.928233552795784234e-01
1.911574584321740211e-01 3.826386434694760141e-01 3.155572849637545141e-01
-8.136911262260422550e-02 -9.102540382701316268e-01 -4.267385828361158762e-01
-1.558752816667101082e-01 6.044887826932864305e-01 4.703402356144158469e-01
1.744059600335226279e-01 5.145592328087419398e-01 2.567135195529616221e-01
4.643543206044504351e-02 7.565134193669429408e-01 7.541565750035603699e-01
1.895666213880677353e-01 2.514391173522841916e-01 1.798671953853465399e-01
1.746604473062744467e-01 -1.526077325123220696e-01 -8.052182203474858579e-02
6.086673944780073009e-02 9.014744846886452168e-01 4.183843478330621646e-01
1.396753560071773426e-01 -8.517379735575308919e-01 -6.699023238980509332e-01
1.560597833988752736e-01 -1.182363362964997944e-01 -1.797943943598673266e-01
-5.602929048303909032e-02 -5.640133674561392807e-01 -6.124453172749864116e-01
5.825471138583317166e-03 -6.234581873641849015e-01 -2.174425380953134146e-01
-1.146951306889500005e-01 8.793942719397754848e-01 4.846819458728403585e-01
-2.278049015399945601e-02 1.822532646304973192e-01 -8.901130542792665135e-02
4.090672733189802679e-02 -6.585511443761568051e-01 -6.665123249805275929e-01
-1.394444285013632934e-01 -3.748947552945243733e-01 -4.236510272631958118e-01
5.134074522869853940e-02 2.354247476587701948e-01 3.831933101561860178e-01
-1.182955676900119685e-01 -6.233202194134968011e-01 -6.262392322797605271e-01
1.468101121967805081e-02 -6.644273055419865903e-01 -2.483378480445243564e-01
7.119641281028572799e-02 -7.755693712367081605e-02 -2.526264354416472013e-01
1.897144339801101198e-01 8.551231946959647612e-01 5.037845875812648755e-01
1.796802819453189315e-01 2.693335162351351286e-01 2.697818760615291467e-01
1.722384488788480106e-01 -2.435199528687460591e-01 -1.615346198956155999e-01
-1.466896891514061496e-01 5.045609980126128935e-01 4.460827274179069435e-01
2.003321260847632790e-01 5.619543587923322425e-01 4.096764780805504658e-01
-1.567523639220825826e-01 -5.779407182435245538e-01 -2.623693724992325338e-01
-2.086548626701909270e-01 -8.373762306802483568e-01 -6.239138647582137542e-01
-4.729403633485210895e-02 9.156275284643062840e-01 4.449150154539784907e-01
5.328916505838078577e-02 -4.458631352090509092e-01 -1.056529060461712383e-01
-3.841169375999620161e-02 -8.329118495900885710e-01 -3.632879706128727126e-01
-7.630652225195480587e-02 3.081101362793029971e-02 -1.784692783024045548e-01
1.755685963953326212e-01 -1.203105320830720332e-01 -5.508310395727149950e-02
1.757756739921346456e-01 5.294291258089111052e-01 2.690024894786050558e-01
4.707004826943905589e-03 4.282347914621512097e-01 8.195341349302708023e-02
9.907482462134749313e-02 -5.526110506026302716e-01 -5.509033433765413434e-01
-1.599317160635772839e-01 3.000605123091795723e-01 2.841408735758469417e-01
1.651049426771951378e-01 -4.473373286175528762e-01 -3.116822491656137117e-01
-7.421102915872319905e-02 -2.117188967127235644e-01 5.697246215823841692e-02
6.258225734979504240e-02 -8.066740840731189133e-01 -7.543832414056770297e-01
-4.960685800722821476e-02 8.316649511810016993e-01 3.855102212471964718e-01
8.276023019272979453e-02 1.138465656640885448e-01 -1.151188406172902051e-01
-1.583353479875561076e-01 6.277987395021799033e-01 4.158640818633960179e-01
3.545810935500554734e-02 -6.901272173447740022e-01 -2.733453813797868670e-01
-6.610702771115682663e-02 6.544259481315576332e-01 6.526607690818984064e-01
-5.405158051930952084e-02 4.185646097598136328e-01 8.979088734336941602e-02
2.788090984672878317e-02 6.181509004197091040e-01 6.577495816055224376e-01
-1.683467405074797196e-01 -1.164954207337802888e-01 -1.777676452320390565e-01
1.179835992216476531e-01 7.933410093671213748e-01 3.704556210812909312e-01
-6.188353148953944227e-02 3.577828247632381942e-01 4.533931638730128166e-01
3.695387902006617292e-02 6.545271976443146622e-01 6.829762986004097591e-01
-1.294687583178284473e-01 1.588182189311893588e-01 2.578862688810421577e-01
1.236936114229657824e-01 -6.183339835730704559e-01 -2.980127003434466237e-01
-1.333350845827611653e-01 6.069978630017520971e-03 -1.468295238238417066e-01
-1.116100590232355257e-02 7.606573670169075596e-01 3.195330615119358342e-01
-9.859461365814281564e-02 -4.134289008629509210e-01 -9.499460759689722089e-02
1.890572395794827276e-01 2.904448353184699849e-01 1.786017924510084620e-01
-9.722139321044494242e-02 -7.850381340713999956e-01 -7.562003881483816414e-01
4.669819609409246036e-02 -6.362941188962705219e-01 -2.396181786001500280e-01
-1.525090306333074242e-01 -6.393568396722144609e-01 -6.050913826174293408e-01
3.506513248759965395e-02 -7.284421686695425890e-01 -7.172759722667506610e-01
9.202357713281295037e-02 -6.645079064494255894e-01 -6.329249442078874743e-01
-2.898380809315387330e-02 3.859076997857603941e-01 5.715576165670186587e-02
2.284024869114120466e-03 -5.641715040896020383e-01 -6.138635287977408650e-01
2.925494542072185414e-02 3.725750388052287976e-01 4.845078699148535062e-01
9.415524698189987884e-02 -5.348065627044700232e-01 -5.441624492449678163e-01
-8.323964226401894817e-02 -7.592243139005453445e-01 -7.436531137736249741e-01
1.842596705209110786e-01 7.020854580359647823e-01 3.959260316973691185e-01
1.173094968546845585e-01 -2.458425704574383405e-02 -1.798139027083303643e-01
1.332745450439025252e-02 2.552117779600079350e-01 4.025203103970257934e-01
1.153090147240805191e-01 -7.626294603183451093e-01 -3.942384979308499737e-01
-3.364084845804199420e-02 -6.706590753209450417e-01 -6.908986104607007794e-01
1.359134111813049273e-01 6.698039460759315222e-01 3.026259605123540197e-01
-1.038250074874511909e-02 2.545558461390896587e-01 -3.952920832382646882e-02
1.593446330708251368e-01 -4.557415462052324395e-01 -3.684012228609452877e-01
-1.207600138814345081e-01 5.790443485155243319e-01 2.665540676100054962e-01
-1.753817403477562764e-01 1.453388411892010124e-01 7.846963819919713923e-02
1.473203043594357442e-01 -6.779012833886212119e-01 -5.422572562517152805e-01
1.365882576148742811e-01 4.679948048470006783e-01 4.990272341524419897e-01
1.106252016314413222e-01 6.102990936268595235e-01 6.254838951196378671e-01
6.844664436548579534e-02 -4.026484361991257699e-01 -8.263902125920620512e-02
-2.111426848155026348e-01 -8.574552696951688313e-01 -6.152789204076082319e-01
4.715018417471504575e-02 3.661429256287915823e-01 4.772726366103087203e-01
-1.445551438641853592e-01 -4.644258776752879236e-01 -4.842876069498200930e-01
1.716545460710751647e-01 4.587225519741178204e-01 4.408132234890790868e-01
1.467239669720075690e-01 5.168581822455771135e-01 5.238153257915334482e-01
-6.204304704952647714e-02 9.809149638186388798e-02 -1.370826967326013168e-01
1.967765631420135830e-01 4.585080694847156746e-01 3.343548873503396357e-01
-7.327615780738433449e-02 1.044098656365483047e-01 -1.269566300794283953e-01
-8.556109647085881342e-02 2.855730919434726692e-02 2.142065355036643359e-01
1.573973709749893757e-01 -4.954748350677357083e-01 -3.989884204686149904e-01
-2.152917574974953438e-02 9.956548132518396044e-02 -1.478222477942625068e-01
8.303170920460355153e-02 -6.297740776497401383e-01 -2.586228822497525504e-01
-1.829492230821588850e-01 -7.771532448808731175e-01 -6.618343009106184560e-01
1.843970882191737493e-01 1.144366452976457310e-01 1.013341682263020904e-01
-1.771963619695523517e-01 -6.423591804197545940e-01 -3.383561347751202764e-01
1.945384849229108148e-01 3.950412262087182880e-01 2.777733637823951995e-01
-1.124484263695867264e-01 -4.826297862758875401e-01 -1.519024671035476282e-01
9.679346144563567844e-02 5.767646320333312815e-01 6.095954963859219200e-01
-1.282671493878188296e-01 -2.158828405869810951e-01 1.214703610339669566e-02
-1.517518626733513620e-01 -6.427361509469561307e-01 -2.981955947944027185e-01
1.272843200469503389e-01 1.127317019431989947e-02 1.703247999077987518e-01
1.517089168131789123e-01 7.685993899360668014e-01 7.053706107786400503e-01
7.849974479712076500e-03 -6.197301683840128472e-01 -6.514189114461886865e-01
1.474434029987269912e-01 -2.458953995474803811e-01 -2.788394641028928422e-01
-2.062116980100141619e-02 -7.578325996276628063e-01 -3.099671195251232358e-01
1.840150860365669383e-01 4.900223268453983150e-01 4.356249665697588536e-01
1.629620341685532603e-01 4.941005936651607922e-01 4.838214686759352290e-01
2.365448536623924146e-03 -5.523794272842325048e-01 -1.665890184197675317e-01
-1.217760062402307442e-01 -2.899223695148311353e-01 -3.044539039812989289e-02
1.638369389210596605e-01 5.030566602682124966e-01 4.891949869240920790e-01
1.929076335262312758e-01 5.514615253952955820e-01 3.322855596709769488e-01
-1.789066827949176153e-01 1.578449569184169066e-02 3.998291023239698011e-02
-1.092040610384579780e-01 -4.331282708827099426e-01 -1.159204457917489134e-01
-1.449506121336306685e-01 -2.475685908084246101e-01 -3.215585994385154467e-01
1.293399315796417703e-01 -6.728326962855549764e-01 -5.855350616468160130e-01
-6.776509108161060668e-02 5.131844337631941144e-02 -1.680814872740659938e-01
1.722133020238111045e-01 3.029853857092520975e-01 3.179645933716792605e-01
1.751664909874198484e-01 6.262799912327792207e-01 3.288175536055173986e-01
-1.768611481942977126e-01 1.094730991552963911e-01 5.631164019823665934e-02
-6.941546960134831190e-02 6.739097501094438725e-01 2.835875717786080497e-01
1.368746554349353495e-01 -8.531226325888684459e-01 -6.794647239181293985e-01
-3.676702866573703515e-02 7.895464878635997941e-02 2.722861604046996620e-01
1.454748244444072428e-02 8.029945437176887191e-02 -1.620599877687529666e-01
-4.493937496129903064e-02 1.611181680532579874e-01 -9.852380331614604692e-02
1.599067259616402392e-01 -5.090656436350224009e-03 1.048870380603881408e-01
-5.342413858955469969e-02 6.314652370489888256e-01 2.429613166374830213e-01
1.834385998882170077e-01 1.849275431623904065e-01 9.106658944684030421e-02
-1.020926690268411652e-01 9.137825451591898851e-01 4.922571949109793565e-01
1.139435374958050300e-02 8.277824824340852539e-01 3.634495149372309886e-01
-5.698449271119410131e-02 -8.451970486103033142e-01 -3.746001985859639394e-01
-4.865473950067207565e-03 6.575505736999862072e-02 -1.730785201249518679e-01
-4.745284338244073162e-03 3.412583924010718084e-01 2.119937330281957202e-02
-2.035405262297958207e-02 6.296046474122711789e-01 2.285200886071941939e-01
-1.251594877966840935e-01 -4.676709414054792679e-01 -5.067496966033109285e-01
1.495416984476417577e-01 -1.250628309122769066e-01 -1.982513559644241141e-01
2.472122827114519791e-02 5.893465843436286322e-01 6.375175181176961914e-01
2.081463302374754187e-01 8.015123757196627174e-01 5.506117483833079529e-01
-1.496631021497457914e-01 7.045114094336477617e-01 5.538316924925837936e-01
1.762015479892420078e-01 -1.132780787812352336e-01 -9.165048402798409155e-02
2.008809697096083924e-02 -1.003859998784692037e-01 -2.874003865651444389e-01
1.256847505178172210e-02 1.840515532013069500e-01 -8.957792990842940173e-02
-1.969838200820798468e-01 -4.496964716965817233e-01 -3.133357638416304769e-01
1.652910914030253919e-01 -7.580339588740002410e-02 3.446259873503623727e-02
-5.263452679908026816e-02 5.575031610512825031e-01 1.891911921965992449e-01
-2.021627587794608549e-01 -6.020484562776462489e-01 -4.367018492568083832e-01
-1.498993932569556153e-01 7.229915662239401186e-01 5.628984410972479591e-01
1.159269489365808009e-01 -3.710693597420667289e-01 -4.109094833676886216e-01
1.141637926933008057e-01 7.048078015238024019e-01 3.076676670172106554e-01
-1.526612980212019022e-01 1.404799666299874072e-01 -1.266957915057488442e-02
-1.204930678349856212e-02 -3.962213117045338961e-01 -5.563440499801883959e-02
1.555478657605669779e-01 5.260202690691806460e-01 2.311461304441228548e-01
1.272922076840913297e-01 -7.384432094395658730e-01 -6.311887390898193173e-01
-1.506356438306335199e-01 5.801025332945390911e-01 4.793531465001897307e-01
1.326129764221421481e-01 3.852237980671110451e-01 1.094453629663616617e-01
8.980702327473805147e-02 5.798716111131135831e-01 6.154458447153151601e-01
-1.511861088064476721e-01 4.567521652633534102e-02 -8.892430707878219709e-02
-1.429246296764686563e-01 7.142619796156971512e-01 5.834672590849810936e-01
-1.831438235715235063e-01 -1.721019820977073844e-01 -1.707971207743479714e-01
-1.471887520736262778e-01 -6.785062800769890989e-01 -6.404517163802231350e-01
-1.625345945699007699e-01 -2.628200090920325138e-01 -3.048442862111014340e-01
4.555993915140563871e-02 4.184126311477974758e-01 7.902171345908109990e-02
-2.188991610130854720e-02 -2.704123382738147785e-01 -4.092939076624718120e-01
1.499817302272200281e-01 -7.417716739472206555e-01 -5.662964991685458527e-01
1.661711319833518163e-01 3.609061803579052818e-01 3.761203391487012992e-01
-2.090002906674918726e-01 -8.669258731215965241e-01 -5.745860192042210324e-01
1.290057120143019986e-01 -3.495953643813619061e-01 -1.025987477903454320e-01
-2.150186224329943274e-02 1.509711299922948946e-01 -1.114027220201624924e-01
2.988304523109682961e-02 -1.252127079303058388e-01 -3.024694366753098995e-01
-4.336044450063843148e-02 1.917575786699976526e-01 -7.714082064571288477e-02
-1.608633310237005815e-02 -4.851341396695417196e-01 -1.181790423477570573e-01
1.971118578926377707e-01 7.703436532957096405e-01 4.731132968970845343e-01
1.574523849707779033e-01 -3.764303910057604785e-01 -3.317307723991373969e-01
-1.430536386130774329e-01 7.181916901126043085e-01 4.201974615308088357e-01
1.907701283032212924e-01 5.364320488739120485e-01 3.152615819778570305e-01
-1.344818353197944349e-01 4.147365862287913374e-01 4.159366925648230184e-01
5.735030121863069624e-02 -5.321619543305351474e-01 -1.699662489987893155e-01
7.326055101283827919e-02 -5.577127153021944200e-02 -2.365511088784081617e-01
-2.105486106569794125e-01 -8.638605424722745063e-01 -5.870449134029904759e-01
-3.428405959078337922e-02 8.292269711726912851e-01 3.761724422468984419e-01
1.888908057982933431e-01 6.407130751681675562e-01 3.703382322193448095e-01
1.411126725215265110e-01 5.843020898347802694e-01 2.511531992274739222e-01
1.671530837561297778e-01 5.583368317320518415e-01 5.257520309627790045e-01
1.766137896014989828e-01 2.190530889175834883e-01 8.139712561242368194e-02
1.338600942195153076e-01 6.466721112360498958e-02 -1.009858369083279639e-01
1.184665265618166374e-01 -8.708355853107783151e-01 -4.816964554482508487e-01
1.162949581143061933e-01 -7.056469110361121011e-01 -3.526365703839355881e-01
-8.822947616530261994e-02 -8.088767213988382609e-01 -3.597084573038141775e-01
-1.592715114370941709e-01 5.167883710607973358e-01 4.068117937133795547e-01
-1.165989037726612582e-01 8.881250413689707468e-01 4.944729051336246850e-01
5.822813067947641558e-02 7.157410120147028598e-01 7.233857712963890352e-01
-1.187467775824669614e-01 9.372788516454595431e-01 5.358505071033405898e-01
3.910168595876749309e-02 5.127622998741714344e-01 1.433866829920837638e-01
-1.745915558317328031e-01 1.830467155080262309e-01 1.133972864923908225e-01
-2.014156610018466576e-01 -6.379360751783809125e-01 -4.167338891565270931e-01
9.414387862408390983e-02 5.242348416944866193e-04 1.932481166061925659e-01
-1.630603977859679532e-01 -2.274024716049030392e-01 -2.764920240768999338e-01
-5.648722093713128001e-02 -9.353335733040815114e-01 -4.372728878246200379e-01
1.246605887303700450e-01 -3.041279650722072958e-01 -6.214156647534289230e-02
-1.515758105905795350e-01 -5.235440588686044450e-01 -2.195850046053172688e-01
-1.271562839508720844e-01 -8.084181016162318434e-01 -7.546192756667255974e-01
9.538365220427519331e-02 -9.083994399450376900e-01 -4.768223583340349681e-01
-1.650354418595018358e-01 -3.452745937134752974e-01 -3.635671053800828556e-01
-1.470192484028442492e-01 -2.492767491503966593e-01 -3.377685311965777232e-02
1.440623720719805823e-01 -4.521798099493687939e-01 -2.091023327805585363e-01
1.346136105483098366e-01 -6.608423659587825405e-02 -1.855786921783603438e-01
-1.850813842928415720e-01 -4.766791955383952728e-01 -4.195400786470262489e-01
-1.694198790623580586e-01 2.535618854768910135e-01 1.356715945139960466e-01
-2.028317355713856462e-01 -6.220160353675887599e-01 -4.514768542333359447e-01
1.692152395241293406e-01 7.720957119223373910e-01 4.118569180540712638e-01
-5.168785729813320240e-02 -3.916032625027244807e-01 -5.820461101812397786e-02
-1.696139475727855561e-01 -3.544646120157114444e-01 -1.410819059834877154e-01
-1.150718677714791249e-01 9.037035052857312900e-01 5.037870909684073473e-01
2.037950813813740047e-01 6.644228895500980947e-01 4.851288382337483052e-01
-2.947740592286337072e-02 3.689152589085782918e-01 4.517792065252399653e-02
2.022917905602061861e-01 6.943809618690013341e-01 5.333159414987501679e-01
-8.541875935935291930e-02 -4.404654008444449653e-01 -1.055710366575814685e-01
2.091106743170467464e-01 8.099040864666526840e-01 5.722558500380271473e-01
-7.441887713895722900e-02 -3.583122555879615923e-01 -4.596257966848748544e-01
1.538561562512687220e-01 -7.618867031170795112e-01 -5.413741567424152912e-01
7.745501803289485399e-02 -4.682410657552573685e-01 -5.140903761846237208e-01
-7.129745355719127597e-02 -5.699008659170684554e-01 -1.880641407810959287e-01
1.824829624892198854e-01 1.895819016116358779e-01 8.820031336945063916e-02
1.846339486471209324e-01 2.649285103633423621e-01 2.462087691168095283e-01
-6.032858722115021222e-02 6.778844622047925927e-01 6.725640956871621334e-01
1.551388596582771173e-01 -6.227912687128569491e-01 -4.771498841731396379e-01
-1.443809284428292650e-01 1.760020165256981906e-01 -1.391461015913820045e-03
1.927081862315543903e-01 5.691363327466485433e-01 4.713734864185070705e-01
2.017901511927401303e-01 7.597157459041987693e-01 5.949782341788022455e-01
-1.454537307852910299e-01 -7.585575857990944915e-01 -3.675253524696828200e-01
3.279079805778377377e-02 -1.028945487927392273e-02 2.127766052925226248e-01
7.538223930784909363e-03 -8.768222698237333745e-02 1.611917274448670390e-01
1.137133013134795229e-01 5.117999796862189310e-01 5.516037465990643041e-01
5.101649088064883278e-03 -7.675505245654092867e-01 -7.548053182818225126e-01
-1.945723940152974674e-01 -4.297017970924989494e-01 -3.356135687570377946e-01
-1.883255724752412874e-01 -5.647606922104653204e-01 -3.179916663051982062e-01
-1.955207674447988486e-01 -6.315930983571684809e-01 -5.111816692121503580e-01
1.221577150650306198e-01 7.287847889397183199e-01 7.035759139788059224e-01
-7.741246100276659436e-02 -9.671825962133711041e-01 -4.647082014634881242e-01
1.055824557909494366e-01 7.942121709736292834e-01 3.627702607085454556e-01
-1.519671637173465317e-01 -3.342209840199456550e-01 -9.645796086013329329e-02
1.928439234575588523e-01 3.535279342375989287e-01 2.418565725053467563e-01
-9.477309899118548098e-02 2.832175300284175967e-01 1.780309814848244840e-02
1.101397576950760848e-01 -8.134746136783052028e-01 -7.087433776240911198e-01
1.339248891424948962e-01 -7.491356974752427789e-01 -6.236221762544326142e-01
1.356765947735841527e-01 6.281242688376837968e-01 6.182505954724264452e-01
1.651312088585843441e-01 -2.302024535023304563e-01 -2.191833359706922835e-01
3.613309891986486028e-02 7.008238578876763158e-01 7.156925123320699855e-01
-1.903865387615465837e-02 -4.189395594490115116e-01 -5.139972732662111410e-01
-1.276905382343803963e-01 7.699991124036879020e-01 6.550837480148323788e-01
-7.194656915376133888e-02 5.540670637345190830e-01 5.803952151220402866e-01
1.658296162752404268e-01 6.842924962722041204e-01 3.496130186280642649e-01
4.672858489352017808e-02 1.074251544510295003e-01 2.932081384087652509e-01
7.577756706520802354e-02 3.520872293194092228e-01 4.401898313782230676e-02
-1.909824840154057332e-02 -7.682676178194033367e-01 -7.592172097483554927e-01
1.347988454263253019e-02 -1.897952947147858171e-01 8.860284114540931122e-02
-1.021753714364200122e-01 5.822333592258333024e-01 5.713754362066301162e-01
-2.653128205988988450e-02 3.696586470277730685e-01 4.495009588160296665e-02
-9.696382920195713295e-02 6.717482866792627849e-01 6.366718544477986130e-01
-5.265415464100568071e-02 4.656071640747960760e-01 1.229941875687824288e-01
-1.491205400276406634e-01 7.643507156846356398e-01 5.888061408113622885e-01
1.112136713911307806e-01 -4.232009799410333187e-03 1.757245049205030940e-01
-7.890492561865269927e-02 5.607865970561180108e-02 2.373152827038114698e-01
-5.264842304128321271e-02 1.560364711233588053e-01 -9.940215547382921790e-02
-5.411357636490409656e-02 2.256759056831140198e-01 -4.885235310725175722e-02
-1.802589885005102810e-01 -4.129343396154426249e-01 -2.031291625389518851e-01
-5.997371771046600131e-02 5.775383733420098586e-01 6.044816546760498621e-01
1.389203730787595681e-01 1.699327386811418372e-01 -2.511338042203142829e-02
1.528722473800960269e-01 -4.631362740593511496e-01 -2.415058947528263555e-01
-9.471596307989132990e-02 -5.236389024648988588e-01 -5.689568089454446476e-01
8.887715533162793280e-02 -9.269575832190296572e-01 -4.832370977040010285e-01
1.816178098306199529e-01 2.813330202022558055e-02 3.512293836512765666e-02
1.564841033186621655e-01 -2.696016109563537100e-02 9.540736245935663162e-02
4.296082112209254067e-02 7.124215833154092792e-01 2.833075229053609867e-01
1.364737752174016161e-01 -9.334121616183028713e-01 -5.724522038637324117e-01
-4.576552429518624537e-02 -5.576291878832176918e-01 -6.098415553050512417e-01
1.973954684012068916e-01 6.689793690128056358e-01 4.165409910165508989e-01
8.491975458535354349e-02 -2.359041977889111408e-01 2.764841448142546856e-02
1.901676987618152945e-02 7.598478570904675378e-01 7.570260158869663858e-01
8.602114766516297251e-02 8.164157797773038405e-01 3.678178753724115624e-01
5.680212703122573120e-02 -1.031059059115667920e-01 -2.775500619841280159e-01
-7.611957770553597069e-02 3.524885981396791435e-01 5.444019753102816855e-02
5.501768845837768512e-02 7.530926884671798049e-01 7.505086829600694509e-01
-1.234232834226046960e-01 6.380893950962010508e-02 2.031408957581599950e-01
1.115028285667893360e-01 -1.101420981320967440e-01 9.740084259310442805e-02
-7.219756210297052779e-02 -6.196263608329415362e-01 -2.227158538247483999e-01
1.494095690457373782e-01 -4.554330015475793192e-01 -4.037419240518637098e-01
7.882081169070295767e-02 -2.055332688025558741e-01 -3.350193108723540925e-01
5.022407408764945069e-02 7.109979413891612809e-01 7.214395935674666749e-01
-1.211395510123071534e-01 6.260438062683196803e-01 3.026741367121060788e-01
1.073952083561878750e-03 -8.221799556720934543e-01 -3.575856105057100831e-01
-5.679956702206044594e-02 -8.451990210491473476e-01 -3.745628907438295907e-01
-5.873998353913006260e-02 5.151497391549567650e-01 1.618283782708040131e-01
-1.979931013620388203e-01 -5.066852670730160879e-01 -3.352386029984677496e-01
1.222040719506576750e-01 -3.649006355086135134e-01 -3.985029762257541464e-01
1.890328597977916913e-01 3.023593899589273049e-01 1.834688077833151187e-01
1.784157639279464747e-01 -5.432538970527014954e-02 -1.604965508314144806e-02
1.013580032847006956e-01 2.944974809178167452e-01 4.021674806649943035e-01
1.280592457755383162e-01 -5.579989651243162374e-01 -5.145977664769357807e-01
1.370453530126299613e-01 -4.840290315328121262e-01 -4.505716005416351977e-01
-1.643058713110680524e-01 -9.245461580463075757e-01 -4.998656561105225826e-01
-2.006038817869717494e-01 -7.099953128495816168e-01 -5.561458773374953202e-01
-1.588501936317997798e-01 5.693879811865919516e-01 3.611403188649096596e-01
9.908398034541751609e-02 -8.898386889675165001e-01 -4.674765375184468108e-01
-1.779999230228884732e-01 -1.794629169334151508e-01 -5.760224115904084147e-02
-1.008156447940185690e-01 7.955886608829823015e-01 4.023153381279122032e-01
7.608153208429614678e-02 -6.439364415481994008e-01 -2.633551182342845354e-01
-1.515358548772789693e-01 7.018985238953874273e-01 4.385634475436136492e-01
1.593015508939895145e-02 3.081138543825211462e-01 4.397190813173230128e-01
1.534043821008053976e-01 1.480758905908810541e-01 2.361670194043724580e-01
1.483935848453014628e-01 9.523825258646442249e-01 5.039898121493837646e-01
-3.451333532348817290e-02 -6.870034274755822956e-01 -7.023804884018594041e-01
-1.988948724865543735e-02 -4.686825721351810525e-01 -1.067470365217392109e-01
4.104088341267795453e-02 3.775839436371899449e-01 4.865567088358322412e-01
-1.864362161265109008e-01 -3.032092618123633510e-01 -1.617404064214046366e-01
1.809490554188397660e-01 4.712109407922993043e-01 2.454985706264000977e-01
-1.399495065301305519e-01 -7.578235038415493952e-01 -7.065426160960104340e-01
1.003933182448455003e-01 -3.018405663268493022e-01 -3.822141113726781891e-01
1.436123510271010151e-01 -5.398898557284131927e-01 -4.706869293070257143e-01
-1.436237629149735850e-01 -9.269045023949241957e-02 7.324060803733270508e-02
6.003926187299796213e-02 -3.063431135172369202e-01 -4.152916977685052191e-01
-6.768544897330511234e-02 -3.110951221513586495e-01 -8.253108622189624793e-03
-9.500171494731469990e-02 5.302214131779054984e-01 5.444404365422575998e-01
-1.570343558809568774e-01 1.766381908533538603e-01 2.571769519810148882e-02
1.501906255798412249e-01 -8.684489701738512535e-01 -6.147367765996061273e-01
-1.750019790371778183e-01 4.115445484416321159e-02 7.733005515160533416e-02
1.908737626956599487e-01 2.896936736716720917e-01 2.153066620962613420e-01
1.642265843220458432e-01 -1.071685050144327161e-01 1.230187750517235112e-02
-1.714800178239292983e-01 2.325109272042869546e-01 1.308899529384115190e-01
1.422406304069774585e-01 -3.926289662437693062e-01 -1.587332189667661209e-01
-1.096620599583634503e-01 1.084368038659908329e-01 -9.727172848749945921e-02
-2.084863359462887922e-01 -9.129856822307274022e-01 -5.941557300888637982e-01
8.454253018411958531e-02 -2.543688517415311212e-01 1.447045265466096776e-02
1.557854641234831528e-01 4.339325118165124895e-01 4.494218848743515293e-01
1.913955444653467619e-01 7.331478842514295158e-01 4.332497141848724032e-01
-6.076187406900869503e-02 4.628840073418497014e-01 1.251751412387367701e-01
-1.713921374535278541e-01 2.488443926045641741e-01 1.470430696660797731e-01
-1.689854295683964336e-01 7.487409595332496226e-02 -2.110970682611752053e-02
-7.124208163494996637e-02 4.516083760739144637e-01 5.113987375963580106e-01
-1.673485824715820469e-01 1.511786306546905045e-01 1.714974053384820951e-01
-3.207526646333858089e-02 7.533344727613644487e-01 3.208049859850999330e-01
-6.616581113462988162e-02 -2.847555461482677019e-01 1.052467328071107766e-02
1.550015823396642123e-01 -5.707655053857664251e-01 -4.508175455302080303e-01
7.459052108188562145e-03 6.803460549557682757e-01 7.002019491038047327e-01
-1.346916116441860822e-01 2.775341299249496352e-01 5.968269657180480525e-02
-1.771396793342424891e-01 9.739273207407002711e-03 4.951203799383754878e-02
-2.017520980453563761e-01 -5.909602561113467267e-01 -4.294578647838944163e-01
1.302221879399775295e-01 3.962529275394757744e-01 4.525563608541909311e-01
1.813431744703839221e-01 6.948545678622023436e-01 6.039246859862600347e-01
9.857953592650578467e-02 2.688707885707668499e-01 8.415263808666697924e-04
-1.417808962896356662e-01 5.262661773750555438e-01 2.644183384821684468e-01
4.991813102810643832e-02 -2.089370504139289597e-01 6.601257728651689638e-02
1.739788935249785284e-01 -1.836662594377767299e-01 -1.086337712184755611e-01
1.481651881731730347e-01 -2.496654512042357499e-01 -6.010778963491968802e-02
-1.287749285265824550e-01 -6.103317461254630094e-02 -2.025446958669453179e-01
1.565068023217616178e-01 5.040106837258497841e-01 5.012445764235687884e-01
4.192581065703390730e-02 -9.637157203843470521e-01 -4.733038823656627869e-01
2.047336225903793328e-01 6.959031617660108582e-01 4.808120771645435498e-01
1.329970431283543364e-01 -2.983452926738156541e-01 -6.993274066714064152e-02
7.935995390052666409e-02 -4.877856818020197549e-01 -1.518736968162893164e-01
1.215974301694672938e-01 4.190394566258633380e-01 1.209548900049987746e-01
-1.751859315469141698e-01 1.331575745795656462e-01 6.311535059689153682e-02
-1.160944341702254828e-01 9.364940459825213948e-01 5.305234929435586055e-01
-1.893115010612097526e-01 -2.320287746167833398e-01 -1.580921050350496404e-01
3.817532245785280193e-02 -3.497362669461830942e-01 -3.057231302970515527e-02
-1.010027065551047654e-01 -3.129068243234598978e-01 -4.124711910855568542e-01
8.058821459151023492e-02 -3.291607687050322473e-01 -4.175920400205314076e-01
-1.702469132613583791e-01 2.360826755409540234e-01 1.248253953846177322e-01
-1.111944380646177621e-01 -1.594127491600261515e-01 6.697943022175766037e-02
1.013257005847241071e-01 4.085421853590281427e-01 9.755535185791040786e-02
4.900251553316137959e-02 -4.099332960102115009e-01 -4.919552446648130517e-01
-1.619201805603419364e-01 5.250582217767276738e-01 3.898895816259865810e-01
-1.789339516148054365e-01 -2.069977514150184855e-02 2.358841114455020177e-02
-1.035369200238013543e-01 -6.394081885993083691e-01 -2.519989996093839890e-01
-1.509962137197490561e-01 7.872137729827021202e-01 5.894757625893241038e-01
1.400366116618617096e-01 6.178638835777761074e-01 2.722751125315022169e-01
1.163436928553421706e-01 8.632858783620329657e-01 4.167513212216371610e-01
-1.511724443572289023e-01 1.487067124548283603e-01 -9.390983312293791838e-03
4.149049607859415373e-02 1.802288656299122493e-01 3.463367539966309971e-01
-1.312510423878331112e-01 4.489135746908091140e-01 1.843662007156418314e-01
-5.945201288149774138e-02 -8.654733091982109716e-01 -3.892400022150611649e-01
-9.476947982459728304e-02 -6.146611513378619218e-01 -2.298667536259031974e-01
1.869942503417274804e-01 3.597432336532255803e-01 3.173442964331684712e-01
4.833965626560186163e-02 7.461219259250476687e-01 7.465751091358092673e-01
1.955581333125725740e-01 8.504177303899145279e-01 5.158882398564065275e-01
-2.907858201202349543e-02 -3.318001844525915178e-01 -1.178805076957519654e-02
-1.538969174551068075e-01 7.821743131616976097e-01 5.439868945931660704e-01
-1.186659120109029714e-01 -5.243110969936817245e-01 -5.536777760844032725e-01
1.456007779387553658e-01 -5.711923686677119472e-01 -4.844729220436234662e-01
-6.838837925881385837e-02 -5.093330286777529858e-01 -1.451665532177690288e-01
8.296997944469171327e-02 -7.672940480074320613e-01 -7.106594055164886514e-01
8.227716888952087138e-02 -8.833667611429761868e-01 -4.443027780577268882e-01
-1.226612617518967469e-01 -2.103604495939007946e-01 -3.197006370603739378e-01
-1.010366141207860169e-01 -4.368680327326961432e-01 -1.125672794581781821e-01
-1.543606192675826272e-01 1.898451139537196131e-01 2.966755382096648158e-02
-1.912303210841865553e-01 -3.128639904496423596e-01 -2.460751434074499311e-01
-1.088491994213828112e-01 3.665714867449470504e-01 9.262331217159365526e-02
-6.383890334857257598e-02 -7.154500278700945959e-01 -2.861990433915018173e-01
-2.083949360060065314e-01 -7.974834116520889138e-01 -5.424358181353650110e-01
1.607168336441039402e-02 -3.586879320458704057e-01 -4.680354218867422422e-01
1.495946471736406824e-01 4.383829414876259101e-01 1.654315280586900194e-01
1.226974494030831225e-01 -8.606180217847326785e-01 -4.815954507588607325e-01
5.495734414206376178e-02 -8.716085036871931147e-01 -4.142644488443333883e-01
-1.915020359190632293e-01 -7.445533759571874022e-01 -4.353453696306694432e-01
1.389778084314486628e-01 3.775985492895578832e-01 1.117170126677436565e-01
6.604156483779217990e-02 -6.225424489838647935e-01 -2.406207304981155259e-01
-1.705830217559270445e-01 -1.910445014549289888e-01 -2.311579512055039476e-01
-1.330494962149571525e-01 7.480216549383098545e-01 6.298171531007167312e-01
1.562034784559191702e-01 -2.380722442664360283e-01 -6.997801489816163345e-02
-1.959505445500781678e-02 3.103345938504213364e-01 4.374051475778346076e-01
6.229317354415278563e-02 -6.391979832805028128e-01 -2.503089090217057722e-01
1.751475289684654990e-01 -1.479651820274145158e-01 -1.135017157795581294e-01
-1.533910153872123650e-01 7.236619702549096367e-02 1.618174725227154997e-01
-1.212958303933888288e-01 2.310979791863973787e-01 3.162004647686865177e-01
-2.051922681985539898e-01 -8.633809194968157241e-01 -6.676356156237324146e-01
-2.490750403495020637e-02 -2.594465717967081586e-01 3.932010096699977558e-02
-9.318670918933250058e-02 5.761647145716245477e-01 5.769596114952751931e-01
-4.647171854950761516e-02 3.421294547484998727e-01 3.160733009901043472e-02
-1.694600959049047950e-01 2.236808612091868709e-01 1.085136006442067175e-01
-1.826515192670644383e-01 -1.319203515283786932e-01 -5.349791060825671851e-02
6.262186259516181429e-03 7.008140415817746272e-01 2.742186662701271427e-01
1.508927296310138833e-01 -4.343739661793727391e-01 -3.868204053455794322e-01
-5.846022981174320982e-02 1.884242742162210438e-01 3.392634078029022060e-01
-8.585251321507156308e-02 2.949080225733639038e-01 3.944488372417649935e-01
-6.308147077999622099e-02 3.702454988607559727e-01 4.612097673841135115e-01
-8.674188470335977841e-02 6.277262125342583099e-01 2.635725212281760377e-01
1.371136614983852753e-01 -8.624152429121773045e-02 -1.950003493654687836e-01
1.308790371966035981e-01 -7.069114304250427860e-01 -6.039675073602396305e-01
-6.671724766038594767e-02 7.929653860274465949e-01 3.683649327500538861e-01
-2.031428734396388200e-02 -3.237273052592060107e-01 -5.157738633555272734e-03
-1.578168018197940170e-01 2.853425610479958796e-01 1.146172036326523203e-01
-7.861401517765236047e-02 9.357249468514571011e-02 2.630339504035125731e-01
-1.604112057912402689e-01 5.557090195729673665e-01 3.604523655515161074e-01
-1.865620539333685546e-01 -2.145170027885766884e-01 -1.881576595438637367e-01
7.543726939943626308e-02 6.391088986623426615e-01 6.639731248720799339e-01
-1.469335230039437168e-01 -9.692148336981021295e-01 -5.095502297459226781e-01
-1.685201085303875412e-01 -1.878904609823868477e-01 -3.478666339009674202e-02
-1.370265545376540550e-01 -6.128293192940343914e-01 -2.615133899016260921e-01
1.761155833502169310e-01 -1.333047333004614698e-01 -8.870613856291198474e-02
-1.929984548044428039e-01 -6.148580362794060505e-01 -5.066586294068532448e-01
5.063314237807638868e-02 -1.639447458838751426e-01 9.798316293365903762e-02
5.726097168486765643e-02 3.545845874056553493e-01 3.814571691544944160e-02
3.267192084724799411e-02 4.684636320800472098e-01 5.519406022196107209e-01
1.312287429907355203e-02 -5.120053713888854663e-01 -5.753054875710545968e-01
-2.082541192101255989e-01 -7.713756034275844886e-01 -5.400839191001671757e-01
-1.175300488298644808e-01 7.356671252067873423e-01 3.801239479832810852e-01
7.238757586502547747e-02 1.795029401607805275e-01 3.354721948642552243e-01
-6.449395456047798958e-02 7.723589213399593145e-01 7.337799131818911746e-01
-8.077509773552318806e-02 1.683839533947632250e-01 3.124713088292934704e-01
-1.501753346578540427e-01 7.705127828286800762e-01 4.922920902100115792e-01
-1.214584494101365736e-01 6.126692367796917615e-01 2.930378878689252065e-01
-1.166117829691000335e-01 -1.924894014067994874e-01 3.977234519737192497e-02
-2.220038563915420829e-02 -9.354530992341764106e-01 -4.350385420598706365e-01
1.311293680424040486e-01 -4.341609532817772843e-01 -1.701106998671779169e-01
-1.537613262226290300e-01 5.093131710650956184e-02 -7.985220141212051592e-02
1.649022643313608760e-01 -2.823277667056246516e-03 9.422650591720836688e-02
-1.124483316251729537e-01 -7.748394690568649601e-01 -3.499775100424868390e-01
-1.608790420279663513e-01 2.221757611656829667e-01 2.351461562945243167e-01
1.620660851838851280e-01 -4.699421737947883648e-01 -2.893754711401140822e-01
-6.110363973402137272e-02 7.716888267026442705e-01 3.490377209763454447e-01
1.272167453221999256e-01 -3.300032416175526645e-02 -1.738345272947070808e-01
1.793133839803359997e-01 1.210851422241470410e-01 3.620366854895033099e-02
1.479702413254492532e-01 -6.457809927863412680e-01 -5.213520909842919160e-01
-1.692927721265491681e-01 1.567026148346044659e-02 8.611468946473793684e-02
-1.719177517892939155e-01 1.190091854658641007e-01 1.339139978329043912e-01
-9.204549591901517447e-02 6.052614883603060075e-02 2.311713647072488886e-01
1.637381344246428561e-01 3.864035087964090009e-01 4.002708285052500869e-01
-1.413553551807831266e-01 7.146471596118441072e-01 5.882985978084720458e-01
-1.589980112837285353e-01 3.334858525891401526e-01 3.068427990764807656e-01
1.908679974758032416e-01 2.970043544762535626e-01 2.021589410432817480e-01
-1.577369359161670814e-01 -4.469882022032385938e-01 -1.785719045689893036e-01
8.014161369672481716e-02 6.697874410570712200e-01 6.842203607491038619e-01
2.060352811115663263e-01 8.670361702926282499e-01 5.638253190426761874e-01
8.156046209122741822e-03 -7.557784041419586263e-01 -7.458523979992441877e-01
-2.117599483779581404e-01 -8.745794803746821389e-01 -6.268088126600960264e-01
1.369618430723713032e-01 -7.271415616593317477e-01 -4.084935776695984844e-01
1.744893692827134968e-01 -1.080867161173745816e-01 -1.065010147297231896e-01
-2.389493445806600835e-02 6.194459803690729460e-01 6.504871469311074295e-01
1.981016773675417508e-02 -5.307471648954319443e-01 -5.865393666019542707e-01
-1.070809661578308314e-01 -6.584810069935641552e-01 -2.672779125202497941e-01
-8.999140728354738938e-02 -3.781388207597972673e-01 -4.664270291549292291e-01
-1.416727791842594952e-01 -1.418310761213668336e-01 4.407940069623401957e-02
-1.127121050443132821e-01 7.441826513810998467e-01 3.793940428781814589e-01
-5.550856367492831844e-02 -8.863823330797707678e-01 -4.029831064510014937e-01
1.289047327746201121e-01 -2.515189043529641455e-01 -3.148577827202524437e-01
1.721807493674926137e-01 2.978011721330559025e-01 3.139582812522055399e-01
7.719983717210336660e-02 5.822507272068704332e-01 2.028603826215790995e-01
8.636173191057287812e-02 7.381617438532909192e-01 3.141607317677960753e-01
-3.966514454403488599e-02 6.054232193210603574e-01 6.345334526301873446e-01
-5.844671210772419551e-02 -1.760975696245603017e-01 -3.351148369770329816e-01
-1.948916635890424187e-01 -7.778251470205108653e-01 -4.651198967571878451e-01
8.154250215014932635e-02 -7.212655800743028589e-01 -6.811443512366864850e-01
6.431086702445655556e-02 1.122637612567083387e-01 2.906613073822887916e-01
3.383843160339481543e-02 2.959721145339127557e-01 -8.666705182289466750e-03
-7.369110729318385788e-02 3.077093352131587967e-01 2.040207632300203647e-02
-2.807098551175096074e-02 -7.270223123562903345e-01 -2.883987389175391991e-01
-1.452537431955235325e-01 6.635793090834278818e-01 5.461243505552239030e-01
1.741769953995687126e-01 5.304146586954340548e-02 1.102157540809766828e-01
1.450203714809274180e-01 -3.013349888031316981e-01 -3.188440088374144832e-01
-4.956446463658011753e-02 -2.520066821499175047e-01 -3.919449005091387161e-01
2.860864379367379293e-02 -2.573010361536252552e-02 -2.336692059731539095e-01
-1.920995216903115532e-01 -4.612220214931304629e-01 -3.801975958072624784e-01
-1.270869738844028207e-01 -6.747629786941637953e-01 -2.935629307174794089e-01
-1.315426449324934854e-01 -5.256001294852418182e-01 -1.976954713854074674e-01
-5.470772863193786029e-02 -4.871668658268643037e-01 -5.580870014770432652e-01
9.401272177684472098e-02 -5.950648123469998163e-01 -5.845426293538393825e-01
1.491666016756293955e-01 -8.072467271324096361e-02 6.847155434610542601e-02
-1.347146991063754851e-01 -5.800212547799832308e-01 -2.372466465732020469e-01
4.657214039888191159e-02 -9.568672610539449286e-01 -4.709541360718170755e-01
2.017215832859349522e-01 6.161441497083866015e-01 4.580534563675124904e-01
3.043319225180631665e-02 -7.167310056285842723e-01 -2.904706954940999286e-01
-9.996794728148705733e-02 -7.994756331432809615e-01 -7.652497976471714924e-01
9.697000286264047253e-02 -7.101665140402504406e-01 -3.313168553365581914e-01
1.531381551715492451e-01 -7.256591916973901268e-01 -5.388396516488962451e-01
1.140808673230751247e-01 -3.388363580983973500e-01 -3.919284992047571969e-01
-4.383790016454190697e-02 -6.256471184942324903e-01 -6.582713414094987225e-01
4.027720391857182031e-02 1.552866131730027410e-01 3.288691572606155522e-01
1.510524957138740243e-01 -8.073017052281556971e-01 -5.333660266427154850e-01
-3.186264045609892709e-02 6.322301945986057436e-01 6.563465860574638766e-01
-1.741189699645416256e-01 -1.745678184921616027e-01 -4.188850525557424875e-02
-2.168256616020160579e-02 1.654716495240661500e-02 -2.065788930335082652e-01
1.890386101889272030e-01 7.302237237577284823e-01 6.137880705037672691e-01
6.623777807984677912e-02 5.199024954741346960e-01 5.818078804924808889e-01
4.314473099382684640e-02 6.372782955848681485e-01 6.701969119348778481e-01
7.421352244249643237e-02 3.621251573392836320e-02 2.313728901619278855e-01
-1.570952156579814019e-01 6.874990436776158287e-01 4.722572167884356298e-01
2.014568946604802235e-01 8.204849491266811290e-01 5.179270062044251111e-01
-8.970567029811751802e-02 1.762461300409371712e-01 3.112307263421320025e-01
-1.989086506921656228e-01 -8.157067065131801131e-01 -5.003020747893210940e-01
1.411795713546081486e-02 6.831524063603275354e-02 2.708451019315550878e-01
1.821962871194335587e-01 4.130755431286494556e-02 3.102896088428783866e-02
3.366368499195082631e-02 9.259830300118808699e-01 4.319693093988654087e-01
1.936506231898198205e-01 3.763966205364440154e-01 2.839299307929937233e-01
-1.441156007687485197e-01 -8.528863151050024571e-01 -4.289983454916898031e-01
1.641084521915125993e-01 -9.380082693241513503e-02 2.346721611115608688e-02
1.522986977595748581e-01 -5.592484563912940576e-01 -4.557704634977335356e-01
3.223668536370973697e-02 -2.793233400034904057e-01 2.146941496050812012e-02
1.544875659616390118e-01 -5.653158134818637715e-01 -4.502200263240599964e-01
-1.940626327947932717e-01 -6.155474290820417416e-01 -3.672607368635973923e-01
-1.102457878642026379e-01 6.560090054151735961e-01 6.100433233534255928e-01
-1.618013568605128905e-01 2.156703214911178095e-03 9.903466969170911238e-02
-3.946719962737708920e-02 2.114910130591989706e-03 -2.135243948164850247e-01
1.491618595810051129e-01 -4.927749322328205950e-01 -4.269886781141103982e-01
1.462420432294681827e-01 -3.102073908836661120e-01 -1.031018240745204817e-01
-1.410986852126195901e-01 -2.246006366853814384e-01 -9.322350160708337344e-03
4.756603755713101345e-02 -1.781310644576311331e-01 -3.331753334059161520e-01
1.041756291000098256e-01 -7.869676939792902282e-01 -3.970074311873914019e-01
-1.802578121385293997e-02 -1.092684853678105583e-01 1.451419153461693257e-01
-1.547746415447284751e-01 -4.206929119823952234e-01 -1.569415100701822829e-01
2.302896454992589548e-02 3.090401142702410911e-02 2.436006511617033743e-01
-1.024785146938776981e-01 6.227928195276136725e-01 2.756854218207943630e-01
1.886247775360672119e-02 -8.178565438011151656e-01 -3.588613002790311812e-01
-1.759012206537983181e-01 -3.799359662500280121e-01 -1.714810344812877085e-01
-9.448263305299843540e-02 -1.127214167567122255e-01 -2.713524492243882258e-01
9.404390111323757129e-02 4.462994048726874885e-01 5.168285491272225363e-01
5.759174558591008408e-02 6.532326512449408984e-01 2.451286611165551244e-01
-1.354608331527855369e-01 -3.168195641999075884e-01 -6.302763041267152311e-02
-1.496378037625926694e-01 8.206818842776772982e-01 5.349874543001790217e-01
-1.961883229098521642e-01 -7.892420732255573945e-01 -4.758834804479404879e-01
1.087322756230530013e-01 -5.290346891745677516e-01 -5.240912313025711811e-01
-1.847911001573351031e-01 -1.195159664170591385e-01 -6.733708208778424464e-02
6.536378034109646684e-02 1.502381853453524096e-01 -9.951469165645802917e-02
-1.173196496048180271e-01 5.268421929788759117e-01 2.223695513768976784e-01
-1.629491966384009061e-01 3.163596265713451705e-02 -7.413506975755738970e-02
-1.514631898926688813e-01 7.440323742225334325e-01 5.657769652848498865e-01
1.563777620324111328e-01 -1.422113360148894445e-01 5.464705385552854656e-03
-1.849136068045218739e-01 -5.625687019580638548e-01 -4.889822141514760800e-01
1.354180168883759583e-01 2.718284395123829120e-02 -1.234631064292657232e-01
-1.371660804826386748e-01 8.668609925795386362e-01 5.227290406166825720e-01
-1.854446233879184225e-01 -3.692118601193852823e-01 -1.940326207767562317e-01
1.396718897308226182e-01 -6.776282861705971161e-01 -3.761290759576379483e-01
6.584261676720619405e-02 5.780273856455483417e-01 6.234265076931236882e-01
-1.419194113867975060e-01 -2.696462380012846771e-01 -3.999052988653479385e-02
9.667627968244150993e-02 8.533314588994533878e-01 3.982105540529444765e-01
1.241306427312480892e-01 -2.013194351837604701e-01 1.556927578784675012e-02
1.225357841148544263e-01 -1.788376289149681830e-01 -2.758660931122676185e-01
1.780124910191630272e-01 1.319331370243231327e-01 1.614377194909624447e-01
-1.433603271964469794e-01 6.874536112051611303e-01 3.963021386737323182e-01
6.008659419449677297e-02 -4.761436739478654978e-01 -1.309922531401057910e-01
-1.703419505020535019e-01 2.363730681216673346e-02 -5.867990525321833961e-02
-9.083868459206041746e-02 4.121216844165089821e-01 4.692501971617958900e-01
-1.445247029479859446e-01 5.567771737353096606e-01 4.836930928370645755e-01
-6.488510160582763864e-02 2.172053905245860950e-01 3.556092076803435420e-01
-1.797241040704137260e-01 -4.597190068751476622e-01 -2.302092646778325091e-01
9.682517580548277714e-02 3.084125943179089613e-01 2.644595911639366359e-02
1.717266761677253284e-01 -2.395353534527946138e-01 -1.812456961528073618e-01
-7.376028126684783248e-02 -8.939681418367283472e-01 -4.128666300079505413e-01
-1.610215737131989178e-01 3.326786476702622286e-01 1.640942640122063090e-01
-2.078756903109681975e-01 -8.109045984102255522e-01 -5.416896537631391562e-01
-1.063009685470052007e-01 -7.837339710667217130e-01 -3.520748658731032155e-01
6.837289029041392074e-02 5.250456998893907601e-01 5.847976369768511651e-01
1.088689630551483850e-01 -7.896779631209701611e-01 -6.950763286378343064e-01
4.014586932069608149e-02 2.914826647395047376e-01 -1.047539506734673428e-02
-9.266280359692771751e-02 -4.056423549359988168e-01 -4.848257980446706861e-01
2.088551631497904126e-01 8.104776376115386816e-01 5.890135787261906453e-01
1.015608474756103385e-01 -6.730206802223342999e-01 -6.279490721120775110e-01
1.857554585729575547e-01 3.563412185706250068e-01 1.937113208369092565e-01
-1.715341469051362699e-01 -1.082767803673764379e-01 -1.623942166492031158e-01
1.538568879387863797e-01 -6.770983063139406344e-01 -4.284260097905530640e-01
-1.266380348416854262e-01 7.321449554918454394e-01 6.331329484781732519e-01
-1.611242698157144479e-02 -1.097297038333213681e-01 1.450343956532456346e-01
-1.568387526029065282e-01 1.751903155330033213e-01 2.180076998828039958e-01
-6.862965350003630283e-02 4.573096978124653322e-01 1.257236353872083212e-01
-5.569202040774010043e-02 8.247048564068745757e-02 -1.509584400677662641e-01
9.425037315826585715e-02 7.123759463065292286e-01 3.003873835007814241e-01
1.801040516791974078e-01 -1.859283509527372147e-02 -2.773205247622551745e-03
-1.776710583438134428e-01 1.028634423533112546e-01 7.358785578732246480e-02
-5.422611492829062380e-02 5.521071658459041354e-01 5.905473514283576808e-01
1.762409081381453857e-01 4.173599068457501948e-01 3.983457911390790307e-01
1.808571852982334971e-01 7.547665151103729597e-01 6.513552777999770393e-01
-1.195291089472880763e-01 -5.286892150328443840e-01 -1.887336690765603064e-01
1.835045025236467786e-01 7.222645661920188420e-01 4.067835068196126724e-01
