-2.478555392739070773e-01 -6.666377089600007411e-01 6.106774767017715266e-01
1.165840125073407396e-01 -5.012079578113426415e-02 9.693577997181274108e-01
3.417740771706428426e-01 -1.579772864031414592e-01 8.426304183886935695e-01
-7.680399217660502931e-01 -4.184170613438990549e-01 3.200075005649422599e-01
-5.555643926393387666e-01 -4.859753863017040598e-01 5.642463909607967620e-01
5.898124715290680165e-01 5.659664438625049421e-01 -3.570034162133383648e-01
-4.592656866626798062e-01 1.314455251669895686e-01 -7.598141554754281879e-01
7.238582686223483664e-01 5.433213331455327699e-01 2.996930115942856437e-02
2.718176874844924762e-01 5.089437595315564611e-01 -6.766673581991640152e-01
4.880292581117012807e-01 3.819554782438892848e-02 7.889400566669908521e-01
-4.323683387985560733e-01 -2.137278644409926487e-01 -8.336020170873207347e-01
5.390826498144059009e-01 -3.909253893065435526e-02 7.395187456844897200e-01
7.577634092139887700e-01 4.693582780771655694e-01 1.620094601766203513e-01
5.797860507160740307e-01 5.526052935247338649e-01 -3.905013081224718019e-01
8.086369893352637339e-01 3.387086026933810445e-01 -2.609719891632938382e-01
-4.388477900910866536e-01 -7.535452675557141600e-02 -8.113109773696411953e-01
-8.341678069421775144e-01 -2.898307808403265962e-01 -2.298353290359628764e-01
-6.415822168187709229e-01 -6.054940300535797126e-01 -4.613063433482667564e-01
-5.380502074848831917e-01 4.238847745302697922e-01 -6.454331515336408920e-01
3.343970893603380179e-01 1.963826478550654564e-01 -8.823985154945355180e-01
3.793574250743447229e-01 6.801659378748802220e-01 -4.636397809062047792e-01
7.103571745886511080e-01 5.156614900792386713e-01 3.097403613591511173e-01
6.614497084571600016e-01 4.885698045044503668e-01 -3.485779155011145547e-01
5.469360676531590526e-01 7.525962744996872456e-01 -1.405581647320269245e-01
-1.452222094937421215e-01 7.402445669142324047e-02 -9.212527877208398497e-01
6.986910416096968612e-01 5.117474559739079165e-01 3.600738162953467936e-01
2.379988868611581654e-01 6.506780606341268092e-01 -5.800533686525319865e-01
7.019711071195917640e-01 9.492863379812990776e-02 5.704046025475980608e-01
-4.668960315780238401e-01 -2.206941894054185727e-01 8.658247671396581691e-01
-2.036080525719395282e-02 6.017678401470047955e-01 -6.821620109001638177e-01
6.513932201754782936e-01 6.241301039665384520e-01 3.678595991938275467e-01
3.038515229959660724e-01 7.555530281921023494e-01 -4.492526978292969431e-01
5.943573978805190006e-01 2.667557281774753375e-01 -6.989390031188238428e-01
2.366486063306115148e-02 -6.359080964543136760e-01 7.014433639818089539e-01
-2.138085827295907737e-01 -4.291598069511207703e-01 7.960868249564568844e-01
1.313921389725222488e-01 6.513364173977953531e-01 -6.207184813132011758e-01
1.430100798741031770e-02 -3.915285500776768957e-01 8.369024052960083448e-01
3.915597994869889353e-01 3.513746735403870947e-01 -7.485913429561382726e-01
5.077489970446963374e-01 7.208601567904048268e-01 -2.680760048808444873e-01
-7.042917316371111180e-01 -5.266928351418475041e-01 -3.609789133770416880e-01
-6.542519027392378339e-01 -3.608765678124213894e-01 -5.713402355816369349e-01
-7.540651300821293868e-01 -2.010761623191962832e-01 -4.635841921892099871e-01
3.632599554916056128e-01 -5.914495983144572033e-01 6.877577608739329218e-01
-8.487218364454882646e-01 -8.740616866579818678e-02 -3.445614053327068493e-01
-2.536511957677365370e-01 -6.142217395479231401e-01 6.495597559886929773e-01
4.693076369037951223e-01 8.355511492232932103e-01 -1.633573039724757758e-01
8.334150402746780539e-01 2.824764818662939270e-01 -3.134536568130930623e-01
-5.457764085310973234e-01 -5.012959691959718578e-01 5.572653286976387843e-01
-1.688254634303529012e-01 2.814339743722541268e-02 -9.297289353047335503e-01
-3.280031429733411968e-02 -7.072476382503219972e-01 6.497731914765965122e-01
5.943397434921844358e-01 3.258327498343857598e-01 -6.391403545267972941e-01
7.499612606007365345e-01 -2.582208552721502182e-01 5.390074440402627953e-01
7.131109731092067916e-01 5.385262851952069552e-01 -8.948996038880863146e-02
6.707820887941521315e-01 5.191251343487188752e-01 4.380451414032708324e-01
-4.207833528504262288e-01 2.570727649934365644e-01 -7.500156233554263752e-01
5.494889156259836760e-01 2.948368994220219030e-01 -7.060002944095744581e-01
6.359361818654898357e-01 6.110996500002290333e-01 -1.881637459205129648e-01
-9.082404952581665247e-01 1.495657539605163046e-02 -2.818397231798892011e-01
5.755698003708218380e-01 3.668553905007859717e-01 6.896141905103432279e-01
-8.049142210436278644e-01 -3.056893319518591001e-01 4.436484007243590155e-01
-7.298085742121632746e-01 3.099904456932049968e-01 -5.374147472083369292e-01
-5.778179956609631046e-02 1.843691992239464839e-01 -8.975864598859925048e-01
-6.053248495349660141e-01 -6.680410734637364234e-01 2.487385423346550883e-01
7.773544439715412979e-01 4.462234879878212435e-01 6.357755120829736151e-02
-9.465184658945126062e-01 4.254366975059181016e-02 -2.212537894057595433e-01
-2.308119166224524219e-02 -1.355870975012926360e-01 9.668104761933041802e-01
-4.385486624137733824e-01 -5.756529875983585898e-01 5.749105891022759929e-01
6.012458410941231429e-02 1.170309353374573286e-01 -9.458614362876393011e-01
6.279203272095527089e-01 6.882764071553257867e-01 -2.499062765157340077e-02
-4.934696012860955716e-01 -6.350169354810700773e-01 4.625703449602301398e-01
-3.275600974411745359e-01 -7.477780866777191671e-01 4.933530406069485674e-01
-3.656230635931771999e-01 -2.203222684494817729e-01 -8.863300103222006010e-01
-7.295533182471427569e-01 -5.285153894434031496e-01 -2.648792432050024459e-01
1.202123853826561097e-02 1.703814973189318460e-01 -9.145452525264051724e-01
-5.291039433490634103e-01 3.674080370560373621e-01 -6.646978923887956192e-01
-1.480865999362949992e-01 1.024102236264155669e-01 -9.096625340455708475e-01
1.321387457887351069e-01 8.146898799263170288e-01 -4.976820938686634110e-01
2.615909143316684227e-01 -6.548490606568871386e-02 9.073731239584822417e-01
7.777081511966947858e-01 1.426177724826045191e-02 4.833231311153663445e-01
6.733335013977238825e-02 2.056908466734450047e-01 -9.014565885978765847e-01
7.134698159426904052e-02 -4.537003807533292465e-01 8.014367186211519556e-01
2.748350036921528017e-01 7.966115189588134360e-01 -4.315577023541618540e-01
-3.798783527662052094e-03 7.593287639075618767e-01 -5.809982196810316024e-01
2.815160154678923443e-01 -2.954670760610601521e-01 8.244873473863427726e-01
6.445598749533543170e-01 4.363878089351151957e-01 -4.523054088291530994e-01
-6.590120370708048014e-01 -4.135457469776270267e-01 5.309698806418186035e-01
9.014930810266678085e-01 1.118871354724925438e-01 1.914245908828948461e-01
7.185931342970861557e-01 5.551077464809512918e-01 9.106320218859050020e-02
-3.420891951592217733e-02 4.465623932713027600e-01 -7.705151838098557304e-01
9.700993647035948131e-01 -5.136066220342666577e-02 1.587560828532053880e-01
3.741904159719479372e-02 3.236377343635489789e-01 -8.378983613429434874e-01
-7.702976033159710800e-01 2.652697111012843334e-01 -5.038720354823527092e-01
-3.066082698293342568e-01 2.866464394852384634e-02 -8.698007893979562422e-01
7.395359337105352759e-01 -3.341594129859041806e-01 5.449498133274136569e-01
7.449254904445927750e-01 2.547965536692957111e-01 4.537750687137917516e-01
-1.762965998458539130e-02 6.019280223828932241e-02 -9.602651416272325324e-01
-5.436742356773436313e-01 4.974046741979695763e-01 -6.225197947251825958e-01
4.411271147951882354e-01 5.075567833655540984e-01 -5.837572691404088188e-01
3.247813133174303202e-01 5.406925370444098933e-01 -6.270279163445054982e-01
-5.019288378800396133e-01 2.288592352489546844e-01 -7.128555913407476075e-01
-7.600211144711912503e-01 -5.187589240489873799e-01 -7.820128521301578095e-02
6.172935014689534539e-01 2.330662706465422562e-01 -7.137303543001419781e-01
2.923011592227054978e-01 -6.999590210129567058e-01 6.566743786659814397e-01
-5.668644944992125012e-01 -3.672967387984356069e-01 -6.939805405865837606e-01
-5.982106726915631389e-01 3.436076226767598163e-01 -6.292577308643660938e-01
-7.555792866526992446e-01 -3.006178065287575807e-01 5.429439763619010595e-01
6.095060124765481202e-01 6.846835826457730034e-01 -1.070556618780729857e-01
6.623831941569319204e-01 3.028787784282765960e-01 5.780593200246739727e-01
-6.289363250318880105e-01 -6.508697762760726757e-01 2.248883566389406896e-01
8.119206073302003279e-01 3.815238372499892838e-01 4.480153708407958596e-02
4.607373455723757782e-01 -5.462868328254556483e-01 6.712827147032479624e-01
8.875961237055664255e-02 6.448713175458163915e-01 -6.369338930893729822e-01
-3.130547478854660559e-01 5.162523542552375222e-01 -7.000165223395390379e-01
6.323881684684174997e-01 7.049515507955252946e-01 7.539680463610551331e-02
9.784219137490518525e-02 7.322639548462622772e-01 -5.730541008893694777e-01
6.937136749250918388e-01 -1.257059610608461664e-01 5.957999964035706197e-01
-6.651263867705327071e-01 -3.630130840750789289e-01 5.854631798816543053e-01
-8.732331633252241598e-01 -4.726683079986528091e-02 -3.177968325665882499e-01
5.377101507280733772e-01 2.879813575414119087e-01 -7.206356258215534938e-01
-4.174019048441792723e-01 -6.584026084920960864e-01 5.101493365865287233e-01
-2.632300780500482218e-01 5.158547885732905208e-02 -8.837972143082410970e-01
-6.832205454308574177e-01 -2.581536019068512711e-01 6.858253997417224079e-01
6.075555850431019200e-01 3.009817044917402207e-01 6.590284588725507930e-01
-6.985113672410994123e-01 -6.244341319529809198e-01 1.326760613742058136e-02
-8.588068054076752889e-01 -3.398206627568102767e-01 9.474284727710806375e-02
9.260349662571901175e-03 1.520707512093093794e-01 -9.229637057412898304e-01
-5.954552638124542829e-01 4.075863902685061824e-01 -6.174428551514536956e-01
-1.523626933944915995e-01 -6.602337137384340915e-01 6.522872767852393450e-01
1.881827935901108362e-01 -2.179115522205452293e-01 8.838194343295220357e-01
7.524073742770325257e-01 4.376645979181461588e-01 2.694000219213169567e-01
1.244887544932002515e-01 -4.969605561810243044e-01 7.751732821036165788e-01
-6.416137826514928255e-01 1.639592687850582875e-01 -6.243969515439206086e-01
3.068350804255677300e-01 -2.833368343064813707e-02 8.953304160574880877e-01
-6.465388865622805348e-01 -7.199443482756558987e-01 -2.360488579634734407e-01
9.181630774496297998e-02 3.986124396308916573e-01 -7.933139172451498800e-01
-7.594069494539590348e-01 -3.888446742363660391e-01 3.982660088046591773e-01
7.314304383633375428e-01 2.328560018356855832e-01 -5.970579246416184427e-01
8.514605399330448243e-01 -1.903429197711045961e-01 4.224429518551131024e-01
-2.166811583047527356e-01 4.429711417157460307e-01 -7.526702286269280062e-01
6.440069988814323132e-02 6.360132372293587633e-01 -6.483606255403469021e-01
7.599557581187820210e-01 1.987930064597653590e-01 4.521547698524137071e-01
3.135934651521756766e-01 4.415533708187491246e-02 9.093320093478833854e-01
-7.164412210953023941e-01 -3.169717517365253645e-01 -4.827532438901118717e-01
2.740085836069966474e-01 1.596909530712337655e-01 -9.181301867425604168e-01
7.467281907365176385e-01 4.990161731503323095e-01 1.248588351124963053e-01
8.153106782820712661e-01 -1.305089726188275734e-01 4.596287613806435135e-01
2.246105709814056051e-01 -4.665890595242691563e-01 7.734453181775126085e-01
-1.715976162523405180e-01 3.462211066195949316e-01 -8.041015639375397317e-01
-7.508338935518443780e-01 1.246582506884675451e-01 -5.232571558531508016e-01
4.625722412146840989e-01 6.017852560385363869e-01 -4.702158841480341134e-01
-7.583477879973038460e-01 -4.752841583464341713e-01 -2.370232416497261851e-01
2.398733027300717635e-01 4.447993849327916971e-01 -7.351494263754994041e-01
1.812170685696948835e-01 -3.657350083672447627e-02 9.508153805253446444e-01
-7.572977929840696287e-01 2.797314271356830112e-02 -5.091728348924179359e-01
1.578142861763947025e-01 6.192043014680995716e-01 -6.355463602968718373e-01
5.883519853388778920e-01 6.706768366569625384e-01 -1.933622244816966262e-01
5.743692467529382117e-01 -3.446334846689292353e-01 6.670418059734276595e-01
-5.484568844304951174e-01 -8.239766443471455704e-01 9.208826051871134288e-02
7.789041271242234110e-01 1.217738723261122119e-01 4.502628090347858825e-01
7.769336970387994423e-01 4.480166992605695286e-01 4.559330275397213694e-02
1.325958262348312933e-01 2.624095452061135925e-01 -8.702424738472854804e-01
6.353468399117450094e-01 3.215606058210799256e-01 -6.038320875242031427e-01
-7.628021500345473216e-01 -5.075517732976558838e-01 7.312478665262814315e-02
4.608360709381942311e-01 2.286107430465712520e-01 8.273453228144479477e-01
9.096724579813950107e-02 -3.451412795697822444e-01 8.521201885969368339e-01
6.534216820133674775e-01 5.482663635975307814e-01 -2.646105343461777060e-01
-4.034351432243543645e-01 -4.498687390408649955e-01 7.108688885724195883e-01
5.710999465272778020e-01 -2.950054070745629711e-02 7.135010998441297936e-01
-4.487030845979218530e-01 -2.370157710773064530e-01 -8.217659652032407447e-01
5.366532008694039346e-01 4.087589799308682381e-01 7.341750882402361400e-01
7.660504734093225299e-01 4.148835301958212485e-01 2.519071512362900389e-01
2.924955605469737319e-01 5.524633498178345148e-01 -6.334453249365742389e-01
-8.321783923230414715e-01 -3.582042385417235075e-01 2.378527292151363659e-01
-2.663271378953080970e-01 -7.764733099975564823e-01 5.082293447932354491e-01
6.314971552050658854e-01 2.137985204118064142e-01 6.426517084814249436e-01
5.091653416222020612e-01 1.991823250535937340e-01 7.806374813667688040e-01
5.067337408192651438e-01 3.988500651598166358e-01 -6.386363714908680489e-01
7.523921405879142599e-01 -3.887906203432807128e-01 5.296152001685466848e-01
3.415698715320648615e-01 1.927148198132458135e-01 -8.831254612038218488e-01
-8.247872158026759992e-01 -3.956157937240509792e-01 1.257975110905584226e-01
-2.256148660263009587e-01 -8.018217762473833776e-01 5.101937048340056124e-01
-1.243044746476111989e-01 3.929741213511735998e-01 -7.907807322601810851e-01
-3.711112680264299635e-01 -2.316452670662727531e-01 8.916181627128406673e-01
-6.167344912472668694e-01 2.094270320933738216e-01 -6.388520679832965232e-01
-6.790571891221145462e-01 -6.618910343553449094e-01 -1.747786236703875035e-02
6.075186637425979974e-01 2.923237410822426274e-01 -6.620785338612279469e-01
7.182175732184382655e-01 5.416497562267603705e-01 2.019639497385797289e-01
-8.101714506045518682e-01 -4.035343833775154598e-01 -1.331818172149848711e-01
-4.191037846024859848e-01 -6.302201441666599457e-01 5.368576058068539325e-01
-7.980933341957072713e-01 2.373599256768773452e-03 -4.529106389954016265e-01
-9.020054947587503591e-01 -8.133777389475610464e-02 -2.387540778805039288e-01
3.009726908563235548e-01 -4.193670349659259222e-01 7.726615462424055725e-01
-1.778741527024133712e-02 6.673056098646790169e-01 -6.421325153677359676e-01
-6.564442811396336008e-01 -7.056353106120903940e-01 -5.660324975798807640e-02
8.784253014691065786e-01 1.997131964343406840e-01 -3.595119345264465860e-01
6.340212230778239366e-01 6.866613819576788957e-01 3.168430927660445540e-01
-9.502586024130810216e-01 -1.265333556306312002e-01 -3.998876200318157020e-02
6.608408675005412736e-01 1.229438344210947581e-01 6.184084675669350162e-01
-8.711410119334990210e-01 -2.332529731839555753e-01 -1.790253259441473566e-01
4.303157190772664009e-01 1.109937376933523984e-01 8.428843558119618606e-01
-7.931920404297833072e-01 -4.504297391800534678e-01 -9.454433764999600753e-02
-3.006803014418940045e-01 3.137591201193306589e-01 -7.818830997248438219e-01
-2.835417817535307861e-01 5.259020174175058626e-01 -7.028182491220730244e-01
-5.608082981826337798e-01 -1.637671256138748532e-01 -7.145664183824809168e-01
-6.520343590520245591e-01 -5.795281793719762042e-01 3.008172974078071049e-01
6.492107596406938574e-01 6.425405775460594215e-01 3.421892386960349586e-01
-1.307716779226923698e-01 6.239201726897596334e-01 -6.733946676692736943e-01
3.668761400336800205e-01 8.539306468256242511e-01 -2.876337908099499407e-01
-8.783847786731476814e-01 -4.541467843947159105e-03 -3.272101603223916966e-01
6.895753402491445749e-01 2.921019343301076709e-01 -5.765747167865346023e-01
-8.421395004579311783e-01 -1.152908940592189818e-01 -3.435929839920718876e-01
7.577779041598173837e-01 -2.411968497822383206e-01 5.316023655159972661e-01
8.081167113522360612e-01 3.263535444508333105e-01 -2.939566456377843973e-01
7.737489193578972468e-01 3.577341914767802056e-01 -3.286192278314239434e-01
-7.578360237333370275e-01 6.267791568451615281e-02 -5.119054132279410307e-01
6.022295754589807038e-01 3.462590094807653229e-01 6.567105461392198640e-01
4.434032932510849623e-01 1.015837351827714313e-01 8.315513774829516036e-01
-9.759234264386069668e-01 -7.316356960000007514e-02 -2.613822936899545465e-02
3.860991382379831971e-01 -4.586837230161179835e-01 7.295182757283463770e-01
-6.759095597426391100e-01 8.388289968594335455e-02 -5.986990140735271027e-01
-1.387976102262150901e-01 -6.940761003797586426e-01 6.322084354027404096e-01
-9.110905611641347823e-01 -2.434727612823064935e-01 8.739833444232052162e-02
8.987680117491637921e-02 7.755077539268022679e-01 -5.441644417044736448e-01
-9.395807033172071110e-02 -5.714854495023399261e-01 7.264635964241691335e-01
7.065638548514246997e-01 2.736850107511729635e-01 5.152747534996742207e-01
7.231763738461468582e-01 1.268672161471178783e-01 5.350330719724973871e-01
6.147547218117542789e-01 3.151263849864544692e-02 6.749619124407340021e-01
7.605453921270566298e-01 4.742079131248613799e-01 1.074838122957881559e-01
5.531964969642266805e-01 5.793829753319396092e-01 -3.925805739164213715e-01
8.987685649744403538e-01 2.040224346784693388e-01 4.584491398688683023e-02
7.669280858508730203e-01 2.766759083933534313e-01 3.955295525745179952e-01
-5.266627771198217900e-01 -6.309323048614200458e-01 4.291503665144328350e-01
-2.377583074149407227e-01 -8.821561809593294612e-01 4.313352752803615298e-01
-6.821975997679001757e-01 -4.996397677192135345e-01 -4.472006140822714082e-01
3.588670800487046009e-01 -6.369388963241541246e-01 6.706036048309644837e-01
-8.495161494343095310e-01 -3.381077536826209151e-01 -7.400126420221948831e-02
5.488305529077071032e-01 1.152007184661139050e-01 7.406979524375967294e-01
2.686981883567979845e-01 2.843723649550854993e-01 -8.383230970825108486e-01
4.991934905468244366e-01 -4.041278343866817058e-01 6.963078917747600460e-01
4.418904950573235846e-01 8.277263745407359430e-01 -2.212991971922162737e-01
3.453373146630349666e-01 4.352490089338259538e-01 -7.028378029211167499e-01
8.270053337704926788e-01 2.173943023685091236e-01 2.961961406494694193e-01
7.207734073046900836e-01 -2.120071219409485896e-01 5.680844324355327490e-01
-4.011602584927169146e-01 -5.276769099218281411e-01 6.451643946940387453e-01
4.493303666800632645e-01 1.507399973447604291e-01 8.319986874116295228e-01
1.201037098076503246e-01 6.889662162520435729e-01 -5.972124914165352072e-01
-7.573187185272046706e-01 -2.171663295074982847e-01 -4.521097834263863580e-01
6.845650565599482595e-01 5.330345393155283551e-01 3.802779296280781041e-01
3.427795373117065170e-01 -1.269600918889802754e-01 8.506370315703677409e-01
6.198954471761993767e-01 1.779435857967943679e-01 6.617406625362279859e-01
6.221393033421001029e-01 -4.228892236422405193e-01 6.209843651703471634e-01
-7.100742632409063892e-01 -5.158076318643424196e-01 2.798297358030038540e-01
4.662502307211959796e-01 7.201514906792154669e-01 -3.287992719730195024e-01
2.805779399528694484e-01 1.445889829603060339e-01 9.513809296032147422e-01
-7.617440305293002867e-01 -1.806235186698477296e-02 -4.975339991650882809e-01
9.543622597291540055e-01 1.222104320948845663e-01 -1.129240200875831768e-01
3.440238004629999069e-01 4.029023134259171468e-01 -7.288767855573623500e-01
6.538953708589990699e-01 6.531927990061879852e-01 -6.398248892485319632e-03
3.695675111726064999e-01 -2.957990592308827951e-02 8.597165715538288566e-01
-3.041802076369765073e-01 3.900742186952451118e-01 -7.524628065654875853e-01
1.070377722184648883e-01 8.193323781818431240e-01 -5.047450830757264084e-01
4.008971022377723625e-01 1.567819810594078267e-01 8.713424754239195158e-01
9.214658636682456772e-01 1.510181291029557005e-01 5.409965557918303136e-02
8.826488591057194411e-01 1.190591785556552179e-01 2.372946642268783657e-01
8.073852796061485593e-02 -1.232242259690251446e-01 9.512793668329647678e-01
1.574180725896167921e-01 -6.968230169674499708e-01 6.706215978495825292e-01
9.198028267448354889e-01 -1.033285534206108414e-01 2.961039859918927486e-01
1.271455391981654408e-02 3.229470038445199087e-01 -8.376450343285756217e-01
-2.268681665584694751e-01 -8.731578822964319864e-01 4.468108683180470608e-01
6.831031924959967139e-01 5.660666901625096559e-01 3.361323478891858896e-01
-5.124032768719671838e-01 -2.526398820041590998e-01 8.182359188245933446e-01
7.831978104396998264e-01 3.426856041931401475e-01 2.937056980852676968e-01
2.760444108870235835e-01 -3.795845031502360079e-01 7.954291022626245322e-01
4.885666293953488948e-01 4.714479851549207567e-01 -5.819373795086388856e-01
-3.878189490652425020e-01 1.557952728856855651e-01 -7.941879057066077996e-01
5.296280513123441391e-01 6.878328112089153734e-01 -2.799366263066584426e-01
-8.252864867321862974e-01 -2.417818956286179044e-01 -3.006646119204678391e-01
8.561754094638713841e-01 2.401604093511579274e-01 1.779475755001165560e-01
4.475511698809365169e-01 6.985773014274451187e-01 -3.775195962368894653e-01
5.358463684645089486e-01 3.825404470722471029e-01 -6.316885246466965587e-01
-4.303017125660416609e-01 -8.119093670294457166e-01 3.269134306213541952e-01
4.228989484231639451e-01 -4.030945242594385358e-01 7.328737011873368568e-01
6.889309528181324360e-01 5.434947593369318097e-01 3.498484815572855955e-01
-6.912675507554326693e-01 3.432449218670067803e-01 -5.644995714211038518e-01
-8.387911035512845004e-01 -2.622658619747794129e-01 4.438216877640658309e-01
-6.510831574783748632e-02 -7.197165110363328289e-01 6.346529081048097876e-01
-9.349722502298638549e-01 -2.007136132807957329e-01 1.302243644803021405e-01
-1.250893503483462843e-01 -4.957753608806835244e-01 7.696240432867278436e-01
-8.859188198573233475e-01 -2.842521526426283751e-01 1.701582327265498823e-02
7.517911830306057697e-01 -8.162871504124995237e-02 5.313715446765951977e-01
6.618695384358536105e-01 6.507547018012078688e-01 2.315745753042889044e-01
9.015185044480338306e-01 2.013218461264065784e-01 -2.492343838802290323e-01
-6.519774716599385789e-01 -3.945152608720257636e-01 5.633380587978789045e-01
7.424854189168221819e-01 -3.154717177677553441e-01 5.435707152230482286e-01
-5.490961580985552759e-01 2.427431773087611322e-01 -6.806449772962378519e-01
-6.039141446527955814e-01 8.240739396149848739e-02 -6.633394365485822952e-01
-8.504815446552196345e-01 4.270859274400023303e-02 -3.876034057870883509e-01
5.915458607933035129e-01 1.987321387119101446e-01 6.931130279447768050e-01
5.898399700698973014e-01 -1.174882588965543012e-01 6.901172764960684658e-01
7.752370097587318876e-01 3.712836494409946231e-01 2.838638134525108270e-01
1.693568672154085672e-02 5.802961121013238133e-01 -6.913475230802552662e-01
-1.536024822445565541e-01 -2.511939529055586331e-02 -9.537299941106889278e-01
1.096185760927731734e-01 3.858287155372719934e-01 -7.993004537040219182e-01
2.080025765263182613e-01 8.207182485944557460e-01 -4.534891820670635676e-01
-1.769989358158982062e-01 2.615007139052342167e-01 -8.387391313003147442e-01
7.510844930718972856e-01 2.041080576341193220e-01 4.657641789823221412e-01
3.505271630101072788e-01 -2.646866115326154123e-01 8.072430708383299125e-01
6.938877580660938182e-01 -3.875321136734853900e-01 5.766387350901690523e-01
3.609603481911390910e-01 -3.304874231806425033e-01 7.821081359480503981e-01
-1.618917288205395377e-01 6.276864600221883084e-01 -6.704224325295573550e-01
-8.006243044717860080e-01 -4.253851523076628283e-01 -1.299905147038867281e-01
-5.820731514459280831e-01 2.330439052065298028e-02 -6.868545474366815062e-01
-6.469731215036766958e-01 -5.436633854850339009e-01 3.691627806195743600e-01
-2.409461597536947941e-01 3.664791454409324634e-01 -7.795710254211005719e-01
1.662321642574774924e-02 -7.759977022588122608e-01 6.142650336131748601e-01
-4.225043756955003116e-01 1.941195535639226866e-01 -7.660007894773609438e-01
6.091494330835102167e-01 1.188477402215880885e-01 6.786366331201358904e-01
5.272401519338297815e-01 1.022438115790207658e-01 7.605694773044654466e-01
4.109441796103349698e-01 7.622908377999755569e-02 8.524539411164211433e-01
4.959298812989735294e-01 7.197864970428283216e-02 7.858924321277807046e-01
-6.978030325088064867e-01 -5.828955402828962518e-01 -3.035570703737976439e-01
-2.347466197905206942e-01 3.753887651008270404e-02 -9.005566636096484778e-01
7.174167372569402457e-02 -7.713334681975633211e-01 6.248813947307647609e-01
7.452726590586625788e-01 2.259265543988798475e-01 4.667546842707503973e-01
-5.075022710612602239e-01 -3.574545493040672817e-01 7.299715411217428951e-01
-7.971210057668387527e-01 -1.804235931145568572e-01 -3.969289664244797233e-01
5.004963181470228895e-02 -2.196223284753467120e-01 9.163737397972764320e-01
6.555717236713013429e-01 5.950713813252253015e-01 -1.653444591296160393e-01
-4.233560101066432546e-01 -2.279716723337669726e-01 -8.424138376000452899e-01
4.175763014484732971e-01 -3.605836327877890435e-01 7.481743459325780332e-01
-3.308835385933557582e-02 5.401582173527930131e-01 -7.187530373422883478e-01
-6.944173348306874605e-01 -4.501702725160390828e-01 4.268760641228642183e-01
3.736254750593366869e-01 5.929830926047570117e-01 -5.518462091905457223e-01
-2.212027508495423289e-01 5.139319925552594537e-01 -7.199601882130339803e-01
-7.499150620527147426e-01 -4.868414451854223834e-01 -2.525509671611940177e-01
8.725844971990687204e-01 -1.963390374494083102e-01 3.957515819704870430e-01
-2.789220474153634721e-01 -3.558577431022029725e-01 8.302186016611305952e-01
-6.847396861419989822e-01 -3.774759331091063208e-01 -5.134348099340201310e-01
7.111222745843815973e-01 5.416224085496748053e-01 -8.942092710363611086e-02
2.936452185161625428e-01 -6.291040310827352711e-01 6.884654307604015644e-01
-6.178039479469445983e-01 -2.442510148011544646e-01 -6.469972011623587038e-01
6.453801641038621195e-01 6.871094615679256279e-01 1.105360862675262151e-01
-4.511322397522014582e-01 -2.396194524208778154e-01 -8.198322470414969310e-01
7.440362761296339666e-01 2.616617572699080907e-01 4.520031047391125933e-01
-6.900162120893157391e-01 -6.481943689497629002e-01 -6.436972537959244345e-02
1.132038417105759032e-01 3.492559389418988802e-01 -8.208160225345197958e-01
-3.295091332208054946e-01 -3.677203922405221093e-01 8.068909746731263155e-01
-5.796705775659960480e-01 7.498897454712430410e-02 -6.840230342919162432e-01
5.493319815608684875e-01 -3.546840831816429063e-01 6.804077932874188495e-01
-4.165900373584023875e-01 -3.694778642328400142e-01 7.704160873020911016e-01
-1.928583701679861262e-01 -3.758731275922790882e-01 8.349227518883559629e-01
-2.382408866209167198e-01 -1.803201894533152660e-01 9.498292975837258068e-01
6.893671209409051315e-01 5.939398688129865489e-01 2.328453379321215877e-01
3.941030950145005818e-01 6.721455994192783168e-01 -4.592237781089250626e-01
-2.430014483296455419e-01 1.130579760935616629e-01 -8.726982824092971436e-01
-7.575481869706935933e-01 -5.242184713917421579e-01 9.070758069397466886e-03
8.937931752041582134e-02 2.414183471027031846e-01 -8.829871906157701344e-01
5.835506791882119071e-01 3.312945895565266308e-01 -6.430929574124761849e-01
8.680166745292900998e-01 -9.982007608149884303e-02 3.799007603105253872e-01
-4.214671583300826363e-01 -6.813809068818560410e-01 4.830961954868605579e-01
-6.683453244663003501e-01 -3.289792787372673444e-01 6.217839551940964604e-01
4.171657159349761446e-01 -3.510525594657618598e-01 7.512006790381960952e-01
-2.155658076513951860e-01 -5.433547392915349938e-01 7.164984493808624899e-01
-5.165511451082608341e-01 -7.722529853121197219e-01 2.537913818070166583e-01
-3.219688337175022896e-01 -5.110155098129305351e-01 7.008767955823277385e-01
-8.091178916968967405e-01 -4.205501914198797597e-01 -8.198198160929977274e-02
4.172220204991438086e-01 -2.309822249521102933e-01 7.845352451558890161e-01
-7.492722106071270094e-01 -3.535024439533704932e-01 -3.969451832257734347e-01
-7.305994188224729236e-01 -3.683269502512430682e-01 4.863970301119419082e-01
-4.791373914266485734e-01 -1.345220783859890912e-01 -7.873425292943585507e-01
6.333395677156043735e-02 -6.774767681771310945e-01 6.798517052326376042e-01
-9.276424996634946574e-01 -1.691620041688987330e-01 -6.023981169492009791e-02
-4.141112638650401578e-01 -9.149087688097726559e-03 -8.168731069254376864e-01
-4.736914225944429124e-01 4.175001768299719807e-01 -6.786604801726126013e-01
-3.927020829905493171e-01 4.908593092540508018e-01 -6.865115272834417803e-01
-4.407431156360483437e-01 -8.142575554743826105e-01 3.106292091395157495e-01
-5.598120841393389169e-01 -7.064992636520941449e-01 2.766855093421387024e-01
6.634920574389844283e-01 1.391899803272907687e-01 6.129642008333676673e-01
-8.708581281775454874e-01 1.625127176656620265e-01 -3.850255404798700876e-01
-5.018169386769941731e-01 4.116423189294206031e-01 -6.670505741823885559e-01
3.961277589774350183e-01 5.754744709089862909e-01 -5.523272823213134508e-01
1.253693450500883988e-01 -4.212874689542729922e-01 8.114686504325168137e-01
7.121452896563521540e-01 3.454064222326693745e-01 4.701173154349469474e-01
-5.162098069356204633e-01 -4.657988475733561562e-01 6.209906956777375697e-01
-7.762480199472362452e-01 -4.813755778402181718e-01 9.565510206842807450e-02
8.482066571693023249e-01 1.904823963186304259e-01 2.640221130009829387e-01
7.413592972404965398e-01 9.041282725301100220e-02 5.175570275261734965e-01
3.804778499778808248e-02 5.351990956134954347e-01 -7.164425465625922085e-01
2.858229735610270383e-01 -7.421805130003654438e-02 8.934428421332097914e-01
-5.219822813791122895e-01 -3.862613853095402394e-01 6.935838713124578003e-01
-6.950172427902186201e-02 5.987059507138474679e-01 -6.868429090453500585e-01
-5.441639957206092504e-01 3.678254832352229053e-01 -6.562777195835038935e-01
-7.372867063503992791e-01 -2.528101116353000943e-01 6.312361006996026758e-01
-6.931704248366784560e-01 -5.512072369770727454e-01 -3.671371901343713495e-01
7.317504590798091790e-01 2.215004236199865917e-01 4.924378047375077005e-01
8.979449426347945185e-01 4.988211783015921580e-02 2.551806895412050968e-01
-6.613837466008232191e-01 -1.478780359920383314e-01 -6.052655890069169597e-01
1.199718810953989273e-01 -4.729433198018480056e-01 7.874162568781930549e-01
-5.931345012224273905e-01 -2.559683836784658051e-01 -6.754115172162463709e-01
-3.005806723759336663e-01 -3.520591392882114340e-02 -8.897831775797289122e-01
7.191033058023016400e-01 3.897077134612663141e-01 4.251037095564831891e-01
-3.825920853838398750e-01 -2.557081226670998575e-01 8.709058464987765591e-01
7.799910799091315239e-01 2.890502402227738132e-01 -4.391281325210991682e-01
-5.055968444513416760e-01 -7.919110542472488357e-01 2.433977375306178859e-01
-1.478912304238533815e-01 -3.675765418929183848e-01 8.460954139762955073e-01
-7.226356255592459865e-01 -5.574545926248271055e-01 -2.371590906966249135e-01
-5.310680371363476482e-01 4.071701883032142200e-01 -6.534646398825562086e-01
-4.779238619522328813e-02 5.208262707542000713e-01 -7.299357819306471207e-01
4.201055294998916612e-01 6.868371665905106394e-01 -4.197181152738557186e-01
-2.390366435183615967e-01 -4.159190865351644062e-01 7.991045351333464497e-01
-1.070862293466279397e-01 -4.136553708405808494e-01 8.223790686576625264e-01
-6.310393992187308954e-02 4.136602170288022351e-01 -7.866342691228890294e-01
-5.882897005921871036e-01 -5.565972759549074889e-01 4.427037553587940266e-01
-7.302190804441029970e-01 -4.572845742223412557e-01 3.418765734574157888e-01
5.510773115267139644e-02 5.710430318729260435e-01 -6.919846546735023418e-01
7.447666782586989109e-01 3.734160850253867014e-01 3.736481244501712040e-01
-4.191679620379570870e-01 6.095533172743163863e-01 -6.337674370038544058e-01
8.301847100902683962e-01 3.060409872033707512e-01 1.716919502415063803e-01
-1.566970463903002986e-01 6.811899485658629017e-01 -6.421070877570724811e-01
4.814566581965468717e-01 7.932199163314933577e-01 -2.063176300060616808e-01
-6.786127100685196423e-01 6.593763885477065684e-03 -5.960396286646341135e-01
2.914481391400903787e-01 3.626817469693558449e-01 -7.780769371497913145e-01
-6.658064024612315723e-01 -5.833809230350072150e-01 2.618639123753110365e-01
-7.444195025129685117e-01 -5.496989236234212095e-01 -4.146486545393728018e-02
-8.247956597511433285e-01 -1.900497317330258340e-01 -3.374541207257027442e-01
-4.711931214385090549e-01 -1.569184062571508387e-01 -7.960340384878112907e-01
7.592417095138901395e-01 1.887591836525197575e-01 4.577658555709938626e-01
-5.250595724105182605e-01 -4.274054763740717244e-01 6.517955254739328241e-01
-6.613508364084198510e-01 -6.884529748370318281e-01 -2.409053432671155459e-01
8.583351485695503991e-01 2.890312474072830873e-01 4.537162725087550558e-02
9.034428402616822007e-01 5.775785313540635763e-02 2.361290097558831069e-01
-7.835920822813251529e-01 -2.320156748229819377e-01 -3.974289678429375194e-01
7.275576194025240584e-02 5.273459997557624623e-01 -7.168440943100566898e-01
8.919890960703805716e-01 2.323725512778463120e-01 -1.677529795551667979e-01
-6.372321849640766311e-01 3.774225211253275925e-01 -5.973763738499635600e-01
5.088032494839497266e-01 3.199575680994489191e-01 7.782309552095966199e-01
8.945243252385307597e-01 1.839762345284570999e-01 1.154924771005351458e-01
-3.736733825011753218e-01 1.188528554893411165e-01 -8.112796775238774183e-01
1.757612607089714118e-01 3.643619151897471709e-02 9.765935703699397674e-01
-2.618112747223732550e-01 -3.002690106218732224e-01 8.713746230671017834e-01
-2.319365718536276211e-01 2.288299105898193228e-02 -9.063583627460154446e-01
-5.200739808804047959e-01 3.867340449001543945e-01 -6.645658828464305889e-01
-8.871311764327459437e-02 -1.400026693431345726e-01 9.723375578441133538e-01
4.780025349763383224e-01 4.751044152985891555e-01 -5.868435252702997040e-01
-2.654513919308036929e-01 1.794579883817758736e-01 -8.416726048078856381e-01
5.888896572685811126e-01 7.616263972900497725e-01 2.042939718143476496e-02
-2.481787899728722657e-01 -2.418304072250049563e-01 9.110541512958053589e-01
1.405173657164555667e-01 -2.420470640488205649e-01 8.875025751225373849e-01
-1.090926521447693337e-01 -6.072054770043733285e-01 7.002115002250974829e-01
-7.610096536646295817e-01 1.581584317216625235e-01 -5.134773471975797587e-01
3.478501968619582829e-01 -5.178080755614163921e-01 7.208662513958838947e-01
6.314706204148095026e-01 5.739470918189369941e-01 4.933133923732642701e-01
5.178952785452879404e-01 5.196919331403506703e-01 -5.047995597371792709e-01
8.278510579614649367e-02 4.941503837393041998e-01 -7.361659065381398470e-01
-9.820263403804088131e-01 1.538814850847005332e-02 -1.180839294540074608e-01
4.164718356163442103e-01 7.467949714689008367e-01 -3.564170592381098457e-01
-1.789680881726717909e-01 -5.113687750627551321e-01 7.487465338877188348e-01
9.274620075781847550e-01 1.722892234225808505e-01 -1.504198881289735557e-01
-5.470237739353902562e-01 -4.755314290487566709e-01 5.837874884585050328e-01
6.507516028859605672e-01 -4.839940360386828511e-01 5.905749326687549372e-01
-6.091735080749776099e-01 -4.084567893972995134e-01 -6.268894321974722850e-01
-1.022384695122765252e-01 1.107003972605746789e-01 -9.193708368293014299e-01
-1.897485732923598692e-02 1.587130952320675858e-01 -9.157854502223721216e-01
5.598802460341717468e-01 4.130912139646438774e-01 -5.791159355735576719e-01
1.324762982105361642e-01 4.144062380825732500e-02 9.959370906678692847e-01
3.752547306046872810e-01 1.726895348923077611e-01 -8.880330090483309347e-01
1.244272595442534046e-01 -1.120716557615822513e-02 9.807823940413090691e-01
4.865431407295671695e-01 8.217548320005352291e-01 -1.521855388973129275e-01
-6.647494309435442172e-01 -6.453478681518269866e-01 -3.331180860565822188e-01
7.622592299546243622e-01 4.473854573865784778e-01 -1.429514257236315922e-01
6.136727139507165418e-01 3.835793406343593337e-01 -5.567240650587674811e-01
1.625632630754046681e-01 1.706154422931005776e-01 -9.213356048412646437e-01
-2.392415808147789757e-01 -8.249772752880691895e-01 4.820270363832128702e-01
4.575797385194061428e-01 3.123428630568937936e-01 -7.478318235211990350e-01
-5.760161883361950563e-01 -5.728275866064993505e-01 4.384010069449401081e-01
8.365862730880677667e-01 3.391135894885028979e-01 -4.365226452388271811e-02
-1.240579279928597373e-01 5.795601183144674096e-01 -6.972402081217211611e-01
-6.434050981201456798e-01 -5.576111111061967662e-01 -4.957845637667321892e-01
-6.852929052591953951e-01 -6.253496719337708898e-01 9.614184647064767664e-02
8.361168193902731582e-01 2.067569931978016640e-01 -4.604719987113043977e-01
-8.592233149202800346e-01 -2.991631466668572825e-01 -1.190661846849673244e-01
-7.392322095321431918e-01 -5.335458217094070088e-01 1.265357098666384239e-01
-7.856235757755828386e-01 -4.044529931973510628e-01 -2.443849702141581148e-01
3.290840364103668758e-01 -6.392256406978823469e-01 6.766994879244824235e-01
8.628002150806427517e-01 2.909637307028828945e-01 -7.698345253535476829e-02
6.099438476295714340e-01 2.306931585034777688e-01 -7.219634353439148278e-01
-8.296877954879745831e-02 1.930278970286815887e-01 -8.889829248902662018e-01
2.113686207936491257e-01 -6.276748108616536648e-01 7.019057680292427603e-01
1.555066732135859664e-01 -6.353351444579288243e-01 7.029550700309655786e-01
-5.556378276267178729e-01 4.934496623105608104e-01 -6.177449512828744327e-01
4.997248121167831014e-01 3.766898841107377272e-02 7.794540834092585913e-01
-2.765595338200448339e-01 4.513491545714859443e-01 -7.358155745695393879e-01
1.455506276809263033e-01 -5.772312619095312791e-02 9.568183357979308523e-01
-2.817281039837527534e-01 6.843142958900055861e-01 -6.314696652343454453e-01
-1.316696739938150451e-01 -1.987450610823719155e-01 9.436869912035329433e-01
7.800652034709827376e-01 3.161651028710764644e-01 -3.921285875824995215e-01
-7.839811312722545500e-01 -4.772974313384698020e-01 -2.017255866631405877e-03
-6.055558031985659451e-01 -4.767056996426736193e-01 5.201511719273058665e-01
-3.199815715589746645e-01 -3.719813200418758403e-01 8.069322735706460081e-01
5.875060092652812926e-01 3.229834037966511362e-01 6.819061903309210360e-01
-5.699321628690043884e-01 2.284926431147644987e-01 -6.694783126474451729e-01
5.058821282908818606e-01 8.173012738897156293e-01 -1.185077573556517772e-01
8.204729333460255569e-01 3.050765078136795094e-01 -3.031202918375692223e-01
-6.720195209704551420e-01 -6.579738114399396043e-01 -2.671225846204427490e-01
-5.247130932552556137e-01 -2.449831998276063849e-01 8.180112090354304533e-01
1.680549938051913855e-03 -1.936128887123375886e-01 9.360481219464620306e-01
-6.691506066218584348e-01 -5.609085246905032296e-01 2.955439091517845784e-01
2.546911240438621271e-01 3.743114717566269345e-01 -7.804737527163393418e-01
-8.669641881013442353e-01 -2.299278239652812472e-01 -1.968253596084428014e-01
4.981478767278647024e-01 3.233243482944502256e-01 7.898184401246135522e-01
7.505176672023632367e-01 4.635530344737613384e-01 -1.490106090932651339e-01
-7.110997103388350116e-01 -3.177397262543457113e-01 5.837790863340983627e-01
9.209632349508496407e-01 -5.245156828583254216e-02 2.695881548584391219e-01
8.789667484692944566e-01 2.151998180616231382e-01 1.258596390062522441e-01
-1.968803260162228785e-02 -5.262553000909010459e-01 7.626414130994673135e-01
-8.537537546300716373e-02 -6.412286411799332786e-01 6.826622643559567827e-01
5.139145242368688971e-01 7.556430912609082839e-02 7.708437384328455932e-01
-6.073549621746179294e-01 -2.684716142166190811e-02 -6.669923624706175502e-01
6.817003150307028303e-01 5.339211789033099231e-01 -2.204558933240280127e-01
6.333922500498913033e-01 -1.315402154896887221e-01 6.519097236584798782e-01
-7.170136669852545941e-01 3.501315283866126560e-01 -5.437262425851877579e-01
8.092347028793982489e-01 2.496568024377355255e-01 3.142365125652733515e-01
-6.317345929472449884e-01 -2.704442456212254320e-01 7.206170631338704169e-01
-6.182538817271278075e-01 -3.366997012073151829e-01 -6.311063048157116162e-01
6.072823249049007499e-01 2.793067762201837390e-01 -6.756264639100113545e-01
3.768387824736698088e-01 7.065520563524049225e-01 -4.390474255152697070e-01
9.175952609551553119e-01 1.795175846876030934e-01 -9.234133237180731923e-03
8.403683322248962639e-01 3.224274416246803443e-01 -1.442136459205013710e-01
-9.180782605481552228e-02 -1.160234297460082525e-01 9.845808573622216731e-01
3.643159542171441889e-01 -3.817731078687248703e-01 7.639426045734135640e-01
-1.754022319849511957e-01 4.727384620699192630e-01 -7.460656085230299439e-01
6.364949483449876544e-01 3.012793111856119643e-01 6.180253376376589891e-01
8.247673570174260949e-01 3.381257485469370550e-01 1.240369471848481592e-01
-3.380481671910530173e-01 -4.074948992423810812e-01 7.742845046493727068e-01
7.511644641221896374e-03 -3.478008025465390007e-01 8.598477684357547224e-01
-3.480672995056137142e-01 -8.602470196978734274e-01 3.622491542519780117e-01
1.645586463790294288e-02 -3.902428964550709312e-01 8.374593023493721589e-01
1.431627144793126971e-01 -3.732720510688283255e-01 8.305866259716083722e-01
-5.189551535728792464e-01 -7.216365952735774858e-01 3.224878794567836993e-01
6.943272223873149240e-01 2.692377732208682817e-01 -5.984889094026568657e-01
8.429722535293140417e-01 2.733576757472633845e-01 1.761344906294404766e-01
-5.014811928841218513e-01 -7.014156301797666027e-01 3.736317167893280500e-01
-5.637553575598308608e-01 -1.838523106850583899e-01 -7.115052643514530040e-01
-8.280978141195741715e-01 -3.923671063206242149e-01 1.083950555854056863e-01
-3.357723321743271566e-02 -4.971802882557172509e-01 7.786823850015449633e-01
9.352749302550373844e-01 5.581329858188682769e-02 1.512272109048543034e-01
-1.864888060407600134e-01 2.579949967762575347e-01 -8.377256089897977542e-01
-7.004172892459996635e-01 9.073594901422581127e-02 -5.746493991855775585e-01
1.543112182523872777e-01 -6.575398230277492706e-01 6.914801407841558722e-01
7.742835248490680389e-01 4.466933290124261435e-01 -5.755454857174181760e-02
-6.829775470922117009e-01 -5.696372330990771005e-01 2.440256634638009181e-01
-3.915879922358646015e-01 -5.063470454532876808e-01 6.694422496345967533e-01
6.611992125461529923e-01 2.389388060058678653e-01 -6.685685326720639532e-01
8.452081337645080961e-01 1.834242686896795371e-01 2.785337449339743698e-01
-1.356819289073328272e-01 4.477683166636509116e-02 -9.351968314412885119e-01
1.936789693458912665e-01 -3.625167515662877649e-01 8.246074799651728071e-01
-9.525528249939156922e-01 5.552569435373207879e-02 -2.163175835593316443e-01
7.814248208719726252e-01 -2.902506064480503412e-03 4.818486459735018546e-01
1.242719041891580112e-01 -3.083950821043351942e-01 8.629411215523105083e-01
-1.819046769620490389e-01 6.133502412747695587e-01 -6.766141968186969446e-01
6.547344961550535247e-01 4.828299215743709349e-01 5.074152026603243604e-01
-9.451352990823667088e-01 -1.758885034424046423e-01 2.429001134209386736e-01
8.493351935666053620e-01 3.157808781563949951e-01 -5.646572814690319075e-02
-5.300523658256884874e-01 -2.367540791870279826e-01 8.220520848418425564e-01
-7.628972995485054920e-01 7.101435736063411996e-02 -5.067544897483634569e-01
6.047346703770416498e-01 6.107390707981865674e-01 -2.619050936713098743e-01
7.699845711333088705e-01 2.582660239516068601e-01 4.008316892019023192e-01
8.173074586771553740e-01 -2.675722836765074275e-01 4.702777930773014980e-01
4.015346806973653093e-01 -1.811873520941502391e-01 8.056444369912969528e-01
-3.218252549621285485e-01 -7.175551328224041292e-01 5.254641305211624758e-01
3.282193910566056916e-01 6.466501869725306273e-01 -5.332097501667243389e-01
3.151937338109581099e-02 -1.878909025066969052e-01 9.339589425724474925e-01
-2.507330968891489653e-01 -8.792540199424292435e-01 4.249486339772627352e-01
6.312052844212058256e-01 5.735644076752568488e-01 4.943410539473073739e-01
4.382397591262641168e-01 -4.964960490051060771e-01 6.966720893003393034e-01
3.234109223797884680e-01 7.391519182351286021e-01 -4.502805013994408689e-01
-1.044154738188891179e-01 2.044218703923252334e-01 -8.796134516862117447e-01
4.856649736746723039e-02 -2.842918137653413502e-01 8.867662986841887696e-01
-5.464301627280956364e-01 9.948765989384149300e-02 -7.067217550576228025e-01
1.304176627339302397e-01 -7.287421943744701869e-01 6.533146650123080601e-01
5.023464598230679146e-01 2.729939627692876125e-01 7.871813177456684629e-01
-6.057529497304914301e-01 3.460195459474903479e-01 -6.239423732790720933e-01
-5.350037734176343873e-01 5.359976408199618181e-01 -6.153317910879712027e-01
6.199680175633907053e-01 4.943356665107993542e-01 5.734220948729866763e-01
-3.403180736599109024e-01 5.343118548081808861e-01 -6.856551254794894801e-01
2.928075430942865265e-01 -6.785718138772062202e-01 6.664136511691465259e-01
6.923801413611437860e-01 8.809646393986383939e-02 5.837599143226301912e-01
1.354661466270012417e-02 6.641275330654955456e-01 -6.395359535496814019e-01
-8.512222695676473494e-01 -2.386579901235371393e-01 -2.347903668706750047e-01
-6.266624254274072436e-01 -7.152521041312455141e-01 8.854961536100199038e-02
8.030289764470927016e-01 3.814988685888355269e-01 1.345931939528602905e-01
-8.066749964692646602e-01 -2.917528939302220237e-01 -3.062015443768257295e-01
-1.421217300691132446e-01 3.697549971800287993e-01 -7.989648974298922957e-01
9.815124971406147258e-01 1.938034538311616400e-02 3.804132251819043742e-02
7.679150718801420750e-01 3.863976948661894673e-01 2.888768493192854225e-01
-6.652228536499269484e-01 -6.227419600479783268e-01 1.814999585086158607e-01
-3.544973559965874932e-01 3.667725651473349169e-01 -7.440511664257375424e-01
-2.221018428460738159e-01 2.768338454107096003e-01 -8.204580512926252789e-01
7.294955476237343639e-01 -3.160210287390683576e-02 5.528256572170417993e-01
-6.989154059862655588e-01 2.568598752953087927e-01 -5.680738222057478692e-01
8.845735762053669182e-02 4.278113698171441825e-01 -7.761303543893088852e-01
6.790456886621382138e-01 1.876681034986731056e-01 5.837721643790702020e-01
6.529607688209684291e-01 -7.542975329627210623e-02 6.363346083186712798e-01
3.285228942639960015e-01 -4.064241658770601506e-01 7.684747882347613412e-01
8.820456267631555658e-01 1.778916872407450278e-01 1.739902574511164590e-01
6.003481606072273991e-01 1.423030223221413704e-01 6.870724768596506715e-01
-8.021300417288146356e-01 -3.924105115284272638e-01 -1.981942501443042515e-01
7.647557559964300866e-01 3.364321645170295638e-01 -3.905783321854642831e-01
5.164474483196931365e-01 6.635843363527512695e-01 -3.335922980659816184e-01
-8.072602689097428952e-01 -3.618810538009105682e-01 -2.270427230794259954e-01
-7.310366167462294396e-01 -5.734173541712319633e-01 -8.623127407963172841e-02
5.128499184895418672e-01 5.442188887812358100e-01 -4.827713400331212767e-01
-4.529961077889461118e-01 -2.797131366933678365e-01 -8.205128994085587602e-01
3.682667462454545237e-01 1.956928100801742527e-03 8.673159156000510572e-01
-5.170599661403593172e-01 -3.344296605925853871e-01 -7.562062457339817634e-01
-2.751618476372774125e-01 -6.327607787006716000e-01 6.250704185213081798e-01
-3.237740230027466026e-01 3.147000351074596414e-01 -7.733963736474753770e-01
1.457693008525061118e-01 -5.940765506557308395e-01 7.247261132670638206e-01
4.127511683169225454e-01 4.258134956310504760e-01 -6.761788265697900036e-01
6.844380671924253923e-01 5.317549710286605391e-01 -2.171950714964384632e-01
8.967926689781028360e-01 2.273805635707639994e-01 -1.366073588248701842e-01
-5.094613453367843325e-01 3.298065283235853129e-01 -6.847975997849330421e-01
-6.393349265037518991e-01 -5.113623947766566813e-01 -5.337983998632822580e-01
3.495371123556678672e-02 3.777158872615101193e-01 -8.082488865946519940e-01
-1.146700875663276831e-01 6.696666182390558220e-01 -6.481668569594479790e-01
8.846492876064427913e-01 2.202554404207157368e-01 8.646813539518732883e-02
-2.697828865164389467e-01 -2.583684839044205206e-01 8.971077713005354282e-01
2.225178951494612978e-01 -2.466625628338537934e-01 8.621998588031224431e-01
