2.936290017500597371e-01 1.616655626434399529e-01 2.881372405387681579e-01
-3.628926510945534867e-01 5.646358211073458921e-01 -2.292150214627643734e-01
-2.804720811883259501e-01 -7.387992526186113462e-01 1.143159262536517645e-01
-4.128631756749397974e-01 1.537785279025176699e-01 5.435660059180932174e-02
-3.680959930624073673e-01 3.582500690686476474e-01 -5.085089789834899010e-01
-3.146407824676554221e-01 1.712718516223967480e-01 2.598809565380472142e-01
-4.505055100371271881e-01 -2.160469314097792359e-01 3.327168957859570342e-01
8.548128999303143682e-02 4.787640277440326497e-01 1.706812782437178988e-01
-1.802941429118202765e-01 -3.645624045155564374e-01 8.387278203812883470e-01
4.004606225773283956e-01 6.880742271976253432e-01 -2.175774794045901295e-01
4.313692600207997274e-01 2.722689791495616976e-02 9.474662749296489106e-02
1.471518586853474697e-01 4.382384582591583033e-01 -9.191349168550048132e-01
-1.774225592006570436e-03 1.206610213671735765e-01 4.675965121472733244e-01
-2.511570668385344485e-01 8.387666221964376057e-01 -2.772451725182495386e-01
-3.946386756848616617e-01 5.068357019148364007e-01 -3.209127618679123994e-01
-1.814536423510380581e-01 6.850017452755473579e-01 -6.725569218657749537e-02
1.127466566212182580e-01 -2.169616905429703480e-01 7.061039912073108216e-01
5.894560507371102848e-02 2.344116031504684394e-01 3.699081432506288181e-01
-4.167866933993410461e-01 2.714348580435022584e-01 -2.413948703286695474e-01
-3.076788974552795430e-01 -7.191054487172164889e-01 1.228871574637635800e-01
-1.560092984745856115e-01 8.955050480910645150e-02 4.632734315249993351e-01
-3.733435824355257893e-01 4.906097936389502423e-01 -1.820853490890946280e-01
2.677034501727120763e-01 -6.346108715078222495e-01 9.886681632196990532e-02
-4.577459401490595048e-01 -2.382542034312378487e-01 3.180926586331526140e-01
-1.349621912333869578e-01 7.981190409190078161e-02 4.799970088843396043e-01
-2.039069611838074947e-01 1.579465422994967283e-01 -6.105646706983586247e-01
2.716935253716750154e-01 3.613646339535185881e-01 1.654751696192875987e-01
-3.216480461188018780e-01 -3.447989892965884207e-01 -1.312361796156653881e-01
-3.246448290458751190e-02 -5.848042090361939005e-01 -9.840463629998465189e-02
3.261204877917843192e-01 -1.122756227773292897e-01 -3.096866651540712279e-01
-3.941436534583174778e-01 3.331969518389336637e-01 -4.070745327764232480e-01
-3.226939216038679503e-01 2.544002691623489243e-01 -5.404242819417918176e-01
1.869332515247253690e-01 -3.541079052495052504e-01 -2.275417759382662442e-01
4.053952528606486472e-01 2.258949483609679343e-01 -5.000680511858167643e-01
-2.686130427524361930e-01 7.096961118737385998e-01 -1.804164923715221858e-01
4.279941577472480829e-01 4.730653860158783308e-01 -6.998634553692650861e-01
3.799365056317026146e-01 -6.065628738995259006e-01 5.807328839985587132e-01
3.162148793558997584e-01 -3.854476726868547032e-01 6.340200681925767245e-01
4.262525776263464961e-01 3.488228148896342917e-01 -5.313478847254633070e-02
3.717717291917224109e-01 1.932593855787840265e-01 1.579767960348555100e-01
3.318950745565356630e-01 -5.505146001057461547e-01 7.090533246080171770e-01
1.375048451408088235e-01 -4.846660540868562572e-01 -1.430478387850538935e-01
3.765711467904587773e-01 -3.011268868770752283e-01 4.512965702706078219e-01
-3.606597661800131638e-01 -6.512173238025960043e-01 1.316587242229310117e-01
-1.532939288055325255e-01 5.265446066330647934e-01 8.989878525389344288e-02
4.430868939520445915e-01 6.772842032483930019e-01 -2.898004555700305906e-01
6.719459733515428801e-02 -2.985397762720896631e-01 7.878814519214799583e-01
-1.607055728354806479e-01 -3.675505879556918102e-03 -5.187185494197791291e-01
-4.262430841616062782e-01 -4.114350315203128550e-01 6.291865025623208929e-01
-1.708308190350221745e-02 7.165643934645677948e-01 -2.083834937565733764e-02
-4.470661330363244756e-01 -2.521882249819031308e-01 6.972437658247206127e-02
3.575880103586974168e-01 -1.769315119236827272e-01 -1.964824542699165622e-01
4.399362314437999522e-01 1.018319694273526616e-01 2.510979916365499096e-02
1.506555801778893533e-01 2.397059097815739115e-01 -7.520072264889655633e-01
-3.395988736739052882e-01 2.884660967394868381e-02 -3.628487791933990292e-01
-1.557138420292684955e-01 -2.992955114018735485e-01 7.923130975088973349e-01
3.270711653784020290e-01 -2.057409840627160424e-01 -2.202425947786963156e-01
2.242736687024523834e-01 -3.522227762036997389e-01 -2.017810040326711851e-01
4.690430284400057825e-01 3.659584347730158171e-01 -2.196689912875470774e-01
1.190547266019574002e-01 -2.776791361020867002e-02 -5.371464716526416217e-01
1.887640658997728760e-01 -2.380613956253250021e-02 5.158241069588803684e-01
3.892087903445534125e-01 7.940468174325875372e-01 -2.730533002196378067e-01
-9.964998200889814417e-03 3.387638765711519229e-01 -8.418543924407702050e-01
3.650189578436154325e-01 2.148258881273244492e-01 -5.613977163149048710e-01
-3.025070018655773296e-01 7.141324067959483601e-01 -2.383831059581474621e-01
2.033270321719421458e-01 -8.261174482077292269e-02 -4.529910840720047238e-01
-3.468669706261912067e-01 5.732895855037226651e-01 -6.883607336289526701e-01
-1.972181679325037129e-01 2.039698924359529542e-01 -6.499574669658716441e-01
2.463290509746045576e-01 2.927703866103320007e-01 -7.518475695556497973e-01
2.514938394179557779e-01 3.203170366774461542e-01 2.128042442357777897e-01
-3.818308937109456958e-01 6.179637010796629193e-01 -5.630275214271523998e-01
4.024428932133481962e-01 -4.717593811594218423e-01 3.311662512027323535e-01
-3.276900603226422515e-01 1.367112747507717718e-01 2.738905159328786643e-01
-4.013038837163812600e-01 4.197190479922132123e-01 -2.380575062703693401e-01
-4.552369893113881738e-01 -1.525212409080911324e-01 1.088009264588991470e-01
6.525056637061962816e-02 3.869842205569909988e-01 2.472878414790968815e-01
-3.860790344715083755e-01 6.233100296247493510e-01 -4.440002562091352467e-01
-3.893320483400820597e-01 4.273594018655201277e-01 -4.668280345444341672e-01
-3.381503866963210259e-01 -4.345955517294552289e-02 4.283605231646094302e-01
-1.938976833221192630e-01 3.441623430258968774e-01 -7.562753865081791593e-01
-1.211830087509560006e-01 -5.145602872787382598e-01 -1.406719316268089659e-01
3.165645702745131240e-01 -5.246568478837370098e-01 7.239605692321339214e-01
4.433526751246973374e-01 4.727513157527997445e-02 -1.659718927558852808e-01
-3.198485664836821507e-01 -4.506317082913221528e-01 -5.834158607436873423e-02
-4.138774819465485671e-02 5.017915533478167767e-01 1.526304207084713815e-01
3.172414488969473312e-01 1.805327208586977594e-01 -5.911253263096232224e-01
-1.819256007517414675e-01 8.836542575629270369e-01 -2.434976980479264252e-01
3.109485310852888040e-01 -4.700687965225915366e-01 6.138540342257850155e-03
1.665207057657946410e-01 -8.352929190009790172e-01 1.790513821889590240e-01
-3.954156815073097686e-01 -4.575981885652591341e-01 5.278241679081924209e-02
-1.362598915645287789e-01 -8.477974243184226155e-02 6.182227947815920333e-01
-1.278063284085508566e-01 2.157458847807040281e-01 3.677579792269004000e-01
-1.777112993450016276e-01 7.590456097125229951e-01 -1.296279202564091515e-01
-1.837540838482199235e-01 -7.152923222491357480e-01 3.848937452475737625e-02
-6.385377484168186513e-02 4.640190018170152753e-01 -9.246798240706850525e-01
-1.034766351937865675e-01 7.418409938616086219e-01 -6.900846335243192298e-02
-8.898535091099928074e-02 1.574469317278083813e-01 -6.767173369486353396e-01
3.181585069636919116e-01 -4.406578348053739880e-02 -3.838521635027958290e-01
4.381418036016684336e-01 -7.529130352801297055e-02 1.468568612441845458e-02
3.422081708935840183e-01 -4.170063231172835283e-01 6.043206789585217065e-01
4.349034669832156363e-01 -9.981339158210593421e-02 5.022059405702964871e-03
3.181321342709298450e-01 -1.943815557748024836e-01 -2.438916309008533345e-01
-7.850156363736601750e-02 -4.439901842045685387e-01 -2.067190758519928395e-01
-1.805289776777169730e-01 4.679008742176603008e-01 1.237334627180625563e-01
-1.988871793184773806e-01 -7.961487558609812165e-01 1.076482895910251120e-01
-3.099006764909135181e-01 -6.132889033375333865e-01 4.806796681424688883e-02
3.733530321659771500e-01 -3.936524800202307883e-01 5.114887263893428404e-01
-2.603823028111238447e-01 -4.251845196240181535e-01 -1.338317636569952285e-01
-3.584414463981223098e-01 2.046276879213830280e-01 1.557927501069825693e-01
-1.975763839474063699e-01 -3.923702403555198726e-01 -2.020286287294402738e-01
2.088640322069049704e-01 8.634506657460433443e-01 -1.705944099704537753e-01
4.545600474235418909e-01 7.102210518408664797e-01 -3.362651551276912287e-01
3.793008544172504215e-01 -7.289218762451696865e-01 5.377931530982487107e-01
2.279185858636335882e-01 -1.719402469756727558e-01 -3.580935059555068189e-01
4.880345456900430090e-01 4.795168936344218480e-01 -4.271488202690146285e-01
4.397813634750680767e-01 7.013840845508778621e-01 -2.975382262224821606e-01
-4.722776240276843618e-01 -3.748410509292627313e-01 4.104913764654598007e-01
-1.146551946492993246e-01 -6.769037586636852399e-01 -1.443611625163635642e-02
-1.559879550460810671e-01 -3.873549727684745814e-01 -2.270080585934739215e-01
6.402465675326840522e-02 -2.625703925490342483e-01 -3.545042356995779520e-01
3.530102594055173348e-01 -2.967892764261629082e-02 -3.473274519466274524e-01
3.449245262934404477e-01 -3.210461299527893053e-01 5.388474859116317850e-01
-4.692879517447605675e-01 -3.737323583128741022e-01 2.299647656926329109e-01
-3.131064622857226976e-01 2.295218095119646029e-01 -5.392202529242589026e-01
4.348827954834946080e-02 9.387059821324136299e-01 -1.967482396617062923e-01
-4.504570671454067865e-01 -9.988321122338218727e-02 6.517779732095276002e-02
-3.429774785135055737e-01 2.946018503065878091e-01 -5.292758704072570985e-01
-3.226306070230971490e-01 2.810170229355303806e-01 1.448120467084741125e-01
4.676003580930486181e-01 3.407757597127851201e-01 -4.192364017032828571e-01
2.537812349816346291e-01 1.503373002945775083e-01 -6.220506620266158526e-01
-2.556154969178695557e-01 1.304244705873022492e-01 3.626553579488339119e-01
-1.032152518668910529e-01 -1.702129167529376486e-01 -4.161492314582898033e-01
-4.618913063474281433e-01 -4.593220637778101523e-01 5.771387257181718189e-01
-5.757794090828377565e-02 2.717513687313668491e-01 -7.768879638996232240e-01
-4.261523033006646144e-01 1.744024591404934876e-01 -7.482906059280998445e-02
3.264728213867471029e-01 1.705885819160848083e-01 -5.715173815215160991e-01
-2.998795345378968413e-01 4.166571844923793178e-01 5.049759137123128322e-02
1.953095697619578741e-01 -5.671636611119867943e-01 -3.502234207841686126e-02
-4.306551543732446002e-02 7.529551305250237192e-01 -5.667234028545406477e-02
8.309499659367373947e-02 -2.929850283746512907e-01 7.776659545307943455e-01
2.112998271666062522e-01 -1.363794613501926323e-01 5.829050929409897996e-01
-1.897717969144541161e-01 -5.037192641833890816e-01 -1.213880850614398044e-01
-2.544588104204455470e-01 -2.170984836161728437e-01 6.711088355917327331e-01
8.137340996134401205e-02 -3.812795210508234112e-01 8.468360364849135680e-01
-1.166968680052547780e-01 9.436788405984298800e-01 -2.492460866337366521e-01
4.026298916825551411e-01 -1.202779850862248368e-01 -1.464371029152128079e-01
-3.491241349703502750e-01 5.610920549451144934e-01 -1.852944985055992588e-01
-4.072986798972054734e-01 3.868007709413779360e-01 -3.198129200474760792e-01
3.743948536102253422e-01 -2.984764253632585795e-01 4.558622139153427066e-01
3.905629339809489342e-01 -6.059437710951590672e-01 4.592125153892285261e-01
-1.368942874538380816e-01 -3.544619702713081577e-01 8.437819722450669024e-01
-3.898353792782728866e-01 -3.365103254767874419e-01 6.269529262545594506e-01
-3.504984023696842144e-01 -4.362193314478133299e-01 -3.094795999993803226e-02
-2.187730239013441214e-01 2.713296753904035907e-01 -6.811567111128755680e-01
4.165272462848393920e-01 2.236321112081291751e-01 4.462065127325382657e-02
-3.213352913539098688e-01 4.483592616655726060e-01 -6.693714317730677932e-01
4.329543734856221571e-01 1.916353896599311268e-01 1.361497577142645188e-02
-3.567788248226063108e-01 6.834990293480138757e-01 -3.413819679012318753e-01
-1.019446162637849089e-02 7.004554875268691472e-01 -6.449250834075656753e-03
-3.883735630516582660e-01 -3.318971896957976231e-01 6.249945627236603851e-01
-2.840221564292402245e-01 3.332677672990767559e-01 1.490660618770495160e-01
-1.767883496410294908e-01 -4.912806996830660494e-02 -4.746886342315012608e-01
-5.579596115099956510e-02 -5.841654808622671613e-01 -9.772322586339375616e-02
-2.804642927107575331e-02 9.389143794765446582e-01 -2.080831452358298250e-01
-3.185447281937386355e-01 -6.177235458102157128e-01 5.989878807730486532e-02
-1.123611747252751744e-02 -5.589620943871583675e-02 6.106632263183220388e-01
4.026133292958181675e-01 5.911953220626706834e-02 -3.367309557605733250e-01
-4.481822444486098234e-01 -4.091333409195918036e-01 5.682323515790117519e-01
-4.125916457286633587e-01 2.111377847874383873e-01 -1.650808307083696108e-02
4.177857951427255134e-02 1.047753854293168550e-02 -5.814129360497136689e-01
-4.110658758550193581e-01 3.534874820024948017e-01 -2.644046205360991442e-01
-3.301111282661923219e-01 2.940282357153609638e-01 1.203108479067685477e-01
1.137020495184135338e-01 -7.804356400952249251e-01 9.844867614878104189e-02
3.916058767504817517e-01 -3.981411636401685494e-01 4.472730647146503924e-01
-1.685844352113768929e-01 -3.911637371849082667e-01 -2.182860542984191576e-01
4.380542784741737194e-01 3.139570916987799443e-02 -1.791051138887191363e-01
-1.210386524751623644e-01 -2.199837198355411583e-02 -5.245514350336339948e-01
1.637560633360853890e-01 -3.548365048301385105e-01 7.813237464028197632e-01
-5.110508180334145945e-02 6.931774116826863730e-02 -6.194255646479674970e-01
-3.908743028963649335e-01 5.753511836845484062e-01 -4.593924637920299148e-01
-4.871934921678512942e-01 -5.349274469867079107e-01 3.894101041302636124e-01
2.140444974889508523e-01 9.055490578842970151e-02 4.123520438643863972e-01
2.910666175499995387e-02 3.657410935314552303e-01 2.682268691550525053e-01
-2.729269067116059100e-01 9.182246023571329907e-01 -3.845481709867646924e-01
3.323696557813773933e-01 -5.436617066361626449e-01 7.037992096065626146e-01
-1.501079031257960272e-01 9.015366997956220096e-01 -2.342175719358516595e-01
-3.837092993885210523e-01 4.596549390202847585e-01 -1.864986682676827712e-01
-3.334568159524165520e-01 4.637488404804582798e-01 -5.115593286734579359e-02
1.498013463607616169e-01 -3.467932619482685386e-01 7.846005974314849141e-01
-2.487987792803575682e-01 4.612696713230541867e-01 -7.861888128575412749e-01
-1.412245521956683458e-01 -2.495990030925736569e-01 -3.398856640941127494e-01
2.662333225197638931e-01 4.261847685157772458e-01 1.225542928687227140e-01
-2.649172133161500353e-01 7.341700767308033670e-01 -1.982216520382641123e-01
3.277515776843844542e-01 4.680703477658510470e-01 -8.406157191818565133e-01
2.828587485494144516e-01 -3.814697517165153151e-01 6.823666629589764110e-01
2.744040191000209905e-01 -1.919341274279157405e-01 5.609128314919067382e-01
3.885839704787901194e-01 -6.124888341338996511e-01 5.065874606254208157e-01
-3.568785326188973483e-01 -1.809678585979598853e-02 -3.023604170780619382e-01
-2.108536367292831448e-01 7.224358343292870410e-01 -1.257230526855896147e-01
2.687212301147727245e-01 -5.390632574486458051e-01 1.177992790544785465e-02
4.641678095357636979e-01 7.715247324837833931e-01 -3.961958278713940684e-01
-1.016512938443275837e-01 -3.632074377270135268e-01 8.576322204005679684e-01
-3.296018071961646229e-02 6.345990727953074728e-01 4.414574087829830490e-02
3.959286665091350521e-01 -4.040174509617422416e-02 2.507910570357871904e-01
-8.318561118459805170e-02 7.923670425515244586e-01 -1.031826630170638026e-01
4.725369204898494657e-01 3.689456951360126080e-01 -2.451600455015020830e-01
-8.063138241947566398e-02 -2.989413792437931039e-01 -3.212991906914268725e-01
-3.566144001655804363e-01 -2.148559277370153675e-01 5.631409763976448213e-01
3.405270427149261203e-01 -7.255801300415970490e-01 3.221552800640530845e-01
-4.413365913308316957e-01 6.962861453706975512e-03 5.818437846883089959e-02
1.367462399226145875e-01 2.479872134825443150e-02 -5.758004012535458127e-01
-2.708844414704308576e-02 -1.354288724598555760e-01 6.755677349088039518e-01
4.434334489231018805e-01 1.719894119095758539e-02 -1.165579180728437692e-01
2.376538324487972587e-01 4.605361028547200197e-01 1.188988188214988584e-01
-4.929508715975374211e-01 -5.598354088071841872e-01 4.975628776319133140e-01
3.450216688954714783e-01 -7.204576458969563779e-01 3.295100633148945746e-01
2.455349296814209048e-01 -5.545383140051235449e-01 -5.352175920695849236e-04
-2.555708317060674806e-01 -6.166116989602101750e-01 4.633122850543978932e-03
8.699728153537576725e-02 -3.265829912013432645e-01 8.021354038561795408e-01
-1.983603005247816867e-02 3.903971788445823043e-01 2.474059619256061826e-01
-3.908050836153723062e-01 5.075024598400132980e-01 -2.875119328851775125e-01
4.066912144586609101e-01 3.879188137643134193e-01 -6.581002289405766259e-01
1.440165174939246444e-02 8.713069302755371837e-01 -1.439415366793292128e-01
4.575971369942595235e-01 6.812388599870047301e-01 -3.268282111423930769e-01
-2.054269215621370437e-01 -2.047055784918205001e-01 6.910441132376000661e-01
2.249612387340121089e-01 2.258821653616065739e-01 -7.070858194138421871e-01
-3.769841162402803314e-01 7.153359998184752877e-01 -5.040663836714497359e-01
2.114017862033280848e-01 3.457651893370717877e-01 2.227320202629616552e-01
1.374968658640998431e-01 -6.671972895565933537e-02 5.786464193922559174e-01
4.214418257473510621e-01 -7.132808259701722831e-02 1.797418459791624568e-01
2.470315225061098935e-02 4.584847214421634148e-02 5.256522205189406716e-01
-4.802276596343493797e-01 -7.334205041583194973e-01 4.214129755033444447e-01
-2.983097264627719292e-01 3.068218618986953139e-01 -6.137947856530765467e-01
-4.154863023488472029e-01 1.006714580926359043e-01 -2.162799577473000223e-01
-3.737468603858677962e-01 3.387808717606646258e-01 -1.739219282838558311e-02
-3.840388671244249763e-01 5.653352623923638687e-01 -3.235405881433969233e-01
-4.731280329209920921e-01 -5.991909470963920903e-01 3.305395675371371467e-01
2.038351133088530179e-02 5.452436310896061622e-01 1.230602700602157623e-01
-3.318623811970350390e-01 7.304930228335065889e-01 -3.175420830707992303e-01
-8.918327209065170236e-02 8.509741578614317126e-01 -1.555631054394223112e-01
-4.456504262283248474e-01 -4.829062052284367745e-02 1.143986583168971616e-01
-9.742019017091912286e-03 7.747348328141259732e-02 -6.334716043114766437e-01
-2.378865446724294508e-01 -3.353855471285990264e-01 -2.180797455444739852e-01
-2.661097185713865582e-02 7.578069784316500412e-02 5.040879619495152175e-01
1.525330926928365749e-01 5.109366855507282423e-01 1.260866126583728986e-01
4.383016321922841851e-01 -5.540224002765355843e-02 -4.050186477376447464e-02
-1.727895553990738131e-01 1.441669827391857117e-01 -6.230489014051527885e-01
-1.872701910937699943e-01 -6.596176373483019217e-01 -2.896498153686310594e-03
4.500176069615831054e-01 9.573891992093903902e-02 -4.145711464586315093e-02
3.666024810704311965e-01 -6.357731866997106129e-01 6.558055672921447865e-01
-6.104272936583125808e-02 3.809797921148305733e-01 -8.610959579223222971e-01
7.474884809887209769e-02 -6.330285605373725533e-01 -4.270906434948445324e-02
2.975434612714984439e-01 2.015392482996613832e-01 2.553980860473142878e-01
-4.140560705504245931e-01 -4.732485196938475691e-01 7.163900136580241274e-01
-2.379530768685064468e-01 4.106613875244929379e-01 1.282346993740106078e-01
-3.148230319335515448e-01 -1.074193150619184717e-01 5.172034733104906579e-01
3.035613713159935334e-01 -5.980671760261342673e-02 -3.870740858863138678e-01
1.925173143772838935e-01 -3.996797039140638774e-01 7.926518189258886515e-01
-3.211169821046019196e-03 2.164992043270976829e-01 3.899753537384223478e-01
-1.229028502609096768e-01 -3.541324001816088529e-01 -2.657602167628467793e-01
-1.993558106977847688e-01 -2.477587719471527616e-01 7.310431496826039766e-01
3.803910224387099248e-01 -7.119115914641208631e-01 5.732331208136212108e-01
-7.484493781215123542e-02 -1.636796587850008755e-01 6.967088647775656618e-01
3.845495643471565778e-02 6.870665966696272164e-01 7.953680848537722156e-03
-6.347970147705693511e-02 3.355317611993027249e-01 -8.247824116840634101e-01
-1.824068324847133715e-01 -1.542514993269541723e-01 6.591769456278753214e-01
-3.965114796435188077e-02 8.693885624919328245e-03 5.582866749736867806e-01
-2.600124719229353620e-01 8.879719354959350053e-01 -3.356890965944301364e-01
-2.738644047587285302e-01 -3.394929733844082032e-01 -1.850461039080566472e-01
-4.109427725354083960e-01 2.101714709322251018e-01 -2.798766212758331262e-01
-1.049559449976312023e-02 6.489605584530142579e-01 3.595374851578667097e-02
-4.083110079498439293e-01 3.661692615036682974e-01 -3.178445574505251447e-01
-4.311152715543054015e-01 1.270326191508827640e-01 -5.362046635661015664e-02
2.678283947221183348e-01 3.799290920432942253e-01 1.552362645185115242e-01
1.165584697622585736e-01 6.202142462553994484e-01 5.181677280256751644e-02
-2.531728442626523523e-01 6.674689378430860298e-01 -1.212301491370862405e-01
1.066851695043742748e-01 -4.160884541228055955e-01 -2.145628521899533014e-01
1.371752167308725179e-01 2.108815203086204793e-01 -7.318286663833050154e-01
-3.915954861048525637e-01 3.448546564124618241e-01 -4.229174969166163978e-01
3.607799074491622737e-01 9.464093345462577800e-02 -4.537060886562629403e-01
-4.746298475365095526e-01 -5.427112277058706580e-01 3.121904491310962815e-01
4.933888616471159838e-01 5.433834247428422914e-01 -4.533297184773235622e-01
-4.635116124141037131e-01 -2.625722372323631149e-01 1.764787065466935367e-01
5.422709200788427414e-02 -7.047739035404502195e-01 1.133140371052697264e-02
4.164002622457182445e-01 -1.735457931166668188e-01 -3.058403922397328820e-02
3.101883288542494066e-01 -2.289815202262664440e-01 -2.224377161168987205e-01
3.504999218519935789e-01 -2.642098984106195370e-01 -1.241971578004240212e-01
-4.661940735516330037e-01 -2.899904204941306518e-01 2.012631765202710088e-01
-4.248598897585297851e-01 -1.046873862468719885e-01 3.079303928778970856e-01
3.701227791161889602e-01 -7.211585874612359559e-01 4.297462925186374405e-01
-2.360802735374708250e-01 -4.108915807571767442e-01 8.517460783969295068e-01
-3.174521796620240477e-01 8.287863318267255086e-02 3.384968754098979238e-01
-4.256048981751545113e-01 8.965157347366869284e-03 1.731050183321534985e-01
-1.370233917195333440e-01 -8.050800447248028791e-01 9.231685861134443505e-02
-3.014263831489050194e-01 1.372089841611543459e-01 3.084777592462364382e-01
-7.470900057642052006e-02 -3.294078585348005905e-01 8.325120060288723201e-01
3.942868838432985190e-01 -3.786359279141168210e-01 4.272133651981598335e-01
-4.623924681451646035e-01 -2.676668153251625659e-01 3.258427618073678200e-01
-3.892901188173060745e-01 5.586180795523890685e-01 -3.553676318874671725e-01
3.948960910896069931e-01 5.936116739487368177e-01 -1.455229465777322095e-01
3.862015642634459844e-01 -2.817686761180867028e-01 -2.128499486201018004e-02
4.399391096701745218e-01 4.169429155092236328e-01 -1.285420839142437377e-01
4.342500999085902036e-01 -1.036079638957758953e-01 2.832480396670474312e-03
-3.780523858346662713e-01 1.493493935480386114e-01 -3.620983297055623829e-01
3.650738443270961642e-01 -2.732742492938368128e-01 4.649963572510806276e-01
-4.129855783768377614e-02 -3.759501290618483260e-01 -2.663772593325348104e-01
8.240219329833936568e-02 -2.193375420998810443e-01 -3.866371198753834060e-01
-3.893119971622880371e-01 3.098219156560026374e-02 2.634977937046635854e-01
3.134878437284494557e-01 -8.184750929979889289e-01 3.518269794825034102e-01
1.853014369037695452e-01 2.461606740140422633e-01 3.139917521534182909e-01
-3.750771034390626424e-01 6.056538466091021533e-01 -6.027859657981516905e-01
1.883191647605546998e-02 -4.435352965255252022e-01 -2.115993304185987967e-01
2.941109906413021946e-01 1.190059829613555747e-01 3.179625478598675503e-01
4.802910334397169079e-01 5.544334948517181116e-01 -3.409008681481920933e-01
4.337153020826322036e-01 2.779284683328085981e-01 -3.390250068196125344e-02
6.999258411668261501e-03 5.896542843137917433e-01 8.633313072763071361e-02
-2.059177702088221540e-01 7.557570840102621756e-02 4.486614101110419361e-01
-4.495700917169910826e-01 -4.223835325203973423e-01 1.596559598226844623e-01
4.954974146299686438e-02 4.203644500743041190e-01 2.226253230474984357e-01
-4.695968835202768976e-01 -3.015298845768288327e-01 2.943246348768150944e-01
-2.861740836749538386e-01 5.435044459093824748e-02 4.013630155742623495e-01
4.082009238665796347e-01 -1.244449148542414590e-01 -1.232715796903926520e-01
-7.909126575920689961e-02 -1.305465948443566004e-01 -4.545860976577050239e-01
3.772629287887844241e-01 -6.466509824626592851e-01 3.719115462207036038e-01
-2.293102833991899903e-01 -4.649711185325796636e-01 -1.273067942553078868e-01
2.288930638566169795e-01 3.723553677168526255e-01 -8.312543881413940738e-01
2.130540015854013314e-01 -1.947159635876166348e-02 -5.017241555996581059e-01
-3.887591206186449266e-01 4.228361240811099320e-01 -4.678299214003232565e-01
-2.735423191155295086e-01 4.828152722154034904e-01 2.403090989329147512e-02
-4.377060105354773079e-01 -7.675516224526096609e-02 2.211982121138499624e-01
-2.519078656436898322e-01 -2.963916824934944017e-01 7.423411343817054586e-01
-6.718357104181016393e-02 -2.930944689252640289e-01 -3.287962408514980006e-01
-9.323558252373291555e-02 1.119671898981874497e-01 4.655449819072378648e-01
-2.036772178809495848e-01 -5.797982893556461459e-01 -5.588039217123039887e-02
6.512713058550542722e-03 -2.712065021215611660e-01 7.815730980699940877e-01
-3.543428081176692723e-01 8.252446235594877999e-01 -4.990722083482866389e-01
-3.487025818417958667e-01 8.257746678690900399e-01 -4.748271384529337835e-01
-4.392077632375472329e-01 -1.283845949287177601e-01 2.787666110536370367e-01
4.043823588653380208e-01 5.292803241861697705e-01 -1.191388375877431433e-01
2.024946453531425716e-01 -6.266248649565866469e-01 2.337190896711584948e-02
4.050993023801376380e-01 -2.010642062215926840e-01 -4.712537582439648570e-02
3.742700541911864742e-01 -3.265603488720860148e-01 4.719933411425736858e-01
3.930575681173376634e-01 -2.283298918166637992e-01 3.618997836125665835e-01
4.233856105216897703e-01 -1.778569951795777315e-01 1.873851450369788674e-02
1.888925636536098740e-01 -4.316922686507479456e-01 8.192666668931801732e-01
1.336995610475710250e-01 1.524125957347859661e-01 4.117097690336321003e-01
4.128809183432542440e-01 -2.135756336725135318e-01 2.297457083597896545e-03
4.013795294219736909e-01 4.284460988864643993e-01 -4.835865467991144057e-02
-1.828255015427642793e-01 5.503192122611695325e-01 5.006781107852922158e-02
-2.126610948581253713e-01 -1.380108980129524932e-01 -3.838645157780228856e-01
3.431531644333789544e-01 5.786555318163139061e-01 -6.415422479252190502e-02
2.049229962268888650e-01 -1.697572837142107272e-01 -3.762686272609336857e-01
1.038184762026852781e-01 -7.828020333764443284e-02 6.027876528027161784e-01
-4.294261973289892342e-01 -6.728316393525637373e-01 2.552753208943565055e-01
-8.694751469047915654e-03 1.462708674785981842e-02 -5.832131723409276214e-01
1.322364839082239840e-01 2.092919864467307489e-01 -7.318355210783762388e-01
1.285600777158008023e-01 -5.985899528498929145e-01 -4.992033804841861794e-02
-1.248641629948842313e-01 -1.454912325620499880e-01 6.724232965725651656e-01
1.988616710145050051e-02 -2.416447948225875220e-01 7.557080580111190660e-01
4.402008182277958315e-01 1.028508377188148831e-01 -2.600654163137502972e-01
-4.631044267875458198e-01 -2.732868769976836143e-01 1.712884845263059896e-01
-3.797447723895325256e-01 6.674196138081560647e-01 -5.813713566258242871e-01
-4.480476598545967692e-01 -5.821945321088604075e-01 2.428277632852505197e-01
-3.855183671614060836e-01 -4.616833681414458934e-01 3.846206124021802480e-02
4.240166314739796105e-01 6.078309328443324278e-01 -2.065577276646544669e-01
2.871423164194982225e-01 -6.792169437417188149e-01 1.680696940711494392e-01
2.986707676840295589e-01 -3.376352016654731725e-01 6.298879172570256424e-01
-4.053090445505153627e-01 2.621278177492858408e-01 -4.387164637363469288e-02
-3.839614333313188799e-01 6.303090751259057267e-01 -4.260780799399362939e-01
-1.044038921832916161e-01 4.553170515778737770e-01 1.739806495856157376e-01
4.490327498857989985e-01 4.143773572019650020e-01 -1.542399479358198267e-01
3.065332816619653275e-02 1.125237897117373626e-01 4.715275617548544962e-01
-3.708793329452148013e-01 5.644494185870301273e-01 -2.575420632097364382e-01
-3.301461519555858315e-01 1.512636601022716021e-01 -4.597015089940854615e-01
1.413333702548864035e-01 6.196903527011137225e-01 4.520382995147564226e-02
6.629785578301099214e-02 -9.168345953542565985e-01 1.936597847099789382e-01
-1.257216543341587445e-01 -5.404485210820347829e-01 -1.189942761024594675e-01
-9.846106573388249683e-02 -4.306812893457692693e-01 -2.129036845234596464e-01
3.590972945147952178e-02 1.662612758778597433e-01 -7.081614556963842233e-01
-3.414855911695962587e-01 -4.578675236620657896e-01 8.071418325716986919e-01
-8.525377818908272398e-02 -1.346259969587287053e-01 6.714889227943111605e-01
-3.605141083430662419e-01 5.059289433110784051e-01 -6.119614595703154469e-01
-1.464670699608339177e-01 -5.600649359931157978e-01 -9.679096237281284432e-02
4.100536529059118362e-01 4.991799742410040625e-02 -3.077211565222664480e-01
-3.922602637360669831e-01 5.336449084287702149e-01 -3.430114507379808386e-01
3.605585430436235583e-01 -4.922947592222755020e-01 6.032070212272160337e-01
4.802603659149415893e-01 5.001240060796247056e-01 -5.589373216344476480e-01
-2.668899358434863034e-01 -2.439337121919861184e-01 -2.611446914675724651e-01
-3.282989016358460188e-01 7.304930097607134076e-01 -3.087027099437588129e-01
3.064695245307453297e-01 -4.581419461303148227e-02 4.186461545466634293e-01
-2.940791268687355520e-01 4.360265283573740436e-01 4.051857159042752954e-02
-4.050635595659228816e-01 -3.480544471651226268e-01 6.104194767937547450e-01
3.896642102830685794e-01 -4.015465825430649116e-01 4.571985305771428809e-01
4.279447353248366781e-01 -1.788966812379167992e-01 1.470511716096548349e-01
3.251304903770128596e-01 6.380363390542616031e-01 -8.655754961893830091e-02
3.523812882099452981e-01 -8.080850642587281696e-01 4.527422176435704215e-01
3.209345002523714130e-01 1.106652244885962533e-01 2.910640845958957779e-01
2.800050950207101930e-01 3.405097500085086382e-01 -7.694006840102456390e-01
-2.586461764297293686e-01 7.705818870897297446e-01 -2.237139340931922626e-01
4.478868801905051544e-01 3.145477368382949002e-01 -4.787147983353232106e-01
2.435063397319714440e-01 -4.585251684609896738e-01 7.854032037618924322e-01
4.535070032126791162e-01 1.147333212607714176e-01 -1.796540794392997298e-01
-3.720130688008669306e-01 -2.850287465993069369e-01 -1.010166776494240415e-01
-8.637603660590312260e-02 -7.890428949487944266e-01 6.985413573056124814e-02
3.464872216722946208e-01 5.396773509352926768e-01 -4.072132228220939204e-02
-3.588173119102248121e-01 -8.039518913288495883e-01 2.367469687224351138e-01
-1.600427071055487149e-01 -6.869201086374175924e-01 6.988356465139001356e-03
-3.994712114410387538e-01 -4.110010576755428469e-01 3.012671076986779897e-02
-9.775984441842611172e-02 -4.117526204195038342e-01 8.980349175091487668e-01
-3.254877824063819869e-01 -7.469840904754875277e-01 1.601367412202868434e-01
-1.637339036126446989e-01 2.386914889437929954e-01 -7.001651785460141220e-01
3.301792366984795946e-01 -4.291729412608409344e-01 6.367397704222621524e-01
4.446532788977997641e-01 2.714495039436229037e-02 5.669001198097694399e-03
-3.804038971765735105e-02 8.587569514624551203e-01 -1.437654203219781990e-01
-2.264771832942500951e-01 -4.021753522685805882e-01 -1.763814696040901797e-01
1.196964580258462058e-01 -6.117550808060424616e-01 -4.296634422635714490e-02
-4.036890369909252110e-03 -5.516253592816992013e-01 -1.248463223424241125e-01
3.806793473180681286e-01 -2.073236674686980974e-01 3.870023118358024705e-01
-3.361674684004764546e-01 5.762808283790116226e-02 -3.875949092984306010e-01
-4.087491169261344148e-01 3.794676923033782900e-01 -2.828771079035973246e-01
-4.466731002918911120e-02 2.946039728554265547e-01 -7.986961384735346003e-01
-3.057403194529917934e-01 2.044037545214766050e-01 2.408856918919706214e-01
-4.479792293385218560e-01 -4.683328641255863345e-01 1.789259543349334958e-01
-2.816550406313300670e-01 4.876391718915762397e-01 -7.612016596861784778e-01
-3.352772256931220163e-01 -4.644145851649245649e-01 -3.066432636821711175e-02
4.890053724152072512e-01 5.596057775091470843e-01 -3.948263675242226212e-01
-2.107377892903211647e-01 -3.466288345307206864e-01 -2.286119891886754796e-01
-2.853742587126494312e-01 -8.049716350420382804e-02 5.238093776741749030e-01
-2.897009049172230566e-01 7.366360304282873472e-02 3.800797781276172294e-01
5.005308842632611999e-01 6.188057313910854118e-01 -5.426830263088807671e-01
2.768022563246182455e-01 6.254633630073007378e-02 -5.252521161118037796e-01
3.456658345082475048e-01 8.751277638923624647e-01 -2.782577769777880849e-01
-1.310084310343576919e-01 1.105204126727688113e-01 4.555000487573680479e-01
4.887158999699520723e-01 4.878649783956319208e-01 -4.217311952235676120e-01
-2.125003990189768821e-01 3.796445408834980828e-01 -7.658970684687400610e-01
-2.970058634739652370e-01 4.026343730888973238e-01 -6.806160196848136668e-01
3.792206898163452689e-01 4.824703061700421070e-01 -7.929488694608872734e-01
-2.113442736958207890e-01 3.353745907378742341e-01 2.177373612996977847e-01
-3.849275020841979589e-01 6.420556089709926750e-01 -5.119717825088877516e-01
3.154082518502518417e-01 -8.525421509422682620e-01 3.906518682086325689e-01
2.237298886819267529e-01 6.259464598508351560e-03 -5.171806898320642221e-01
1.446420397991808049e-01 4.251905832204658231e-01 1.957722382283626217e-01
-3.094234934005378745e-01 1.237784433094928360e-01 -4.728714356652185535e-01
8.326790628682148587e-02 -9.430343497958029175e-01 2.229078124313185194e-01
4.594951236409949291e-01 1.761021349069552266e-01 -1.352751113869557209e-01
2.448190996843030154e-01 -2.654303245880578616e-02 -4.731659525004515698e-01
3.499244107617190402e-01 -3.637768696006998259e-01 5.546624759506629809e-01
-2.156782121729460544e-01 7.935131112502964712e-02 -5.429403936254028062e-01
-4.018215003592948142e-01 1.440952954761290650e-01 -2.896275674212827056e-01
3.103557721054039376e-01 -9.628688879265956402e-02 -3.453663459867403751e-01
-3.858998354420970500e-01 3.115402732062377278e-01 -4.286416306301307211e-01
-2.866957706743039624e-01 -7.962033939911076219e-01 1.617575122003135080e-01
-8.038765610768511261e-02 -9.579889538059562781e-01 2.051127884073204732e-01
-4.352541410741268546e-01 -8.528351034994385849e-02 -5.117948127112069423e-02
4.632713795843638738e-01 2.936803890787218485e-01 -3.816604265498433901e-01
-4.623736851412302840e-01 -6.108270313366029880e-01 2.994877157252873179e-01
-3.128704674053139345e-01 3.185228519213536558e-01 1.240706502907141517e-01
-2.343433176053823785e-01 2.327886028496597148e-01 -6.384022246128941980e-01
-1.066546571215600953e-01 -5.336769300981192288e-01 -1.295497813832066081e-01
4.348369565557905769e-01 8.521951988694230762e-01 -3.839168645426312421e-01
-2.720401842570522311e-01 3.555419794553963952e-01 -6.833894297293743314e-01
-3.414603722802680985e-01 -8.833714113748394325e-01 2.746063282544352613e-01
3.972918959918993465e-01 -4.038009291891177521e-01 1.646159924641075190e-01
4.439110967934057905e-01 4.083280800615572970e-01 -1.352090661051295883e-01
1.465808315685906693e-01 -1.558730986941588292e-01 -4.193362114109458472e-01
-1.334644985393490801e-01 7.412156280957077348e-01 -8.405807058717412739e-02
2.727631742556622663e-01 1.383848161579562808e-01 -5.963589551879875383e-01
4.122174163140173153e-01 -3.647592968928090040e-01 2.566390392922036634e-01
4.425751538728459611e-01 -5.634916212382668106e-03 2.139903504454103780e-02
-4.112073251613124203e-01 3.480366865145937405e-01 -2.309749110592118071e-01
4.284271918219551001e-01 7.410641269132114406e-01 -3.002422127715408950e-01
-3.214090466063256324e-01 5.290771840132550974e-01 -9.235481986796573173e-02
4.659563066772144935e-01 4.023544828041425991e-01 -2.141068875395484294e-01
3.450458745440059261e-01 3.658793453378971772e-01 8.228783506232502376e-02
3.218223747893516618e-01 4.287305500068396280e-01 6.662985949713573497e-02
4.086772032545632483e-01 -3.894750938384530792e-01 3.244239499958387341e-01
-1.876721259568183697e-01 5.156851661557668165e-02 -5.434126033066596362e-01
-2.423084903749793684e-01 -1.923773477667312937e-01 6.580767337804457329e-01
-4.388790953422159191e-01 -2.834385183104997652e-01 4.598236525272643149e-01
2.433336965345591074e-01 2.171955323317879827e-01 -6.879823409779469712e-01
3.828313721735892572e-01 -2.379855937773202867e-01 3.983596877333158703e-01
3.967523192977348012e-01 -4.556758383528962120e-01 4.373828442479575918e-01
3.168239924587522016e-01 1.441092207754635923e-01 2.731181848309883753e-01
-2.884616634457612405e-01 5.127609688971918045e-01 -2.355959004196463841e-02
-4.977663693609808704e-02 5.975652478338194795e-02 5.158090180716534690e-01
4.076112967531607678e-01 -2.208608723689856612e-01 -1.350439336103156224e-02
4.372733560382611184e-01 5.019517965322095598e-01 -1.706358474967962224e-01
2.997192808558601929e-01 6.597162027244586613e-02 -5.059074471446147747e-01
-4.492621467107653088e-01 -4.773380884704832572e-01 1.876714639686444253e-01
4.142599536806295668e-01 1.961175895791643364e-01 -4.495576748041991699e-01
1.133654057174846852e-01 -5.273379926890408020e-01 -1.177088859415899580e-01
2.703137103425353183e-01 3.929519987023438743e-01 -8.228719705444981214e-01
-4.542040255003308991e-01 -1.670425079356281373e-01 2.362250791654935123e-01
-2.489210983400245436e-01 3.487836930596624474e-02 4.533242241747211798e-01
-2.150446739257207418e-01 7.071482280062595382e-01 -1.160115927702938254e-01
3.896632910678165529e-01 6.294061014383718344e-01 -1.614110915643920952e-01
7.431307098793697719e-02 4.206651607734688270e-01 2.189409825756740147e-01
5.810411429312098419e-02 -1.671487637660402648e-01 6.877851160715757750e-01
3.987442396774809605e-01 8.492680753379264758e-01 -3.242781149413565545e-01
4.556355225446217516e-01 1.200234400826251657e-01 -1.465758480159947419e-01
7.077805612633582266e-02 -8.288152192168249943e-01 1.209248327299088099e-01
-3.053830370678770056e-01 7.552342970147626344e-01 -2.840812833395950920e-01
-8.727642687503893437e-02 1.422179919996215645e-02 5.480595722774525003e-01
-3.574591780856950507e-01 2.278499945499452006e-01 -4.573383504095637209e-01
4.010121479258786925e-01 3.441756823698408629e-01 -6.258425422417568385e-01
2.554185337448408588e-01 -3.850449085233121349e-01 7.196216596449376279e-01
2.343633039592351586e-01 3.571625998513077160e-01 -8.150572487661730259e-01
4.193945678535648813e-01 3.338108655216620035e-01 -2.739900311515665321e-02
3.978180378013383423e-01 1.376147386761637503e-01 1.411323702377880462e-01
3.688525055528263374e-01 -7.329404437319120280e-01 4.380803264490708560e-01
-3.919975485683321326e-01 3.689149817602298542e-01 -4.314001193653782540e-01
-7.180488733050614802e-02 -2.291544895699717255e-01 -3.785385329127516907e-01
-3.444804394697796313e-01 -2.596524767624743268e-01 -1.606970188812204547e-01
-1.853553611312250549e-01 -8.753006456085317133e-01 1.631121552947335518e-01
4.079844247229056919e-01 8.170738917584901007e-01 -3.160055469935015293e-01
3.956591336899594746e-01 9.186797791617022646e-02 -3.862862069702913126e-01
1.146461974366423803e-01 7.792989173047760731e-01 -7.372965765837780072e-02
-4.183617468543913698e-01 -7.963258324793218712e-01 3.148100025598192242e-01
-3.998716810013085987e-01 -1.260560392080089243e-01 3.992096679187153718e-01
3.546124760361497597e-01 -4.452384486501010374e-01 5.923686429609668069e-01
1.443380977241926766e-01 7.980862594782313357e-02 -6.195687004203397352e-01
9.590296093286879153e-02 -1.806775641888150319e-01 6.854042417397551157e-01
-9.387767061786211897e-02 6.392051329029092566e-01 2.238721352728064579e-02
-2.091193190144021163e-01 4.157575115825473677e-01 -7.953439611441507351e-01
2.808855319978392218e-01 -7.142986939868153362e-01 1.918419719571247684e-01
1.596968851328820493e-01 -9.852175953204239667e-02 -4.624299535882569478e-01
3.929485668105165974e-01 -3.128225581946317280e-01 4.040531602036062653e-01
-5.545942484980913995e-02 -3.129433835837326372e-01 8.197812707186370451e-01
1.353774272976169535e-01 2.754633461015168483e-01 3.156878199530264717e-01
-4.341854539000278845e-01 -3.880621954819674091e-01 9.481638544683521075e-02
-3.805235377249249207e-01 6.221406998979366332e-01 -3.806696005557509976e-01
-3.171712781004024650e-01 -3.518719837808797490e-01 7.367864262696879329e-01
4.485803625695733432e-01 2.579560532574445841e-01 -4.107734821265198732e-01
3.908447059252217470e-01 -4.117765494327479958e-01 1.431343262649323600e-01
4.484649185044513042e-01 4.200357557519781015e-01 -5.933105397567592920e-01
-2.902840661112104925e-01 -6.844665786176485911e-01 8.217475804080177915e-02
3.779316619016568346e-01 -3.111059150484427049e-01 -1.381069406065161750e-02
-7.417986723093560053e-02 -1.558282542684480063e-02 5.749009571068526281e-01
2.201478917986494366e-01 -2.797822422201328707e-01 6.805504064550607080e-01
-3.295584242127825858e-01 3.274872294591643085e-01 8.901345658566536811e-02
-3.779235692380490397e-01 6.763280403193338008e-01 -5.988181351189215684e-01
-3.223136537971171278e-01 6.556489375298852895e-01 -2.193267847658634806e-01
-4.519791049522484672e-01 -2.268672722082225590e-01 3.387644277729257025e-01
3.373175815070782457e-01 4.948509802725338247e-01 -8.550433121129026315e-01
4.684477283663904257e-01 2.689223298086786951e-01 -2.226660463186501404e-01
-4.133265248675971892e-01 2.991356420883031775e-01 -1.527302504636712244e-01
1.362392736013406658e-01 -2.291659558310589762e-01 -3.613919779117887865e-01
-4.589160885056228767e-01 -1.824232323735631434e-01 1.971355677177666910e-01
3.592589704062227884e-01 -3.589179017380725312e-02 -3.308810232942482887e-01
1.133024780626272626e-01 -9.443617718035234310e-01 2.391749158405297171e-01
-1.624105836404814984e-01 -3.046587811915873467e-01 7.946161447689483737e-01
-7.374809045301690402e-02 -8.091355249493417667e-02 6.287848956778456788e-01
3.085196075528646720e-01 7.198442000919551553e-01 -1.297146993797896886e-01
3.797272321560258845e-01 7.469946805033957915e-01 -2.277276015187302272e-01
4.051110003930614156e-01 4.756863659618202900e-01 -7.463440687429832021e-01
-3.925879315864914121e-01 3.488286798251530874e-01 -4.204230217980886031e-01
-3.782510060205753755e-01 7.187125366369756518e-01 -5.472144867050925399e-01
2.599338092933685118e-01 5.237051987837889611e-01 5.543707653519489020e-02
2.988899766009389669e-01 -2.954117179574146101e-01 -1.755636146595427050e-01
2.074878873418410097e-01 -2.222834602269675025e-02 5.012500242120165872e-01
-4.457586204910264360e-01 -3.256104658024658871e-01 4.836309691282977830e-01
-1.618665582350946319e-01 -2.274027807089926689e-01 -3.472950415019750436e-01
-2.597060834163543719e-01 4.920305962963864577e-01 3.202382396518525798e-02
1.158061786486291878e-01 2.867052234336719962e-01 -7.999682072036197189e-01
-2.179288292579250053e-01 7.738558780040243334e-01 -1.789917009331679354e-01
3.863672494722503181e-01 -5.034135133876760371e-01 5.125083864179479365e-01
-4.530382925273517269e-01 -1.411810561873762526e-01 2.026784724837200902e-01
4.162626856147944587e-01 -1.996105342570143881e-01 2.516060389931982222e-01
4.236846391236186449e-01 4.810986795397713678e-01 -7.169019882025267076e-01
-3.510000643137028420e-01 7.858878188919609098e-01 -4.373314163405431776e-01
4.923570746318344238e-01 5.598709379196820102e-01 -5.549920711608329338e-01
2.966523908314009916e-01 4.039908908533726417e-02 -4.859548253603946377e-01
-4.630349125827180057e-01 -5.485449917975453449e-01 2.692784910368828943e-01
4.255364708733368473e-01 3.074837205737788737e-01 -2.730745020770578707e-02
2.672271178825921245e-01 2.391660271224140266e-01 2.588086321124254408e-01
3.035878950399638621e-01 -3.025244946142948144e-01 5.987646741390252325e-01
3.920411917609106789e-01 -1.886736720907495821e-02 -2.820179874251386165e-01
1.107252672503056812e-01 8.089703048476584168e-01 -9.657274726745736226e-02
2.896625838504049977e-01 7.704963582480122142e-01 -1.508512662668418935e-01
-2.426744514743833514e-01 2.416255007017928946e-01 -6.364259759201607025e-01
2.032656044168565379e-01 3.506441146038322132e-01 -8.256051135624382642e-01
-4.658792058616770954e-02 -8.851209905959271929e-01 1.454171715793889930e-01
3.823651724945820174e-01 2.085763686786538118e-01 1.287696886684406294e-01
-4.702306038474454719e-01 -3.111708020639148975e-01 2.528903272408202230e-01
2.671928547553812927e-01 -9.723167804953652960e-02 5.018007586425411448e-01
-3.332536502110183263e-01 -7.132183506675983109e-01 1.437917989008644648e-01
-2.156974908599433860e-01 9.735324682597312762e-02 -5.562070215855688948e-01
3.707482239896454645e-01 -5.674697758953114457e-01 2.448372218719206961e-01
3.269225728708865381e-02 3.623263401738544692e-02 5.322061633602008790e-01
-1.057250444396935496e-01 -9.607733367947648428e-01 2.097657558302871150e-01
-2.891313667415372213e-01 6.810112434066062370e-01 -1.837168981536440870e-01
-3.557531943105414207e-01 -5.126073872491889727e-01 2.892519471521252938e-02
-4.599505891162024018e-01 -3.527024522852936772e-01 4.580208611265669250e-01
-3.040133060257202979e-01 5.575204841337643158e-01 -7.717743537867781667e-01
-1.881370968155242351e-01 2.658728913309156908e-02 5.014154900129060843e-01
1.574755162553943474e-02 -8.017877450568409170e-01 8.327740871854891203e-02
-2.118400658787971888e-02 -2.677332031376889465e-01 -3.550860133974945709e-01
-2.159739248981810411e-01 1.859471668252737353e-01 3.455683729496322187e-01
-3.130381406720608717e-01 -8.317882398981828462e-01 2.100634954593104675e-01
-2.036164152793590310e-01 5.158945257975530163e-01 6.453196059602510359e-02
-3.490412175030910835e-01 6.567949944782971450e-01 -7.280867387159444259e-01
-1.039589882434054507e-01 -3.940089218959539896e-01 -2.403663273270960909e-01
2.958585236674212693e-01 1.275622312180890727e-02 3.910741199063820783e-01
-6.082326755237520838e-02 1.158445408233751278e-01 4.684235438644213101e-01
-2.689571286052139798e-01 -3.228938002895600512e-01 7.532791132154618152e-01
3.471769293985658700e-01 -5.892673908919578846e-02 -3.287386952674958285e-01
-3.163473859178957820e-02 7.058763513088797126e-01 -1.475414372447904354e-02
-3.124130138837729054e-01 -4.943184240842053989e-01 -3.516538977128610965e-02
4.257451027152054923e-01 4.110373262862668797e-01 -6.422487406012654665e-01
-3.638268358340771558e-01 5.157091270515244963e-01 -1.785080016084494847e-01
6.878165836418842494e-02 -1.878593205068677385e-01 -4.155071752822022679e-01
3.767785962740245465e-01 -6.436261262318416776e-01 3.650323425639158126e-01
4.496713535679948692e-01 1.022883548465710613e-01 -1.992513774227342160e-01
-6.000301763565050149e-03 7.763401440503057138e-01 -6.844464271131153743e-02
8.430977835912650820e-02 9.181667938595684531e-01 -1.806243963442639155e-01
5.062638818858102713e-02 4.366259269802568732e-01 -9.273792681402848181e-01
4.395877824770478282e-01 9.039224419182724513e-02 3.094897469966974290e-02
-5.598487990719015067e-02 3.849199301019947672e-01 -8.659400155048710968e-01
4.668369664892248472e-01 2.434429786472547819e-01 -2.353432670468812715e-01
-4.053390815352653220e-01 -4.874744540067783571e-01 9.031829503128169234e-02
-4.234437533982097213e-01 1.777053103482584551e-01 -1.866935701506619028e-01
1.934685187753308611e-01 9.245035751178967143e-01 -2.111510075599871694e-01
-4.420119445854260865e-01 -2.471018856328466989e-02 1.145929791289539285e-01
-4.641873979198071765e-01 -4.199901164914253693e-01 2.152259720256331499e-01
-3.915738775557550677e-02 -3.757693526978283516e-01 8.703056299626388270e-01
1.322797733255075270e-01 1.310766612382222862e-01 -6.664003116939070104e-01
2.301999209580868344e-01 -4.604946152720129082e-01 8.013879703630473195e-01
