2.408735410199736582e-01 7.079599264077993670e-01 2.487659936775757363e-01
6.216910691348557227e-01 -4.264440996367682701e-01 8.080074120073966748e-01
-7.419531298735339009e-01 -6.336067357415238466e-02 -3.493398201647565648e-01
-6.305046852936978530e-01 -3.573457962083231299e-01 -3.715508680863420787e-01
-4.699077280959437219e-01 5.157177293186304690e-01 8.974778448531108843e-01
-2.012475086257870249e-01 6.364756970018748961e-01 6.970286052176115632e-01
5.790140527309410867e-01 -4.892763437079064026e-01 -4.825623403001648160e-01
7.611700960489551360e-01 -2.441044554634950736e-01 -2.438294585647415857e-01
5.554373255114056773e-01 -5.800385921938082667e-01 5.885878035318304891e-01
-8.510072462127660220e-02 -6.765572963176602617e-01 -5.147438518343612213e-01
-5.952440025792213874e-01 5.384816910676846202e-01 -2.528117257613762270e-01
2.820447692513554025e-02 6.695762890807364087e-01 5.684240982011733445e-01
-2.379820574689533175e-01 -8.958151274848243917e-01 4.057183879970662765e-01
-6.473965829769858793e-01 -1.978722936806027663e-02 -8.526208264547722182e-01
3.123603867832580039e-01 -6.668955686242983294e-01 -3.738128080565514821e-01
7.300799444275120065e-01 -3.020811165499505679e-01 -1.504992127035402749e-01
1.798172391867597919e-01 5.815883811835518280e-01 7.486699381331886061e-01
5.294052231840765677e-01 -4.905057064896602981e-01 -7.853066509160577802e-01
4.549946698215421304e-01 7.776264276408558773e-01 -2.910697963346128292e-01
-8.783484266387905359e-01 -8.602452582622159560e-02 4.728349303569455708e-01
6.877322167212478465e-01 4.025008864284999044e-01 4.533198141565322054e-02
-4.466920155606700638e-01 7.003377775824349838e-01 -3.319141622276889914e-01
3.002606230310359003e-01 -7.174018971054678673e-01 -1.136406068454403340e-01
4.836057419422697401e-01 4.494490870945917482e-01 5.517326489482836660e-01
7.526077076954205136e-01 -1.961731079920766285e-01 8.371578810717489327e-02
-8.518656559785849902e-01 -4.707130714238859370e-03 3.349628866310391251e-01
-5.310140099744989906e-01 -4.714408473281737066e-01 -4.086461457216723492e-01
-5.705395783913823626e-01 5.772304583923058008e-01 -7.408230539054087016e-01
2.334026625589934456e-01 7.609845173893263759e-01 7.513091336585488167e-02
-1.450421492953495040e-02 6.640744911725442456e-01 6.066430844987584781e-01
1.305940004489564155e-01 -6.940713770302960883e-01 -4.643315858260777529e-01
2.089364030323475341e-01 7.653615384352120410e-01 8.416239812252221397e-02
-6.914743817241748580e-01 -4.932794628487625066e-01 1.036800398002907797e-01
3.326558781013063681e-01 5.760423178429061597e-01 5.316027018986008157e-01
-6.006287718588774194e-01 5.002608030445615528e-01 2.938789794595343396e-01
2.991719351312795983e-01 -7.170294566056286678e-01 -1.185320914473115411e-01
7.183401662813871935e-01 4.745547160450630519e-01 -1.976098354202000251e-01
7.998490017150360343e-01 3.983457500792492167e-02 -5.111099865233535017e-02
-7.048829440078459019e-01 -5.276357166092785489e-01 2.180580993822030800e-01
-6.093798288138626562e-01 4.939430516725308862e-01 2.615511645661889317e-01
7.289736644582129887e-01 2.370925588039903692e-02 3.713727461302660515e-01
-4.969232475484049449e-01 -7.156105185394389112e-01 1.632902686709927220e-01
5.418868835887722391e-01 -5.863732959642615761e-01 2.530677657084297039e-01
-6.928236875954857377e-01 -5.068721313449801869e-02 -6.057273656641664061e-01
-6.407876396692130383e-01 -6.440657374354021858e-01 3.014373884418344307e-01
1.000921209905632353e-01 -9.006396225923649634e-01 4.980007731482384292e-01
5.733566002177477028e-01 5.964125188221929275e-01 -4.360472849447154242e-02
-6.735564404857461440e-01 -4.749917901439020818e-01 8.866283075741953484e-03
7.469790653889943899e-01 -1.035656640685703178e-01 2.650748824485649191e-01
3.643459959829317696e-01 4.125739464395127842e-01 9.331012825954250189e-01
7.236367808685988390e-01 4.138063233643866079e-01 -1.022901657843754003e-01
-3.082044527963629377e-01 -6.286355799334983896e-01 -4.315693402186612238e-01
-8.010693867011334235e-02 -6.096420404770651613e-01 -7.659814668769130419e-01
1.008226258569602969e-02 -6.680549451106708725e-01 -5.900658282535878874e-01
6.602687351025817719e-01 2.483154905924211953e-01 4.190092216687665849e-01
8.367935993888739876e-01 2.881864721887643088e-01 -3.912618007746888060e-01
4.466921210090354921e-01 5.070516863115992479e-01 4.931646421205384545e-01
6.555279484966469727e-01 -4.280554359758695915e-01 3.207072194344906101e-03
6.080066502330723210e-01 3.207276688554793753e-01 4.746598883725769991e-01
-4.810050617025192765e-01 -3.771587299941883686e-01 -7.701578027023597839e-01
3.602101591599435326e-01 -5.970682595671824577e-01 -6.611326915740275423e-01
5.246354296347168766e-01 -5.272200439177090470e-01 -5.307757924817292361e-01
6.278030156208254109e-01 -4.244937631503796216e-01 7.363241507358840865e-01
8.333242436045330548e-01 -1.760013373445222171e-02 -3.233063482693466772e-01
-3.411223043568160085e-01 5.845871224666224775e-01 7.959315045995448701e-01
-2.652283591650382855e-01 7.504871588858236242e-01 4.209653571648502152e-02
7.514915873847272110e-01 -1.161920264070942788e-01 2.221322395465319399e-01
6.463369736591847436e-01 -4.170896571612423553e-01 4.943552577949416049e-01
-8.454457814149836103e-01 -4.124732313437661779e-01 5.201081495017279011e-01
-2.145897039650383059e-02 8.992261816869175917e-01 -3.950426598997121008e-01
-8.231078044926081194e-01 -4.452664720793671482e-01 4.788138003447255375e-01
6.540285733861077588e-01 -4.298473646992427843e-01 6.402076423216505885e-02
-6.585731321487766632e-01 -3.185870848849045676e-03 -8.181543471126347944e-01
-7.237460261965970032e-01 -4.186827055474802162e-01 6.382554934152916137e-02
6.845201300205119299e-01 -2.937931480366706705e-01 5.297030750352210715e-01
-6.417910689250841275e-04 -6.644217720740244193e-01 -6.016449403417920561e-01
-6.844885609670020576e-01 3.663468062760130706e-01 -4.341568261196256939e-01
-1.243598354381434817e-01 8.710291280121321700e-01 -3.577743428576959372e-01
-6.130265303878588146e-01 4.910949950710113421e-01 -7.809082578467664293e-01
1.228901893819593083e-01 9.538684028829050865e-01 -5.934032155737543057e-01
-2.841310455536004143e-01 -5.827159699397947978e-01 -6.135434473362453289e-01
-2.698436818476978583e-01 -6.402978592363602894e-01 -4.508647481324530859e-01
5.974297459340626171e-01 -4.789672256846945197e-01 -4.118780362759890123e-01
8.168946991810903668e-01 2.167643147986546281e-01 -2.274104034108528349e-01
-6.310875526389245760e-01 -1.301184718118651718e-01 -7.744979642843224932e-01
-5.750534306414676333e-01 -2.178099496229796705e-01 -8.313620949670729177e-01
-7.818332735400721489e-01 2.580775257944104006e-01 7.726978731927522936e-01
-3.294233883643811200e-01 6.944111407343597220e-01 2.139058563781586486e-01
7.784510487117054511e-01 3.095944635454961902e-01 -1.516123915308642545e-01
-6.438745807781242059e-01 4.090895845929890529e-01 8.405558884535517805e-01
1.104290250652412292e-01 8.610787246898568004e-01 -2.140141770065456250e-01
-4.562597207787543740e-01 -3.895935854483283944e-01 -8.040191394926270441e-01
-4.732702953603496465e-01 -3.034249583382686577e-01 -9.662498822526813802e-01
-2.085606243716549568e-01 8.713165593197749192e-01 -5.135464351942525818e-01
6.161949871186432615e-02 -8.754328108050869472e-01 3.288419413875503516e-01
1.052385825841856415e-01 -8.496428392871433477e-01 2.486482988526995674e-01
2.367601307501882579e-01 -8.651446716033767137e-01 5.991189401456455954e-01
8.664689709675043039e-01 7.152833358852675461e-02 -4.961090753249390306e-01
-6.625415434225383482e-01 -1.751008569682534488e-01 -5.794483051356477121e-01
-7.846838324560156952e-01 8.553948892093540812e-02 -1.014387153356552662e-01
6.832454638584769535e-01 -1.566095217594443145e-01 6.857749103017026782e-01
-8.427467451426264022e-02 -7.462393547325513188e-01 -2.491745716208751404e-01
-2.136407546672496605e-01 6.110070516637463589e-01 8.061568151278862837e-01
1.933510481455315566e-01 8.513660088765535594e-01 -2.162071572029348465e-01
-5.771211474579018841e-01 5.660153439977185785e-01 -7.380906173336633236e-01
-4.598844371070164860e-01 6.693761741047260516e-01 -1.503750911064498930e-01
8.175932351813040011e-01 3.061085940547409248e-02 -1.696399242956586062e-01
-4.464054474003548711e-01 5.992867996939559294e-01 4.434352148597522358e-01
-7.078360699810665180e-01 9.165346864341751554e-02 -6.168415889039814415e-01
-2.465432756013607174e-01 8.602781689477895233e-01 -5.509935030328837469e-01
-2.257185174264473293e-01 6.539260293875246433e-01 5.952943975002120691e-01
8.424243708366694339e-01 -9.865961400189451891e-02 -6.235656228974015836e-01
-8.109257331719192941e-01 -1.885360262952941457e-01 1.040450685950336240e-01
-7.937343859061756213e-01 1.101419999174403086e-01 -1.039327274282480671e-03
-4.503017453810113646e-01 6.726843469210839199e-01 -1.154419447455953679e-01
4.013718741281663976e-02 -8.003126572110099701e-01 -3.062365687714576137e-02
5.943489528216167050e-01 7.245853132399139307e-01 -4.246884751746291542e-01
7.525539810397454676e-01 2.667224872481091524e-01 1.724437562744429026e-02
-4.419038456527070724e-01 -3.556582619505470610e-01 -9.251526223709362062e-01
-7.622586593772049390e-01 1.176224573204624931e-02 -2.725626656579012708e-01
6.089298260264192075e-01 -4.977403617350631970e-01 1.560081438520530273e-01
7.149000853957819812e-01 -3.374398547048584884e-01 -3.226549457215091010e-01
-4.333298776172548467e-02 -9.509079725115170412e-01 6.049041064078181096e-01
-5.442696472490327064e-01 5.205163906946768115e-01 5.573540875436421294e-01
-6.598681634790999340e-01 4.414161848298282509e-01 -1.815674326936617400e-01
7.963782722643066858e-01 -2.064257775168331921e-01 -6.393001966675588843e-01
7.085801844348160738e-01 5.778384849679993884e-01 -3.778041011538152971e-01
-4.862153071053405551e-01 -3.363324542367623904e-01 -8.532901583167624704e-01
-5.084916451099111834e-01 -3.866508889091351819e-01 -6.732556780956677756e-01
-8.368999897275298805e-01 -9.457531417279846364e-02 1.992382272414158217e-01
-6.710905925914461001e-01 2.868267812682984697e-01 -7.910190885834751384e-01
7.490342658419929522e-01 3.258030405993301293e-01 -5.258249825674566474e-02
-7.253626786670105409e-01 5.146299480299198342e-02 -5.024925716147609078e-01
6.831381196826802338e-01 -3.861840390982447802e-01 -2.082984584561351216e-01
4.216558702867799213e-01 -6.268724561112047899e-01 -2.944915727601351563e-01
-6.566419119802634485e-01 5.876777860850878471e-02 -8.841092959213888713e-01
-2.303451597493782477e-01 -6.257045369822678005e-01 -5.520861598188723240e-01
-3.685488521981144516e-01 7.063843299760063088e-01 2.334239345883798444e-02
-2.029174665030318847e-01 7.816583462984754149e-01 -1.306133597432356311e-02
-7.004439331424563431e-01 2.536157028192825846e-01 -5.894057207487584105e-01
-7.703678156068273220e-01 -3.144087684194275811e-02 -2.125236261050470477e-01
-6.244978914629356614e-01 4.862167279957125277e-01 -5.815288632423182280e-01
-5.671611164878210820e-01 4.767989585384617146e-01 7.730844327026713536e-01
5.930356870197513869e-02 -9.358407176577678843e-01 6.213239558962156961e-01
-3.673158969004026164e-01 -5.835779652145542951e-01 -4.690007260298638680e-01
7.213420880733534268e-01 2.433782963499740992e-01 1.819165753308848721e-01
-6.907943915201145701e-01 3.930225951173673682e-01 -2.869214127301882022e-02
6.839002074028456279e-01 -6.062487319018291382e-02 6.651533892448291407e-01
2.942466760252721372e-02 5.696284330178410515e-01 9.440292881711163098e-01
-2.732251838127243149e-01 7.131903308608151804e-01 2.301054074680180805e-01
-7.515676806308881908e-01 -4.685609854868169610e-01 2.543410542175964517e-01
8.529844262152914969e-02 -7.821379878063401403e-01 -8.945451233835312321e-02
6.215496783919619572e-01 -4.796907809494188046e-01 1.799976509073591135e-01
6.591609605667444471e-01 -4.923690133322270596e-02 7.925271082458095195e-01
-7.498908461991262708e-01 3.042800137209633049e-01 3.737358131724861643e-01
-1.391847588498005550e-01 6.360798938836977889e-01 7.270517189587878404e-01
3.784910805537084477e-01 8.979127955214163403e-01 -5.591237930267486389e-01
-7.194388528337259947e-01 -5.783983891793221810e-01 3.715898548817707647e-01
1.850126729592758285e-02 -9.369745366117193663e-01 5.833017605757909729e-01
6.332642555196248413e-01 -4.577028897305139288e-01 -1.130144751483169036e-01
-2.683529729126741259e-01 -4.722287780448309880e-01 -9.797098904119878604e-01
4.753860104019871358e-01 -5.662365288803323793e-01 -4.885015540269858625e-01
-4.046301831308595220e-01 -4.520997691953853037e-01 -7.650981137036175772e-01
1.111926119767423088e-01 6.682329875963975985e-01 5.193257519911111952e-01
-4.719875729419326050e-04 -5.849597730090894121e-01 -9.112250185336320252e-01
2.691857599291822348e-02 -7.156137762120032830e-01 -3.975255604356670025e-01
-2.175765758379990811e-01 -7.979851233555644852e-01 3.093072526334922356e-02
-2.131979845843604698e-02 -7.453916251382857183e-01 -2.711577322545370983e-01
6.652486956353460545e-01 -4.126437572528297570e-01 3.784456871302264991e-03
-9.489311625500124192e-02 8.385984701144284514e-01 -1.669397424377588313e-01
-6.842977214293489707e-01 3.912076192633390237e-01 -2.526621635033095559e-01
8.062825498186640960e-01 -7.127894178855616325e-02 -1.692712577287199816e-01
2.969509283330811211e-01 -7.880475428414489558e-01 3.088223651946429560e-01
-6.997668785308625017e-01 3.158918697426773559e-01 -4.535490145696918218e-01
7.714468555668392291e-01 4.706162807098349665e-01 -3.769874418552043305e-01
6.064361276190003425e-01 6.820922691389653680e-01 -3.429542650002533888e-01
7.226693960625852897e-01 9.938275668696891496e-02 3.467975027265026711e-01
6.716665822214947790e-01 -3.494777650327350327e-01 4.959288038552494005e-01
5.759725107694319002e-01 6.067379510620577454e-01 -7.612978835737919947e-02
-8.741910605942773138e-01 -3.240815580845410326e-02 4.828926986622246731e-01
-5.737332739654620317e-01 5.113916485337063333e-01 4.362182562212839065e-01
-2.696453240026622927e-02 6.271708642274469447e-01 7.567383426743427011e-01
-5.692559582609026947e-01 -7.737790694694819393e-01 4.750927749249512222e-01
1.576982018035519573e-01 7.333942016422476673e-01 2.444543280200498769e-01
-4.819049553755443971e-01 -3.347978897597072012e-01 -8.688291664378096080e-01
-5.975164081614205980e-01 4.993700274994705146e-01 3.396781254100972869e-01
7.783786377774889464e-01 -1.984603700647179503e-01 -2.303819054171968583e-01
7.700817348260193818e-01 3.165143027395820874e-01 -1.256587911721685491e-01
-3.985205510198944201e-01 6.999591812065586449e-01 -5.181762417878310600e-02
6.645695376890499162e-01 1.784008447428654109e-01 5.111024641133014024e-01
4.428044811598474961e-01 4.521375676339289829e-01 6.462057360048860666e-01
6.347287125993925638e-01 -4.466643585284804097e-01 4.558548443064823208e-01
-7.598000422172771495e-01 -3.273590192118790432e-01 4.374849232208567751e-02
-8.290741901669114178e-01 -6.330264209627729788e-02 1.484493097551071450e-01
-1.773295375660012829e-01 8.902098261023604353e-01 -5.496004610085089004e-01
6.939098027449962514e-01 -3.648809374969790853e-01 -4.264809396924706952e-02
3.090328013905963567e-01 8.476411188697619004e-01 -3.065296249013122476e-01
-3.313396823305490568e-01 5.673794099441422656e-01 8.997487079267590948e-01
1.927650689901633796e-01 6.090197563890580312e-01 6.406844636573454377e-01
7.458701227359336716e-01 2.309620398756315196e-01 9.299560598525338784e-02
-4.117171324943801891e-01 -6.466392509672289624e-01 -2.005730764749269757e-01
-7.405217164282171805e-01 3.154243175588278825e-01 7.395733146556725535e-01
1.966417379153169442e-01 5.471415352410923250e-01 8.393998113169437447e-01
-7.896804995820158046e-01 1.380315759893262773e-01 9.741713758911337354e-03
6.247338567655318364e-01 -1.471565878375289890e-02 9.326020590355404982e-01
6.613216464686608731e-01 3.553766475234225730e-01 2.258963627315017930e-01
7.653044687941136237e-01 5.819575825378697775e-01 -5.664485869638667959e-01
1.149411971213823158e-01 7.892723551585301145e-01 6.505080953983231884e-02
-5.419632217446678224e-01 6.140490487885549298e-01 -4.521850902473844025e-01
-5.489890964387058592e-01 -8.085396774008222209e-01 5.331389056487046973e-01
2.454577463899850209e-01 9.040173614878497244e-01 -4.481651038091333250e-01
3.769533345763363685e-02 -6.811641069330374165e-01 -5.409106904246030467e-01
-7.091191493448548711e-01 3.681389734549878612e-01 2.030634563274822391e-01
-6.298793486135078057e-01 -2.483895730384633183e-01 -5.817036154213519605e-01
-3.396658564586148010e-01 -7.674321824595143893e-01 6.049270467390006206e-02
-8.156461481779971878e-01 -1.034221316531144241e-01 7.558676619510014405e-02
-6.533838114193550595e-02 -8.196256403953093850e-01 3.794945402823936970e-02
6.578000919781579192e-01 -2.469505343307529244e-01 8.247686033615557744e-01
-1.629412428129021762e-01 7.434762624818187504e-01 2.251587540360293072e-01
-8.425444993315310827e-01 8.134492598893836024e-02 3.979336657244874620e-01
-4.984763463536743822e-01 -7.914327071364531951e-01 3.878316984492414798e-01
6.364793635002513605e-01 4.448128964346070302e-01 1.292454295059614344e-01
-8.409391093872879974e-01 -3.176714021041849439e-02 2.346302062539320221e-01
1.117940470268332376e-01 -7.170000356864625335e-01 -3.705979603864495986e-01
-3.334825476633823671e-01 -8.764500819868999981e-01 4.203373316568643214e-01
6.396516247996556492e-01 -4.234070948673830381e-01 -5.763755826706455920e-01
-5.185886765419061017e-01 -5.031131641988296765e-01 -3.617413460007234960e-01
5.037337669604985413e-01 -6.450207563663368227e-01 5.070991996352413045e-01
-4.694971679361511496e-01 5.948678505257151139e-01 3.788640533395261634e-01
1.188732216267424646e-01 6.862399912050698436e-01 4.475802035355976316e-01
-4.159562160837055877e-01 -8.338638561527028648e-01 3.834898233094491959e-01
-1.864855194632866753e-01 5.917555172813272479e-01 9.063598377179591381e-01
7.885303446785767445e-01 -2.012967361487694729e-01 -4.072980769793165812e-01
-1.252834025036257959e-01 -7.996857309320850593e-01 -2.353202417445175373e-02
-6.669054025144417475e-01 -7.000149065182634800e-01 5.071428181737407392e-01
-6.595927679459901993e-01 4.429426343601077787e-01 -1.356991995664662276e-01
-8.513301581629638681e-01 1.130943142032911214e-01 6.232365487038123986e-01
6.757515613422916401e-01 -3.146976676528255856e-01 5.657494554748060400e-01
-4.120275197629124087e-01 -3.788072117075499401e-01 -9.412536394582446952e-01
-8.765194162869935912e-01 -3.185478742315702161e-01 5.471951044757696891e-01
-5.927690826981386607e-01 5.439052600739201493e-01 -3.346148848418706301e-01
-7.605359706790972840e-01 2.780395588781506278e-01 2.597848924361888523e-01
6.712410689018573073e-01 -2.760109515816273063e-01 6.867471829499308678e-01
4.710467437203569308e-01 -5.724308199323072666e-01 -4.638332474573643727e-01
3.024253790825313093e-01 6.297648844912078214e-01 4.179301370369212787e-01
5.548678470126383599e-01 5.891237703017769833e-01 2.113334614827938260e-02
-2.436052745154972943e-01 -7.159895714415891455e-01 -2.316747903617463189e-01
1.323987597858150289e-01 8.747856165442120524e-01 -2.752099531754775286e-01
4.080103381886728831e-01 4.769047684366289341e-01 6.617625437301846159e-01
7.730433421180811226e-01 2.053037962261640981e-01 -1.576961127968000117e-03
2.280741705007478526e-01 -7.109058173957066851e-01 -2.893541628784797592e-01
1.016925328282874269e-01 5.987027961499102879e-01 7.771908043161838142e-01
8.128182799747853959e-01 3.101796256272292274e-01 -3.035328496509027141e-01
-5.438005160670751348e-01 5.958106587739624427e-01 -1.848712254470386562e-01
4.308169144610070611e-01 3.647778846192344382e-01 8.974241787143659721e-01
-5.122001115842953478e-01 -6.309615608036246437e-01 -4.147851487734651593e-02
-6.547089891490412983e-01 -2.221902226420645055e-01 -5.351261555831401395e-01
-2.633992449480803133e-01 8.056102562268055989e-01 -2.686624482031943484e-01
-5.268257146963761794e-01 6.199094093883918966e-01 -2.697586538103952103e-01
5.123273878014248522e-02 7.195485481553194340e-01 3.644064346071383964e-01
-6.282091764410082657e-01 4.913956080384677683e-01 -2.134156464138345921e-01
3.291172754380671805e-01 -6.582372829661935487e-01 -3.850487008756912632e-01
-4.914262168842769563e-01 6.714874059530784312e-01 -4.655466082662502170e-01
2.629231074352864628e-01 -8.488331580817967126e-01 5.837569740512850158e-01
2.661845725566076570e-01 8.178324435624008126e-01 -1.572397153499809352e-01
7.111260166798514248e-01 -3.387688709348633531e-01 -1.523028098770002337e-01
3.459892953914554120e-02 -6.908450425555288099e-01 -5.006890213174987059e-01
-7.450499985819929449e-01 2.581127233539359800e-01 -1.261581026866746003e-01
-2.874313367031284816e-01 -6.431119444495844162e-01 -4.166874952505797425e-01
-7.421865054200690315e-01 2.794009763511902111e-01 -6.503464142189674391e-02
7.062263191491283676e-01 4.116080274104798042e-01 -3.631117847823453482e-02
5.483595439631101798e-02 -5.941253853219338188e-01 -8.975678960926910532e-01
5.847900141664109652e-01 -5.225477286980101388e-01 7.715292224456359316e-01
-1.550144067471320442e-01 6.676058247286954517e-01 5.819540554195828941e-01
-9.381855547154754893e-02 -9.146402960433602791e-01 4.332621228702718263e-01
2.086607250324900298e-01 5.215019459488000608e-01 9.042960741685660553e-01
4.396104500814325688e-01 -6.904842063840824773e-01 3.005344364951317293e-01
-2.541095268786114914e-01 8.145842850055613482e-01 -2.972973629971922271e-01
-5.445717647082624069e-01 -7.833556842775792894e-01 4.519770968481749418e-01
5.009338081829726175e-01 -5.557810654522126192e-01 -4.390967979893139472e-01
8.747046063713342923e-01 1.941818190762231722e-01 -5.306622599438717280e-01
8.562349030616314138e-01 7.929315861501018414e-02 -4.182594331966644208e-01
6.242386260193325542e-01 -4.414313701947674695e-01 -5.447421105267900021e-01
6.127177825459183547e-01 -4.359041301252414846e-01 -7.177132794524082593e-01
-6.558563992144357258e-01 4.099741921930428745e-01 7.185140394738955827e-01
-2.186087217573727814e-01 -6.814116980599461693e-01 -3.784827350975064064e-01
-4.055475417209183364e-01 -8.147763068692421840e-01 3.070107141895581093e-01
-6.318982631303692032e-02 9.179688137406634141e-01 -5.178268891928458073e-01
4.376873835538715451e-01 -6.097553095446982541e-01 -3.463689278172206731e-01
-3.109305390923996007e-02 -7.479813837036455304e-01 -2.590074455617642490e-01
-7.161854444399129438e-01 3.578301266600811825e-01 3.414708304319460930e-01
7.629277777117358106e-01 8.282225356865204058e-02 1.518867907041206722e-01
-6.224240048704267059e-01 5.001660633609410489e-01 -3.022171029996067459e-01
-6.108024853695339651e-01 5.127933145519646407e-01 -5.743229573993898773e-01
-7.005775779287870542e-01 -1.000140987420856074e-02 -6.041134128652673185e-01
2.509000314527103925e-01 6.804616008109223291e-01 3.284336625469566617e-01
-3.916468350638838691e-01 5.646107214176599998e-01 8.093310288770267924e-01
8.583029565488362045e-02 5.886385277711941866e-01 8.278664557572928961e-01
3.656729896867075974e-02 5.614608103683735862e-01 9.683553476562621887e-01
-5.005068177773823457e-02 6.325251752821101636e-01 7.422289857845758565e-01
-3.334364006335420461e-02 -8.804997244120456035e-01 2.970049236605075693e-01
3.952844173748766843e-01 7.555124704558559001e-01 -1.227887442197226758e-01
5.956729392302875237e-01 6.206200380945960937e-01 -1.608143825669610394e-01
1.028450224763377274e-01 -6.940428021881447362e-01 -4.768261872738686069e-01
-6.237576082679466838e-01 4.598136744051482538e-01 5.026884432828724325e-01
4.436798998360558244e-01 -6.649900808952604603e-01 1.039987653760752195e-01
3.198086500431129298e-01 8.765847291650836759e-01 -4.181931737571886187e-01
-6.261327028805843131e-01 -3.568692835262523566e-01 -3.868172390049878784e-01
5.272707317589900855e-01 7.926459504722839222e-01 -4.695631216539108421e-01
6.820123441269595466e-01 1.049485300683274669e-01 5.330588732203623836e-01
-4.877868539292212202e-01 6.916051481839906589e-01 -7.049520943883920143e-01
-1.099218470074772025e-01 7.121249613449317506e-01 4.030624240929075452e-01
-6.206928881521551755e-01 4.852505275826305420e-01 2.122542621310994082e-01
6.959919610593285899e-01 -7.833294441810212394e-02 6.018983770109123110e-01
2.604932705558464789e-01 8.196242959397893602e-01 -1.577180632073488242e-01
-5.127420064195904459e-01 5.003842176162321964e-01 8.515980464509386172e-01
-7.316033759332579711e-01 -9.744132283873735423e-02 -3.719731235763159005e-01
-7.360576925901216594e-01 -9.164584347690045429e-02 -3.555272700093718430e-01
2.951409470506486388e-01 4.428632481037130808e-01 9.934303418955663378e-01
6.723677224157890153e-01 -3.568527098724517677e-01 4.538740133839719859e-01
5.646711918199914804e-01 5.423580626858174325e-01 1.125928055033266900e-01
1.211552386078199040e-01 -9.101966842614108710e-01 5.811525489151410095e-01
-7.046368493552469525e-01 3.753534492039080628e-01 2.212917840080013687e-01
9.211055605363073495e-02 6.662325748671492631e-01 5.416289790575182783e-01
5.694069908978671712e-01 6.502212161489069331e-01 -1.710708232313681298e-01
-2.065799915202440884e-01 -5.148884562756939065e-01 -9.464873136009912535e-01
-5.049663021373000937e-01 6.455098548487396837e-01 -3.122400135652578235e-01
4.082361892118287483e-01 -7.509645995395688445e-01 6.233168826307434740e-01
5.712388237297038041e-01 -4.914254007956967985e-01 -5.260183072214280608e-01
-6.595555350201106615e-01 4.285263648344300180e-01 -4.120626452151252561e-01
4.271817161541368035e-01 -7.387971274431615054e-01 6.822298405434288338e-01
-8.127377682845097207e-01 9.639472879764289515e-02 1.435842958140941539e-01
-3.442931790651271862e-01 5.869135837768281183e-01 7.784017116665939984e-01
8.189057082580682989e-01 4.744517663360259263e-01 -5.619651832026860694e-01
-6.885855725099153668e-01 2.666240949659314796e-01 -6.717126897469780644e-01
2.140218547181024500e-01 -8.327418178691000650e-01 3.427407245149092230e-01
-4.641868646031918066e-01 -3.311353590876454089e-01 -9.259798465864897965e-01
7.156146708262636214e-01 -1.669099330194746267e-01 4.525780829461609756e-01
-2.092606347913217313e-01 -5.424119364035776547e-01 -8.538555681996513602e-01
-1.529167286523128444e-01 -6.630896148186072869e-01 -5.104083886616321841e-01
8.099187443074690185e-01 2.509462044355363908e-01 -2.245677183161464419e-01
6.099759387343840489e-01 1.262967722590533359e-01 8.106507959227872151e-01
-8.068799851271692969e-01 -4.359172642586400248e-01 4.005277523106423043e-01
-6.692357346258251960e-01 -4.912003927111531498e-02 -7.185940358907146885e-01
-6.263483454626409541e-01 -1.779368492238705968e-01 -7.167890931012235178e-01
7.945842046452495921e-01 2.141696837379876081e-02 -1.837230115187217169e-02
9.528675613507835152e-02 -5.961472723851781730e-01 -8.957593489775648177e-01
7.258042088408669379e-01 3.433600928377112393e-01 1.114960504880423836e-02
-5.716425671411535792e-01 5.221192621257987332e-01 3.500785215402932304e-01
6.396067990175402507e-01 -1.990536864099947886e-02 8.665589325468225912e-01
-8.628321499015537688e-01 -3.655496572595112736e-01 5.341377885258211666e-01
5.084161983633395110e-02 -8.859888245229176063e-01 3.694463314617705274e-01
-7.145445153368560343e-01 2.910375023063007105e-01 -3.679678741514599283e-01
-7.263084737407935476e-01 3.749947292493448908e-02 -4.924210854849370711e-01
-2.515151099421421566e-01 -6.456320825683767861e-01 -4.583745032182962587e-01
-4.492002720828900952e-01 7.250999877065449351e-01 -6.061171917925735064e-01
-6.272811789413576533e-02 9.009834182484518506e-01 -4.353642899388002752e-01
-5.537874482220552785e-01 -4.944440475442340999e-01 -2.925963515768932321e-01
9.228652990543917412e-02 6.504791799740539116e-01 5.992233296614681848e-01
4.718212186386973594e-01 4.185542761633081477e-01 6.586458989491902338e-01
-7.906944321979312296e-01 1.897105312514432152e-01 1.666724896928259980e-01
7.018722271660727818e-01 -2.224238091311590837e-02 5.456985186798611887e-01
5.073836194425552781e-01 -5.254073317484247996e-01 -6.350836322436560488e-01
-6.610593712331782612e-01 4.303829552384677570e-01 -3.541011425734845730e-01
-6.498751254367995944e-01 -1.431866615780871543e-01 -6.787840485388397793e-01
4.705622049769505044e-01 -5.358181022103324365e-01 -7.169843156583035615e-01
4.700177134500513887e-01 -6.555847666888474645e-01 2.161138082831743912e-01
8.317438490898806380e-01 1.318799177543326373e-01 -2.592928490708166223e-01
-6.749058915641517054e-01 -5.315192592349694545e-01 1.346724429124574463e-01
-8.314027570133731837e-01 -3.906594035243884933e-02 1.666424288663312381e-01
1.276736221986039810e-01 7.566843315025008065e-01 1.810728345264314143e-01
8.670066508121032633e-02 7.258372929922884964e-01 3.224339509898748735e-01
7.948274910791529591e-01 -4.028978787095865988e-02 -4.438450595868507348e-02
6.022090989505800573e-01 -4.924047487967243009e-01 -1.681156980610744311e-01
-2.425925505358974416e-02 7.291726138761202014e-01 3.441694165741608913e-01
6.291823254666978685e-03 -8.441795358605197475e-01 1.505085707384994642e-01
-5.513246893703203227e-02 8.748316843386014785e-01 -3.052677234716452692e-01
-7.889756619698443108e-02 7.164746328208632109e-01 3.933066551284806200e-01
8.855933500371365730e-02 -8.593005637066071234e-01 2.775876403855395136e-01
6.377388953344527156e-01 -4.513052070236477920e-01 -1.296724756377503063e-01
-8.542634354207996328e-01 5.710181180501888720e-02 4.559160059855906222e-01
7.989521629242726242e-01 -6.563419297965231158e-02 -1.004690323167956728e-01
-5.794468306755389264e-01 5.593281204390072592e-01 -7.939816630171422362e-01
-4.558589872217004291e-01 5.952328828872636146e-01 4.340358118586689073e-01
-6.265186223971886958e-01 -4.137834206002951043e-01 -2.675576882974319282e-01
-7.418386358885257215e-01 2.585590297792586534e-01 -1.636881318725333656e-01
7.426575831681435647e-01 -2.957035518798651896e-01 -5.378542876463568989e-01
4.110890119940653342e-01 -5.632965562053258157e-01 -7.324367453610973744e-01
5.151856317190663948e-01 7.662648433322574171e-01 -3.698761138891750178e-01
-4.304108930866872296e-01 6.773227875954186405e-01 -3.871135580651645369e-02
8.197843887691140530e-02 -7.542793623366829125e-01 -2.176445821344207276e-01
6.055555681036103310e-01 5.858075926653858456e-01 -1.011553173849016607e-01
7.750060650251496819e-01 1.789323469645411613e-01 1.513305090471590321e-02
-5.381955277010429528e-01 -7.235138386525921117e-01 2.696188644203590945e-01
-6.523782644108804592e-04 5.785067678221800236e-01 9.315053562715642776e-01
3.963616109954555822e-01 -7.218668572074593559e-01 2.810123656709747064e-01
8.497795821572857733e-01 1.631649881456509465e-01 -3.747264273721451766e-01
-6.426333902599838943e-01 -1.671334104904038664e-01 -6.711058050490111837e-01
4.149974458671071287e-01 6.576709023185307590e-01 1.385183813064367608e-01
-1.610172328864853397e-01 8.230585484846861810e-01 -1.644650075506097209e-01
3.789383139255114719e-01 -6.178906859218417091e-01 -4.942587010176803242e-01
-1.124102897520655175e-01 6.761803728231171595e-01 5.598141294943030921e-01
-6.495897808745781932e-01 4.259201257029421872e-01 -6.171536355380355943e-01
-3.596120728229951768e-01 -6.758890799234061886e-01 -2.022373639305337367e-01
7.098498244265193380e-01 -2.027791403627086375e-01 4.618131530395708229e-01
-7.472179519453109320e-01 5.408859899298758961e-02 -3.700479207220428446e-01
-1.955478616792562241e-01 -8.628815966164562479e-01 2.552351120636551229e-01
6.311037932217790081e-01 -1.719419643009839627e-02 9.049220124315775493e-01
4.833758856000068826e-01 6.647283826162418974e-01 -1.736236751885565296e-02
-8.498867060034838161e-01 -1.445333313648227910e-02 3.108370362062937708e-01
-3.096349664573977423e-01 -5.403438198440778661e-01 -7.017498790147493892e-01
-5.737048819860767201e-01 -7.165656294217123135e-01 3.270677513374012912e-01
8.097599760521128065e-01 2.928161824292610516e-01 -2.691969171202773237e-01
1.434281530271099558e-01 8.671755053285492565e-01 -2.494789757278484399e-01
-6.511485566974445360e-01 -4.710640369854409704e-01 -6.895144601723318667e-02
-8.439859285400006517e-01 -1.647083983015558140e-01 2.632804867122125470e-01
3.106092988803416666e-01 7.106404364952454422e-01 1.482416142152872818e-01
8.527933338402036156e-01 8.710732802329884672e-02 -3.916870731499239033e-01
-3.649141632252789896e-03 -9.045783977954575672e-01 4.165021730519617993e-01
-2.206841578358222367e-01 -9.152215340824988443e-01 4.683437993004608835e-01
1.327680391362426326e-01 -6.667013149196572286e-01 -5.862223516721124517e-01
5.069227714417956498e-02 -6.969257756413791416e-01 -4.751463320461370432e-01
5.799065478207454660e-01 2.876886877335290693e-01 6.336699280193694994e-01
3.353942696619529040e-01 6.848925752683380219e-01 1.931449654168535535e-01
6.488834197029768047e-01 -2.464447568028187152e-01 8.900993831686618840e-01
7.708769975080979053e-01 1.168967861260092472e-01 8.721645236438184401e-02
-6.694411988709284556e-01 2.397939463930046644e-01 -8.461357740273051098e-01
-6.458093699361857620e-01 4.361174786512369561e-01 5.249809401078106008e-01
4.885731396261583587e-04 -7.499307875599139361e-01 -2.542919087650882259e-01
-6.933351881487812562e-01 2.166295434048786939e-01 -6.861525755599429122e-01
-8.549001060117698003e-01 9.638845420139758105e-03 3.759659466408578066e-01
5.410300143248516491e-01 3.130702845522166933e-01 7.059747759754376739e-01
-7.151406431260151075e-01 3.083820505955707780e-01 -2.953154362581441594e-01
5.552976038498403932e-01 -5.769652700467313711e-01 4.078369225851927182e-01
2.727407050627458918e-01 7.302400563817250667e-01 1.346866757946535709e-01
-7.263981233648856284e-01 1.823525556028579020e-01 -4.633002902635841580e-01
-7.957235209917620233e-01 -1.260415835307723831e-01 -2.222380113325493969e-02
-4.261837791098526118e-01 -8.527663603684920712e-01 4.591261344407751577e-01
-4.693192252001607834e-01 -5.323313873728817702e-01 -4.035672334128452832e-01
4.699276679266541912e-01 -6.669865421852680942e-01 3.337394289568066386e-01
4.892238276964934740e-01 -6.680856439623481524e-01 6.172271097131858397e-01
-5.774918278871153665e-02 7.783179637124970629e-01 1.299248562467792412e-01
5.954362377812941753e-01 -5.054222829397774230e-01 -8.017734989919884925e-02
7.820272249659381281e-01 1.813565988846243537e-01 -2.175917531032056998e-02
-6.526477647023486428e-01 4.539947900964422245e-01 -1.454275691214302058e-01
-5.098829946924257062e-01 -4.904668350456695691e-01 -4.154544097196579133e-01
-5.942026902010826284e-01 -5.021348730576210562e-01 -1.647995474863265253e-01
-7.516624475287413398e-01 2.713053231330546100e-01 3.180622458192632063e-02
2.289322035493058238e-01 7.116260827885370066e-01 2.503064699824045780e-01
-3.281626119356674809e-01 8.087977699180597391e-01 -5.118700766395787305e-01
1.251181549605778209e-01 7.364115768153440822e-01 2.583627653721674022e-01
-4.585990553405343007e-01 -4.698376686229081556e-01 -5.935137168792047335e-01
7.355313379097914162e-01 4.690087144173792355e-01 -2.460663135994152761e-01
5.871648749347959662e-01 4.174649268186594875e-01 3.393221610446369163e-01
-6.287191466602759515e-01 4.901176689367492401e-01 -1.536667954243505219e-01
1.308600848215043799e-01 -6.819709837517136108e-01 -5.187659080225206498e-01
-7.882686517060847331e-01 1.957385069210047235e-01 1.610588770955995175e-01
4.930121055312609024e-01 -5.137691095560370513e-01 -7.789069254640120787e-01
3.251561980508775873e-01 6.308593991450625049e-01 3.778494639047042525e-01
8.276130225859150702e-01 1.383720956965421856e-01 -2.372845552447985229e-01
5.919079658490229434e-01 -5.190310067942771610e-01 1.095919634786924612e-01
-3.330821690605823560e-01 7.419254434546957988e-01 -8.405368739315413618e-02
-5.545863535830116708e-01 5.842018831394859557e-01 -1.848999184508633153e-01
-7.822353006309423762e-01 2.025945815393870864e-01 1.132438908016324686e-01
-4.445084325603998465e-01 5.985325132796950331e-01 4.555230678720331161e-01
5.644905383574231328e-01 -5.154424714781555839e-01 -3.492102794546728672e-01
4.776338750070649453e-02 7.163055146377522719e-01 3.785137567672908210e-01
-6.918174580784093308e-01 -1.167075599378338407e-01 -5.361757736513597106e-01
7.116745011898186757e-01 -2.483621712680741112e-01 3.676377975369589102e-01
-6.919700439875005049e-01 3.874288648535503254e-01 4.731858681167778746e-01
4.231567575044940521e-01 8.063172778252726269e-01 -3.258364174264342661e-01
-7.059935835337823873e-01 3.467915386519806464e-01 -2.159744285436918931e-01
6.243216865041329999e-01 5.082278971643632293e-01 2.758285824476705214e-02
-8.961076142157040625e-01 -5.839464300293260163e-02 6.301517470836969226e-01
6.456179958124070861e-01 3.425017145318833695e-02 7.813943236334258691e-01
-1.295205207909521372e-01 -5.820378854593908358e-01 -8.188827034101089364e-01
-7.069531400103181706e-01 3.191210955284596862e-01 -3.544616845460141774e-01
5.831541872451085906e-01 1.155051181699098400e-01 9.332803082396001759e-01
7.153840524132294432e-01 -2.775564543041349475e-01 2.409019452907624481e-01
6.658031738519101239e-01 -3.914175675123673925e-01 -6.379375832326067419e-01
-4.202308909699566386e-01 7.627938361427327729e-01 -7.201596518586056428e-01
-8.228662648081462860e-01 -3.030049919764815636e-01 2.786978937584789762e-01
2.632184338594404927e-01 4.754509001531454504e-01 9.570340351696526859e-01
-6.290706731844205590e-01 -5.727217404283947433e-01 9.778944767295079388e-02
-4.066731430122630941e-01 -4.006464032977101741e-01 -8.972721643754912879e-01
-3.733309347549779722e-01 -6.636785017675340681e-01 -2.172090293225986679e-01
7.389310451829932402e-01 -2.058943593575572606e-01 1.974349383057101559e-01
-2.283034207309080355e-01 -7.731511442912520904e-01 -4.841693927365511851e-02
6.880583202896638495e-01 -7.354185813610406020e-02 6.468864912321868887e-01
-7.247911581470600773e-01 4.149314320151908930e-02 -5.026399397186773754e-01
1.010813460454897533e-01 -7.228151666850598511e-01 -3.497026307658724908e-01
-1.403793647761862051e-01 6.160550806382896205e-01 8.132659599566689490e-01
3.386996910861010401e-01 -7.332699001521998383e-01 1.003179191213062760e-01
-8.168860793998854453e-01 -1.063139307974739212e-01 8.384349437876660593e-02
9.225517854000223061e-02 9.016213813358591178e-01 -3.755674434533178285e-01
7.920673205301076436e-01 1.813506854002932545e-01 -7.202867537628097894e-02
3.650658219513436276e-01 7.546145785398579164e-01 -7.276369263616655481e-02
-1.598657325098664372e-01 7.490663434118337571e-01 2.012757418161515710e-01
5.195040907687561438e-01 3.485910322484515600e-01 6.927686812489322055e-01
-6.774806111776218165e-01 -7.114254196263791741e-01 5.626306930782331017e-01
-4.113906409784203189e-01 -3.971257778251043868e-01 -8.953038331696765439e-01
-7.557763990231270990e-01 2.146333852107891738e-01 -1.476763109148128972e-01
6.153346279576813460e-01 -4.841969998149176502e-01 -1.969580904431698920e-02
-3.317908800517815893e-01 -6.973758664423718168e-01 -1.776164692575401549e-01
-8.562493716152528300e-01 -1.851700194795645737e-01 3.419001343917839608e-01
2.998462859628024946e-01 -8.057172139992008209e-01 4.358856454218972831e-01
7.104825292513191615e-01 -3.388375246470666236e-01 -1.300051654724642403e-01
7.428617101126294697e-01 -2.836144884398493216e-01 -2.429277222025458538e-01
-3.671257146569653074e-01 5.645488313585959039e-01 8.576189170766475023e-01
1.457741969067475052e-01 -8.459641693923630745e-01 2.841788226631044023e-01
4.495603201044204855e-01 4.323160218065710825e-01 6.804939323373118132e-01
-6.768173781687406576e-01 -6.930358424447806698e-01 5.156422492996702855e-01
4.989524546683913320e-01 2.553015907005779517e-01 9.594617186969668365e-01
1.041207706998824589e-01 5.782168530558571273e-01 8.469693449274601216e-01
7.110385770799965144e-02 -6.073704616762912734e-01 -8.473067160283956900e-01
-2.238182385285199163e-03 7.614446058980679499e-01 2.094716991833510678e-01
-8.452059769808569767e-01 8.179200600937959476e-02 4.269835078613301027e-01
6.487901482017893739e-01 6.487167758864202938e-01 -3.684687762982566395e-01
7.923881886376306360e-03 9.379651745616777170e-01 -5.543517648741861370e-01
5.870016101562021138e-01 -4.649519052795310636e-01 -6.494070134608472822e-01
-6.315628616068441614e-01 -6.554455406321245681e-01 3.058482570290322333e-01
-7.671407979511722930e-01 1.483286809372864057e-01 -1.726541632441170315e-01
6.498903163176907860e-01 -9.092057255054507292e-02 8.692975056723519778e-01
-3.718561367940272366e-01 -5.186137455687215292e-01 -6.494521842746185936e-01
-5.801801778809773102e-01 -7.106497730217415931e-01 3.255969934125394483e-01
-9.838474855672688785e-03 -7.443973490176225560e-01 -2.765993851631921574e-01
-8.673875159663576584e-01 5.156069071050504299e-02 5.774057923017084093e-01
7.061963135163309424e-01 5.463889109082536999e-02 4.688932619889475961e-01
2.482922135761464755e-01 -8.305932730421631272e-01 4.203045226452942762e-01
-5.020869042123541348e-01 -2.584862462463791699e-01 -9.835330692787375151e-01
7.112192172484831376e-01 -1.597796761990449843e-01 4.904281712193397924e-01
4.451508998606252265e-01 -5.754655074422545535e-01 -5.489605535985629947e-01
3.924154861297263208e-01 -7.184685301896557297e-01 2.323269010320284933e-01
-8.290567544601710193e-01 -9.276465551505305718e-02 1.512366527914798253e-01
-6.050687455890173538e-01 -1.498295568580720050e-01 -8.446146275642983925e-01
-3.463573874945067299e-01 -4.285363847695254913e-01 -9.561408901321010179e-01
7.064942131584139862e-01 -2.701366896920461003e-02 5.223344819028126196e-01
-5.339472467620295371e-01 6.063863921396934753e-01 -1.891910693277329136e-01
6.710558748376126426e-01 5.955920357338353455e-01 -3.056461660638145061e-01
5.547911424659686119e-01 -5.804995321786380336e-01 5.335980523147932919e-01
6.464113763732837192e-01 3.250961956695181954e-01 3.346514775972844746e-01
6.840123452112576441e-01 -3.847967581009537064e-01 -2.315815857192208560e-01
-7.363248898295975398e-01 1.248743228700978786e-01 -4.291400301496081648e-01
-4.640329643271690618e-01 -3.122752979122950245e-01 -9.711877661981832555e-01
4.995705292697796285e-01 -5.623425024836069541e-01 -3.952607991815214050e-01
3.712711600691553371e-01 -7.846873665810465415e-01 6.470134165514366265e-01
-7.809370165510284290e-01 1.857633841639055039e-01 3.852347961573183294e-02
5.871352392256434793e-01 -5.298471171160511473e-01 2.494283556407010383e-01
8.236995300147712529e-01 -1.207252776981659198e-01 -4.760605517576074752e-01
3.507660785130986558e-01 7.322842164840162038e-01 1.979884742549189308e-02
1.317658282496280142e-01 -7.149721937605763022e-01 -3.683072926112726519e-01
3.273584066647578505e-01 5.261719583684317803e-01 6.891719814484502660e-01
7.629067007084467944e-01 -2.531092192771671745e-01 -3.690445748990561214e-01
-6.360702915637828081e-01 -1.726273838791815285e-01 -6.880374094077036373e-01
-4.426925519472923454e-01 6.239173358662941649e-01 2.909243082963260396e-01
6.802536006221366893e-01 -3.904987395438893061e-01 -2.087693527381147551e-01
-8.942141502023227551e-01 -2.780755485172694552e-01 6.034606286452796065e-01
-8.889657438174670689e-01 -1.446911302515881681e-01 5.283562884460210052e-01
7.608797111807694691e-01 -7.557078724926932778e-02 1.809870040833395366e-01
-2.722587338863191042e-01 -6.766097414155616274e-01 -3.286592145850935620e-01
-4.803123763208539954e-01 6.196583249670370996e-01 1.357815090043733020e-01
-1.224351525594149226e-01 -6.497714263192266859e-01 -5.854281848135831634e-01
-8.436300636071301096e-01 -3.431770352716430050e-01 4.206970101201811807e-01
-2.430251550659578291e-02 7.717395041203665151e-01 1.656273099332595256e-01
4.371068074511307300e-01 -7.282511408762062377e-01 6.733763219092621100e-01
-6.748354713157873608e-01 1.457254737631035087e-03 -7.435418283656853866e-01
5.940722183833838654e-01 -4.996206342578106696e-01 -1.935987424299830117e-01
7.544656619862266655e-01 2.217997465540703095e-01 6.590488835367527831e-02
-4.759430518613605443e-01 6.898928692153500908e-01 -4.999376190720536961e-01
1.712123086512704895e-01 -7.056453031230003337e-01 -3.816691286444354736e-01
-1.598998366440251007e-01 -7.659253445004314820e-01 -1.311532821534914794e-01
-7.798017981853927472e-01 2.604143683194497516e-01 6.251754101811068942e-01
-8.076406939475102575e-01 1.132235819075588616e-02 2.054345595553017101e-02
7.141839845099322570e-01 -1.930837654990620045e-01 4.380627162838829358e-01
-6.801279378987109547e-01 -5.448479184610454107e-01 1.796524917961392631e-01
-4.368862083046943789e-01 7.381945561669002176e-01 -6.220536790528270465e-01
-6.202867899900477155e-01 -3.834818285131270099e-01 -3.509120024682709227e-01
7.880593736984117248e-01 -1.333502273384031545e-01 -1.185452339553072915e-01
5.727264636523198282e-01 -5.102301431337096238e-01 -3.248776621825398836e-01
6.854144462100629775e-01 3.330670888210613412e-01 1.802906733917975790e-01
-7.664908935513791155e-01 -3.557399684647627458e-01 1.144749528811425526e-01
-7.127435968186465187e-01 3.163613261786847319e-01 -2.908375428146990349e-01
6.126117855262076528e-01 4.390073772908923422e-01 2.153582031704573407e-01
7.350903430684624373e-01 -2.543788360302819962e-01 8.908978007181965475e-02
-4.112637187550354234e-01 -3.812094119714104501e-01 -9.369014266441864081e-01
4.291167549404970583e-01 -5.302415737730228340e-01 -8.802912708145904652e-01
-1.633931189837288800e-01 8.815363522514430006e-01 -4.742981012934467389e-01
1.789850713672963556e-02 -9.137553204322133027e-01 4.731996025109768134e-01
5.920065253556040519e-01 3.098224824752457973e-01 5.495281884807405870e-01
3.256738927687150564e-01 -7.878098012749482626e-01 4.191837790777530048e-01
2.720848521352791649e-01 5.448028009300149854e-01 7.309735260259309086e-01
8.318503463811571796e-01 4.442635415455131187e-01 -5.663105955101044309e-01
-5.157956394077465312e-01 6.066289149408260473e-01 -9.439892323770878455e-04
1.224066443950042049e-02 8.673351716650368193e-01 -2.381554545776753407e-01
-2.271228173989838228e-01 7.586957676653688365e-01 6.831136708746632369e-02
7.390828617731259875e-01 -1.431215558921045301e-02 3.292522256583336193e-01
7.908113995784454842e-01 -1.863096714555511901e-01 -3.453976944821752770e-01
-3.893413750193139844e-01 6.707038679737976627e-01 1.817526014960843261e-01
-4.736632218063476785e-01 -4.771896952451619711e-01 -5.383641441056986610e-01
4.087328148295782393e-01 -6.167731621934902098e-01 -4.093966546247361782e-01
3.425041187281910871e-01 -5.742212414811830312e-01 -8.206825136931911180e-01
-7.719010120968987643e-01 2.687563760903291521e-01 4.583441324014207452e-01
2.128948269359653978e-01 -8.217040721878424714e-01 2.776207245087286557e-01
-9.182706897753313557e-02 7.882279524140159976e-01 6.979596534895868287e-02
-4.651032301531709545e-01 -5.964221502553009868e-01 -2.383251274586012936e-01
1.082603198597049260e-01 9.158782213755208845e-01 -4.355503477996550687e-01
-7.846512091706646652e-01 -5.616269775664744363e-02 -1.208630265040608331e-01
7.027727616244321407e-01 2.825501012736723050e-01 1.987268693219314264e-01
7.604145605311386502e-01 1.371577018463827208e-02 1.951400492054239377e-01
-6.469397893962809398e-01 4.512689314297257392e-01 -4.506048161146367637e-01
-3.000392007030404651e-01 -6.283588498048627846e-01 -4.450086522313153603e-01
8.158661150819311869e-01 2.047002703637582077e-01 -2.123669591695773740e-01
-6.972408896677798618e-01 -5.739349214135046617e-01 2.949330695827266924e-01
8.076391521330962275e-01 2.589883357783683282e-01 -2.219755418927263080e-01
7.631002350196015582e-01 -2.587040135996057089e-01 -4.587717807601321973e-01
-5.025425358619788341e-01 6.730123474050967447e-01 -6.833950500392994565e-01
-1.577249066089204399e-01 -6.278953605983348396e-01 -6.296134295191008201e-01
1.700677055871384069e-01 -6.538797754417502439e-01 -6.244626097799220732e-01
-5.504744163373290755e-01 -6.296572684200588688e-01 4.185661270250699145e-02
-7.809791839617272746e-01 1.027941291076149288e-01 -1.142713469441529184e-01
-7.916732067424817609e-01 -5.141426372529791511e-01 4.799815761876125020e-01
-3.407604075201803306e-01 -6.395329580124627933e-01 -3.456595754277347332e-01
-7.671471728499189568e-01 2.687100458645828027e-01 3.103979559720351777e-01
-4.768926566482624141e-01 5.950778792843087750e-01 3.429533649100044435e-01
6.299264243780360317e-01 -4.483767802943888769e-01 5.446260279751753419e-01
-5.502961957862698705e-01 5.094042153496594061e-01 6.112032098064772434e-01
-6.204280243203960099e-01 -2.696099819678689502e-01 -5.762060592419906424e-01
