2.349920517597411940e-01 -5.055674523792035302e-01 -7.427708723516975864e-01
4.414922677561160524e-01 -4.816541720679103911e-01 -4.058077932770222662e-01
7.575962090891141809e-01 -3.331413711957921797e-01 4.978289822682008814e-01
-4.610075936111180384e-01 -1.966219759390444299e-01 -5.284886009707580046e-01
-9.948925010432327354e-02 -2.540944498459863921e-01 -2.828324140115820451e-01
3.122584850985824501e-01 -8.206273368868458040e-02 8.199968003786370918e-01
5.093635900229579461e-01 -1.542334359998496496e-01 8.124116892751073182e-01
1.069685999195548187e-01 -6.469453472860806076e-02 6.275877611656041077e-01
-3.387516000173780295e-01 -8.116546574366974298e-02 2.206720551287384355e-02
-4.421887481840494627e-01 -2.661088231005372395e-01 -7.461459328763003773e-01
-2.072208291000152414e-01 8.462612486501462639e-02 7.584760885440421374e-01
-8.322087773597871552e-01 1.942031315715430362e-01 3.692052616769431195e-01
3.685764311828892970e-01 -1.723488375035326925e-01 5.763987098035218137e-01
3.823043839211651140e-01 -3.762637318723561219e-01 -1.133955608410484733e-01
-4.800897826727548168e-01 -2.076035535725377079e-01 -5.900260640018042402e-01
5.317095775610710673e-01 -3.080558389984718315e-01 3.068216877590250191e-01
3.740491364733513069e-01 -4.999110122600592399e-01 -5.520643547015020580e-01
2.769454866121674463e-01 -1.592356105539674271e-01 5.090959789011120229e-01
1.398977782742716891e-01 -3.208514774684732840e-02 7.811165049363627544e-01
6.082098091727299316e-01 -2.639535592793651464e-01 5.537923702197038445e-01
-8.700172506022011421e-01 9.341807182010221366e-02 -2.659633307944829841e-02
-3.951449185055025404e-02 -3.540754215818850970e-01 -5.555294193885410570e-01
-7.119918603632374721e-01 -4.637086434340797168e-03 -1.719722813232775760e-01
-4.763900763239358183e-01 -9.224885842408948877e-02 -1.857013827474407741e-01
-6.797910790681304105e-01 1.846716304917839224e-01 5.237162105595699613e-01
-9.600338001571376290e-02 -3.688546887676653063e-01 -6.762554178012752937e-01
1.963713184306243031e-01 -4.090714831978746191e-01 -4.558762807431814279e-01
-2.862048495813092619e-01 -2.529092244395163003e-01 -5.084702052659366700e-01
-4.209676151750407214e-01 1.373042590954564324e-01 6.780310499268059621e-01
3.369451195106543118e-01 -3.546233978055340352e-01 -9.421155504910774803e-02
8.311709329401213431e-01 -5.091911255545458204e-01 -2.175726174769882990e-02
6.449323243405089556e-01 -4.618528964715897800e-01 -8.686063754671216608e-02
5.324601676634073133e-01 -4.310412807278921066e-01 -1.184721576806462146e-01
2.704261976838552295e-01 -3.478088799383646790e-01 -1.524438093510949443e-01
7.176804929659901244e-01 -2.863922679681190075e-01 6.107277936613090263e-01
-4.562563602522917150e-01 -7.095249535563323551e-02 -8.712322005263606339e-02
-3.436678977314385763e-01 1.581144212168601459e-01 8.452644784345370033e-01
-1.718891846102029164e-01 -6.350740943644460346e-02 2.885796646138755195e-01
-1.124027397024615323e-03 -4.174467182092162498e-01 -7.279107328884131256e-01
5.017980300401297944e-01 -2.299568240606752467e-01 5.406762028939204878e-01
-5.505321515793295539e-01 1.273814196547050914e-01 4.842190926540611007e-01
3.041612259441378932e-02 -2.313144767766288079e-01 -4.404348801129152891e-02
7.575305954130976405e-01 -4.054576215238487880e-01 2.471295992720514145e-01
-1.266785777800226998e-01 -3.832657277193958767e-01 -7.639426811861229627e-01
3.039769827653217571e-01 -5.306136394091359731e-01 -7.446878369333873593e-01
-3.284962785294533172e-02 -2.478732653975210254e-01 -1.792752121618380323e-01
1.217319617494346806e-01 -3.084958919682135869e-01 -1.991627073090752598e-01
-6.962683160928879733e-01 -3.404914495832161297e-02 -2.545553612681290545e-01
-4.237186224187982075e-01 1.212413436684233736e-01 6.189785392149006471e-01
9.064045903864798026e-02 -2.387528580016730351e-01 4.281500840749830582e-03
-4.692520836615269864e-01 -1.612276653291918327e-01 -4.159708276738173227e-01
-7.689376090286421661e-01 9.394553558292256801e-02 9.960567641353149093e-02
1.840684889119611201e-01 -2.617246622652166232e-01 3.962965513123663241e-02
-1.700452851333717208e-01 -3.945563705254864773e-01 -8.564322654392837464e-01
4.229672845801228931e-01 -4.946312708651026679e-01 -4.735753020722487938e-01
7.919611273498994297e-01 -4.562402852109700424e-01 1.135028344601918815e-01
-5.434524782824509126e-01 -1.248319282851770157e-01 -3.811383463585368281e-01
-1.476498595268557756e-01 -2.881504250012675294e-01 -4.601160460559766685e-01
1.731142796373234816e-01 -7.572007105515843328e-02 6.707670839238198957e-01
-1.646758746809241225e-01 -2.590760120036816327e-01 -3.803057407874441131e-01
3.333019030744122091e-01 -1.545991652554394580e-01 5.945080901839294718e-01
5.275179959724271006e-01 -2.968864898388663964e-01 3.403725433962466185e-01
2.728943529228809450e-01 -2.142320222953448539e-01 3.135160906876025000e-01
6.229415563579724369e-01 -5.570863413574244083e-01 -4.439596101797165795e-01
-4.355228087612806886e-01 1.776461499209928269e-02 2.458458436916395318e-01
7.063599305438474918e-01 -2.946317295501925115e-01 5.682437260168957671e-01
3.246352531028187660e-01 -2.498770547306206902e-01 2.536498295125497182e-01
-4.534617180768625855e-01 1.508201106533266500e-01 6.848889238850849326e-01
-5.976403211493738210e-01 1.995995177122767139e-01 6.765330628896120135e-01
-3.608043007044154371e-01 1.055650810443185261e-01 6.420642968947299911e-01
6.346547380046473064e-02 3.899295602937278421e-02 9.333976666554315571e-01
-1.661083416578147398e-01 -1.026578359191911427e-01 1.600133157016928043e-01
-1.857079204013819818e-01 -9.219213386190630577e-02 1.721667572301176508e-01
3.767492664261127278e-01 -2.618548233603534836e-01 2.762637573958441339e-01
2.539577313062126307e-01 -1.632053594392410822e-01 4.670530295748502314e-01
-6.299439926778870324e-01 -4.403002542728851748e-02 -2.075358739184957058e-01
3.004735078428279887e-02 -1.094162366940414216e-01 3.779523701995526341e-01
4.694236197656579401e-01 -4.985496336670732775e-01 -4.299922816164510886e-01
6.991401412689994821e-01 -4.602672962734331574e-01 -1.466526872809254672e-02
-6.461924718977476445e-01 -4.131590178282160825e-02 -2.181228637312463969e-01
7.560398124367882777e-02 -7.768882581161061507e-02 5.439620664561816143e-01
-5.080243443533860592e-01 -1.615919384688205840e-01 -4.649408044235566750e-01
4.839806742432345987e-01 -2.368035703970960693e-01 4.950247012978791772e-01
-6.489949984348981626e-01 -1.147411169955388222e-01 -4.760331174229237017e-01
1.182069805193593573e-02 -1.338376467081813237e-01 2.708906257478368440e-01
-3.353491636401055853e-01 -1.941960995592348360e-01 -3.654643534457651111e-01
2.818221198984373621e-01 -3.925215045328365737e-01 -2.933773627637160653e-01
-4.352578185775922426e-02 -1.904116560301551131e-02 6.006270400555162592e-01
3.419156903145550430e-01 -4.516692623094267223e-01 -4.244168986435968294e-01
-1.905814899638102189e-01 -1.833645351247266964e-01 -1.497963367190908168e-01
-6.922756374989494921e-01 3.097958085920097041e-03 -1.209058282146823760e-01
3.601375378687221573e-01 -4.877693143902924189e-01 -5.271037864374004123e-01
1.514182548030721387e-01 -3.790641464269887684e-01 -4.071958417597584812e-01
-8.102863045418816634e-01 -2.411669793015533067e-02 -3.604276477606118689e-01
-5.173044984044618960e-02 -3.763178452202286528e-01 -6.476437907580853137e-01
-4.807682964318554797e-01 -2.408578179729807811e-01 -7.061066715282582340e-01
7.400994978133280944e-02 -9.420845085695989107e-02 4.847503939621042868e-01
5.917258729863229538e-01 -4.386799311126526324e-01 -7.202077336824085074e-02
1.606091758619132281e-01 -4.246910299849547266e-01 -5.540110006420913003e-01
1.737041280026528356e-01 -5.876492349299934984e-03 9.135422425473155306e-01
-6.235121086938416601e-01 -1.660632861297532958e-01 -6.225392667937874602e-01
-5.309315942896858376e-01 1.627586291916323924e-01 6.309397016621925980e-01
-6.354961665075219424e-01 -1.552291788459844168e-01 -5.997385207208082436e-01
-1.713731401815492550e-01 1.774345458312089063e-02 5.707970121559053922e-01
-8.239209673241898457e-01 -4.436824856323491606e-02 -4.473881183478568557e-01
-8.491704458377390408e-01 -4.196016682162632266e-02 -4.701110567853351019e-01
-8.061357889345056593e-01 -6.117734885054926935e-02 -4.837577321446122625e-01
8.682078648124090525e-02 -4.106544645914857461e-01 -5.961593406424059438e-01
-1.275306097993662846e-01 -1.230720808614617079e-01 1.367340587544715325e-01
6.784300486082728288e-01 -4.904063492944052416e-01 -1.445977965463429715e-01
-5.243797193398288536e-01 9.353540221961637036e-02 3.991020044458576388e-01
1.164978353011026785e-01 -1.938441448466974304e-01 1.917331558772238376e-01
-6.350516235665222275e-01 2.067914496511271683e-01 6.554244121636099152e-01
5.286774968761110971e-01 -2.555735368572104038e-01 4.849731143453631099e-01
5.098429068632801542e-01 -3.988302765960595186e-01 -3.467148683065067460e-02
-8.968249190642315627e-01 1.500756777491255578e-01 1.367701838408770243e-01
4.284196692141976626e-01 -5.318675821780035617e-01 -5.959122614350317315e-01
-8.813942984155098692e-01 2.005495174500640798e-01 3.306786368798058651e-01
-5.280720010324524427e-01 -3.610671554609722056e-02 -5.472792447955400486e-02
-1.075228478514015790e-01 -8.565361896909320927e-02 2.910298637818682921e-01
-5.261653892214109840e-01 1.201117381471439594e-01 4.890075645945833327e-01
2.471524494283694473e-01 -2.170252361944315367e-01 2.721616743623111456e-01
6.762232875890018535e-01 -3.886064507560618719e-01 2.054838372000989122e-01
2.524037761609481123e-01 -4.264186701362734366e-01 -4.470490954005564288e-01
-4.834951163813663161e-02 -1.993938281881531827e-01 -3.033716501427630857e-02
-5.846528112591835580e-01 1.720145133321656361e-01 5.969152384425271407e-01
-5.143316116310657493e-02 -3.091424693860062717e-02 5.497500984643797217e-01
-3.115704861192976002e-02 -1.941082702028306683e-01 9.134991123592313758e-03
3.797190719993074892e-01 -4.817876356783679648e-01 -4.822795131050451323e-01
1.859482299397167415e-01 -2.896350586174377684e-01 -5.478346430895322111e-02
1.943699611935263694e-01 -3.836818168168225074e-01 -3.703486273338280621e-01
8.162987735518620891e-01 -4.041617283420114726e-01 3.239322847284519247e-01
-5.406998642729282656e-01 -1.386388392601987096e-01 -4.256005022629568146e-01
-5.494112441796443758e-01 -2.688018731087347263e-02 -4.900953456533582026e-02
-4.067491751118713916e-02 -2.786031777065221815e-02 5.735713159183026821e-01
-7.672866784136480600e-01 -5.050058071831311363e-02 -3.989542906983223891e-01
-1.353558652820081587e-01 -1.461068463881189661e-01 4.727631888365890073e-02
-4.561144382487362647e-01 -9.002912117687704441e-02 -1.530604009516684516e-01
-5.417212106952748463e-02 -4.038966663648568822e-01 -7.462251126154055836e-01
-4.305643748128738513e-01 1.572135819972121651e-01 7.352202593432906053e-01
-1.943563374516192321e-01 -3.646534221245602558e-01 -7.827145106743302883e-01
-8.247355142129604300e-01 1.128242495345471857e-01 9.637474601339647562e-02
2.013354754333855356e-01 -4.403958336601895840e-01 -5.583255359924671479e-01
-5.241297514436134009e-01 1.954958954116307046e-01 7.527630902416794223e-01
2.518058224480550500e-01 -3.038749552761956796e-01 -2.309828291014007912e-02
-2.142363281483177506e-01 -6.030678209354026209e-02 2.475654444508046947e-01
3.826579857205066326e-01 -2.963092641461982368e-01 1.641291270644553435e-01
-1.447922727980173116e-02 -8.805224592523695423e-03 6.718411421869781019e-01
1.993867145892825321e-01 -3.859709472206847569e-01 -3.721089267834800651e-01
-2.423871697738916031e-01 -2.378608466954116873e-01 -4.024029416434434236e-01
-2.241874432554998298e-01 -3.437154373333931034e-01 -7.468578477900059687e-01
1.070310096913483916e-01 -8.381908320423517300e-02 5.613866635895019552e-01
4.521558969911868009e-01 -2.011140111047937107e-01 5.795511841381895124e-01
7.487184831888045178e-01 -5.576660044130674621e-01 -2.912055321575995892e-01
4.231671976056506357e-01 -3.421968926833903746e-01 5.494610614541290544e-02
-1.775161514657585815e-01 -1.889596152196294232e-01 -1.531102817992778531e-01
4.012127785785060685e-01 -4.886059476108369215e-01 -4.794619464468285464e-01
3.715350501343235856e-01 -4.842994079479333025e-01 -5.010543695007233511e-01
-2.905923563366911710e-01 9.292519156346112918e-02 6.846522886916250883e-01
1.838048348534394583e-01 -1.638049223279937350e-01 3.786551479833293321e-01
1.242588855597481501e-01 -1.032107830651309427e-01 5.153810761712951383e-01
-2.850392343336480283e-01 7.519065093766318097e-02 6.300244706897731861e-01
-4.633768355305847852e-01 -1.390367397255278525e-01 -3.318368909655844967e-01
-1.039740321349135327e-01 -7.931028656624683482e-02 3.173799294284946892e-01
-5.319624006678869144e-01 2.085465869966399155e-01 7.883537389803079165e-01
-3.031341307263178773e-03 -6.384433511228311542e-02 4.951841366377852660e-01
3.609860272548299776e-01 -8.852940030375625047e-02 8.575430583575479604e-01
3.080058721388254650e-01 -5.356195506666691086e-01 -7.570789145428463707e-01
-4.288159848273783714e-01 1.901003537462729598e-01 8.513437225750729587e-01
1.181110861094827533e-02 -1.445099223968200342e-01 2.338930687389076668e-01
-1.864872500789293841e-01 -1.349111899533493864e-01 2.316098992052354269e-02
4.948385811850548044e-01 -5.665039986066162658e-01 -6.342224253338880624e-01
6.618490253034700066e-01 -4.153681374576370655e-01 9.505184393846577429e-02
1.526833181670353770e-02 -8.172206458023403841e-02 4.557441527128128778e-01
-6.415173878735070528e-03 -3.757156010097372212e-01 -5.897982119342418672e-01
-4.947075644032264963e-01 -4.503133603156009301e-02 -4.460355566426220386e-02
-5.341994302882647760e-01 1.459789571003354269e-01 5.687672695360791453e-01
6.245333091021860739e-01 -2.216931358058742141e-01 7.203351188432465246e-01
-8.423243338553291215e-01 -2.901071249145479106e-02 -4.168096876869153977e-01
1.655003317151165498e-01 -3.295362874465435077e-01 -2.182250958395239027e-01
-2.356775134421656426e-01 -1.794588953715223201e-01 -1.917496465944896478e-01
5.442466479436898208e-01 -3.561343768233438123e-01 1.556273834274129741e-01
-8.267297651650861168e-01 8.048509135577963658e-02 -1.815343284723067510e-02
-1.474899492764248921e-01 6.427622140656580330e-02 7.614478273611825498e-01
-5.176473038601145937e-01 -5.123015276881245222e-02 -9.431246423818778757e-02
-4.189845072355073974e-01 -1.904081642610460506e-02 1.386428695808738509e-01
-7.077799184812291200e-01 1.933310481747631537e-01 5.192871919023172023e-01
-9.599931214668012691e-01 1.527503684512971360e-01 6.831388821378983622e-02
1.853093963418429163e-02 -4.110754735330750531e-01 -6.816460267659507632e-01
-4.306382339160429451e-01 -2.630427702505807597e-01 -7.213078456771651048e-01
8.532746766360152502e-02 -6.679220306527663964e-02 5.936896401732233430e-01
8.126373838766400848e-01 -4.119817580470822582e-01 2.923260708344537218e-01
-8.582437065532404208e-02 -2.526203492967615469e-02 5.270214970063792359e-01
5.224601097082934853e-01 -1.846931028986207035e-01 7.229655879605291213e-01
4.782705516762795761e-01 -4.615478918020030630e-01 -2.908735668294893939e-01
-9.699714243329624064e-02 1.109020037766312167e-01 9.851629538174436762e-01
4.271513273507802078e-01 -4.793520170960844928e-01 -4.154753563242888359e-01
1.514615044786973286e-01 -4.168148449446742454e-01 -5.379711592036109380e-01
-2.176294549756150887e-01 1.092872705662768090e-01 8.311342134367862844e-01
6.139123717006988524e-04 -1.473118400767984247e-02 6.698756240134770001e-01
-7.547986847080743189e-01 -5.024630321010974121e-02 -3.827071437355513139e-01
-8.214148552628486311e-02 -7.145835847265198659e-02 3.714554962680849393e-01
-6.849332390575001150e-02 -1.879853380872187341e-01 -1.558605971433811577e-02
-3.011464950451793743e-01 -1.092154490447563436e-01 -2.887118276675135209e-02
3.723147410981654803e-01 -3.440788738457838392e-01 -1.414777547465728876e-02
5.056614309160037957e-01 -4.746299869622689904e-01 -3.025075092561779755e-01
5.936838685736310905e-01 -4.648769830210564558e-01 -1.603998505283575904e-01
5.293258096405959456e-01 -5.096874160500096673e-01 -3.948842964660906896e-01
-6.229189546906616082e-01 -1.503676810722867074e-01 -5.674148472282862787e-01
6.384333472252604613e-01 -2.623786818885450733e-01 5.964389821947925219e-01
1.942786534016940070e-01 -2.294606486576605472e-02 8.797021064821125558e-01
7.213160563596319186e-01 -3.654827047569408349e-01 3.411059764149113605e-01
6.552140454751659293e-01 -4.492484991106736603e-01 -3.052772992344036235e-02
3.730390507060912242e-01 -4.597290012366352929e-01 -4.140527482044942809e-01
-8.957150979245451783e-01 1.289839594304054982e-01 6.504047081957005372e-02
-2.020057492605601551e-02 -1.192724788965628946e-01 2.819667984910946834e-01
-7.712542218530752391e-01 1.873097784543632099e-02 -1.639078137865040141e-01
-6.982020131794826057e-01 4.862443048058402717e-02 2.957822542146474470e-02
3.973329659253637680e-01 -4.170040985050724736e-01 -2.360930597646589413e-01
-3.561454364358676572e-01 -2.153934952778516210e-01 -4.645147824333313302e-01
1.759547528354190871e-01 -4.641503812083546121e-01 -6.718789739753147083e-01
2.168598990550068273e-01 -4.904613887392481053e-01 -7.127302260057893912e-01
4.470412642873931031e-01 -2.375797131968575282e-01 4.468825940683900932e-01
2.631596137522274614e-01 -3.054986222849970789e-01 -1.475491217844100006e-02
-6.310544141886938185e-02 2.864858435900262401e-02 7.418083691509688160e-01
3.624022119620766147e-01 -3.543858599763650141e-01 -6.206451772515857862e-02
-2.768113764883748940e-01 -1.573728789390141658e-01 -1.658219176019867791e-01
1.313177506615949008e-01 -3.463191115985703727e-01 -3.184476802573719123e-01
2.933167466182731165e-01 -1.467095830615414154e-01 5.726501971582333983e-01
4.852912145796359211e-01 -2.741478191480903326e-01 3.672173182725982366e-01
-9.166973702880925057e-01 4.121391020498636759e-02 -2.649525051369456818e-01
-2.758535210929087267e-01 -1.883078675349824649e-01 -2.718513805240665993e-01
-5.433535784161398485e-01 5.016925242984405370e-02 2.254661092078198703e-01
-1.297249019528146363e-01 -3.398422064649541663e-01 -6.172028228688684059e-01
3.269802010167158768e-01 -4.222547934261328129e-01 -3.408557985341920116e-01
5.271381340205407717e-01 -3.705906134884562886e-01 8.447668852514556015e-02
-5.698088476725186036e-01 1.379364280616617588e-01 4.970793264322400651e-01
3.623764922423187984e-02 -1.267861140386115221e-02 7.208224390330566500e-01
-2.848795572765551176e-01 -8.005021730199020358e-02 9.221937154468366760e-02
-5.853087531910440289e-01 1.065848477938355215e-01 3.693555785765636479e-01
3.444905034458165538e-01 -2.686443871702617336e-01 2.130409133515250020e-01
3.989476679517036661e-01 -5.171444016199490123e-01 -5.811517146519685761e-01
2.999820753629839909e-01 -4.508156057790631555e-01 -4.730559343778840131e-01
-2.251898195762968291e-01 2.525481090965974243e-02 5.306092642863520226e-01
3.423110979404495602e-01 -2.663839675319062961e-01 2.181929442663932406e-01
-5.723009601900465038e-01 -2.695081664862161372e-02 -7.741909175796349296e-02
7.881334093041872935e-01 -4.889976666142921702e-01 -4.730735922323795264e-03
-4.468449901975656280e-01 -4.539190549299856187e-02 1.303964140124471219e-02
-4.042926102599050941e-01 -8.544557962180032717e-02 -7.341124334078755198e-02
8.124066549047668229e-01 -4.539625393820239108e-01 1.465538918586188066e-01
1.324007389616687624e-01 -3.460663395850047674e-01 -3.162391062093257710e-01
-2.678431191717007831e-01 -1.594917109162302393e-01 -1.621298810483154385e-01
-2.647545744758742492e-01 3.087803471516307324e-02 5.014143823808043798e-01
4.402462480501397879e-01 -2.906513727944574077e-01 2.545968859757150038e-01
-2.777973475022559868e-01 6.439534371685065595e-02 6.015231578504057763e-01
-4.720339643843859401e-01 7.815134436857201772e-02 4.101962701012838441e-01
-1.493234808534854852e-01 6.677570405678161236e-02 7.678539358298012152e-01
4.013855321873111004e-01 -9.237150793521387016e-02 8.939376860086949428e-01
4.465431372939877852e-02 -1.350302286048522989e-02 7.283216989232653704e-01
-2.512519275647295269e-01 -2.782363868707677379e-01 -5.532358002061965596e-01
-5.713006927454281625e-01 1.201137968552913604e-01 4.334777015156336399e-01
-1.037988333478710445e-01 -9.815611443857372165e-02 2.522835457620131727e-01
4.128326552142280170e-01 -1.207981314853472793e-01 8.095077745450310891e-01
-8.311021226989796507e-01 -4.256152659185861997e-02 -4.499628509513476371e-01
3.370454400402485562e-01 -3.930523361735436816e-01 -2.272671522050387638e-01
-3.430575705129733644e-01 -2.323244940960167149e-01 -5.070866824012102425e-01
1.113795144099171824e-01 -3.175934103059788183e-01 -2.434292270781698297e-01
-9.436316015019134695e-02 -2.517470458716560694e-02 5.168175449949080624e-01
1.724867934709272133e-01 -2.147433189686852595e-01 1.881970771073818438e-01
1.825651165270661680e-01 -4.289412893600890730e-01 -5.417248519027818565e-01
-1.235550308420907059e-02 2.076592369916977279e-02 7.769358381001091329e-01
-1.093657095134563662e-01 -2.283457950645809698e-01 -2.057506185692874190e-01
6.778581972170912018e-02 -7.822187847617054213e-02 5.324948207003359357e-01
7.399895451752916964e-01 -4.430618643294463310e-01 9.522513314631882164e-02
5.013835396436290281e-01 -4.875845516305862271e-01 -3.526665065376820007e-01
5.276350095266277851e-01 -2.029347976779953544e-01 6.661147946780331397e-01
-3.325250795394186776e-01 1.659703071115752882e-01 8.862005226625033760e-01
-6.007310646582734309e-02 4.339560625399115773e-02 7.966466905479793192e-01
3.371353931734898390e-01 -4.962480979523171132e-01 -5.847909176244325824e-01
-2.463770889978140199e-01 -2.262049706462083420e-01 -3.669178454763286079e-01
-8.288190858013043394e-02 6.510314230504615773e-02 8.438109390090154927e-01
-6.393002799185766305e-01 -5.804636635364864711e-02 -2.676232969081512314e-01
-8.419044233217803930e-01 -3.252080326128226756e-02 -4.284575502502168121e-01
3.564687925133183666e-01 -2.584641459271300734e-01 2.630602358496305637e-01
6.702016563925439208e-01 -3.322861222907393941e-01 3.932577888050015069e-01
2.503561181123382107e-01 -6.996117882012792277e-02 7.857677282358311865e-01
6.788224154650903674e-01 -3.495699477431223334e-01 3.439665578283846448e-01
6.757118642538988140e-02 -2.808593975523357086e-02 7.059814526134966517e-01
6.120967434638150406e-01 -3.007228028358299721e-01 4.311478598149653951e-01
2.733064671651359023e-01 -2.806681290722757849e-01 8.378271165869174975e-02
4.796123896494899341e-01 -4.115336958450012128e-01 -1.158936765546942776e-01
-2.065453589552195268e-01 -2.005354052765249695e-01 -2.289464097903532169e-01
2.971052526551211104e-01 -4.349493757007529271e-01 -4.216098511370933721e-01
-2.353632992904464982e-01 9.490306484691482525e-02 7.594637070022641767e-01
2.562915338202705340e-01 -1.571100211427107485e-01 4.910486286406620104e-01
-5.736608863364505151e-01 1.204130384726066205e-01 4.316106370104454415e-01
-3.176070393093356481e-01 1.647501742976740513e-01 9.003280293363435938e-01
-4.212062524695414645e-01 -2.552571293861286561e-01 -6.827203511543626924e-01
-1.833701413245287237e-01 1.372304087937993855e-01 9.701283136818976693e-01
-7.688781722793114337e-01 -2.991499650133339072e-02 -3.295713091962082508e-01
7.104070692320147984e-01 -5.359536336972223758e-01 -2.630998079652266397e-01
-4.623636490786856568e-01 -1.603686948280343139e-01 -4.045180714771574593e-01
-5.776985153766710512e-01 -9.805189664226550417e-02 -3.304679082259160405e-01
5.799061003293147776e-01 -2.877841817665394153e-01 4.363786820154386681e-01
-1.963001894090812827e-01 -1.135987223834871995e-01 8.494692728462521769e-02
6.876889680036161190e-01 -4.191373524943161621e-01 1.137841892649270326e-01
2.681487988094532482e-01 -4.789237744513961254e-02 8.841423066194226132e-01
-2.251030755811525008e-01 -1.288435756711106273e-01 -3.326200004868155435e-03
-7.590494128197109447e-01 2.234163260843079479e-01 5.604656540605513770e-01
-6.422243298707690506e-01 -1.682474379810817988e-01 -6.531332086619227040e-01
-1.677795577335118886e-03 -9.112111696294600272e-02 4.023194067289850295e-01
3.725823198231262845e-01 -2.342092237013033984e-01 3.669448939731420611e-01
-2.577183147412876463e-01 3.032097608647326553e-02 5.081416510935251596e-01
6.578810327509989619e-01 -4.237816233078762207e-01 6.101169163176450166e-02
-5.956629951145171464e-01 5.784782158860996004e-02 1.877124730446979584e-01
-6.594897179342273930e-01 1.283918528915367896e-01 3.536533687918844149e-01
-1.875601983164102149e-01 -1.989911772890303951e-02 4.204257390713296849e-01
-1.366468370273729305e-01 -1.159624754991840645e-01 1.501559381234600088e-01
-7.044509790492392565e-01 2.267154732358655223e-01 6.390801149689135929e-01
-3.658004675933129168e-01 -1.711191350172096837e-01 -3.229579850050341983e-01
-1.554662646228072986e-01 -3.928884238830275266e-01 -8.327130013147387988e-01
4.178558442360496006e-01 -3.777541633967683166e-01 -7.481628712499889533e-02
4.917130344441597578e-02 -1.730883898623841177e-01 1.808218186400057381e-01
-5.168589860691438220e-01 -7.320264390864482384e-02 -1.694901725357562394e-01
-5.626965875061381572e-01 -1.049554643901447482e-01 -3.359336504857657335e-01
4.740000557005877302e-01 -3.718112907651726085e-01 1.486225992938836928e-02
1.916965731061543166e-01 2.154120200979937616e-01 2.686711911249281548e-01
5.069527508112392500e-01 2.035538409093025081e-01 6.154843796622501140e-01
7.207055794000203353e-01 -2.158990759782966062e-01 -5.751550496752050323e-01
4.229913886980781190e-01 1.638322008057242485e-01 3.745146170207688252e-01
7.177361995691148300e-01 -1.018783944215346099e-01 -1.836595318233417151e-01
-4.541367251784148573e-01 3.978326837405217753e-01 1.061975062270623799e-01
3.004400815971681737e-01 -9.477483384899679925e-03 -3.769000803912478381e-01
-5.619093187915323862e-01 5.649640618632959521e-01 5.527973247520329148e-01
2.945673250933510401e-01 1.021719041231460567e-01 2.805022026037887889e-03
-3.293436928632786920e-01 4.918132586233498471e-01 5.854481883972922907e-01
1.467000212331703579e-01 2.510874715034994153e-01 3.369414948003168209e-01
3.227588180785550542e-01 -9.732883148676955976e-02 -6.538948259912038541e-01
8.205031415474700607e-01 1.120965749941123246e-02 3.347077463029636823e-01
-5.516902816199215076e-01 5.525260257511105388e-01 5.222662351516432766e-01
-1.660244880658276745e-01 2.015203602349701639e-01 -2.196316079649060782e-01
3.490167023616678743e-01 2.628136277064746507e-01 6.265213141622116844e-01
-2.856708349945710768e-01 5.990992248942999393e-02 -8.576152122871536498e-01
-7.893534815369247504e-01 5.052833133494618600e-01 6.610817779665924265e-02
-1.215255603947848206e-01 7.244849959150816143e-02 -6.121881032324848482e-01
6.362744482198217089e-01 1.044733943105373153e-01 4.312365734980536658e-01
8.436311445665914399e-02 4.354566758911914137e-01 8.991871993189006762e-01
-2.826268246371180792e-01 2.647788058014527435e-01 -1.438776448953655585e-01
3.944854784305383277e-01 1.825218852070341902e-01 4.042101817225472460e-01
-3.872945686650254293e-01 1.071306911199003675e-01 -8.190107912982232952e-01
-4.582435822833963446e-01 4.557012141290598395e-01 3.016929396257597706e-01
2.791098236850391157e-01 3.857836714316720955e-02 -2.366040299138081338e-01
5.314581154589642642e-01 3.122619441241477820e-02 4.841976490213317080e-02
3.573648811553248317e-01 -1.634758604591023123e-01 -8.405522352059143776e-01
4.871551700333009438e-01 3.926238211242413095e-02 2.175709816077562794e-02
1.841270055436253772e-01 -1.119952962323097767e-01 -8.753031379666469380e-01
-9.189465667594108600e-02 3.454577786900600023e-01 3.704103007713930307e-01
3.921843296460651440e-01 -5.950905452335183976e-02 -4.374018679779494989e-01
-6.501218896764121569e-01 5.740226359770376208e-01 4.756489776144156578e-01
5.478446686827367351e-01 7.870571376609558634e-02 2.331273568898621640e-01
-1.968648955929258870e-01 3.901544826492375773e-01 3.961496154752485732e-01
7.203379126582714065e-01 -9.832542706181858494e-02 -1.681451020486705583e-01
4.348530851603026742e-02 4.467050203471835679e-01 8.878710415266214406e-01
-3.229844280733688566e-01 4.802363347531173887e-01 5.531520833863556863e-01
3.918561202977058344e-01 -1.095761628288797161e-02 -2.695462192200447915e-01
8.814552460342724161e-02 1.418218576115978513e-01 -1.137773096116875826e-01
-5.881421662769292791e-01 4.048740121137079373e-01 -3.428789693278887912e-02
-6.885893899827142395e-01 2.689259966742571506e-01 -6.290241802334416432e-01
7.112628173849032676e-01 1.343798998593664085e-01 6.271502087647177204e-01
-3.284441754127480628e-01 3.499424906233095101e-01 9.488874809649833209e-02
5.492929725344795067e-01 -9.855769607289470435e-02 -3.794132969109832998e-01
-4.051676301345689957e-02 2.101544077621463336e-01 -3.527780537781926434e-02
4.723403771425909725e-01 1.143310045854461221e-01 2.636853980400955533e-01
-3.231556410386928202e-01 2.212582734377436522e-01 -3.445709902892029608e-01
-2.224007113357709675e-01 5.043559507627227712e-01 7.605046630346193881e-01
-2.821548162072763377e-01 4.956888128380255998e-02 -8.891267403586994300e-01
6.953977391158311372e-01 5.175477466254174708e-02 3.212839238202246372e-01
5.585221233997509360e-01 1.120425266490093080e-01 3.617972990863926319e-01
3.236731368895665040e-01 7.639341459807841989e-03 -2.889928936042787666e-01
6.393401880926780079e-01 5.149325368659748992e-02 2.514012577889291888e-01
7.845774876073664528e-01 -6.347449533964125146e-02 3.167798244194170582e-02
-3.983023414148381125e-01 2.837129484815654745e-01 -2.205932386670066137e-01
-7.161455531521563334e-01 4.180645238193858582e-01 -1.460774743479015259e-01
2.125344698938679000e-01 4.024403390856755129e-03 -4.382720171745746462e-01
6.340615382792771371e-01 -6.530676887696616750e-02 -1.598751593893110723e-01
-4.544139058615309645e-01 5.467590870025695882e-01 6.219746604491471764e-01
-6.332195086081329194e-01 3.219950595029290596e-01 -3.769782450938204965e-01
8.465021530976756248e-01 -1.719481675724708891e-01 -2.680519865758173026e-01
-5.726260443198359917e-01 2.901537512155012988e-01 -4.127696595432452376e-01
4.477488811073939146e-01 8.287392913351915302e-02 1.244092462468992522e-01
2.513469797596053490e-01 1.496189922054162909e-02 -3.526100352886659128e-01
3.762054423439550876e-01 5.499837481761081504e-02 -6.022710511732534688e-02
1.298387179599913288e-01 1.972402228190435480e-01 1.295817894042423923e-01
4.926030940513155265e-01 -1.300853394223996651e-01 -5.584296503487714558e-01
-2.469986742375174793e-01 2.636757960436696413e-01 -1.038613614829121123e-01
-1.875419505421768440e-01 2.133575241168628733e-01 -2.050851099820072410e-01
3.977083538440813748e-01 3.783332445752733003e-02 -9.325579037467941756e-02
4.790604966524152908e-01 2.159713351967171568e-01 6.241981666519776928e-01
-2.984516371365277809e-01 4.750940749874809632e-01 5.655176228030370789e-01
8.924134417497556204e-02 1.394794074624416125e-01 -1.205469294804574348e-01
-3.069303824261667146e-01 4.735772933702329657e-01 5.498283543017026265e-01
6.508511007923466485e-01 -5.864712021308847445e-02 -1.161367163135555852e-01
-1.168350636689923644e-01 3.301149152993564373e-01 2.865501204676353941e-01
4.197412382173295042e-01 1.335300593993608842e-01 2.655005791189079534e-01
-7.071759627514565549e-01 4.683095944492113305e-01 3.908814594615501320e-02
-1.199441716827750193e-01 4.042956570847921483e-01 5.398047160698896674e-01
-7.486393107560683768e-01 3.433324665914070373e-01 -4.450504584132251029e-01
6.396445862106321378e-01 9.385537130358466429e-02 3.985856395204028790e-01
2.111537518035208616e-01 1.668248506906586381e-01 1.242290647172486218e-01
3.712723632606230312e-02 2.797276312816089350e-01 3.013721422741261202e-01
-3.577628589031999762e-01 1.388142996417941755e-01 -6.728708533960735538e-01
5.889259953781850188e-01 -2.322729846242001933e-02 -6.958215836387969533e-02
-5.209578961919355544e-01 1.898301518150458389e-01 -6.968749896775903174e-01
-5.328708859252386798e-01 2.104689384544761177e-01 -6.400077751115474944e-01
3.735682395205895956e-01 -1.295521670896087607e-01 -7.030490240450755213e-01
-4.536416999566293684e-02 3.988613188947917054e-01 6.127389133606084837e-01
8.800156421376906790e-01 2.002068193696648207e-02 4.384706695060248682e-01
2.900398296507868470e-02 2.865783615789899708e-01 3.151186766747265944e-01
-3.645492954685043974e-01 5.100287382306278872e-01 6.052566770141345476e-01
-2.694799121504962147e-01 1.411652624763076458e-01 -5.560951072101490977e-01
-3.611805467546679860e-01 9.205794759376946523e-02 -8.391146261481244872e-01
3.884080211928022663e-01 2.528049570710566574e-01 6.403046193960700849e-01
-2.013294599781467742e-01 2.531160597253053757e-01 -8.426315221715037496e-02
5.430287315873340015e-01 -2.881015115478581523e-02 -1.454046064623258638e-01
-1.883250129203340728e-01 3.244769866222973476e-01 1.790461322189883520e-01
2.084457530803157377e-01 2.432630379717690694e-01 3.858005935638569861e-01
1.054227401833418010e-01 3.800696276020179010e-01 7.331512045709213110e-01
6.403211513279829514e-01 -1.849191458005827043e-02 1.006822176262387250e-02
3.399905029818467983e-01 2.650790179085733556e-01 6.232658935304677961e-01
6.334295378905993035e-01 2.281134591784124074e-02 1.447286618700029392e-01
6.752401299598000950e-01 1.449341140161770347e-01 6.194024871977035218e-01
7.825707955051847131e-01 -6.373699121542439339e-02 2.829913271488559978e-02
1.479117801122427911e-01 -5.130052712242258450e-02 -7.095210423628114382e-01
-2.139490921108795907e-01 1.371673551017936199e-01 -5.016220029554254722e-01
-1.489232300946195520e-01 1.500577188385279759e-01 -3.769378046849872765e-01
5.638977779561425985e-01 6.025918263450875251e-02 1.889518406311032073e-01
-9.774306401863110116e-02 2.702169799309065423e-01 1.024601527021303388e-01
8.074586922680818679e-01 -4.126626903800403867e-02 1.367969548110655187e-01
1.772890957404591183e-01 -4.005401561164011193e-02 -6.343977279103654165e-01
1.796022439975803464e-01 -4.977465711156350836e-02 -6.652392825368244056e-01
4.117299017030442432e-01 1.400161234375635888e-01 2.781210376368655202e-01
-8.157612135626970962e-02 4.104076124353187721e-02 -6.718785023794755507e-01
3.183070255494959561e-02 2.575765592146009308e-01 2.180884041426475461e-01
1.486440515525668249e-01 -3.668391544367070878e-02 -6.579647961984514959e-01
5.135008181479499001e-01 -1.624148669248094146e-01 -6.447568888677769339e-01
-7.041961551674037478e-01 4.028542242337066481e-01 -1.840869666364669532e-01
-5.302904492333330166e-01 1.655799849708845251e-01 -7.923994782104138990e-01
-5.623115788064406706e-01 5.406121132532754059e-01 4.679084332937006874e-01
7.740446439858392758e-01 -2.860009427453033201e-02 1.395782431556212844e-01
3.940521386200115384e-01 2.281935277229491799e-01 5.619562738838232985e-01
1.024624440261153735e-01 3.124575557739177611e-01 4.951928079218416712e-01
-4.911246388001013208e-01 5.247817342975907851e-01 5.006391780576440187e-01
4.936671739465204878e-01 -1.797798117946793617e-01 -7.293411333080094261e-01
-7.626849312485622923e-01 4.108531881603867397e-01 -2.283336739514773561e-01
1.166432970353804832e-01 1.381207213482838203e-01 -9.153868889497608630e-02
5.732187001630484335e-01 2.294553027585485294e-01 7.867856135004601681e-01
9.410675023840494591e-01 -3.537069498338708817e-02 3.216283519271904701e-01
7.586176601312808465e-01 1.120402100388121214e-01 6.079979919942760658e-01
-1.540195826693530057e-01 4.260588601801454933e-01 5.732988191554748703e-01
5.078103858003898963e-02 4.160578467304734684e-01 7.906375028987743248e-01
-6.255664743174047526e-01 2.319371598373042853e-01 -6.796654979249409090e-01
-1.541064014483812805e-01 4.643549454400599519e-01 7.059106148961376004e-01
-1.009720797701696565e-01 4.310780819238916872e-01 6.559660055704160664e-01
-3.389650664089625676e-01 5.340701250170329928e-01 7.200545885976740168e-01
-4.753467177434991808e-02 1.716429584487903781e-01 -1.773780186265944137e-01
7.364630957416917756e-01 -1.446468587322895238e-01 -3.088349784076081517e-01
3.497300522222144270e-01 2.527314625560146966e-01 5.924583846396405118e-01
8.832200385066356629e-01 -1.832912875357043669e-01 -2.621828805660220696e-01
3.501384885538956215e-01 -2.533038670216092997e-02 -3.706880868253737416e-01
2.141540732768893451e-01 -6.088878201832912535e-02 -6.612418094076034647e-01
1.371608712038805411e-01 3.446298898540797184e-01 6.493838870172409239e-01
-1.441111390763182357e-02 -5.753806078869641571e-02 -9.308689442868429698e-01
-2.227759357524319861e-01 4.130686159716938644e-01 4.436782713684559454e-01
1.549929617878604837e-01 -1.261875216775361352e-02 -5.667526953369407261e-01
5.899436512677180833e-01 -1.524140104085659198e-01 -5.160384661427610542e-01
-6.558735562643475125e-01 3.924789310272422949e-01 -1.605846800966494181e-01
7.977591418438758630e-01 3.045988896006829316e-02 3.734357151307325373e-01
2.853943138969877724e-01 1.119272021605634548e-01 2.532592368413698336e-02
7.499087128571185756e-01 -9.628382533426108059e-02 -1.246841788573315596e-01
8.960641689275785637e-01 -9.650250234123938786e-02 5.439580994851676149e-02
8.248041158663382832e-01 -4.774408771318783967e-02 1.356902533057363081e-01
-7.013743613048478709e-01 3.807692951569253692e-01 -2.571522364911641434e-01
6.707798312206413038e-02 2.722784594471268083e-01 3.124094201512760405e-01
-2.305656476805784394e-01 3.732548569610124600e-01 2.961151138040454822e-01
-5.355007367481096070e-01 3.401322566816549764e-01 -1.938834788902661921e-01
-4.724909778706408159e-01 5.604218547937227513e-01 6.470812060193785742e-01
-2.653541794030288004e-01 1.896000779272668524e-01 -3.831632464523517245e-01
2.256703567594752768e-01 -1.118492592966271147e-02 -4.748182247493641372e-01
-4.564714972169840457e-01 2.634136778771447585e-01 -3.625168141546065148e-01
-7.338641802892051924e-01 5.044008066597024387e-01 1.313269039790814496e-01
2.492513039873203440e-01 2.718024071144471976e-01 5.349158429918710045e-01
-3.484567900096782189e-01 1.512220100092601660e-01 -6.184200797204617572e-01
-2.080264053423879766e-01 5.071549117653911809e-01 7.878916697688509441e-01
-2.681851648135294419e-01 3.728402804353841971e-02 -9.145119953949814029e-01
-2.433443081554927112e-02 3.147226004493108298e-01 3.470245746648767948e-01
-2.033043691476593140e-01 4.597818376874300283e-01 6.295261608032745038e-01
-3.422781174758753875e-01 9.086623431155252395e-02 -8.199860141950213732e-01
-3.043530706658232887e-01 3.141847017712505186e-01 6.098669284261493606e-04
3.260114600498871251e-01 1.075906034892243207e-01 6.027464485085612389e-02
-5.807418377963333711e-01 2.093038782585427970e-01 -7.029484910856422797e-01
-3.937872909292579604e-01 3.386294761923376306e-01 -2.471936681329446606e-02
2.481877552094762518e-01 3.253237747066792251e-01 7.190904384961676055e-01
-4.479101279870285890e-02 3.208050147920368800e-01 3.429328229189851363e-01
3.578623636591259927e-01 1.000305920841527973e-01 7.326585699744585234e-02
-1.991520080359601985e-01 1.608775025406156967e-01 -4.012451374627838963e-01
9.434379682291077485e-01 -1.398354587598426568e-01 -3.748718700384914143e-02
5.395801878257431294e-01 -2.892277366715720680e-02 -1.500381909905527111e-01
8.502862509925257495e-01 -1.290895825709765521e-01 -1.148654343396566940e-01
-4.734977056425173636e-01 2.376230519967052479e-01 -4.728466090148439327e-01
6.460948921442126736e-01 -1.893935658973751046e-01 -5.751029108255032440e-01
-7.990337486351376528e-01 3.690409631728287509e-01 -4.179634180774126073e-01
-4.086175581173420723e-01 2.240553362397623149e-01 -4.400346254703552673e-01
9.466111203520616302e-01 -3.910180695917683802e-02 3.155190156751118691e-01
-4.799462330797166776e-01 4.366033487964452453e-01 2.088033691064975217e-01
2.038844203857243242e-01 -3.930523770797685751e-02 -5.990783964165534714e-01
-3.406415320424522886e-01 3.551351781292243492e-01 9.787617783160987295e-02
3.988101838980253055e-01 -3.681802502976454228e-02 -3.506111873408596091e-01
-3.958465779921575001e-01 2.177024537045661179e-01 -4.463369999143624867e-01
-1.187326260113759913e-01 7.525312626397721860e-02 -5.990318279058549633e-01
-1.885651896698248009e-01 1.920904656535016020e-01 -2.800471169365787438e-01
1.016578913023817310e-01 1.257654689232848011e-01 -1.527958378935840855e-01
-1.666915063590661550e-01 3.381504185820996544e-01 2.530517486845301756e-01
-2.546055555349694965e-01 1.383868892664342487e-01 -5.474215773842934230e-01
4.964590328175872980e-01 1.415880504748538715e-01 3.878241500774704531e-01
3.931137433208113929e-01 -6.337811093289498487e-02 -4.496668380231642614e-01
3.437215227447263932e-01 -1.017808109229004498e-01 -6.435298897977397292e-01
5.721985733336154567e-01 -9.637594579449396126e-02 -3.436679094785457522e-01
2.829957894631980886e-01 1.061912525781367883e-01 2.496181954224368452e-03
5.470254833275591810e-01 2.069846355649632152e-01 6.766818432520258497e-01
5.705735368425369353e-02 1.831232158834296408e-01 -8.896257258172664967e-03
-3.255602899608316392e-01 1.266354089986775622e-01 -6.754540854179447162e-01
-3.916343685154487497e-01 4.629049053027048943e-01 4.086176930292185761e-01
-8.366737883034727208e-01 4.637842597856488558e-01 -1.359361749795245378e-01
2.076902455554464622e-01 2.167557403811574690e-01 2.930074855763225017e-01
1.655038140338229713e-01 2.731024753466360783e-02 -4.154419175157638700e-01
2.996255211752409942e-01 -2.892084110752028009e-02 -4.452851139686474502e-01
1.718363403156892844e-01 2.855243025373616073e-01 4.872146456215576404e-01
-3.573411983239844214e-01 5.054894547094010981e-01 5.983946157081216910e-01
-5.696569908810786842e-01 2.907985742350491232e-01 -4.068816766436927912e-01
4.538915783332772569e-01 1.418384293871436524e-02 -1.060842774576600811e-01
-5.923329685718812243e-01 4.997887710595740884e-01 2.894913741287793441e-01
2.359770187346628134e-01 1.623263926904500165e-01 1.391831765288141232e-01
2.306809361911772160e-01 -8.029949136336091142e-02 -7.081758414316725592e-01
8.606043697326771769e-01 5.428867472863935922e-03 3.640166745950184635e-01
6.996940872105930076e-01 2.902893934912199533e-02 2.478119080397394591e-01
-3.397773761570684337e-01 2.107083393468560106e-01 -4.015850728164326866e-01
8.682457703965164031e-01 -1.921563379345883060e-01 -3.113307075600373341e-01
8.104665243130968477e-01 -7.068435047409578342e-02 3.854687956537219962e-02
-3.284132703721945878e-01 3.143542844599284680e-01 -2.840744178562064001e-02
4.065067196905203795e-01 -1.631340656209993856e-01 -7.789008514921192949e-01
-4.677034006395178189e-01 2.140254249417341270e-01 -5.474967298152021433e-01
-1.597166492132909843e-01 4.684369171391002395e-01 7.131539029195514967e-01
8.183291531311398526e-01 -1.835099123049614145e-01 -3.427859136520902128e-01
1.073415590667434055e-01 2.824259269813609100e-02 -4.837768753707186731e-01
-6.560553685719872075e-01 4.704531896245953138e-01 1.094186066679148500e-01
-6.703317806394647471e-01 3.908046215861382122e-01 -1.841773607778140753e-01
-6.593736385129764788e-01 4.300820718171901036e-01 -3.457421741463685000e-02
1.367215081905155949e-01 3.772136326768174563e-01 7.617652420523000067e-01
1.070414917718865572e-01 5.779694480869284473e-02 -3.817227565650394561e-01
-7.733496124966094953e-01 3.606529142554139589e-01 -4.154297814849919890e-01
-1.196358995250863116e-01 1.528987021804742719e-01 -3.310553474983236599e-01
-4.723759268097774133e-01 4.951917557597941832e-01 4.211618351453597642e-01
4.936679763185646275e-01 5.202784590339085136e-02 7.401071310209143828e-02
-4.685260393439939081e-02 1.686575304258191854e-01 -1.868850409683728286e-01
1.566017228719815690e-01 3.071347300097574395e-01 5.433620550756689260e-01
-4.674543663815950434e-01 4.852659377602867585e-01 3.928187583830712315e-01
-2.245260091720386042e-01 3.726838594184361114e-02 -8.608455416014600958e-01
-5.406692145605526134e-01 2.700836260686722001e-01 -4.430030651801392660e-01
-3.352746984368725758e-01 3.287580344590573800e-01 1.306740066927402147e-02
5.774447025469761074e-01 4.012948113396438282e-02 1.358593923428950412e-01
-5.953383858719580868e-01 4.418654994348514276e-01 8.505489035408084209e-02
-9.595507470272117423e-02 1.761650642055197502e-01 -2.212854107011699711e-01
2.370809328522198167e-01 1.214419626505624239e-01 -1.147276338980315847e-03
-1.602131068998371988e-01 2.687289402360951707e-01 2.043658466480919103e-02
-4.793605810777993442e-02 3.194348087972106454e-01 3.343144080615954583e-01
-6.505009055397505957e-01 2.434989885616879735e-01 -6.702776285160151337e-01
1.498572286833256897e-02 3.192695385986495799e-02 -5.846481591187463467e-01
-4.358122915628758753e-01 3.083802075855224256e-01 -1.812609098815869402e-01
1.997763610832692383e-01 3.124625464627694971e-01 6.149505809795672295e-01
4.695892822397883526e-01 2.597436819480286596e-01 7.642413682593491853e-01
7.535551742644536199e-01 -2.293988564890299398e-01 -5.815198107737366007e-01
3.565511778348873784e-01 2.551884519612696578e-01 6.093664023062775881e-01
-3.707401761338690593e-01 3.577834683774896440e-01 7.001902007679770834e-02
-2.342565921730208611e-01 2.386269679896508011e-01 -1.749918206044981939e-01
-3.825532039996140665e-01 3.884966894352402389e-01 1.619231167627664392e-01
5.754294546371846453e-01 7.379696962869265742e-02 2.500575113824399787e-01
-2.667663153519368446e-01 7.795234006618972922e-02 -7.718263703134831122e-01
2.201509179171551867e-01 9.094121454261147944e-03 -4.113307377972902912e-01
-7.788339391909874232e-01 4.223339583662091279e-01 -2.084166449649298980e-01
-4.672120722463030673e-01 2.185359900437447711e-01 -5.312603917424901789e-01
1.601559939191239401e-01 4.289698876563891733e-02 -3.680048818880040096e-01
5.858982623505806231e-01 1.320447275095396611e-01 4.648019045691011430e-01
5.405040000405936240e-02 2.751312782257477330e-01 3.062662615549795464e-01
-6.312333915185440458e-02 6.417288592897943574e-03 -7.691640128183239167e-01
-3.873834507648203362e-01 2.243020300101198350e-01 -4.130520540549619257e-01
-1.936475536288242705e-01 1.979954364621414886e-01 -2.658365193244933145e-01
7.955695131981010970e-01 3.534219438402254332e-02 3.876615544015826753e-01
5.460179567110921006e-01 -1.589907909419256971e-01 -5.928795341488375392e-01
-1.792468487485122663e-01 1.202037396733688646e-01 -5.177114018945300211e-01
-4.709502243151834078e-01 3.322571272613905613e-01 -1.417489127670930882e-01
-9.018529330199788474e-02 1.057937948530976169e-01 -4.580640864509551990e-01
3.636370529883595770e-01 3.618179280180446739e-02 -1.409025569929514554e-01
2.849495888436098245e-01 3.047974663931841133e-01 6.931884330088053936e-01
8.195779896283111876e-01 -1.472959092762670674e-01 -2.157463014570028814e-01
-1.187907012323307504e-01 1.677795925259817911e-01 -2.784442676874535616e-01
-7.054270004582150477e-01 3.800975720767944543e-01 -2.644667484050501893e-01
5.446860855927116996e-01 -1.718119684916181167e-01 -6.389513183469979207e-01
-2.523956650189073114e-01 4.738139346654462458e-01 6.177510179872689466e-01
9.311941657273843376e-01 -1.826893807846783901e-01 -2.010668721850103480e-01
3.771722402070463165e-01 2.285426346008085363e-01 5.423961664825065476e-01
-5.135410418263880450e-01 2.750943406203720798e-01 -3.922579523447001781e-01
6.383724261043494108e-01 1.693018933500973350e-02 1.304289759131264104e-01
-9.693201572546372713e-02 -2.938661129028173266e-02 -9.348458199722500250e-01
6.291488247266664724e-02 2.098760996545505075e-01 9.102576418203449371e-02
1.096760643280169228e-01 -5.213847200276330862e-02 -7.594723774880905998e-01
-5.400202621582221862e-01 5.219398255706827472e-01 4.306263755284062689e-01
2.429787581564223919e-01 3.327303696775704145e-01 7.383492369779409703e-01
-5.210418835769400348e-01 2.745124763139628610e-01 -4.035039113908021058e-01
-7.203380756859419087e-02 4.371740089858662248e-01 7.126992701019198018e-01
1.877950334537226151e-01 3.942061503770959985e-01 8.834980997520285317e-01
-4.985119118060647447e-01 2.104864349771206344e-01 -5.976699390018863634e-01
-2.294818029802846854e-02 2.928596417056542611e-01 2.729621908222892301e-01
-4.060911015460614282e-01 4.334394049812798633e-01 2.887139071984972105e-01
2.457129147733111418e-02 1.346062795878994467e-01 -2.170088483434042814e-01
-7.382104011083560069e-01 4.403354853344597086e-01 -9.604522013802822833e-02
1.552887060043316170e-01 1.147253050846081673e-01 -1.250661968512152833e-01
1.940522361637487536e-01 1.818141342047965292e-01 1.551331521389411050e-01
