-7.223445555258626305e-01 -5.559721272821428473e-01 3.114932282035289268e-01
4.709659330434464719e-01 -2.737306069308160228e-01 -6.297858863150530562e-01
3.435940354028926280e-01 -5.979072335735836630e-01 -4.112383940233664270e-01
-4.317601891647375179e-01 3.165300920547287622e-01 -2.404764439458064451e-01
-3.053025752026062856e-01 7.464573473918538482e-02 -2.310859754537069877e-01
-5.599815564593287887e-01 -7.104324603396099391e-01 2.608663805502998700e-01
-3.297603589913534750e-01 6.522247285932918359e-01 -4.460453517485354902e-01
-1.343160434056257235e-01 2.292807858937426502e-01 -4.118142601104440303e-01
-8.620905516621409082e-02 3.082012618736956755e-01 -4.768826800635062590e-01
-2.347629181160828526e-01 -8.303428943375615878e-01 8.337321351430036775e-02
-5.240592500454772651e-01 -5.470493203360573542e-01 1.703356964513312588e-01
-2.488263535629736400e-01 4.685986104794856444e-01 -4.284634218585943732e-01
-9.142783785967830701e-01 1.757170650322109062e-01 1.508488329685996887e-01
-1.719917872310334495e-01 -5.152720115063130768e-01 -8.669645608829004702e-02
-4.495582260624946674e-02 1.392975701157065371e-01 -4.376812261903104129e-01
-7.469031102240620834e-01 3.145210202017886258e-01 -2.101685295767592027e-02
-1.098549570533426389e-01 1.425027647274951792e-01 -3.939398866466021776e-01
-2.833495176579427510e-01 -9.768898446923941770e-02 -1.771159107414327916e-01
-4.036565824824216997e-01 7.446158784216077020e-01 -4.318745486124764832e-01
-4.154870072764338396e-01 4.568822344522581180e-01 -3.081259774884183011e-01
-3.814135520051528672e-01 -4.560531551898757141e-01 3.482528292148093230e-02
-1.131092567358174365e-02 4.776454022804198507e-01 -5.968894309902023076e-01
3.331050920396620429e-01 -6.445941570269655418e-01 -3.852136581937109505e-01
-1.380924323811141274e-01 -3.901106213210591145e-01 -1.604755067414613545e-01
-6.711981226709674564e-01 5.801272951030723712e-01 -1.801976339598623245e-01
-2.849097604914752058e-01 -7.945146410248518087e-01 1.037792056744050034e-01
-5.918195883883518027e-01 5.336336630784680457e-01 -2.166024766928243139e-01
3.077722628304757624e-01 2.570603716879784062e-01 -7.296994842829914729e-01
3.613138914286262993e-01 -9.536198526775427342e-02 -6.253314690552623789e-01
2.852134743730819211e-01 2.182436595060946102e-02 -6.195879426638968290e-01
4.325670224162468658e-02 -9.093543144249471855e-01 -7.779540468724255309e-02
-7.588530603089761462e-01 -5.235226525327197900e-01 3.237934119355461715e-01
-4.547520905315897699e-01 -6.427654082704734595e-01 1.606840228267595039e-01
-2.045241594844412203e-01 -6.188068174764786988e-01 -2.255007149985636603e-02
-1.037227904515783117e-01 -6.802934256628924148e-01 -6.779805341639723315e-02
-5.498173314228481656e-01 -3.365385729300277573e-01 1.036759308785605849e-01
1.975721960444131731e-01 -6.624346258901968598e-01 -2.840141630358558045e-01
-2.289345259103351959e-01 5.480871342209673314e-01 -4.741836664596061901e-01
2.039359957806789470e-01 -7.044362495357359144e-01 -2.715636149856907045e-01
-7.609270353153150257e-01 -4.547436390528409311e-01 2.976139453781345146e-01
-3.376418786602842365e-02 -1.968080517728065248e-01 -3.104819246502218411e-01
-2.206339133094386562e-01 3.550340092256173419e-01 -4.024217033472652916e-01
-1.046371780181553912e-01 7.838834084735446517e-02 -3.718147389718557405e-01
1.620801487852823464e-01 -8.100472261523297135e-01 -2.001147128924724017e-01
-4.365582884066808722e-01 4.236159887076600961e-01 -2.801481076631715528e-01
-5.959260945898295914e-01 6.071855672075450183e-01 -2.432882996177085366e-01
2.573902488360966800e-01 1.589131546215483692e-01 -6.553320434035609932e-01
-4.713895373856057947e-01 1.388758118347265848e-02 -9.145368670427114766e-02
-8.457272101048225466e-01 3.510550385714728255e-03 1.724366591672602811e-01
-3.035031088300053637e-01 4.042941098146271006e-01 -3.647058501854226753e-01
3.519355719437718411e-01 -1.055476365212430628e-01 -6.147345110465809448e-01
-5.061914008708432444e-01 -4.618515653283420397e-01 1.237271708356217220e-01
-4.096312455911180761e-01 4.501141996287731928e-01 -3.094711029429275673e-01
1.360226648522477877e-01 -8.157064072730588755e-01 -1.797630155441475863e-01
3.110097940210893031e-01 -8.595173748406788050e-01 -2.835803614878922851e-01
4.534478083492926581e-01 -5.751790171276207619e-01 -4.965838598303700668e-01
1.882975671966411746e-01 2.950490020173151540e-01 -6.620598636794950975e-01
4.305261852734704742e-01 2.396034907444767603e-01 -8.078588920858723599e-01
-3.856401383227335833e-01 5.800096333606007404e-01 -3.782765717389984794e-01
-1.018320295826962846e-01 -6.557794655576667520e-01 -7.895356304287921845e-02
-2.973951003486544065e-01 6.776549807298535288e-01 -4.787126542049611744e-01
-4.654111767370945618e-02 -4.578866799661180931e-01 -1.967800557157168007e-01
-6.791618031273911615e-01 5.858150531748697043e-01 -1.769562011511560951e-01
5.053383084650612395e-02 1.945426881430925292e-01 -5.261178278459647251e-01
-2.836632459486507218e-02 -2.123558321442308716e-01 -3.079838153704121950e-01
-2.326575095840962282e-01 6.088973693070257598e-01 -4.960191272025261111e-01
-2.827210955530574665e-01 -7.658408940826364475e-01 9.074662808399305836e-02
-1.251172110490842704e-01 -1.758935870184666350e-02 -3.190651033487226229e-01
-4.799027076513454060e-01 4.938316433648375359e-01 -2.782701526978256790e-01
-5.482975910818376208e-01 -7.960476768251665280e-01 2.871388635397740252e-01
1.385683864818994249e-01 -4.029789269429324694e-01 -3.472613403097399298e-01
4.916671230024385331e-01 -3.565075675743616945e-01 -6.109094557394645353e-01
-3.734871743348076034e-01 3.537430671945357985e-01 -2.958504874320379008e-01
-7.318927528875294186e-01 2.511840030196350049e-01 -5.998173938460033515e-03
-2.418302160982837568e-01 5.442431348554305215e-02 -2.670044673907238653e-01
1.442850957759020947e-01 -4.775186588201209559e-01 -3.212960450232209553e-01
3.166057136127755078e-01 -1.558887062366650644e-01 -5.700072874215750263e-01
-2.745474502116921345e-01 1.064251743735004224e-01 -2.651856697275206121e-01
3.300744498213943889e-01 -8.362091665286240649e-02 -6.083715459084856336e-01
-2.738147843133358419e-02 -2.833752159151148864e-01 -2.801490602186938461e-01
1.875296917668167473e-01 3.727752229053746258e-01 -6.927383097744351792e-01
2.205457828091362815e-01 5.035328860090445557e-01 -7.681517346828123927e-01
-3.157079455289781289e-01 -7.895726358463556194e-01 1.231631614781136252e-01
-6.984960539502874655e-01 -2.623352191941653033e-01 1.770357858257588235e-01
4.887080339896227588e-01 -6.787540623285043262e-01 -4.794572591127294059e-01
-7.449182487157643417e-02 -3.367402988014162601e-01 -2.260339818913323362e-01
-3.527152626778516931e-01 -7.861340326356521802e-01 1.474588407173445803e-01
-6.844252402861968898e-01 2.711975374594619015e-01 -4.696864001932101601e-02
-4.769961464037881238e-01 -1.192996072130229901e-01 -3.408195797707983671e-02
-6.541723241191443883e-01 -6.516141585654631196e-01 3.025992540807999065e-01
-2.416171271871166704e-01 6.392847538777428618e-01 -5.020049066587699560e-01
-4.707963350283007609e-01 3.331415461727629812e-01 -2.200627210312478266e-01
-4.332038677902737556e-01 -3.424967860973571199e-01 2.515957653360034393e-02
-4.016455389750914901e-02 5.655969516530579000e-01 -6.121873997841730253e-01
-4.975013243455220918e-02 -1.499878456104458968e-01 -3.181913418937787896e-01
2.316271777908628926e-01 -4.592746937396997020e-01 -3.892217566879427326e-01
-1.946798516785873123e-01 -1.397205015486009672e-01 -2.217589143067674184e-01
-8.098542265375440197e-01 -3.348166474097924450e-01 2.834035984468163405e-01
-7.067679996282195676e-01 -2.928224136187859705e-01 1.950172682760731302e-01
-4.367908508032954107e-02 1.588711142029735901e-01 -4.464268734351625190e-01
1.726691085177192719e-01 -2.994899677131970250e-01 -4.124774693301549999e-01
-4.106416261644053600e-01 -5.864860519463419575e-01 1.074800904129597917e-01
-3.442239692041428323e-01 -3.319115519392418223e-01 -4.082709893012036184e-02
-8.153676651878347670e-01 -1.536324753703237900e-01 2.144738512303764610e-01
-3.886086945288002026e-01 -5.851514672871277467e-01 9.165726843387989042e-02
-2.499761548767447661e-01 -2.652191562190720497e-01 -1.329987774944971224e-01
-7.140973173587961131e-01 6.720355653609270119e-01 -1.873393248996192972e-01
-2.203207343097080551e-01 2.772368035880601322e-02 -2.712064767625944062e-01
5.596700995685124358e-01 -1.639540647836074949e-01 -7.354118422436175528e-01
-1.245605123037201167e-01 -1.370818736933520632e-01 -2.714687484661929551e-01
-7.379352333574473732e-01 -2.947215027106115381e-01 2.174043413276050551e-01
-5.787288505739162092e-01 4.648819436539732286e-01 -1.980776338146816307e-01
-8.454841420139901365e-01 -1.420425668175747669e-01 2.307153364077084712e-01
-2.788563463896728267e-01 -6.406747902928403571e-01 3.780433102240370047e-02
3.044533372034442520e-01 -2.722795367352036366e-02 -6.132398505645100251e-01
-2.971534219565297175e-01 -5.328686136111867450e-02 -1.853682847587196092e-01
-4.435974359864808814e-01 -5.185620748186771101e-01 1.030704383481205050e-01
3.795853237939346148e-01 -5.019878507093668007e-01 -4.747266503023409578e-01
-7.318522719575747404e-01 1.824796416142159417e-03 9.410473212624458073e-02
4.558964609366646104e-02 -8.833361699924004162e-02 -4.090975561470069910e-01
-9.488184899741992917e-02 4.676437945388824957e-01 -5.348899743364067261e-01
-1.129467073772965624e-01 1.069632509493121247e-01 -3.775237584769375876e-01
4.893752143294744505e-01 -2.996316324802735243e-01 -6.321579958319798465e-01
-3.008292790019632679e-01 4.131819919968510169e-01 -3.701299677406863498e-01
-4.907361899442451159e-01 2.153336521543351353e-02 -8.110075808892984461e-02
-5.557504362558863820e-01 2.076871835275645728e-01 -1.107431606129992696e-01
1.739327538047589772e-01 -7.203935878433137541e-01 -2.443390088429045204e-01
-7.731052370878002122e-01 -4.406666029603777818e-02 1.411547764234542812e-01
-3.584079236130804369e-01 -4.787325705246662788e-01 2.797048235143367520e-02
-1.240010698877291595e-01 -3.657240253777528927e-01 -1.800449090178228850e-01
1.497447364266917269e-01 -6.082236459949659224e-01 -2.725990508886362851e-01
4.800586233532754266e-01 -1.939989145660389325e-01 -6.681111055594685100e-01
3.572954495228981564e-01 -7.551785058673975426e-01 -3.575919397420610490e-01
-8.715929282575614057e-01 3.566950946629204172e-02 1.774693093412669231e-01
-7.781664500812661700e-01 -4.412719465831888566e-01 3.041654154274535116e-01
-1.045822825628361791e-01 -4.991267976695450970e-01 -1.399497625673815082e-01
-1.497547180984595272e-01 4.384563870284317599e-01 -4.850977165938764046e-01
1.543587231348273470e-01 3.334181306539702461e-01 -6.539196211349651566e-01
-7.756507525782303514e-01 2.855788696261289950e-01 1.055068473069938409e-02
5.090289865722517071e-01 -5.894011878791992620e-01 -5.294363014900049791e-01
-1.138104020964408464e-01 -2.885725925658260693e-01 -2.180958167887434573e-01
3.499983686304355412e-01 3.000890292566691861e-02 -6.678236033461100174e-01
-3.678546313988507732e-01 4.577953903716057149e-01 -3.415410106897037168e-01
-2.510699861460111149e-01 -6.126955651911073497e-01 7.290417073360384165e-03
-1.422942399095661337e-01 -2.356131259676857992e-01 -2.195991704648363185e-01
-1.027203289922633267e-02 -4.950216475958909568e-01 -2.070326500105041101e-01
-5.732577561898928309e-01 -2.614241564377303706e-02 -4.701182066075184317e-03
-8.767467147953328377e-02 -7.126659523874442348e-01 -6.593328630642808497e-02
-6.913904212108064051e-01 -6.120303480190151246e-01 3.125269524856288950e-01
-9.305914423751902032e-01 -7.889418679977779070e-02 2.644071508319049135e-01
1.229449078451475136e-01 -9.291960566775583352e-01 -1.251172561328174615e-01
-4.465723023814154036e-02 -3.253130966764091747e-01 -2.513224861558955303e-01
-4.593100120179879342e-01 2.418519727366976457e-01 -1.913745532656586645e-01
1.072767297577547352e-01 -5.503320532443832791e-01 -2.663804027998516455e-01
7.947580343705139272e-02 3.687400739638116431e-02 -4.828860155863639592e-01
-3.615490063739162929e-01 1.186976736731888971e-01 -2.097502066855144176e-01
-1.964080518959182842e-01 3.931889241348562880e-01 -4.345513487200663993e-01
-5.564978462491828592e-01 -9.100215832093505597e-02 9.715075581634105562e-03
-3.803603544896128064e-01 -6.191971578598406412e-01 9.960555190605795139e-02
3.434741104270040424e-01 3.175667858193476079e-01 -7.787667287416029094e-01
-2.300370597459794053e-01 -9.539416097322059862e-01 1.297257750337001692e-01
5.305054262499518947e-01 -2.141458586579020607e-01 -6.950220969171543306e-01
-7.682751411005621645e-01 -2.431436182353687026e-01 2.177435470812122964e-01
4.364014905027516211e-01 -2.265902727950988294e-01 -6.247336960991272115e-01
-4.448934282867407775e-01 -3.947012730579972928e-01 5.423292138949684787e-02
-2.762827240133102630e-02 -7.880739238344373065e-01 -7.731443753979434785e-02
1.803249110946137101e-01 3.272890879590537039e-01 -6.694743761581886110e-01
2.717235778070699603e-01 -6.505686025159258812e-02 -5.753409301286007693e-01
-8.497097673028227716e-01 4.484725519334073485e-01 -3.476083127281981867e-03
-1.474679530075941047e-01 7.362817755451522839e-01 -6.062770667564105764e-01
4.690939195974014320e-01 -7.028455005841462988e-01 -4.561745759708060177e-01
-6.941280402482316036e-01 -2.705814761945714575e-01 1.773164763484519901e-01
5.673176990404233955e-01 -1.550637248805568913e-01 -7.442878535598380640e-01
-9.678477450395401860e-01 1.465553502615567216e-01 1.997263759216424683e-01
-1.517096972288568650e-02 -9.507633397666151454e-02 -3.642329926520699868e-01
4.928148707884202895e-01 -6.859967660749021201e-01 -4.793983385574742129e-01
-8.787789534165719729e-01 4.692674781436895204e-02 1.779347456691499629e-01
-7.991541445315974990e-01 -1.390445548390373820e-01 1.973667402900697310e-01
-5.542192071491125471e-01 -1.778510568475916709e-01 4.300856239385394270e-02
-8.474604896841096968e-01 4.709632809910194173e-01 -1.406790433373440036e-02
5.398845909107269359e-02 -4.475940957225288397e-01 -2.706626283124254906e-01
-4.673108207241605250e-01 5.432895993239701404e-01 -3.068666723963804910e-01
4.882590711339455658e-01 1.910126174465154314e-01 -8.284033709262742518e-01
-5.964685164498584324e-01 -3.741224451300603215e-01 1.511354372981900396e-01
2.997576833849991962e-01 -3.304165361670582390e-01 -4.882355545025178767e-01
1.578892547208655128e-01 -6.896704849076658039e-01 -2.455446498940514199e-01
-8.409441672726052364e-01 4.112432541026442845e-01 5.391702142638832990e-03
-3.889801434275082515e-01 -1.491781459546282634e-02 -1.370641723919405752e-01
-9.123451023528919013e-01 -3.007353548237478354e-03 2.212748508610880294e-01
-5.502374199841157942e-01 3.093508065079098590e-01 -1.553915634783608890e-01
-8.540252949760369638e-01 4.480185901716300934e-01 -2.995887026559368449e-04
-2.133855088865031224e-01 -8.148142715614643539e-01 6.230554515733628673e-02
-2.957479659127247862e-01 -2.477078145400436748e-01 -1.082730599919594500e-01
-1.541239192301013250e-01 -2.009549815434326370e-01 -2.253085776126729500e-01
5.000182427868745672e-01 -1.793524534824232353e-01 -6.878408464205589823e-01
1.496859729074767886e-01 -4.758467696299107930e-01 -3.257146406003442185e-01
-6.047098324778288347e-01 3.091018456629233135e-01 -1.174974774909254699e-01
-7.732238567606511959e-01 4.907672935153632454e-01 -7.352721957384095175e-02
-1.764939266484652769e-01 -4.054031630083743676e-01 -1.276909662853698002e-01
-4.573024260699239951e-01 -2.970038661151350734e-01 2.361183876389206029e-02
-4.502297970065565758e-01 -6.065950201077979775e-01 1.430220238062226978e-01
2.599347713649628466e-01 7.275352692380272768e-02 -6.224998110741770674e-01
5.619282612816373090e-01 -2.670987175694748417e-01 -6.955605351750148158e-01
2.979221663321384161e-01 -4.569248013481370940e-02 -6.012938956362355869e-01
2.404960272607008787e-01 -6.175846733784607322e-03 -5.773184539645507263e-01
-6.084995953013869197e-02 -6.791966006488032725e-01 -9.798456631033100606e-02
-1.339134478120658500e-01 -7.012660088614249831e-01 -3.842952676541007417e-02
-2.942856192698731915e-02 4.154493691181579962e-01 -5.593440132972292700e-01
4.283846738059156334e-02 -3.026811895077671233e-01 -3.211167718631600665e-01
-3.840833172565563669e-01 5.988558903216181228e-01 -3.869245023955552032e-01
3.987777120777163953e-01 3.083214998932480855e-01 -8.134250660210928796e-01
-6.593631539084260362e-01 4.205988155292787467e-01 -1.243498114550519035e-01
-1.145614739189405318e-01 -6.700275734765255287e-01 -6.440023098755383313e-02
-1.513186137387268482e-01 1.882455831984517977e-02 -3.155081401906967287e-01
-9.385420948749556569e-01 7.277091720000820885e-02 2.090218711206743574e-01
-8.443790290387493194e-03 -7.230679622009132945e-01 -1.167283913411667345e-01
6.428713344007004615e-02 1.639167887869660556e-01 -5.233622323131859044e-01
4.031708517703074257e-01 -5.200904562292267830e-01 -4.838216302246188816e-01
-3.937132741248909884e-01 8.694881306983076596e-02 -1.746850983901372112e-01
-8.331747800484012867e-01 -3.579308679656390546e-01 3.088654827349597842e-01
-2.124383094286222962e-01 -7.302183933783955583e-01 2.767861072071095205e-02
5.172590376772616683e-01 -8.372137365667881026e-02 -7.382038436624194233e-01
-4.740570370859500948e-01 -1.474526012878189241e-01 -2.481624889913193466e-02
-2.982137043553504951e-01 1.453710523362094775e-01 -2.644043634636253914e-01
2.788119306739997860e-01 -1.099326537610488125e-01 -5.622389602392416919e-01
-8.518099873500323271e-01 -1.101926022115597703e-01 2.223148861753876659e-01
4.722622816078290708e-01 -6.648696695456920436e-01 -4.736221699964012766e-01
-6.673746363126672465e-01 -6.602373308730310475e-01 3.152219608708725640e-01
-1.932636961173366322e-02 -3.763662188646976214e-01 -2.483970287820675138e-01
-2.679231989550887594e-01 -4.282971340835364793e-01 -5.506225043646631456e-02
-3.505165265736240321e-01 -2.207301125545655940e-01 -8.110645428193799522e-02
6.088297083657880776e-02 -2.260424568220992247e-01 -3.644109609836461150e-01
-5.278249873400702175e-01 7.784575637104623747e-01 -3.593131138740497388e-01
-5.364103085995880482e-01 2.705146012009332912e-01 -1.493903032501942285e-01
-1.248300895155715212e-01 -3.192745244106072744e-01 -1.981216643456258919e-01
-6.322953970005367186e-01 2.540589965294949293e-01 -7.625539446996926207e-02
4.492105853922714886e-01 -3.570870331709578571e-01 -5.812195233135205585e-01
4.728823333671468565e-01 4.457173106394310413e-02 -7.589308545667096118e-01
3.148898278528501626e-02 -2.640009535287999309e-01 -3.287744321134848380e-01
-2.595314894813718909e-01 -3.153535295455843213e-01 -1.062374646194313571e-01
5.537235710035267600e-01 -2.887014316650954870e-01 -6.811933076401829323e-01
2.026647909085192434e-01 1.178592983172254555e-01 -6.008770519244961417e-01
-5.337224968495888344e-01 4.238049358560292967e-01 -2.128093916671487396e-01
4.941241278837803508e-01 -4.576351465474710611e-01 -5.720060727642066745e-01
-6.262163414227200908e-01 -5.349163347842322835e-01 2.363424134164451018e-01
-1.582682469307222506e-01 -3.660051159423979850e-01 -1.561567420763308456e-01
4.666346264164530355e-01 6.849355427234110616e-02 -7.642019481532391634e-01
-7.220157921442074134e-01 -3.449109848036406856e-01 2.265128436116889965e-01
3.953899070925686043e-01 1.112040857795143778e-01 -7.319214025304617843e-01
-2.245405287234313735e-02 -8.784315251045919926e-01 -4.462103494622156330e-02
-4.326823425542083434e-01 2.972991213975450520e-01 -2.321143761585887089e-01
-9.186302241299622307e-02 -6.339016324946968872e-01 -9.465538595960211465e-02
-4.533347979483689505e-01 3.264477480577358537e-01 -2.294899895620012009e-01
-6.753232641956038451e-01 4.445036378310664449e-01 -1.228754068716817055e-01
4.766804878853375671e-01 -1.336292763195639534e-02 -7.383022459114060299e-01
1.420448972412160227e-01 -6.375954057594214186e-01 -2.554624144357547366e-01
-6.259678555674341727e-01 -8.056763905934628822e-02 5.372482644465449014e-02
-7.083531791432820524e-02 -3.217021738024758437e-01 -2.346095514908523028e-01
-7.982147579378821856e-02 3.027326813562465357e-01 -4.791185919694364026e-01
-1.464761573531608851e-02 5.001207762026383952e-01 -6.035994234569704853e-01
-1.879629994714546448e-01 -5.681543140592700825e-01 -5.438023141919679643e-02
-4.411005212994645319e-01 2.659511718252231538e-01 -2.136857951030376179e-01
-4.380144929734920978e-01 -4.175300776335208464e-01 5.862715019931060562e-02
-1.442268424463445942e-01 7.610672475044334417e-01 -6.184785040951995549e-01
6.850678843344124025e-02 5.417685767475489689e-01 -6.780175209399635916e-01
-7.107617251823684923e-02 -4.049424780509511823e-01 -2.010170291727375602e-01
-1.798414396918432689e-01 5.811288517643751206e-01 -5.215134988775510516e-01
-7.166521979918775154e-01 -5.618177920844282802e-01 3.098910953614985586e-01
-3.980246781421530322e-01 3.140377705071872860e-01 -2.628820571608045942e-01
-7.762448380359911193e-02 -9.317650005183473194e-01 1.507360884490893498e-02
-8.318172651102508919e-01 -1.014121498501074498e-01 2.049176925820476725e-01
1.965255656592044403e-02 -4.094469286766966865e-01 -2.621577687940761514e-01
-2.859214893069772501e-01 1.323420493989988511e-01 -2.677011248436636515e-01
1.187829945354346994e-01 -9.192503561828417880e-01 -1.262233604874013759e-01
5.112719618740622918e-02 1.237738269364584004e-01 -4.981120531401627693e-01
-5.168713294358347199e-02 3.928200074194988511e-01 -5.348136516203766400e-01
-5.231683063696557223e-01 6.823531151988082577e-01 -3.239529670330512090e-01
-2.604873234238804791e-01 -7.378493157585808149e-01 6.408025704361552943e-02
-3.885691471676321340e-01 -1.746450370024331400e-01 -7.321034967731512855e-02
7.528229688812382303e-02 -7.199766387980215121e-02 -4.362587015387500711e-01
-4.098701251188331951e-01 4.422977025012230223e-01 -3.061666236624565052e-01
-4.472085342148346410e-01 7.517297726923711787e-01 -4.045138880734887588e-01
-9.456635293202404480e-01 -1.335372068015162061e-01 2.968065650665465682e-01
-1.980356417127256963e-01 1.789205820988878648e-01 -3.473819494913115702e-01
-8.214635902071294460e-01 -1.348503330659588384e-01 2.111613035428942797e-01
4.035622620044046482e-01 -7.344756075929040340e-02 -6.634440922487622183e-01
1.206550071011166930e-01 2.223935817384403366e-02 -5.055804298227344340e-01
-5.460394345823820217e-01 -3.500316842557807950e-01 1.064729482484973871e-01
4.637648086080504162e-01 -3.037471926198139771e-01 -6.127363368048084347e-01
-3.870038428280656029e-01 -4.465711966142927314e-01 3.489643423779688336e-02
-7.891507166868655387e-01 3.962411943859516228e-01 -2.451956683183859065e-02
-3.903621435689518249e-01 -5.173852377557662807e-01 6.566210082057126474e-02
-2.078979097596815873e-01 -4.633614656349173688e-01 -8.262887373157669357e-02
-9.790126879896189627e-02 6.633235478900462168e-01 -6.113708720852316647e-01
-7.596839912948101237e-01 9.463921583468967724e-02 7.614504014542307353e-02
6.904461882741729298e-03 3.593756397621042376e-01 -5.620360490780549334e-01
-3.432762814357826486e-01 1.696362573823702591e-01 -2.428827631089513495e-01
-5.859020306513792464e-01 -4.434309774595975862e-01 1.716352497710969538e-01
-7.572240122521903816e-01 3.863283017138225972e-01 -4.269043744107826888e-02
1.718698003178147360e-01 -7.639141390648217511e-01 -2.254318704438340037e-01
7.384954542777376341e-02 4.497317640129738781e-01 -6.447667604416967846e-01
1.571278812518430990e-01 1.966966497175653139e-01 -6.009399707137331736e-01
-3.899626647906959676e-01 -1.325371701525804346e-03 -1.418405674593374854e-01
2.503717779814546018e-02 4.588199277937611842e-01 -6.145490860789567522e-01
5.687873354893018263e-01 -2.752948158560813985e-01 -6.970283366509141265e-01
1.658121774567055534e-02 -3.741269524928236834e-01 -2.742096589897214942e-01
-2.832732872327887175e-01 -3.248305437230106785e-01 -8.595937629047295525e-02
5.211685094475312363e-01 1.435282956304740343e-01 -8.321691547515467358e-01
-3.803254442495296317e-01 -5.082774691749878393e-01 5.504117217978825999e-02
-4.559948826365610719e-01 -6.767207838442044210e-01 1.751811887756582198e-01
4.452609048644459722e-02 -6.251354174894400151e-01 -1.928051466983136952e-01
-7.837363771595390327e-01 3.681083304329692274e-02 1.160542688995637173e-01
-2.112083073155011370e-01 -9.205208088073193462e-01 1.032417570461101330e-01
-4.318103990073665632e-01 7.556183283168137199e-02 -1.436800266475299626e-01
-8.661474207347292786e-01 1.452844270779151681e-01 1.296748775074026971e-01
-5.391134067181533318e-01 5.281600442366418680e-01 -2.509731939737551154e-01
-1.794023558554628250e-01 5.611467046319023044e-01 -5.137942490115521288e-01
-4.604627139065858299e-01 1.274718535784475082e-01 -1.446450789866166042e-01
-2.852972678414651964e-01 -9.008687770437914799e-02 -1.788171708167640428e-01
-6.980092798881345484e-01 -4.458166973384035114e-01 2.503756301974370824e-01
5.116853824977591891e-01 1.040059637079871202e-01 -8.097192404856397019e-01
-3.043917519902956670e-01 3.609097750791344650e-01 -3.466681713627254302e-01
-5.587820530480639425e-01 -1.220278484930767959e-01 2.375837252048198373e-02
3.580311244353311939e-01 -2.059370136533652251e-01 -5.786520568911915907e-01
-1.368532974513394784e-01 -1.604048460687088895e-01 -2.535743387635022716e-01
-4.685345076559526700e-01 -6.414765974170656415e-01 1.697290299552753623e-01
-2.268482953495363774e-01 1.616591536221750058e-01 -3.204597371785673499e-01
3.564137571351160827e-01 -8.294891450817587497e-01 3.577647220980789688e-01
8.104986713670416787e-01 1.976929172448704530e-01 -4.554098623952580471e-01
6.788536128867976860e-01 -8.773765757606920984e-03 -6.669253187654405890e-01
6.404135718201157124e-01 1.744482667896171124e-01 -6.770378504798700847e-01
7.365126334183035306e-01 -3.041872985193042611e-01 -5.043993637005897979e-01
-4.787892581547613102e-01 -7.170642311537691604e-01 4.394029543747027255e-01
-5.661804613536490782e-01 -6.871013047165579479e-01 4.083274672404293426e-01
-6.584210490242986547e-01 4.592475317341401797e-01 5.841852360603633221e-01
6.926362716386299523e-01 -4.226374101097000735e-01 -4.938421471701927024e-01
-7.431875839612345214e-01 6.139684947451490293e-01 1.020526798662760304e-01
3.080436381809376623e-01 5.640586614690932254e-01 -7.260570003498366676e-01
-5.981431586644890830e-01 -1.495495686540510016e-01 7.745257337207059889e-01
-3.156796421717680823e-01 -6.742700736098113934e-01 6.081160554884313951e-01
-9.559858681856299792e-03 7.306130426440872183e-01 -6.755685620573116390e-01
-3.623434596773645322e-01 8.952849243461850071e-01 1.083575121073061254e-01
-3.818962499726279991e-01 8.851248190761678014e-01 1.875133325198157785e-01
6.176348995951761456e-01 -6.466330369314637894e-01 -3.128483399019837408e-01
-8.215134795827697678e-01 -3.986044769108780250e-01 3.973589136425754176e-01
5.392259038342214206e-01 7.442863226655836995e-01 -3.386328219402769957e-01
3.873048134557298683e-01 8.081878261189507917e-01 -3.548405285220636030e-01
5.927075295295307633e-01 -7.464728882695321754e-01 1.164827330187981208e-01
5.209049337470037511e-01 -7.893018967482128279e-01 8.894749065068154048e-02
5.789955093509518980e-01 2.354084490013257924e-01 -7.243999980344533185e-01
5.596373301246938547e-01 -6.813800251468123959e-01 -3.932980107675212444e-01
-4.171260726487578396e-01 8.401836142911737193e-01 -2.301225558631964374e-01
8.541734414693770150e-01 -2.455438324356832083e-02 -4.109271142116895370e-01
-6.066736396856997615e-01 -2.740760555579264679e-01 7.071075486910558539e-01
-8.127276312715987494e-01 3.097920558461150220e-01 4.133687214157864553e-01
2.268408607586420433e-01 -9.514574422858439462e-01 -1.498115794728438754e-01
6.234387253475660584e-01 5.821976965533283144e-01 -4.380099073594559966e-01
-6.781769912537626288e-01 5.394268791402195840e-01 4.430685871332889492e-01
5.895097860087116226e-01 6.390916132431232466e-01 -4.141324838646572304e-01
-7.536900703061270024e-01 5.162069733164893481e-01 3.011668681513692269e-01
-4.969959916723951099e-01 -7.078977881480456036e-01 4.373245719344960314e-01
-4.903834756689406937e-01 7.990517670309293941e-01 2.988735298516173589e-01
8.652821415419825746e-01 -2.317360130885462166e-01 -3.174892149532312913e-01
-5.298760428573454639e-01 -3.893820109775635308e-01 7.158277436755542400e-01
-8.520218969361827988e-01 9.716304988461835213e-03 4.594851997265443355e-01
4.633730987229220943e-01 4.999222843374426795e-01 -6.593216364396486950e-01
-5.031130259297762475e-01 7.923620436055786032e-01 2.764569767190038774e-01
-7.677613619287995128e-01 2.942795170350450684e-01 5.061741118698049879e-01
-9.748805776076824303e-01 1.876100884481050612e-01 1.993588928652477443e-01
-7.592462649813378484e-01 5.370065421614653861e-02 5.938338268524426811e-01
-2.585664493440253398e-01 -8.252943224797061328e-01 4.115478895574875007e-01
9.150268396428485884e-01 -1.155862350805175326e-01 -2.905625080025209250e-01
5.712616548790810933e-01 2.288629577985108743e-01 -7.365556170931522040e-01
3.284971396549580258e-01 -8.209546425994809216e-01 4.263988421723077793e-01
7.192029167752713725e-01 -2.343173265971817132e-01 -5.706197250123701270e-01
-3.792935462862991325e-01 -7.327517726560770495e-01 4.871705380650148687e-01
-5.654455799868034482e-01 7.725503337886903132e-01 -2.774590335859994927e-01
-4.112059542074394253e-02 9.368652781303427046e-01 -1.992767767072596008e-01
-3.888150930398340810e-01 -4.712128409351047931e-01 7.809777034453250222e-01
6.080439218526375589e-01 -6.592543273328056452e-01 -3.073890003717677510e-01
-9.459022764093157898e-01 3.305534906954137875e-01 1.293837843163807011e-01
5.755492942627086217e-01 2.104973322859475526e-01 -7.402328188337589099e-01
-5.040025441144830864e-01 8.070283824575488207e-01 -2.026921692971988265e-01
-8.128114351477319088e-01 -2.185113522555898191e-01 4.842876986781392556e-01
-6.455416310508796940e-01 3.527392429896589743e-01 6.895682641464263574e-01
6.263032548478044692e-01 -4.879929547707856363e-01 -5.613935148679208842e-01
6.318909537194234982e-01 -6.848382187486488082e-01 -1.370870497763996276e-01
-8.665773831336676114e-01 -4.438026386882973351e-02 4.400631212260177061e-01
-2.004188502950700335e-01 -9.459849941654318028e-01 1.920709546293901671e-01
-5.641934824744542221e-01 -6.004592629330249842e-01 5.012164907854504969e-01
4.010066377921813752e-01 3.871336728681570305e-01 -8.153350973844116778e-01
1.173429319552026368e-01 -9.087699185658899559e-01 2.496790733852005673e-01
-5.690460908632980486e-01 7.097899134415630584e-01 3.690529060913346204e-01
-4.403576408350811655e-01 8.186914641563600714e-01 -3.164234247511791831e-01
5.237727785375975026e-02 -9.153293796417848460e-01 2.559966571757046339e-01
-6.723681315052760787e-01 7.164108488227417526e-01 -2.032019846040223066e-01
6.021095076182413353e-01 6.146098239857682444e-01 -4.271619491897945542e-01
6.260528756744322409e-01 4.788781277308611362e-01 -5.212871771660773090e-01
2.649278426909532635e-01 6.743280203046108090e-01 -6.204462494675558881e-01
3.710721604561742493e-01 6.003999192005383678e-01 -6.353693232126461643e-01
4.884632858769814845e-02 -8.841988667429938609e-01 3.467079767560880543e-01
-2.184392089443047691e-01 8.397865191516468153e-01 -4.378460179518350315e-01
7.693417370712429815e-01 -5.123471256537376339e-01 -1.987442883025843654e-01
8.023202810166835119e-01 -3.947738689968379178e-01 -2.979268306037416991e-01
-5.662751534141634568e-01 -3.324273116303706477e-01 7.171873811155299316e-01
-9.158008990212564149e-02 -6.732875756053608995e-01 7.438578956745325321e-01
-5.381274778502920242e-01 -4.797334705537709132e-01 6.359762429581728993e-01
6.168447243858390383e-01 -3.675253735639594788e-01 -6.805565318561893617e-01
-9.302244556373420181e-01 2.889254017994347667e-01 2.048445205463869656e-01
2.462033254975622698e-01 -9.246712430034461638e-01 1.778981551235515532e-02
-3.877480656114388937e-03 9.896879667328597474e-01 -4.508099361382342241e-02
-7.851914947336381401e-01 2.542142024796759103e-01 4.979634483787927501e-01
-5.134713575296347976e-01 8.053095894407883426e-01 -1.626861293592717361e-01
-7.578135056074748466e-01 1.538704246588806501e-01 5.811923897551186657e-01
7.973639146734156080e-01 1.603080009770298242e-01 -4.815000599443158280e-01
1.566223875038259550e-01 9.126867293480376286e-01 -2.648414580706913712e-01
1.292271382610646058e-01 -9.292049477860662154e-01 1.673278118668037329e-01
3.192640904633483601e-01 -8.756489862148424397e-01 1.686686413446910338e-01
-4.817989461737717805e-01 -6.700720835093790795e-01 4.936916460831421438e-01
3.464875029874806556e-01 7.045035655478100178e-01 -5.257217536795683044e-01
8.520012300949675321e-01 4.028471944313435221e-03 -4.171544893277361887e-01
-7.942511821255598958e-01 4.718070596729665445e-01 2.764449081359214855e-01
8.443407276813634788e-01 3.333273454566975103e-01 -3.671730081328888340e-01
-4.297955280408060075e-01 -3.738030038538525668e-01 8.276262132079706957e-01
4.283761971845790884e-01 7.625584167518520973e-01 -3.934648589176877875e-01
-5.189230605961316911e-01 8.057090874967235417e-01 -7.793178447598478331e-02
5.904257897047717751e-01 5.682090766048446540e-01 -4.809722368879177923e-01
7.954514164657179309e-01 -4.045203267868640595e-01 -3.010819378790614009e-01
-6.501684568123765606e-01 3.830808776301096452e-02 7.503026521652477188e-01
3.591524102485503245e-01 -8.769089047574396556e-01 1.486610205185939261e-02
6.253214719162721869e-01 -7.192068609908651711e-01 4.075737031061352905e-02
4.401298370953200534e-01 3.497063900733783370e-01 -8.054057130908447437e-01
9.132239575652547625e-01 -4.849051821028950437e-02 -3.149399180195519010e-01
-6.652552232282221700e-02 9.678232094746902492e-01 -8.465086459527246254e-02
7.169323823630161518e-01 2.826064431813695571e-02 -6.108307344667445182e-01
7.575422342732136549e-01 3.906104244282848637e-01 -4.399962834504777542e-01
8.014847771705624346e-02 -7.791390066181145269e-01 6.064808870718261247e-01
1.779108827885026445e-01 -8.944296267433381464e-01 2.627606107380556777e-01
-1.672026650331676634e-01 9.097232539300185161e-01 -2.291458194971908446e-01
1.084800491339506408e-02 -9.287898198715844877e-01 2.277573862400140980e-01
5.423394156166816416e-01 6.782309620518507387e-01 -4.122756627229913207e-01
7.338651973231035130e-01 2.981703748340173710e-01 -5.138593484942917122e-01
9.584720917421449826e-01 -1.744960392421415762e-01 -1.852647235204043508e-01
-5.196184851774986457e-01 -4.489538073189220935e-01 6.794385504893957206e-01
5.002091636719683265e-01 7.024298874569486761e-01 -4.177872897361535887e-01
-7.213095049977450435e-01 -3.797073457341181291e-01 5.197934597499210829e-01
-3.277898625892553680e-02 -9.296219518830241002e-01 2.340438773415255691e-01
3.547576272144706278e-01 9.025281592423803900e-01 -2.203379986382736633e-01
-1.470451093619416505e-01 9.481649236129319203e-01 -9.531071990841173680e-02
7.913405526236187097e-04 -9.391711418769774777e-01 1.997602921223090022e-01
-1.379582786250145229e-02 9.393355610375442311e-01 -1.995403092028806558e-01
1.930317027554066256e-01 7.828799534505344049e-01 -4.978776235376747850e-01
1.032764730001995042e-02 8.853526957864269464e-01 -3.447573493227651387e-01
-7.094910701694231436e-01 6.532838383571171192e-01 7.700826837824197024e-02
-6.883703707181312859e-02 -8.438121187020563019e-01 4.389124208697132712e-01
3.056209382918680384e-01 9.231861191626494767e-01 -2.023440152461515873e-01
-2.688888637462069631e-01 -6.244105099715813179e-01 7.054175068405881266e-01
-2.757592871250712507e-01 -8.280989541733905224e-01 3.990235425721832541e-01
-4.334938236421583269e-01 -6.626776554695393839e-01 5.390408138320124110e-01
-6.729319184180373448e-01 7.162509936019655354e-01 -2.101933375904847523e-01
-5.829696139538617095e-01 7.088467502163958711e-01 3.257772105082648029e-01
-6.001337578004724005e-01 -8.206968632330567670e-02 7.948298482804032616e-01
2.820033171485545331e-01 -8.704302697321248949e-01 2.606892502150039426e-01
-9.146780551943243243e-01 3.342943995625853315e-01 1.906134239310365297e-01
5.705105374372394511e-01 -6.013383711625475136e-01 -5.318615754216338143e-01
-9.451606934870078192e-01 6.386434264043619469e-02 3.063000470876688364e-01
-1.980516667257940788e-01 9.080815508354306287e-01 -2.120394188244326961e-01
7.363501411448238887e-01 -6.364103518500030532e-01 7.133444624601201212e-02
-3.164295662767544481e-01 -5.479448405921176768e-01 7.622585367541737655e-01
-9.376537701798991487e-01 -2.067159190432290294e-01 3.254699918778767853e-01
6.581707248867161297e-01 5.264867641086840022e-01 -4.523277992527319769e-01
-4.552059237194972519e-01 8.329378723810707541e-01 -1.591941650422404320e-01
-5.766469003369664170e-01 -5.120849234872676403e-01 5.718472143718678069e-01
-1.528027093425518013e-01 -8.626239219924926038e-01 3.799507483390999196e-01
-1.683550237867288690e-01 -8.989275184071163771e-01 3.007809021589506471e-01
-4.948282066319920625e-01 -5.709521043856117251e-01 5.905599091902884457e-01
6.962616999705778520e-01 -5.694818732533065697e-01 -2.741884608912407151e-01
6.583516197928118707e-01 -4.730751506803123063e-01 -5.111492469070534339e-01
5.138919007645630366e-01 7.216259099409445543e-01 -3.847286827119589248e-01
5.091886600111023009e-01 -7.348466450986720355e-01 -3.936354294263851861e-01
-7.102269262300334729e-01 5.484979057075327624e-01 3.513915451084400621e-01
-7.777165463856289263e-01 -8.928758308452294790e-02 5.603023694333698623e-01
-2.076760787999498703e-01 9.635157398282740981e-01 8.691273307631854073e-02
-4.816162656829702793e-01 8.260040940257934450e-01 -7.034439543968372399e-02
-9.576473020256651703e-01 6.518885020867176694e-02 2.857955372443535813e-01
-7.145121271108317851e-01 3.631295848591828412e-01 5.575097725569896356e-01
-2.085899902279174101e-01 9.371887216251116870e-01 -6.986614123602385984e-02
3.244979617392801385e-01 6.774870029260492421e-01 -5.761745625862657594e-01
8.057186656297206095e-01 -2.985349728931833702e-01 -3.810430788085725773e-01
6.451405420058652362e-01 -4.949454484918665020e-01 -5.136247521524101023e-01
6.587570192457822271e-01 6.307247839893290742e-01 -3.613237643923288833e-01
7.401037870328158741e-01 2.266515826285376844e-01 -5.353309237107595209e-01
7.627296984332920804e-01 -3.394758383075664465e-01 -4.305893533935845063e-01
-1.439219657908911432e-01 -9.613971755450713141e-01 1.590810388175373236e-01
1.320121221941422951e-01 -8.623462822919545356e-01 3.915087277220836715e-01
-6.852918324000976114e-01 -3.314064592032391343e-01 5.873490600365637304e-01
-4.798618268241769402e-01 -3.484857464915964709e-01 7.966562949201954069e-01
-2.753397872543936198e-01 8.416179045562854899e-01 -4.048622285015949784e-01
-7.148626785840658249e-01 -2.125104211990285208e-01 6.080450949285496343e-01
-2.496299411386379286e-01 8.585967948242282377e-01 -3.603151778395103366e-01
5.220926433053107996e-01 7.440106934975874164e-01 -3.516408364721594904e-01
-3.934848343031059903e-01 -5.977540479551741726e-01 6.453205613885094616e-01
-7.723681884506465867e-01 8.318696696619912179e-02 5.716020121142090238e-01
5.781771743372712269e-01 5.539984577000830468e-01 -5.050440938911020528e-01
7.399714269780505171e-01 -4.741384845073901566e-01 -3.323269064651837024e-01
-1.283215832537058232e-01 7.697594775196209271e-01 -6.271607815810048558e-01
4.719998339010157973e-01 -8.174483623577734059e-01 4.104049296675016389e-02
1.576424710756003100e-01 6.872310714297212852e-01 -6.680323940679503414e-01
-6.973680123826376809e-01 -2.235232741256518996e-01 6.249895080876513020e-01
-6.059404202251038596e-01 -6.058726982722749677e-01 4.594004938188688270e-01
3.668548889644980271e-01 -8.610260942917651317e-01 1.440610374321304732e-01
7.725775736495053003e-01 1.146167111796174420e-01 -5.233927594604161904e-01
6.476840857112782235e-01 -5.539184189186421303e-01 -4.251624778166268603e-01
-5.380884536826667786e-01 7.052042306821922901e-01 4.777170938272675138e-01
-7.900705750639382963e-01 2.295128245343975582e-01 5.016942914304247658e-01
2.490815040641028710e-01 9.332515494197466399e-01 -2.003468821140420852e-01
-9.031010765592580869e-01 3.857731972959582700e-01 1.526868947660000864e-01
7.132943012798632042e-03 -9.490563248584285017e-01 1.675428901032446627e-01
7.963756467459498500e-01 -3.266788638491413543e-01 -3.766559330857569554e-01
-4.358426227486939530e-01 -7.011559180224642418e-01 4.901184406649387593e-01
-8.749112337403197603e-01 4.624648154060975735e-01 9.711024547650687344e-02
6.674838278321335583e-01 5.005754076944677333e-01 -4.633090853850713731e-01
7.837569862687644440e-01 -5.646115427127801345e-01 -3.369785794203215834e-02
-5.118625446612083962e-01 -3.680118299623708622e-01 7.498052032124774557e-01
-3.457936620834881625e-01 -4.720364188257240023e-01 8.179982991566771000e-01
-6.783814125732252620e-01 6.631871469873699132e-01 1.541103123815047438e-01
6.337559941110124662e-01 2.882845892759193229e-01 -6.348331093876622422e-01
-7.025384948021738962e-01 -1.144062105971226789e-01 6.545783262963248417e-01
6.977964903439682898e-01 -6.792137654213780129e-01 1.653790491617436742e-01
-4.952514677678494792e-02 -6.972628562705880384e-01 7.249256812095956626e-01
-4.390821656406073137e-01 8.281074254527183154e-01 -2.573046602295991914e-01
6.342624701613215343e-01 3.037427106556426781e-01 -6.261347193737270000e-01
5.192230278422914624e-01 1.769067106553844082e-01 -8.218703803489031401e-01
-5.969911490857061631e-01 7.462097278140898959e-01 8.539115311235100092e-02
-7.652652355865673384e-01 -3.445328874929896035e-01 4.897054546180218404e-01
-4.981857398107816803e-01 7.619443191697878870e-01 4.340401385726262440e-01
-6.709276814935827282e-01 -3.208766199669962349e-01 6.092733888373847995e-01
3.853776884245412038e-02 -8.094877076478033118e-01 5.324081480748458217e-01
7.467565194003519258e-01 3.086718738898823478e-02 -5.690336070499699694e-01
-7.584148244670391170e-01 2.538905501905087680e-01 5.444672804503107866e-01
-9.801361476322181243e-01 2.478007880634575458e-02 2.608628681823332296e-01
6.815952510402096820e-01 -4.300825736943956756e-01 -5.087223662997055751e-01
-3.899992614928367018e-01 -6.928323287047516432e-01 5.330176364472146711e-01
-9.837429088788232634e-02 -7.506176353406465163e-01 6.108975105170671993e-01
6.133567180223323811e-01 2.966365784826892615e-01 -6.535785481748219716e-01
1.796020731158926576e-01 -9.157260644826146212e-01 1.759808161728996789e-01
7.537457389641295524e-01 3.803872111494976949e-01 -4.498795189005370121e-01
-7.139068739350048487e-01 -4.543571673816291373e-02 6.533100667318898491e-01
4.426408467229544508e-01 -8.099967526404387996e-01 3.079282983586789091e-01
2.476466789452835549e-01 5.797806144949489981e-01 -7.537536927836910872e-01
7.274629142843548335e-01 -5.235542625185023446e-01 -2.832223001943339202e-01
-3.412403718551918624e-02 -9.401369109381573219e-01 2.051219711607346896e-01
-2.077929615206678682e-01 9.673428303085137570e-01 1.165672627252948013e-01
-6.209183042760032523e-01 -3.218950739665873972e-01 6.643164829977764585e-01
5.985078644602954689e-01 -5.422700935114068699e-01 -5.551093695468600764e-01
-2.608424562236130173e-01 9.305747320657614674e-01 -5.286320421955708823e-03
5.808214642256797067e-01 -6.863974191724006024e-01 -3.129526265649643646e-01
-4.983305826765543345e-01 -4.868247440614157373e-01 6.671462989346326200e-01
3.022693262191708530e-01 -9.150734822965750359e-01 -1.723699059352127583e-01
-8.349172687953477778e-01 5.556034374972181888e-01 -1.316564666907184614e-02
5.842973953102602591e-01 -5.449610501960596709e-01 -5.828438742766561820e-01
-2.481763664771422240e-01 8.945211106163010184e-01 -2.200837136631880464e-01
7.979814555794340070e-01 4.035169953032152756e-02 -4.962838923657594825e-01
-9.733867456942527085e-02 -9.214487324426030579e-01 2.583440703704033559e-01
-7.537118858887311701e-01 4.459554040133754116e-01 4.014544898426881114e-01
-5.930377800728691140e-01 6.144671165932226176e-01 5.235711709263987101e-01
-5.333231052464716404e-01 -4.596776083818518988e-01 6.573820822377837159e-01
6.263627952988360947e-01 -6.463914552913043732e-01 -2.872757841968465176e-01
8.161868540943857386e-01 -1.943526949299184403e-01 -4.238680155221002943e-01
2.517879849174213258e-01 -9.385759408610876431e-01 -1.334996920724035585e-01
7.743985086079027136e-01 -1.323903294246603357e-01 -5.141432103004693888e-01
-8.964558330608463077e-01 3.782092963069305092e-01 1.773148657522817528e-01
-8.425046586429106865e-01 -8.947825538007772583e-02 4.716715441868548631e-01
6.157162187072588999e-01 -7.338992213571393641e-01 2.697670952555385471e-01
-5.683578015649328741e-01 -5.611784341962711142e-01 5.353710818545610595e-01
7.791987262325621444e-01 -5.833957417430262193e-01 1.206979156536891820e-02
8.974420503546595151e-01 -2.483710661376521966e-01 -2.466536377761022192e-01
8.131995755241065993e-01 -1.031037006964332231e-01 -4.598970693693540945e-01
-6.336752031790954254e-01 4.570560583922927966e-01 6.354699405520521927e-01
-6.149725592889959680e-01 -2.551073595799442928e-01 7.075642404628605941e-01
-1.390139322574901748e-01 8.713939313408028964e-01 -3.667504958802034198e-01
-8.830999061520080629e-01 -3.203038410131426872e-01 3.615602710573821987e-01
-6.673199652653473146e-01 -5.613191218367518109e-01 4.439520481311479139e-01
-1.054011853742913146e-01 9.627321971798209477e-01 -7.441289622524960290e-02
-1.021115725490010645e-01 9.540594514698140793e-01 -1.106439976503228867e-01
-4.318631010483795496e-01 -7.155822562371874085e-01 4.745830075538029491e-01
8.554128349410192178e-02 9.333497311955719633e-01 -2.254497507489263697e-01
-4.769829747779895657e-01 -4.988678784474089301e-01 6.758199941543971967e-01
2.458174549272257314e-01 8.440648035534092930e-01 -3.693432976810174795e-01
-5.034436952162827383e-01 8.039570293861243444e-01 -2.399425947721228192e-01
2.244787603697226686e-01 -9.518690609082064435e-01 -1.420587891328872476e-01
-4.631655610780395227e-01 -7.935188118062744822e-01 3.493946464300723420e-01
-6.277742468821108091e-01 -5.444046722130241323e-01 4.957979165146542688e-01
4.871372797680310202e-02 -8.270585441218981648e-01 4.925999978757913400e-01
6.658503944993274803e-01 -5.942581305894021337e-01 -3.025172987390710722e-01
8.403601182985849238e-01 -2.826824279250472194e-01 -3.279607480981123757e-01
-7.671872887770520011e-01 6.178932481887112749e-01 2.139951346606861881e-03
7.621654144846190526e-01 4.261211126849045322e-02 -5.466218170060136439e-01
-8.121428519983496797e-01 -1.643460927912381575e-01 4.999060370263314623e-01
-5.029445449181575711e-02 -7.467011509643685097e-01 6.369942941020693139e-01
-5.189777275838193260e-01 8.022680006842285438e-01 8.257898012718065117e-02
2.128573096463652614e-01 -9.549585415110162234e-01 -1.208075227768657389e-01
5.641173221444404362e-01 5.748264104219951154e-01 -4.987805742983862922e-01
6.375248000836443163e-01 -4.684122662991487829e-01 -5.592731046835657249e-01
-7.842422262361452567e-01 5.309518635578355239e-01 1.962878352164800499e-01
8.637901425102406661e-01 -9.234510459222041931e-03 -3.982574632896789257e-01
-8.304938527121618064e-01 -3.932326609341402213e-01 3.900278521144551758e-01
5.030889028915385142e-01 -7.734412484580095448e-01 -2.537422284056393695e-01
8.319150035536561072e-01 -7.463571132399816899e-02 -4.368124159551959318e-01
6.768519082648523089e-01 -6.344973655639790655e-01 -1.628739620714285408e-01
-1.914968171708262556e-01 -9.701377707648183302e-01 1.366816239342068251e-01
8.822219374630205779e-01 6.261647265532126194e-02 -3.752873563486472941e-01
5.961881212062687396e-01 -7.367881706510163164e-01 5.926783669549491942e-03
-5.832974066786541512e-01 7.687829450346879145e-01 -1.310272858560187770e-01
5.416274771442769476e-01 1.155389549632100804e-01 -8.200465081532045675e-01
-3.406768182643090115e-01 8.330389558209115863e-01 -3.871987198880136316e-01
-5.031137019216986861e-01 7.719134031140064689e-01 3.778569335438878296e-01
6.148789625571612349e-01 6.505010814609009095e-01 -3.808458391092759965e-01
9.153581177412247749e-01 2.275529823502662474e-01 -3.116641670788701801e-01
7.762358645389071388e-01 1.062999577838385362e-01 -5.198559043100977606e-01
-1.240576471984507767e-01 7.833312566501754448e-01 -5.957521684325455258e-01
-6.213296548175308853e-01 -3.713526855449996167e-01 6.332822931958668189e-01
6.067355587224630975e-01 8.581866532009786719e-02 -7.474848861529765909e-01
6.608040348607104875e-01 -5.109465247230023932e-01 -4.589633500418331957e-01
-9.758313305336101529e-01 -1.466646523151720997e-02 2.755306244609246891e-01
