-3.504755242053353426e-01 -1.931869797806936295e-01 -4.198453781073929192e-01
-9.332992413873436588e-01 -1.427127557969035121e-01 -1.580551350891638285e-01
-2.365249948588495910e-01 -1.544292339608668019e-01 -5.493311452171475984e-02
-5.151996688235582766e-01 -1.907937147698817171e-01 -4.474471963771087801e-01
-7.782906421744880676e-01 -7.301563144328773736e-02 4.835908766889606136e-01
2.227098346114818328e-01 -2.398993025277772473e-01 -6.522582225855044769e-01
9.437486266964840997e-02 -1.868460735541024875e-01 -2.357393325413243979e-01
-5.034968194080280401e-01 -6.137235073995955803e-02 6.634319865005444683e-01
-1.382843770849009613e-01 -1.613893627020912547e-01 -8.581588571501283513e-02
-8.505590296137215400e-01 -1.839821577764121918e-01 -4.870479778751477529e-01
-5.343617016146666732e-01 -1.682670805778035683e-01 -2.602791549669605797e-01
-2.325524198961496647e-01 -2.313552591859323049e-01 -7.120323242805134401e-01
6.039168757245957364e-01 -2.564809927473403195e-01 -6.828784140397757829e-01
7.345152644391509389e-01 -2.180543866152014620e-01 -3.159404070205736881e-01
1.665932811347689835e-01 -2.634601454954793587e-01 -8.702489743710558612e-01
6.454309692113658903e-01 -1.755337336358595846e-01 2.190767088010336580e-02
7.108176198205437002e-01 -1.932549954539671266e-01 -1.106481953044022859e-01
7.897624028114039740e-01 -1.244966788242154176e-01 5.007622567790396273e-01
8.767263293584927342e-02 -1.742948034791630685e-01 -1.302939674411142390e-01
-6.169880481593289501e-01 -9.594777675343101053e-02 3.344420481183985050e-01
-3.066198561100149655e-01 -1.560742582176598003e-01 -8.946952550455490594e-02
1.229836599459971890e-02 -1.140366440197072700e-01 3.633363886517201324e-01
-9.314378028320128289e-01 -1.058917909720019646e-01 1.575665146771580427e-01
-4.667155838633054721e-01 -2.312219051915507806e-01 -7.792407289346189314e-01
-1.943983125642933241e-01 -6.847870872665087760e-02 6.928449057483192508e-01
4.116453421510151700e-01 -2.671562419380938413e-01 -8.303487415770978153e-01
8.335985456350918366e-01 -1.419055877205859795e-01 3.645888617544720822e-01
-2.192803531507485360e-01 -1.987383627525869945e-01 -4.290544081997737513e-01
1.204098251322307800e-01 -2.418909387609322892e-01 -6.991609150183576427e-01
3.785748729738744878e-01 -1.940946489180202239e-01 -2.148109556940390463e-01
4.074265258002561230e-01 -2.549681100910068388e-01 -7.272858836774026559e-01
-3.582045412965460529e-01 -1.737048682055490345e-01 -2.553922609222353257e-01
4.929756571053761083e-01 -1.021338582058620437e-01 6.054930964660677484e-01
-3.504385481492537369e-01 -1.497554724149977312e-01 -4.818961809532588264e-02
3.737286873049869840e-01 -1.757271552801824011e-01 -5.905419904452716140e-02
2.758971051879745562e-01 -1.113313615567631254e-01 4.634270113388729850e-01
2.021971909800631406e-01 -1.530674598659816643e-01 8.477756769767311185e-02
7.630146104153768816e-01 -2.150685434828771281e-01 -2.820718106778444811e-01
-8.787751835961228331e-01 -1.372232073538267594e-01 -9.516593013871421647e-02
-8.409651385728995621e-01 -1.138660151062030335e-01 1.157387170158530182e-01
-1.311667236688221494e-01 -1.734640939844223351e-01 -1.870622338969417930e-01
-2.605984666307413142e-02 -2.445462404752779539e-01 -7.646352304179695469e-01
-2.985925886140107788e-01 -1.708152300516595501e-01 -2.132654839382503442e-01
-9.949013750866769409e-03 -8.336826853530339421e-02 6.192730253828041542e-01
5.296161323025817824e-02 -1.844801793618471575e-01 -2.275823396203873750e-01
-2.939357619801748478e-01 -2.369664829977171649e-01 -7.779648554880007616e-01
8.748738061080252315e-01 -1.500441878656918748e-01 3.069943394498024780e-01
-5.678197300224808730e-01 -2.004233908324973557e-01 -5.452078673558261590e-01
7.243062383577780761e-01 -1.732660684257235628e-01 6.433494236817288714e-02
-8.574903698729491319e-01 -1.655759412934723895e-01 -3.315685009615135237e-01
7.596625595758420557e-01 -2.166078145215202533e-01 -2.962218330695067792e-01
3.838318147551331855e-02 -1.115779938270749644e-01 3.919890025618304463e-01
4.796945293231951180e-01 -1.302098625430594958e-01 3.613691121965074693e-01
-3.779435946980027605e-01 -1.715931042276652163e-01 -2.430834221944166984e-01
-7.757070523009000629e-02 -1.670039905730903718e-01 -1.161388392080346804e-01
9.519190228905779483e-01 -1.939824255311456691e-01 -4.649812925355093635e-02
1.301451326070074133e-01 -8.757967789269840986e-02 6.241277055748765124e-01
-2.572152027222656123e-01 -5.991095063164438711e-02 7.478239954454856120e-01
-6.661519245121448884e-01 -5.437057237603651338e-02 6.758693110830253925e-01
-4.776667745421496192e-01 -2.214902861158679070e-01 -6.991634411847067465e-01
-2.776528864984343370e-01 -1.260569563109992519e-01 1.758447275633388818e-01
-2.485374768361834907e-01 -1.856989597604664921e-01 -3.260155849171184617e-01
1.987066215827286986e-01 -7.432131064464368719e-02 7.575923356606327763e-01
-3.451053693723857285e-01 -9.899168543626632455e-02 3.877546220206181116e-01
-5.121086655427123553e-04 -2.654434049214862146e-01 -9.359959272349719361e-01
4.790719487572051571e-01 -8.411729760421561564e-02 7.556031204072856111e-01
1.352616408688336186e-02 -2.489691949923084624e-01 -7.909279122007540908e-01
-3.119239226821146072e-01 -4.484691696405981864e-02 8.607586294586426767e-01
6.764754733895145256e-01 -1.574535067783928988e-01 1.856823526875619190e-01
-3.445357951471454960e-01 -2.092061286200283254e-01 -5.551880713734650419e-01
-4.385163964389034996e-01 -1.474355361454919577e-01 -5.404674551777131908e-02
3.029004951556835135e-01 -1.070754545601783209e-01 5.077269374872817043e-01
-7.365456565221626395e-01 -8.754888950485671673e-02 3.714141444595376873e-01
5.303042785281388838e-01 -1.240205895458178359e-01 4.291033438584409554e-01
4.840336013058755271e-01 -1.677055212738155776e-01 4.178393978536073389e-02
4.822602091118249334e-01 -1.147957332857692109e-01 4.940172616681808848e-01
-2.727892020292843611e-01 -1.163204757592049138e-01 2.605797943025307539e-01
8.318756227622594590e-01 -1.379102942612803750e-01 3.982738300007216403e-01
8.796924893379055588e-01 -1.418862591889877012e-01 3.782085458039731174e-01
-9.520656310508651687e-02 -5.834076387334954233e-02 8.085485882312797301e-01
-4.117553328997311524e-01 -5.254386728344613566e-02 7.657559152229215238e-01
-8.728100369274583992e-01 -1.004050368106912255e-01 2.216296337989902276e-01
1.056930200711242440e-01 -5.604920871550243822e-02 8.867977729678528931e-01
1.946057308964146970e-01 -1.430424569553366831e-01 1.683460179588012473e-01
1.694909355385514349e-01 -1.574711542374371831e-01 3.754841919822703156e-02
7.901105637282569427e-01 -2.290727742840286962e-01 -3.939975207853583239e-01
-8.075799920821633560e-01 -1.015992368936290552e-01 2.304507165677554537e-01
7.414818748890956712e-01 -1.924546323237492085e-01 -9.484891784087376432e-02
-3.797892705946131486e-01 -1.425803045822603143e-01 4.641414086578149120e-03
-8.800122458160948291e-01 -1.480311176270675544e-01 -1.880106903598148804e-01
-5.775398506394247011e-01 -1.810948616206771167e-01 -3.826501400580925583e-01
5.953600834044304735e-01 -1.690433330164678449e-01 6.283114937776447528e-02
-5.872309211280980490e-01 -5.394950049831350597e-02 7.025085664531106611e-01
5.017420396444189912e-01 -1.085450995970195787e-01 5.531906794893782786e-01
-9.764376144335996932e-02 -1.748789340231955425e-01 -1.893841058867173632e-01
-3.138491291236439884e-01 -4.484165769004372359e-02 8.602416877590047806e-01
-6.290456762122769163e-01 -1.350467730020929735e-01 -3.648948091376459733e-03
-8.305350198917892390e-01 -1.407720990629631186e-01 -1.114531779414068002e-01
-6.291663498460685622e-01 -9.816870254742633695e-02 3.118828009723979555e-01
5.526915458645641488e-01 -2.109452320329852082e-01 -3.081793568803894434e-01
-7.492092382041629639e-01 -6.437107640830014299e-02 5.660511698508415845e-01
2.151465952103715773e-01 -6.834205332143813982e-02 8.135556933303085270e-01
1.417293321952078078e-01 -1.713043344521861522e-01 -8.892589128786358710e-02
-3.988753829692155417e-01 -5.814186216428315901e-02 7.216131805695396029e-01
-3.481598345284316887e-01 -1.023260911717170235e-01 3.583304294270082679e-01
4.194606981047792060e-01 -1.186934624695909213e-01 4.423338021520671348e-01
-4.128946578458875805e-01 -7.276638276821369156e-02 5.923785687303926295e-01
7.682938273541038976e-01 -1.160847913495951650e-01 5.664766508702621106e-01
-6.277751374091440351e-01 -1.895827759045744521e-01 -4.699446264455590105e-01
-2.070653154747644220e-01 -2.317197199602161750e-01 -7.077116371716223320e-01
4.704777467758740617e-01 -1.938613503868684140e-01 -1.859892257436054908e-01
1.523978295054651544e-01 -1.111172128607677972e-01 4.292114790577626349e-01
-1.966697758819791475e-01 -2.427058524744334089e-01 -7.986860295612134841e-01
-1.055123399776463078e-01 -2.285274665079592982e-01 -6.507532706893494057e-01
-3.013055458999236436e-01 -1.958154665614435797e-01 -4.279852857786951570e-01
6.935174893785184258e-01 -1.917611712844435046e-01 -1.029151962855565788e-01
-3.829288283218519329e-01 -2.213507330031544151e-01 -6.703163692914808625e-01
5.028683484971507855e-02 -5.986138491788732530e-02 8.380044196803998480e-01
-2.736919449695770501e-01 -1.218062527494686853e-01 2.133743035075781336e-01
-8.148329173341238574e-02 -2.059136251629544445e-01 -4.502320174733986935e-01
-9.395230846729930863e-02 -2.216809071289781718e-01 -5.887927768737376555e-01
4.267737316311011053e-01 -1.778372142101374564e-01 -6.162681403403066221e-02
-3.371260147233360316e-01 -3.664898024385480901e-02 9.235524689520154817e-01
5.464452572517998208e-01 -1.592071124794104120e-01 1.327223694241168317e-01
-1.718666531358107041e-01 -2.466329106460783127e-01 -8.250502625714061233e-01
-2.118064538568267541e-01 -5.124321742332090673e-02 8.352483882248165070e-01
-6.783721578794944529e-01 -1.057915479849242807e-01 2.322912326854444653e-01
-8.381994853928306233e-01 -1.331776936740845796e-01 -4.870474733650245747e-02
4.730702388366826439e-01 -1.303187015719444453e-01 3.585042189344451180e-01
6.410711453807907967e-01 -2.471503851629507087e-01 -5.921911684580830615e-01
-6.188810444637004027e-01 -1.088398742226986682e-01 2.235713636932590009e-01
8.872067025891308134e-01 -1.684838959847560491e-01 1.528049251985392210e-01
9.476975985129902913e-01 -1.975878303438325934e-01 -7.858189257765983704e-02
-9.405100507158774270e-02 -2.231121509042727769e-01 -6.010687896185366030e-01
6.109377465416582220e-01 -2.299288134050087584e-01 -4.536211515469263378e-01
-7.620003532261446777e-01 -1.389586216127082496e-01 -7.593070969349359489e-02
3.313512583934339339e-01 -8.973029744227756233e-02 6.644545181692174118e-01
-1.913552744215142043e-01 -2.526677603422441409e-01 -8.823791911666528653e-01
7.776404841006293589e-01 -1.996483464011228615e-01 -1.458515074868114714e-01
-6.176623864843111544e-01 -1.396884703262784022e-01 -4.004546803932743093e-02
-3.969110553126649066e-01 -2.325084524086023230e-01 -7.698746250147415759e-01
-7.055480704407455228e-01 -1.004774629146292647e-01 2.698317147360260737e-01
6.259250476337559210e-02 -2.585623051652254922e-01 -8.586946027994825092e-01
1.280990803865615923e-01 -7.802147438156761816e-02 7.053203770477134427e-01
-2.675581788003129069e-01 -1.749816688095524042e-01 -2.398592645825146086e-01
-6.605582941474049674e-01 -7.543130502467061682e-02 4.972845820303202213e-01
-4.891359064267787327e-01 -1.566863805239301077e-01 -1.479818024170514446e-01
-9.728734774622316284e-01 -1.040756065755394089e-01 1.610130754945229836e-01
-2.774802922398853511e-01 -1.728071081882645021e-01 -2.241476214771932207e-01
-2.501957336990741076e-01 -9.798034648069717245e-02 4.241117108222423049e-01
7.330388612308305074e-01 -2.148972270798544526e-01 -2.893554246000700769e-01
8.402126371930174198e-01 -1.878012040654369053e-01 -2.621099750033363193e-02
3.964667671692358453e-01 -1.532533072496837512e-01 1.398923076146924016e-01
-4.810955726743600391e-01 -2.076303186642637078e-01 -5.815640288392026624e-01
-9.332341406401054584e-01 -1.098290515711331100e-01 1.233509042039278025e-01
3.585627635445141626e-01 -1.879861291099371445e-01 -1.683814357947826246e-01
4.858266121714496233e-01 -1.438424790148139509e-01 2.465042078907199730e-01
-3.742242729320154337e-01 -6.545016718344415230e-02 6.662711261925706729e-01
-2.822404731095143338e-01 -1.961284819375845034e-01 -4.250988953168595152e-01
-1.461254099614192892e-01 -1.376689173893350659e-01 1.148721092491281071e-01
7.104090419683229962e-01 -1.502060219008972408e-01 2.576041571120593621e-01
-6.527282591099675679e-01 -1.208710073752826825e-01 1.107409150251567470e-01
-1.844336433003801734e-01 -6.956628410075584024e-02 6.864470559641204783e-01
-5.049781404363714588e-01 -2.087611544395338026e-01 -5.982116764883221860e-01
-3.779820425674996209e-01 -1.886878105059050792e-01 -3.893746597733361847e-01
2.529643101029932159e-02 -1.773120733519878145e-01 -1.743197460109996710e-01
-7.890991029251319677e-01 -1.441940935734349061e-01 -1.286406427958965704e-01
6.035179057460950958e-01 -1.790224842458773002e-01 -2.017963180819080243e-02
-7.299346031206800367e-01 -1.997972235098198213e-01 -5.871691877760553124e-01
8.066076449496913936e-01 -2.301001588490814154e-01 -3.979735801504910575e-01
8.656743193950150461e-02 -2.044460735153658393e-01 -3.886220625512568638e-01
1.285176464900207038e-01 -8.358627998104699308e-02 6.578243104371725991e-01
6.894538518169848196e-01 -2.346779317144925825e-01 -4.713415842237766440e-01
4.215151893050113618e-01 -1.364329653105224582e-01 2.911359219573133039e-01
6.452483832297321031e-01 -1.836775538934337093e-01 -4.783258605290113125e-02
-6.930590560106535125e-02 -2.360500128145973375e-01 -7.045557299091078640e-01
-2.389650510890574675e-01 -3.454708255441478471e-02 9.701905330072553291e-01
-5.769454646530339792e-01 -9.450338209853566263e-02 3.584897520653653191e-01
4.845192747042056380e-01 -9.841681222761650139e-02 6.348316720647141365e-01
-2.684003771839152952e-01 -6.305644899664757108e-02 7.176430299817170289e-01
3.124674767936659325e-01 -1.932566894925952794e-01 -2.269364912618233865e-01
6.862842892990667076e-01 -1.450029403383777948e-01 2.950853764502606169e-01
4.255601119713058322e-01 -1.443133991746781974e-01 2.248834327298616376e-01
-4.592963933153554890e-01 -1.913552869633026732e-01 -4.359350701645832160e-01
-6.369649332213971338e-01 -1.852487424138526961e-01 -4.355405414542863340e-01
-1.918069916731310054e-01 -2.209911977344930500e-01 -6.114535592160212918e-01
-3.547549963824619401e-01 -1.423829097021429013e-01 1.363774429186391177e-02
-1.340776430105699024e-01 -1.492673662425040293e-01 1.914037003184237626e-02
3.100021091420455677e-01 -1.201558744607842677e-01 3.978701939841805535e-01
-6.835803201516734706e-01 -1.411007279097747091e-01 -7.137088938819843853e-02
-4.019839687838144271e-01 -1.303491831437499915e-01 1.028251834372267137e-01
-2.266003140535066684e-01 -2.284004210877830787e-01 -6.850103177741123650e-01
1.128807812918906084e-01 -1.973585831581109729e-01 -3.202935908458485192e-01
6.388124735735939419e-01 -1.532859678352727906e-01 2.103507388913310183e-01
7.546075913456818940e-01 -1.743075795524274552e-01 6.426730879643556549e-02
4.320331626752870191e-01 -2.389245966648868291e-01 -5.828185708070203752e-01
8.701277743048450031e-01 -1.426860837042659980e-01 3.685725890174165742e-01
-6.973156068566412902e-01 -1.338510631277437524e-01 -1.334441903068079097e-02
4.428420184422570682e-01 -1.923291017980258699e-01 -1.809442690877170190e-01
-3.563023122535288051e-02 -6.493753954050338062e-02 7.694893844149124362e-01
-5.990933978610448740e-01 -1.629463944470043724e-01 -2.336442863465833242e-01
3.719878035168437402e-01 -2.302546140230634641e-01 -5.261557641470258062e-01
-4.905768798293330679e-01 -1.677153336747902734e-01 -2.427775537904296455e-01
-3.954736286280173818e-01 -1.894205681958353038e-01 -4.007504853107941023e-01
6.652397412485798744e-01 -2.433088758532422347e-01 -5.522647018021569210e-01
-5.055042430175181734e-01 -2.083548662901208159e-01 -5.948886174728696963e-01
-8.221375769043106629e-01 -9.072401351222789123e-02 3.192612026574530582e-01
2.831156716933733164e-01 -1.619741633553946070e-01 3.218175504333358611e-02
7.766413996462588898e-01 -2.223342710836028469e-01 -3.402674003093311694e-01
-1.505785376722651725e-01 -1.989653357275168177e-01 -4.109433586591294540e-01
3.097569762033439700e-01 -8.094155081965187515e-02 7.333570171724832498e-01
1.485669391525805752e-02 -1.769282405289444027e-01 -1.740825132969837097e-01
9.036525281340418436e-01 -1.705976048572278581e-01 1.395181888113191937e-01
7.597785791728569604e-01 -1.129315472402027121e-01 5.909735714038630849e-01
-2.260226060169868989e-02 -1.049025752289693553e-01 4.313098537896501439e-01
-4.263543861553487635e-01 -1.678352933951820225e-01 -2.250582502237596649e-01
-3.199521684977914560e-01 -1.200221665814021343e-01 2.151379686030961691e-01
2.454363382054761955e-01 -2.568422401169646596e-01 -7.906059439800708910e-01
-2.015111343112205300e-01 -6.453326496638733811e-02 7.245300591813638169e-01
-4.761644615356293020e-01 -1.491946603642197167e-01 -8.008866940474758389e-02
-5.830585501898613021e-01 -2.043414422134630926e-01 -5.831828090042376900e-01
-2.681101307103613829e-01 -2.046605034209388052e-01 -4.939832257982827990e-01
7.811545625992637465e-01 -1.881849645648971114e-01 -4.673321885966463113e-02
-8.608061374914387498e-01 -1.430374846079365270e-01 -1.396739525016717220e-01
4.372900213144294557e-01 -2.175850149322199334e-01 -3.986805878761807698e-01
3.536728230174452509e-02 -5.333255717958314268e-02 8.895169880824309594e-01
5.426787724791727330e-01 -9.551582277802263266e-02 6.766316277028717741e-01
-4.594898164770463422e-01 -2.345022966423448707e-01 -8.052020383632422229e-01
1.473630761506042886e-01 -9.093514532095196834e-02 6.004405689781989741e-01
-2.333766376880541393e-01 -7.847010158268272195e-02 5.959708761873799832e-01
-6.738198845084548694e-01 -1.151079023597932488e-01 1.538996099212260049e-01
-4.029746283762596359e-01 -1.088448043605763360e-01 2.865497623211832323e-01
-9.657616714945429504e-01 -1.253090318001209569e-01 -1.860625222640197030e-02
-5.954285809714383593e-01 -4.804061327496133432e-02 7.506783243660564153e-01
7.135187946283145788e-01 -1.323268267546751920e-01 4.115047724368646742e-01
2.861637111187999294e-02 -1.137116957167361025e-01 3.708800199247650475e-01
-6.181138447934990399e-02 -2.126667330136546297e-01 -5.022766014659600931e-01
-7.109705582549785685e-01 -1.220730135786451676e-01 8.345505123304668149e-02
-7.162553994903957388e-01 -1.087462056860621085e-01 1.959504405813106975e-01
-4.084464119735431442e-01 -1.640721166430027800e-01 -1.876294811425305575e-01
-1.645065530699622303e-01 -1.677084130523576744e-01 -1.475421762525286062e-01
3.542275630737830028e-01 -1.993676701978096266e-01 -2.670390862090462614e-01
-2.814515791752790763e-01 -1.250377778664119865e-01 1.834570796261353609e-01
8.932275373166428944e-02 -9.660113606751949411e-02 5.350151839240969709e-01
1.793340744978077494e-01 -1.029979431681797702e-01 5.065507395962601800e-01
-9.465793464761089737e-01 -1.573471596757845536e-01 -2.871585633538162874e-01
-7.448605014540832236e-01 -6.211929547414080793e-02 5.865890860789151340e-01
-1.326527217085125832e-01 -9.626640795271552975e-02 4.730873901808911319e-01
-8.399185010554636177e-01 -7.027701512832953967e-02 4.890368554664530354e-01
4.617619447783192776e-01 -8.081430257104391113e-02 7.788143774597789948e-01
-4.277418720045800260e-01 -1.820135115118062807e-01 -3.467867625267226361e-01
-4.345274138104551209e-01 -5.734764365077005266e-02 7.180029213885711359e-01
-6.956798064787896863e-01 -1.688736858296677190e-01 -3.125567871140603748e-01
1.619959359083820716e-01 -2.139279260892019141e-01 -4.477419072836085756e-01
6.914833212180051536e-01 -2.196734370739664155e-01 -3.423552064791771654e-01
-8.036307755539612296e-01 -1.882338694866206030e-01 -5.097322129022988646e-01
-6.719982886398382371e-01 -1.553198425179006525e-01 -1.896637023055490479e-01
2.276213497253923024e-01 -8.974055826018184634e-02 6.340891552320422342e-01
-3.278117241867716247e-01 -2.461410182230129862e-01 -8.663596842596762437e-01
1.709413290849899278e-02 -4.715923704351811241e-02 9.370085890379254989e-01
-3.034974433907846048e-01 -8.447445541629003407e-02 5.241239526896982470e-01
-6.951655520119798259e-01 -7.096626785865869924e-02 5.253906069408231794e-01
-1.807706062046641193e-01 -7.488242239780958098e-02 6.420258679459932560e-01
-5.808803407155355147e-01 -7.954250822805059018e-02 4.853619418495198623e-01
6.793028270531551449e-01 -1.134619962907025825e-01 5.629445584652095214e-01
7.242628399604911227e-02 -1.743261835012839822e-01 -1.350127203548316113e-01
-5.419395530830273255e-01 -1.840194273995738317e-01 -3.972844392250889367e-01
7.039859685948629542e-01 -2.458036065619731980e-01 -5.623026263241144296e-01
8.457776131198648795e-01 -2.090043660465806807e-01 -2.060228633616458527e-01
-4.823562248281940135e-01 -1.291728204532877344e-01 8.943162912482349736e-02
2.965869100471369424e-01 -1.008311257586580884e-01 5.593170206490073459e-01
4.822382023646534788e-02 -1.593722630890833381e-01 -1.411590602593203007e-02
7.481610877229147860e-01 -2.329596172040626356e-01 -4.395019420559153067e-01
-9.557122256869698962e-01 -1.302249384292577250e-01 -5.773852465226090441e-02
-3.155813491361865730e-01 -5.090875609886232056e-02 8.078196939590850389e-01
5.638794574966525808e-01 -1.686216021384756292e-01 5.725108499204471790e-02
9.265475045246540642e-01 -1.889184680399917382e-01 -1.057131607525582315e-02
7.268022837388993240e-01 -1.757800990766683058e-01 4.355085864961701081e-02
5.108801455766254218e-01 -1.870038681347036269e-01 -1.155165110472033685e-01
1.418750941198879123e-01 -2.065156890032051884e-01 -3.901881695697092534e-01
-7.514513415330865698e-01 -1.032319135808260069e-01 2.328631475570200338e-01
2.029376485091864135e-01 -7.312964581861784719e-02 7.690244421713987588e-01
-1.926457505500507039e-01 -1.204761009888247053e-01 2.484129067457981899e-01
1.823067083303835378e-01 -2.531189561290000944e-01 -7.771724781743527544e-01
-9.069888548970753694e-01 -9.776361257996157850e-02 2.342559940299936139e-01
-1.738630172252084438e-01 -4.245507688499662591e-02 9.215240725398995414e-01
-7.733623136161072997e-01 -1.000395946089766147e-01 2.537843761995562386e-01
3.691125207612814263e-01 -6.724149741386975521e-02 8.679140628475248143e-01
-7.765534150023974957e-01 -9.590417998264826049e-02 2.882398219712146159e-01
5.304140565018801157e-01 -1.112235237901027518e-01 5.386403376917769936e-01
-2.774375123445854338e-02 -1.264249463519665218e-01 2.456414100729836236e-01
2.885524512365714167e-01 -2.059990238697523846e-01 -3.429536231972529770e-01
-3.912804351403578185e-01 -1.811761670747667474e-01 -3.289789043692573633e-01
3.381487243937966736e-01 -2.184047314894896896e-01 -4.346331299197387921e-01
-2.048758822158638082e-01 -1.556425111665434846e-01 -5.607716113820900017e-02
8.642385481591435825e-01 -1.464043802179027798e-01 3.350359953082727715e-01
-1.429670450432105611e-01 -1.626428154323581177e-01 -9.790854233388600336e-02
4.272824723600602281e-01 -2.138425475379961693e-01 -3.695772478870554267e-01
4.619587521461969715e-01 -1.452538381501718712e-01 2.274604048006252099e-01
-4.309372182049661104e-01 -2.344904329634640572e-01 -7.967663471997383784e-01
8.354005927742191862e-01 -2.324596907122977729e-01 -4.097598504867487335e-01
-9.212508256710071342e-01 -1.453601358802602828e-01 -1.771920682543478565e-01
-3.298466732823114311e-01 -1.718217537130308503e-01 -2.310010489042693127e-01
-3.167083075537864834e-01 -1.576626695841391035e-01 -1.060063208778942723e-01
-8.096449539179949306e-02 -5.612883372445524183e-02 8.316332487559461306e-01
8.872250188074715105e-01 -2.242445595619486087e-01 -3.243357277889205581e-01
-2.203781793685569701e-01 -3.790972792864741314e-02 9.468415487730397206e-01
4.587729207853370461e-01 -2.254775318944873819e-01 -4.599465288409386177e-01
-5.817016502432652558e-01 -1.677160728116386390e-01 -2.693821452775288505e-01
2.233480762954487275e-02 -1.804805787946426043e-01 -2.022972244050559310e-01
-4.097248751878321271e-01 -2.344234887589005667e-01 -7.900018656234716330e-01
-2.113726055386714597e-01 -2.236107187652826289e-01 -6.395798711014467619e-01
-3.581079400707483096e-01 -1.140470327374790704e-01 2.551301748639246414e-01
3.947129925028585729e-01 -7.279031151145809453e-02 8.279051431308200870e-01
-6.416877153775900622e-01 -7.695318605272757906e-02 4.897698951714934967e-01
-1.360232536262018788e-01 -3.986699247511447941e-02 9.547153931068925736e-01
-1.767488849580884855e-02 -1.524558032569122146e-01 2.583341797501095827e-02
-1.873160697458979285e-01 -2.386607555369557598e-01 -7.613417512535431975e-01
7.508647821152660828e-01 -1.550471789415392154e-01 2.279867652798950040e-01
-1.200279827532365062e-01 -7.413193682596301570e-02 6.661778692406788993e-01
-2.557499987676731812e-01 -1.062043546681465805e-01 3.521173518912221190e-01
3.405452355975747691e-01 -2.196326689871495319e-01 -4.444411212476745976e-01
-5.227607529770452732e-01 -2.214614574755018050e-01 -7.120791642879670258e-01
1.947821709336460816e-01 -1.157044373022149825e-01 4.023299340002171598e-01
4.600171904329242167e-01 -2.316123094578070862e-01 -5.120788526846675737e-01
-3.449184904569460031e-01 -9.713959082358659958e-02 4.036576098805808588e-01
1.276580361029372168e-01 -8.056128601767197084e-02 6.834583820069507487e-01
-3.659033536182650370e-01 -1.292587783001961643e-01 1.226873311248530274e-01
2.010400626097682830e-01 -1.665834337640811902e-01 -3.121685837768952559e-02
-1.063883713704673467e-01 -1.654208036524200953e-01 -1.110029953959128513e-01
8.564413085361380906e-01 -1.484396170819828054e-01 3.153444763506441095e-01
2.817290365958143306e-01 -2.614795903777550334e-01 -8.196944976281872464e-01
4.927184746141985983e-01 -2.132684458736206767e-01 -3.455646270227021866e-01
5.864273936564216028e-01 -2.538072826036760210e-01 -6.651043579482485146e-01
-8.809194620681209953e-01 -1.632855088770341634e-01 -3.188078696434521464e-01
-2.565916562366359344e-01 -1.134166479185351184e-01 2.901558296425756911e-01
-2.889865472967777515e-01 -1.467193445646335914e-01 -4.272234740148574128e-03
9.168749585823354753e-01 -1.921826599002458003e-01 -4.132642726544995954e-02
-4.615452453283652723e-02 -5.537637942743342534e-02 8.482326551104094614e-01
2.210439129918905232e-01 -2.569547415903866705e-01 -7.986884899577613162e-01
1.388250765822297284e-01 -2.242500261880019941e-01 -5.428317941287681414e-01
-1.385994950166473394e-01 -1.372902882818641257e-01 1.203087796479284932e-01
2.368441328601984253e-01 -1.803282087042477333e-01 -1.383805967432281125e-01
3.041627398245211333e-01 -9.072412177250220588e-02 6.480143135635093588e-01
7.382258627468440970e-01 -1.349551568414650293e-01 3.962257650204797366e-01
3.948945908435686492e-01 -1.200352067468173495e-01 4.236818856079715423e-01
5.026804571611485084e-01 -2.422405647730077327e-01 -5.905723006503634798e-01
8.021077347828726722e-01 -1.882083339687504187e-01 -4.081720304076230654e-02
-4.693303613159374721e-01 -1.294062994213142637e-01 9.123584013763477718e-02
6.181527394690832233e-01 -2.400678295062204926e-01 -5.382751031804845487e-01
-3.103053265535896110e-01 -1.754596706455050503e-01 -2.564269415240420513e-01
2.671645753996526595e-01 -1.241046143943485974e-01 3.515769039641289395e-01
4.166550867378477907e-01 -1.831807367284850885e-01 -1.103050434100753263e-01
-7.370839910542904549e-01 -1.965218450484081947e-01 -5.612284803985422288e-01
-8.554236921600372190e-02 -1.794075755454243859e-01 -2.246035974651216238e-01
-4.751124960882939230e-01 -5.050469454214824572e-02 7.647119663113346455e-01
-4.624011237954246956e-01 -4.865954339873141549e-02 7.842112934323393070e-01
8.150438551252150443e-01 -2.060304831370357581e-01 -1.895460691191603042e-01
8.248504304143603472e-01 -1.420716080365445610e-01 3.606147462880556764e-01
5.279178215467458246e-01 -2.298457336796728978e-01 -4.771427913734625492e-01
4.010348987634042017e-01 -2.519292658060437451e-01 -7.031480260935234483e-01
4.987865308805945475e-01 -2.608445092815512290e-01 -7.509035134884270990e-01
-8.778359078128583626e-01 -1.537143477557520732e-01 -2.360070466268967826e-01
1.764372226159019730e-01 -1.573785137525068878e-01 4.036868801948094443e-02
-9.848714472707311707e-01 -1.247523141966760674e-01 -1.942032226817965238e-02
2.537696496794629719e-01 -1.555200261338668677e-01 7.884427441150171356e-02
-4.855307660347195631e-01 -4.557575669674567703e-02 8.038480918215789028e-01
2.211613108482846091e-02 -2.553528706113044056e-01 -8.430459415320995520e-01
5.139521842375454064e-01 -2.283132989039195759e-01 -4.681061000279658213e-01
2.007296222712486866e-01 -1.872821237239949699e-01 -2.084269051109458037e-01
-5.287441998333133331e-01 -1.605078249102437904e-01 -1.922432419617846333e-01
-4.868516536317063492e-02 -2.592475897814514596e-01 -8.970392728863211262e-01
-3.903052216072199210e-01 -1.303402271013521241e-01 1.063107118547790830e-01
-1.750316280766346377e-01 -9.153532399633239336e-02 5.012015327015215682e-01
-4.339817089336628353e-01 -2.074980650354591172e-01 -5.666803378162931226e-01
4.240896255980085988e-02 -2.566115872239224105e-01 -8.478935819270724261e-01
-5.441163887591986548e-01 -1.880236575483670292e-01 -4.321841734654779943e-01
-4.744024320186739918e-01 -1.197848262650658413e-01 1.720866524338348635e-01
1.582710049462432433e-01 -2.026276769643600428e-01 -3.521325342677094072e-01
3.107114342167336396e-01 -2.224920013620272086e-01 -4.776166725991430329e-01
7.148437218381892277e-01 -1.206112728610737039e-01 5.121419184638914546e-01
9.130224262728130480e-01 -1.822204762224848562e-01 4.279582634377124273e-02
-4.023104093645429868e-01 -1.287791243984948153e-01 1.161649482337632905e-01
1.258125821924741677e-02 -1.140207093940057981e-01 3.635553147845365651e-01
6.310122219399689758e-01 -2.291747082851778861e-01 -4.413087397579856241e-01
-3.177544208050892549e-01 -2.395882463578068999e-01 -8.073517697047928321e-01
-1.570271201908180481e-01 -1.951516076712157544e-01 -3.801914174825623549e-01
2.678261743239455650e-01 -8.166436419499495392e-02 7.149327610228959351e-01
-6.611051385298183369e-01 -1.866887524528696718e-01 -4.549090057937750231e-01
-4.833039545615928634e-01 -6.219117658763629458e-02 6.623193280644716907e-01
3.218139982504539254e-01 -2.508351249233540248e-01 -7.169090880009689748e-01
-3.042079295380294979e-01 -1.616743845278581226e-01 -1.366859938358116755e-01
8.824989491617410975e-01 -2.147809384527371857e-01 -2.447346674167661107e-01
1.633168114189673670e-01 -5.794898707194107157e-02 8.873610196966219554e-01
-4.457226480053193551e-01 -2.047832983042836286e-01 -5.468770258107075177e-01
-5.362684359913003629e-01 -5.011258946436873002e-02 7.502165119165740137e-01
4.510160578758480310e-01 -1.871994772799603357e-01 -1.346639804212983460e-01
8.297440964798967755e-01 -1.699852378192134028e-01 1.231852190494121119e-01
-5.828045058551313273e-01 -7.922509073987274442e-02 4.875164531346922736e-01
-1.299531697754047477e-01 -1.483096559514729684e-01 2.853941740062814966e-02
2.343428937116326105e-01 -1.289756824748141961e-01 3.003147302778185757e-01
-4.974650917214794577e-01 -1.628881074626674086e-01 -2.034813952537247450e-01
2.148638882362502445e-01 -7.549599228921864691e-02 7.522566619574958535e-01
-3.760347802133212070e-01 -1.930843431794230791e-01 -4.264275642744149719e-01
4.021008053837197838e-01 -1.994904072308530951e-01 -2.541157056077815724e-01
-4.684483474001380210e-01 -6.011900405576597189e-02 6.843871627144760827e-01
-3.494115246908446326e-01 -7.678297871908874861e-02 5.765384054514475221e-01
-8.988803674471290694e-01 -1.465675134576472083e-01 -1.809939634612943715e-01
7.969597169422119043e-01 -1.314441892009608481e-01 4.434129739251205793e-01
-4.331613630566301110e-01 -4.562277714114858218e-02 8.187317592919811648e-01
-4.999908222427281723e-01 -1.646535923086582809e-01 -2.193259439679794975e-01
-5.853867681854793559e-02 -8.128622365536236627e-02 6.229063974058565156e-01
-4.499569870040082131e-01 -1.814268481879332540e-01 -3.482509985715556700e-01
-4.594328961990550853e-01 -8.511018898974194447e-02 4.731682023365981760e-01
-5.152500411528145863e-01 -1.928373344803503142e-01 -4.649492266781287686e-01
-9.418121938309709229e-01 -9.905931232476337944e-02 2.130041148972740273e-01
3.166845227436790311e-02 -1.241513218204876312e-01 2.824386319096913733e-01
-4.159369581356673340e-01 -2.047557672688580521e-01 -5.379473433378276770e-01
7.029295379459148396e-01 -1.959773591406772375e-01 -1.362459989444865238e-01
8.956992499275044928e-01 -1.757681894663774280e-01 9.295184082475631271e-02
3.855231896891575527e-01 -2.529284408171039722e-01 -7.162256910127506870e-01
-2.733493482124386698e-01 -1.664122350670142747e-01 -1.682206879005612721e-01
8.713843802683428619e-01 -1.848184344085417874e-01 8.411340811000091525e-03
-5.833228910296701653e-01 -1.344084371477792805e-01 1.515926695278145032e-02
-4.573113959348566043e-03 -1.401904730994256998e-01 1.346125447622472660e-01
-7.574703811313659996e-01 -1.558624248712325022e-01 -2.192549143260478506e-01
-2.837958530987916839e-01 -7.324701370631925279e-02 6.259482406805766397e-01
-8.570412503865245668e-01 -1.794072674640981024e-01 -4.497925625759045531e-01
-3.645216875873595885e-01 -1.262363018357403055e-01 1.489540630330860038e-01
-3.421464610757198876e-01 -1.520593063984974347e-01 -6.548324384596992953e-02
-3.899249932136532593e-01 -2.056240949571159493e-01 -5.377850627834279695e-01
3.470457959961001371e-01 -1.479426665848793954e-01 1.709102404092398830e-01
3.635022190185139418e-02 -2.392975484152002341e-01 -7.015052068336599111e-01
3.880970509122789736e-01 -1.978199145298910056e-01 -2.439087736007203577e-01
-2.157478724768358835e-01 -4.683546465291234251e-02 8.718152323451672236e-01
-2.306728388747582292e-01 -7.102367904072866278e-02 6.604793887095891103e-01
-6.492316616846434130e-01 -1.058711105379009365e-01 2.401161869068650645e-01
-5.045659315601299655e-01 -4.779653582103289555e-02 7.792886604755936419e-01
4.059562346521095599e-01 -2.050592487508511308e-01 -3.006431271229791369e-01
5.724743461669641320e-01 -2.261598629930626214e-01 -4.325971293751533220e-01
-3.455370172586384458e-01 -2.162719304512903951e-01 -6.159426363654566527e-01
8.884885666163128137e-02 -1.995514988591883254e-01 -3.460730900769273810e-01
-2.009895085369943213e-01 -1.849195493392494782e-01 -3.054674398970069205e-01
7.066859898629482828e-01 -3.000283970649499435e-02 6.705951709512576464e-01
-7.149010082062706717e-01 -2.715579515024600654e-02 7.043258770933163992e-01
-9.986939480258968382e-01 -6.925100448964927047e-02 -1.774940467030012778e-02
7.757732703452123735e-01 -1.085255274883176746e-01 5.904620994280027624e-01
4.926172329454826526e-01 -1.519874438413801321e-01 -8.190786864143735357e-01
6.190964119766224627e-01 2.159391331687172400e-01 7.346459398328615276e-01
1.514968934154695412e-01 -3.937494937117640148e-02 9.806482016297702886e-01
-8.392460180396852376e-01 1.600388817359554294e-01 5.176305592304873970e-01
2.251871091869893093e-01 -3.971509982020746642e-03 9.605669238768221874e-01
1.380741138449463612e-01 -1.303849098524489936e-01 -9.537719180359611748e-01
-6.916639470514355237e-01 1.637001076816598510e-01 6.985874306867370098e-01
-4.683515533372251821e-02 2.550262711727551701e-01 9.611251027207532438e-01
9.538657399725081198e-01 -1.050468857248865184e-01 -9.931368305666500584e-02
8.562460275243296559e-01 -1.066878868529097107e-01 -4.281189154327984525e-01
9.082643712463813745e-01 2.148522453262545484e-02 3.284746065751634747e-01
5.742890659277938292e-01 -1.631271467832167421e-01 -7.612447132049093845e-01
2.132766194524527564e-02 1.046533367955631427e-01 9.785835652226154702e-01
4.001683538779523541e-01 1.427362195166318459e-01 8.819775941185016288e-01
-9.297506385836193932e-01 3.198774650478013182e-02 3.610494652794984383e-01
8.537695408102388139e-01 -1.296306196688480072e-01 -4.288142031196018888e-01
-4.006800219945583219e-01 -1.036401645660318810e-01 -8.904441228096301453e-01
-9.754605663161380891e-01 -9.458142848485076581e-03 -1.969169656176916194e-01
-8.653650819107910896e-01 1.558430719252436314e-01 4.745154244544638744e-01
-3.940279420038282354e-01 -4.024123130080407840e-02 -8.997607705821922819e-01
-5.121481077675180682e-01 -1.003481628964891931e-01 -8.344341545849739417e-01
-7.729671108715231442e-01 2.413587093840179887e-01 5.972894560331170055e-01
2.118754030808132349e-01 -1.299313323874319408e-02 -9.535850641548807571e-01
2.597908592871661093e-01 1.954774528668975220e-01 9.295882013478403705e-01
-9.360330397104255074e-01 1.714643013263450477e-01 3.146442169217631979e-01
3.246921005004126393e-01 -1.012536927245836632e-01 -9.080087131314882321e-01
-6.813883747824081016e-01 -1.164750199697972416e-01 -7.073806079673493619e-01
-4.250348955531141337e-01 -1.129513264377178527e-02 -8.889651257740962542e-01
-2.136461931367369393e-01 -2.191313971534882554e-01 -9.364505829867932896e-01
4.721172987531410681e-01 7.142179648927042546e-02 8.514108841930575489e-01
6.867519957931396135e-01 -1.522725434179921233e-01 -6.618669920241236904e-01
2.383303320380758261e-01 -2.020903356158265385e-01 -9.230598685197429765e-01
8.847420616308508956e-01 -5.847419144302955923e-02 3.918479721530664928e-01
9.483109326988130583e-01 5.813473540909065013e-02 1.802347516372322378e-01
-9.950812493472910303e-01 5.290254447209126465e-02 1.332616263819226196e-02
6.534965608866578624e-01 1.212204022280729543e-01 7.122801283580171283e-01
9.533538361777439407e-01 1.249718142183629810e-01 1.572793277217437169e-01
5.711664040467203350e-03 -2.338664827817140135e-01 -9.537656809298620253e-01
-6.835142115562093945e-01 -3.436575554600488497e-02 7.358449754262416098e-01
-5.763518612279758813e-01 2.552940119668488037e-02 -8.049489607621297393e-01
-8.791438741028011483e-01 1.156201050093754734e-01 4.564096812978077344e-01
-1.895834976110034320e-01 1.342902354819864308e-01 9.602407957971675900e-01
3.822794121051354965e-01 1.478474244649302660e-01 8.896433259108078584e-01
4.910089559550225857e-01 -1.542164906803368818e-01 -8.197602051682937319e-01
-9.834537171422532698e-01 7.703293064382016157e-03 1.694943818667605517e-01
6.081801452256151430e-01 -1.547798650223684291e-01 -7.352379746458046483e-01
7.391321424976130539e-01 1.588643970841229491e-01 6.185578797066011436e-01
-9.868928672898436005e-01 1.655911527591154841e-01 -1.037733319928947767e-01
6.254610101707150926e-01 -1.494102898301312432e-01 -7.211655661297247111e-01
-9.099825944810779887e-01 -1.228098272697682701e-02 4.171547858592330460e-01
-3.001494770358783537e-01 1.820343125743148216e-01 9.273446227774678752e-01
-7.323261185553007202e-01 2.348535023413736711e-01 6.458924119181732593e-01
-7.215065681450024693e-01 2.127476812045536181e-01 6.609561853205233595e-01
8.654803437298584923e-01 2.688966764072392261e-03 4.321590804337412384e-01
4.977295955691890539e-02 -2.132905932343719946e-01 -9.540293976022524713e-01
4.821927002609976420e-01 5.798066062551875816e-02 8.467987462010230226e-01
-9.531351944836357060e-01 -6.573190802105682851e-02 3.152404467078808170e-01
-9.067817333581381645e-01 9.885163261938512136e-02 4.028570126861419909e-01
9.408229930970559707e-01 -1.671528946142315786e-01 -1.640179548285063682e-01
9.578086246788194980e-02 -1.089264631008760309e-01 -9.622440432048461334e-01
2.192706045446044527e-01 -9.371801555602386757e-02 -9.416826708838835769e-01
7.014439867575863463e-01 4.309815555422190358e-02 -6.761845213243435904e-01
5.496176112689723503e-01 -1.285742531109261566e-01 -7.844455722794101415e-01
-8.389929412550923837e-01 6.669060763922046720e-02 -5.328558256421844774e-01
5.759897604300373564e-01 1.904472397015369647e-02 -7.859756406245994587e-01
9.402558369494026236e-01 -1.413436389015530481e-01 -1.745099098138649385e-01
-3.044649707183201826e-01 1.556911533121222158e-01 9.293659650840434550e-01
5.477607323380797588e-01 -2.422988815742272220e-02 -8.004899380621853799e-01
8.580088514057935267e-01 -2.250160637348395942e-01 -4.024788805622749321e-01
-9.656587657434996252e-01 -8.431655068037870182e-02 -2.394586321561913422e-01
8.763335678850470156e-01 4.118278571266874299e-02 4.072671261259463438e-01
5.702443851820278020e-01 1.550545369481084734e-01 7.788720216237247085e-01
-1.222795323685215707e-01 3.141964596834452561e-02 -9.788182821489508356e-01
-3.042032807953167217e-01 -1.200963354168012726e-01 -9.241142540730417076e-01
-9.448771992616410431e-01 -7.762027399234813774e-02 3.427533358009580700e-01
3.728159096725058852e-01 1.849398133929226196e-01 8.900093121812573393e-01
-8.004348679029044122e-01 -1.575670040904890434e-01 -5.730337918086813032e-01
-5.319527824358223356e-01 1.047468179095608215e-01 8.318211455959149125e-01
-1.474365764379350630e-01 3.519154906269320038e-02 -9.760347028059367380e-01
-2.482641248832481370e-02 -2.147551550448307256e-01 -9.563432424542267496e-01
-2.710611437075330366e-01 -1.052118237348866892e-01 -9.352887888015375406e-01
3.496619004746265302e-01 -5.178556662502653563e-02 -9.047422423185138562e-01
-9.768964152441217408e-01 -5.213538908070956129e-02 2.219512677412995016e-01
9.174020806011469187e-01 1.239006724013266419e-01 3.000017211406273976e-01
7.335114933459513376e-01 1.324261234048972891e-01 6.272680877692827783e-01
-1.341061479119155520e-01 2.090899510935179950e-01 9.596025871490488912e-01
-8.227029893327111321e-01 -2.878966425019426068e-03 5.701443332799042141e-01
-8.785571031892063232e-01 -3.292224003565378393e-02 4.843397192878827195e-01
-8.492515202561640164e-01 3.923416338782767521e-02 5.223079292785438588e-01
-6.605708950277787705e-01 -1.150183485812779627e-01 -7.261684664357865859e-01
-2.699816731041549955e-01 -2.148390786389050289e-01 -9.237673017746269588e-01
1.856284633393325001e-01 2.444173125978910399e-01 9.427482595549969702e-01
9.285820564267925903e-01 -1.870318940841942182e-02 2.634434471354470952e-01
8.053502675878055905e-01 -3.911961185131002106e-02 5.421159799917444344e-01
-5.812554224927289903e-01 -1.722750856589960189e-01 -7.831304900498498034e-01
7.957791468613619745e-01 -1.897918760424572859e-01 -5.186252492052202401e-01
9.642489426901234006e-01 1.114540561637256816e-02 -3.780525279276623820e-03
7.176281007893344777e-01 1.439393500148461735e-01 6.446817780634347406e-01
-6.182038234285409661e-01 2.996390420882544606e-02 -7.741315033898011899e-01
-9.463111584109102914e-01 1.189541333184424010e-01 -3.055670506221345173e-01
4.653438326768981614e-01 -5.126441898749155984e-02 -8.490010840073045628e-01
4.522896185540071778e-01 -3.388957017705957614e-02 8.729079497540744859e-01
-9.709157065837478173e-01 1.454719030018926107e-01 -2.115174705544023981e-01
-1.910002822810198397e-01 1.168367465657797061e-01 9.621310958020309334e-01
-6.316027629304570290e-01 1.170316398020962850e-01 7.588049975311091933e-01
1.802268929961913513e-01 -2.603753588196833779e-01 -9.298902100199635257e-01
-3.813702922866878953e-01 -2.610430735835905791e-02 9.255634534401111502e-01
5.111038064451522978e-02 -1.562509145118792797e-01 -9.607386707011891236e-01
9.005829884093857762e-01 -9.105518456050641640e-02 3.523518339045195735e-01
-6.311752538205687157e-01 1.527700742787778121e-01 7.539823903119704518e-01
1.871505579876093714e-02 2.464414959521175619e-01 9.622772522721684263e-01
-8.680562422444297876e-01 3.112821254147676159e-02 4.918643080966584868e-01
-6.030010161369021571e-01 1.104166243048061435e-01 7.821954771824560781e-01
-9.948640286384472509e-01 6.082949636085313583e-02 -5.480204348881539999e-04
-5.299079987369849365e-02 -2.321258266499690304e-01 -9.537858943407422352e-01
1.636580414850501708e-01 -4.865112613304488354e-02 -9.593644717491692786e-01
-6.454215497534165902e-01 5.109126604641579111e-02 -7.537384306814275403e-01
3.302513677202948209e-03 2.033447723815535735e-01 9.676535786408834161e-01
8.329506652979159487e-01 1.564062305610735282e-01 4.851249952139088384e-01
2.464158563631773102e-01 -2.371743351743362677e-02 9.569051729388402538e-01
9.592378594951885828e-01 -1.203189500317926736e-01 -1.732127303812923402e-02
9.188216400677828855e-01 -1.202960427477056116e-01 -2.667608481175157142e-01
-4.153053185966446015e-01 -5.747190269873313911e-02 -8.887347567828641770e-01
1.430302770511115706e-01 2.026698015326481583e-01 9.552303467651447333e-01
-2.275853941594720153e-01 -8.760245477438212414e-02 -9.479076491145972394e-01
3.655493843064784865e-01 -1.004417233256822417e-01 -8.917767548793255061e-01
9.635778667165367795e-01 7.946147292497813056e-03 -3.336775780783701045e-02
-9.284927921653708394e-01 2.171560736428426452e-01 3.259903537479044711e-01
-9.856311617933550817e-01 1.025269349058687413e-01 -1.273517288755665056e-01
-3.141738870385376442e-02 1.810060493945650148e-02 -9.833747329836113327e-01
9.384421597540090199e-01 -1.793373044096306657e-01 -1.726710512287854271e-01
-1.000000000000000000e+00 -9.628892336265373886e-02 4.140833927441363999e-02
8.553000691372548703e-01 -1.297513514849285010e-01 4.592000465443020762e-01
-9.778533385276401146e-01 7.442763357266717061e-02 1.806887656969564104e-01
-8.847584980622091866e-01 9.515181224049731878e-02 -4.545395228184228587e-01
-2.148261906794096399e-01 -1.408442280884729947e-01 -9.448122198985768883e-01
-2.727326354078128956e-01 2.370395365874189419e-01 9.283865955894502475e-01
9.637811140683379962e-01 -1.343655293407577120e-03 1.111542243558507129e-02
8.423825089475497352e-01 -1.469805312464531229e-02 -4.713891404495091364e-01
9.239953308348686223e-01 -8.482072106899421482e-02 -2.571977350576795107e-01
9.580558647032128006e-01 -1.485475859427986822e-01 5.715568099255637774e-02
9.305545063926778937e-01 -1.249629995448618136e-01 -2.225269171098471499e-01
-4.430160192154463106e-01 1.552593688488761170e-02 -8.830733114480364687e-01
6.254896359764715585e-01 -1.823885401296904685e-01 -7.162948490961442705e-01
9.557442368320226977e-01 -3.833461842315105672e-02 1.218445693190492174e-01
-8.084281509639174024e-01 1.354465772123012168e-01 5.675819491689888530e-01
6.511166897060757242e-01 -9.386137583799133988e-02 -7.060429622990755938e-01
-5.038993359356634949e-01 -1.373150999755841928e-01 -8.356351672285141641e-01
-5.546057354952288465e-01 2.572361625465623414e-01 7.959574895632840486e-01
5.916800461148120638e-01 1.728491261153276004e-01 7.608352725717614229e-01
-4.706690475025102766e-02 2.549562706268859169e-01 9.611249813060532832e-01
8.861338010886989913e-01 -7.971854296123986883e-03 3.867355635044487094e-01
-7.705686795908580633e-01 -1.316135462888260443e-01 -6.124727769207723993e-01
-6.269831001706469564e-01 -7.468294524913224319e-02 -7.577672600057360208e-01
-7.020287641932227984e-01 -1.801840564460561456e-01 -6.824593526137673338e-01
4.824748131802484297e-01 2.138142581223414773e-01 8.315639571335631253e-01
-4.076190389421693872e-02 -1.289749323742887255e-01 -9.660913541325837350e-01
7.969863939592072288e-01 1.387693690373751343e-01 5.431952629098967256e-01
2.685988505842513696e-01 -2.506104176871206679e-01 -9.080275609694411498e-01
9.360489526429239815e-01 -7.005099377984520814e-02 2.326956785175965658e-01
4.117761737990742188e-01 -3.856621309341561749e-02 8.945880212431969181e-01
7.136901775716797403e-01 -3.176444487719422283e-02 6.628978233233372430e-01
-6.764976319132390836e-01 5.538066599981557314e-02 -7.265670763008492683e-01
8.564884119682482089e-01 -1.239920279013857068e-01 4.565286356102303822e-01
-6.244625068821715308e-01 1.842048450411449753e-02 7.787735732346939832e-01
-7.728989315662907478e-01 2.015110417405686222e-02 6.325380418573754993e-01
-7.978310537805146652e-01 1.084476384497414514e-01 -5.954925765390592929e-01
-7.172684254947802041e-01 -5.840465849841156021e-02 -6.773305346160913842e-01
-5.402078275873869323e-02 1.200683830247332856e-01 9.768000870134764257e-01
1.917173091477424735e-02 1.758877002643393639e-01 9.704278502938461504e-01
1.882782922147953342e-01 1.220842646298375966e-01 9.556073503901983957e-01
9.209780267151976840e-01 3.224028932625691568e-02 -2.946497024631263839e-01
8.777333413265228090e-01 -8.403489920828932647e-02 -3.865686437089844718e-01
5.008243535837642035e-01 -1.962110566380366738e-01 -8.078460468438062314e-01
-9.927587204393477638e-01 1.199862744562159439e-01 8.325655455603412150e-03
2.262758314518812652e-01 -7.798838623775919410e-02 -9.418869919265981938e-01
5.904495015021539173e-01 -1.720745698696331261e-01 -7.472839048723367572e-01
