6.757202792702074468e-02 -1.514048320238992607e-01 -5.305246631609650265e-01
2.837473254405988854e-01 7.463275489883379743e-01 -1.863091450761896750e-01
-1.936147809882001469e-01 -7.149851492820513688e-01 -6.649069897361699066e-01
-6.569380779642027823e-01 -3.820302696174890933e-01 -1.833154119194541076e-01
-7.720826764242140205e-01 9.441462372301380468e-02 1.490605248314970654e-01
-5.455091180428768283e-01 -4.640485166716606380e-01 -3.001874610906322682e-01
-8.521413208422633223e-02 -6.774422665667607646e-01 -7.152155344309523155e-01
-2.236734486102690267e-01 -2.531125104857901917e-02 -2.727447067447728024e-01
4.250020382903565430e-01 1.503914765030208156e-01 -6.002416951395426192e-01
-5.505951487112806068e-03 8.347814106071835827e-01 4.983908211191534487e-02
-6.291836379698713400e-02 6.436267631333504324e-01 -1.604288700583372113e-02
1.930451116736387751e-01 9.128187470419651950e-01 -3.729888117784101176e-02
-3.027335183331186230e-01 -7.386109019985664936e-01 -6.066122626051954070e-01
2.973221212873637387e-01 6.000060614943213411e-01 -2.741974953883581922e-01
-6.300803298299780808e-01 -4.243898205009911107e-01 -2.236894493157500219e-01
-5.923480386940266351e-01 -1.011764988543537441e-01 -7.364864812529443860e-02
5.175510009284050028e-01 1.662023257975288604e-01 -6.519680722756998614e-01
-8.603713059812868602e-01 2.512574921717508625e-01 2.912866655088829360e-01
-3.025687247389212131e-01 -2.729101034287636507e-01 -3.551303123407541507e-01
-3.974469129473330864e-01 -6.812277675540705513e-01 -5.139342339323872411e-01
4.969930697926550067e-01 5.626601953144824697e-02 -6.979724914571021621e-01
3.344755888066466842e-01 2.434350468476779994e-01 -4.910250880326487155e-01
-3.940586641380516841e-01 -6.928152538665818261e-01 -5.224006660673644609e-01
5.894771884128189310e-01 4.224790888228324715e-01 -5.603560505429158178e-01
-4.421037505842138060e-01 -4.695669758559410933e-01 -3.705064452067968750e-01
-7.887752097563897058e-01 -2.836546801489248648e-01 -4.431667824615142387e-02
-5.155002175383811558e-01 3.445767624760725512e-01 1.171208025708989492e-01
-2.075608153615582374e-01 -2.263882706106731257e-01 -3.918667185704010625e-01
-2.389992172436372075e-01 -4.561340293652555999e-01 -4.955113797581239266e-01
3.960020961827005470e-01 7.467283601430130258e-01 -2.591930568047381978e-01
-9.809442233420321289e-01 -1.536686675907937283e-01 1.510474027334989533e-01
-7.644636819244509107e-01 -3.390203534348714687e-01 -9.005901528537085809e-02
2.259389523222543050e-01 -1.589961510784411447e-01 -6.377545185866934085e-01
-1.648822476564979211e-01 -6.910620455111406990e-01 -6.706934813437311904e-01
-1.121327530732949690e-01 6.885472250144337725e-01 4.027332408649732243e-02
2.168109035623268580e-02 7.428700921037730831e-01 -1.751913916777607036e-02
8.510834332748144770e-02 -2.724181960950877723e-01 -6.073203501254973435e-01
2.505693375863531913e-01 8.743822016731802593e-01 -9.552361010201475267e-02
-5.643564686802199533e-03 6.223631724783637020e-01 -6.482770632601407568e-02
-4.413086459779393955e-01 -2.378907723836610755e-01 -2.458639314662652842e-01
2.648308803189197702e-01 3.721024318417703869e-01 -3.761613583385084447e-01
5.174704866557475746e-01 4.377385882781058557e-01 -5.052214362219303867e-01
-9.728286356448404559e-01 -6.229603103416438831e-02 1.951254916676162798e-01
-1.590653602853480675e-01 3.552185850263611111e-01 -1.092408991933100926e-01
3.535620523136964177e-01 8.599104844620740484e-02 -5.885114460752816079e-01
1.256227728594010440e-01 9.640654151095174873e-01 3.429202603188898774e-02
-3.595261661927960928e-01 -6.339996781411058047e-01 -5.131138628169118476e-01
2.743296483946147668e-01 -2.869087734284314628e-01 -7.383698577302394428e-01
-1.489013075015440390e-01 -6.314988679678418260e-02 -3.418782858224898025e-01
4.370282814825617868e-01 5.375097726068772674e-01 -3.989371887797880656e-01
-3.499491288616284890e-01 -1.780358805850606740e-01 -2.730214751521634065e-01
-8.911407598251450679e-01 -5.716875779152635895e-02 1.447001939934157433e-01
-8.945395354426809442e-01 -1.628245639726603328e-02 1.690018142118098476e-01
3.050913550914443606e-01 2.745740533255411342e-01 -4.550675644834804578e-01
-2.298613076960118462e-01 -5.545328222405866425e-01 -5.546207639529014966e-01
-7.311218566075562419e-01 -1.130112080200980640e-01 1.032747372858061098e-02
3.815245938468844744e-01 2.468407484468785468e-02 -6.398410438885896445e-01
-7.730105156868549710e-01 2.245284142770443137e-01 2.199571477780541684e-01
-5.414695365669172089e-01 -3.312917816783341185e-01 -2.310978096594442643e-01
-1.246239366898531653e-01 -3.739527824829053659e-01 -5.255952717501163329e-01
-4.673954968742916050e-01 2.635689805646081463e-01 4.203146775571479921e-02
3.087991281141190814e-01 3.552219931439002387e-01 -4.139129898227854043e-01
-2.252225200663106330e-01 8.687698233104852452e-01 2.112806143417175486e-01
3.929011176116799509e-01 3.577858318519159253e-01 -4.672952260254465418e-01
3.276104842571347930e-01 6.159206603565080540e-01 -2.853236437816587534e-01
-3.000008205580078080e-01 -8.734700955484964169e-01 1.195059033882038962e-01
6.339275727336740607e-01 2.312634547114090222e-01 1.081496162682887979e-01
-6.127515065453783549e-01 -4.684674651057906813e-01 5.419673434124581135e-01
-6.659747324461886553e-01 -2.399489958256883215e-01 7.000807326178605239e-01
-1.244269461770878132e-01 -6.065227562296034991e-01 1.493870742988466782e-01
4.366837737072175596e-01 -1.492591114133499930e-01 3.102227459752802605e-02
4.999542591903307631e-01 8.061394427282866926e-02 1.140066143270479920e-01
-3.833795976909541992e-01 -8.385214279387073200e-01 1.926828638761636792e-01
3.765167908316677803e-01 -1.140361632201030290e-01 8.923186283141092134e-02
6.215891884409610046e-01 -8.044179944425038434e-03 -1.309868855989148977e-02
8.934032453511821237e-02 -9.520327814312947723e-01 -1.764760780661027706e-01
8.441244803137273323e-01 -1.623531232945584490e-01 -2.413774986866231154e-01
-1.065822751055872236e-01 -3.169017636067499866e-01 2.942308658396249887e-01
-2.367136526470505486e-01 2.750129879039269754e-01 6.987474158662435597e-01
-1.384635741076391778e-02 4.198108453252948902e-01 6.318412620305589034e-01
1.587457254663668937e-01 -8.221880591394826743e-01 -1.515259087674906968e-01
7.986497080241249380e-01 2.102580125136484235e-01 -1.046557927429487243e-02
-4.743537434697441268e-01 1.455393230670754545e-01 7.835523434289719535e-01
3.652977806097904012e-01 -6.217315955260539484e-01 -1.777386645159564349e-01
-2.020455476213660617e-01 -5.532114569917617741e-01 2.287331925040724800e-01
7.870169001981032475e-02 2.880685360805551598e-01 5.004016588708916080e-01
7.833399816363085799e-01 -8.594863042312843315e-02 -1.605179484174962534e-01
6.675895710328580979e-01 -3.780800332538608588e-01 -2.429616206046013582e-01
8.555044360004787629e-01 1.622171298856307509e-01 -7.344295818722747227e-02
4.919902116646781565e-01 -2.743793206858683997e-01 -7.258803655781055630e-02
1.065218435753682719e-01 -7.782609420764151631e-01 -9.378655498246166178e-02
-1.291741323338809755e-01 -6.973227841001029548e-01 1.034248230941591518e-01
7.833454020433411324e-01 -4.490172947970937772e-02 -1.383463828705403242e-01
-4.624279152449878305e-01 2.551518685769557093e-01 8.350030908106129690e-01
5.723016715873254778e-01 6.453993292619683020e-01 3.720124121654277971e-01
2.346821546844461148e-01 -3.405216590070799798e-01 5.923868345699191684e-02
-1.422267221370575319e-01 -6.675452567867906639e-01 1.280116372180426509e-01
-1.725529508155856928e-02 -8.849426877265101909e-01 -7.081626164404598855e-02
9.253866932479313245e-01 1.656841228162053703e-01 -1.170773689894022973e-01
5.388090610518497803e-01 3.170609027433209381e-01 2.164419493772499203e-01
-2.715134478234336735e-01 -7.753251291661890088e-01 1.539765306459065786e-01
-5.798267341680214404e-01 3.947657425307789236e-02 7.949373586512075152e-01
-5.275964640824630791e-01 -5.648974095618756186e-01 4.344191552332118400e-01
8.737918097319657962e-02 1.381016009994719476e-02 3.465860718708222432e-01
-6.145014613991117702e-01 -6.268691786959490475e-01 4.575322925722277168e-01
-2.025087269880455620e-01 -9.245177705018812198e-01 2.844103843934028125e-02
1.908874868066714192e-01 6.845649218636319366e-01 6.415485407437154786e-01
1.731622004632265774e-02 -6.819680597925434906e-01 1.632533038966689151e-02
7.770772848594428295e-01 2.709569351051017705e-01 3.637427332063765395e-02
-2.920403288106575013e-01 -9.558433213274852847e-01 6.982087529764689771e-02
-2.030306284369909897e-01 -9.411073856115935721e-01 1.981856095999203274e-02
-2.372377484396323288e-01 -2.751077786932392688e-01 4.018925696674505721e-01
2.124878618987587342e-01 -1.420519719125496183e-01 1.809124994176715129e-01
-5.100305161657912034e-01 -4.664743732841188373e-01 4.761520517226284777e-01
1.367836570443382305e-01 5.576664213163546879e-01 6.082256303475136461e-01
-2.764794392589324801e-01 -3.235717733095333504e-01 4.012647160112363665e-01
-2.159181175087505206e-02 -1.958690971316654483e-01 3.042714159329613643e-01
3.233647263919902648e-01 3.656577126676258116e-01 3.829934087838007262e-01
-9.704065024353178415e-02 -4.707687749794514653e-01 2.048925427814872746e-01
1.941010835378465249e-01 6.976373751765552189e-01 6.465180785109776451e-01
7.054026460354393402e-01 -8.112197261743715748e-02 -1.071575154420111864e-01
-4.889493623817967732e-02 -1.506451181990724753e-01 3.464829558156466427e-01
5.481737679496345717e-01 4.145129560697880522e-01 2.629909422526945928e-01
9.781594752850017796e-03 2.359039417729816845e-01 5.171012142463609074e-01
-1.844347881435520198e-01 -8.581724879156454877e-01 5.251350938417034125e-02
-8.070723827250601487e-03 3.026538920261127169e-02 4.176329075072798269e-01
3.157395526632387761e-01 -5.955372632434845492e-01 -1.313151119002808898e-01
5.394872429122703483e-01 -4.786604776787997673e-02 1.885291372742723195e-02
1.539953385238013450e-01 -2.515158833289725115e-01 1.598663391287859503e-01
-2.548980013484070661e-01 -1.165396793599398906e-01 4.990574596393068663e-01
6.590768247821694459e-01 -1.160992175210620592e-01 -9.588612004680992229e-02
-2.633266712520176966e-01 -1.409179208679473827e-01 4.913761676464886152e-01
-2.887634304866002477e-01 -2.740067213959227477e-01 4.360409903415907729e-01
5.845501035487522534e-01 6.193034396448351409e-01 3.499382271741827699e-01
6.514454960382481952e-01 5.643532320837607585e-01 2.766896753235669193e-01
1.460573482871431183e-01 -5.805371418801192895e-01 -1.271421571813221262e-02
8.360476368095116628e-01 -3.234917897497157080e-01 -3.231710777538335799e-01
4.521889289989106664e-01 7.829854276440154082e-02 1.438605883922918494e-01
-4.637682209629066105e-02 -7.207457061994624326e-01 3.685316017054814097e-02
-7.902072283164796040e-02 -1.029727423328153368e-01 3.918553337846411022e-01
2.080529383630467799e-01 -8.368820717515064178e-01 -1.915730904727867001e-01
6.842362217260564705e-01 -1.115760914498263451e-01 -1.098263858196628640e-01
-1.658378659616183970e-01 -2.451299903953843007e-01 3.715920182856845555e-01
-1.096124585593667156e-01 -4.098562137448832909e-01 2.459865995986033893e-01
-5.960413047366771577e-01 -3.636638689658148738e-01 5.877045236672741035e-01
-7.146583010818634285e-02 5.596593638071198917e-01 7.449146164463629205e-01
1.239680902619253733e-01 4.063360914176067928e-01 5.348167497640636814e-01
2.168058911880508255e-01 -6.514240705871767734e-01 -9.708156609132477521e-02
-4.531227403178538782e-01 -6.083962889022488385e-01 3.624220272684002819e-01
-1.675836801531504494e-01 7.642029506061520649e-02 5.464425750190464726e-01
2.274494379922801790e-01 -6.748687542729869815e-01 -1.166783657216584197e-01
1.341414479657647950e-02 2.385831354378202818e-01 5.161830953824789736e-01
8.890049557324505858e-02 4.548811113361615477e-01 5.838786747290826140e-01
2.089277003521401721e-01 -4.372335234926670311e-01 2.376259245574110709e-02
6.210979745532243523e-01 -2.103228604383746148e-01 -1.220574375424047370e-01
8.985087185301912083e-01 3.993000809679351226e-01 2.663381730584800725e-02
4.428877509558758890e-02 1.790851513783708049e-01 4.639344266504706327e-01
-2.430631117339270564e-01 -5.731333378324764416e-01 2.446813239455606359e-01
1.801175457278041958e-01 1.362070398909283608e-01 3.523181788794535474e-01
-6.127263530779045869e-02 -1.309912204678153336e-01 3.651611109495133123e-01
5.574436638792336085e-01 -6.706237703135332628e-01 -3.292777109654670964e-01
5.730214960840933625e-01 -5.059439709358628523e-01 -2.504557304527915140e-01
4.264377517152327934e-01 4.453007410300951346e-02 1.423867771107684144e-01
3.983446144960971214e-02 -9.491939930685354687e-01 -1.427041776499888837e-01
-1.289951796882835289e-01 3.353030217305211225e-01 6.611719802168176674e-01
-2.470262555985655306e-01 -1.773412274697543922e-01 4.610840628689077958e-01
-4.900551303126522013e-02 -8.133784481819509304e-01 -1.147875952599388197e-02
-2.447963961766725094e-01 -2.437835457063112499e-01 4.237373111091902733e-01
1.218441836737419737e-01 -1.382220627012168690e-01 2.420088369210356138e-01
8.636516738228372514e-01 -1.727016308546714396e-01 -2.596842881202467979e-01
-3.227256031896613142e-01 -4.176890555812060035e-01 3.805345434552072637e-01
8.260808661942898867e-01 2.262632495119635267e-01 -1.968214621392450764e-02
-5.345981701106668899e-02 3.930068385341254356e-01 6.431570529814213399e-01
5.613024464898690447e-01 -5.057513558362977113e-01 -2.427202129103841477e-01
4.985688965716632004e-01 1.882251206618406336e-01 1.730444099674152136e-01
9.551642485004995242e-01 5.224793591608820759e-02 -1.977510874656401019e-01
-2.958676316852590915e-01 -7.645415550789884662e-01 1.756617016167035528e-01
2.074483467881911916e-02 -8.404012019019807544e-01 -7.149899016642576044e-02
7.305003332958208695e-01 3.546730005317302314e-01 1.119318406601536309e-01
8.379146788103883914e-01 -1.634211676069625419e-01 -2.379106664037768382e-01
3.530762748378844518e-01 -7.527450912171678166e-01 -2.405584726562184639e-01
-3.900722389014316116e-01 -5.332999550902459696e-01 3.619333555382046042e-01
-6.313990898477699343e-01 -2.804427698894978449e-01 6.556887563502903360e-01
-1.629155555783273479e-01 -6.321484904299766727e-01 1.606069090307784553e-01
1.980322249468367546e-01 -5.282999629201486774e-02 2.385271289340046008e-01
-1.026669554085883618e-01 -4.808310739424607183e-01 2.031203634618438392e-01
2.272661105831430550e-01 3.947232319541957302e-01 4.612752436700315317e-01
3.215271809806019565e-01 9.279598079194897181e-03 1.916610237843406062e-01
-3.127546194761082199e-01 -2.679296252713900262e-01 4.549471604023238025e-01
-1.744920243885730027e-01 -4.796147732939464170e-01 2.505500287768922529e-01
6.302012032676532760e-01 -5.390122697214292380e-01 -3.055559776037144459e-01
-3.169253376170570458e-01 -9.030638360336201709e-02 5.536219605203860361e-01
-7.353845265595161662e-02 4.287547739765916743e-01 6.755446781181524418e-01
7.544883898743923734e-01 -4.679073397131831152e-02 -1.205751729516394422e-01
2.752452723904201190e-02 -5.212789252312112209e-01 9.648804346693484746e-02
-1.280689142273770953e-01 -9.708071590811977458e-01 -4.504154574437591735e-02
5.721137393366207968e-01 -3.744357191603100432e-01 -1.788188443353474211e-01
-4.977326773359067036e-01 -5.822507935065153184e-01 4.055968631874672936e-01
-2.295808576312242943e-02 -9.854652574364571871e-01 -1.214087084792888349e-01
7.382406399520928808e-01 4.542521210422883482e-01 1.606877674794137678e-01
-3.466698473043118567e-02 6.239868568226265566e-01 7.557033185799180153e-01
7.655208276064029427e-01 8.944732112061411222e-02 -5.415853676028295483e-02
2.677272961540461682e-01 3.897874381990774628e-01 4.322603664241577714e-01
-5.184693264332871365e-01 -7.364055091066853409e-01 3.358203607173965155e-01
2.471785492542430962e-01 -7.222375500895451550e-01 -1.551164104171157965e-01
7.203926485432562421e-01 -4.892672862979630666e-01 -3.374146280612223547e-01
6.669532202454386827e-01 5.830602477246428217e-01 2.766972667521246376e-01
1.275890934816130140e-01 -2.849900937749935692e-01 1.589780782466974351e-01
-8.525178810015426878e-02 -5.695021934626189886e-01 1.438760775208769993e-01
4.327168262992567987e-02 -8.340077109893795360e-02 3.227918909639794220e-01
1.899172251537500217e-02 -4.751072836535065735e-01 1.269882913356753518e-01
-2.486925535862063996e-01 -9.569714279496370490e-02 5.062763944953896367e-01
-2.704412554283126546e-01 -7.568477440465841699e-01 1.632605030610229657e-01
5.819587577807755485e-01 -3.711530764015890660e-01 -1.834565241564607985e-01
7.846876057570435492e-01 -4.271608223823575301e-01 -3.457313121639357112e-01
7.394465356086732388e-02 1.243442244238305988e-01 4.150493535913488685e-01
-4.866395310843805166e-01 -8.412384329479205558e-01 2.584580305147859414e-01
-3.159564716462773815e-01 -6.082280374210506935e-01 2.731900797959999072e-01
-4.493303675134655006e-01 -8.216077049343351035e-01 2.447675222607332834e-01
4.871765757794360718e-02 -9.011662230877600654e-01 -1.225424999333463022e-01
4.150480271606691862e-01 1.219055781958756348e-03 1.264055222394021294e-01
-7.881561817721322027e-02 1.230885221680823871e-01 5.138486528691511568e-01
5.440317609944995692e-01 1.764578543442850700e-01 1.370818122689351215e-01
3.362120627808394824e-01 6.740935018944356483e-02 2.135021111724321741e-01
-1.327712704570586377e-01 -1.438564111786893619e-02 4.747158743169659356e-01
-4.362737931951471970e-01 -4.578024186518108163e-01 4.328065021189997919e-01
4.009193665498970716e-01 -8.493510730431219624e-01 -3.239041745678810091e-01
5.589308596422656317e-01 -3.466234025435495636e-01 -1.552088667532190158e-01
-1.639295145189837155e-01 -6.594610593493235307e-01 1.465119129678528753e-01
1.750200864990530680e-01 -2.124761573119049729e-01 1.672657404911430112e-01
1.479309960849727323e-01 5.347638168964541361e-01 5.885936124053932073e-01
-2.975097002319536110e-01 -8.757595691165014351e-01 1.166468221578300102e-01
6.823417578146276363e-02 -3.461927675541758287e-01 1.645660642940237062e-01
8.478989517521114960e-01 1.603018974560648513e-01 -6.952493878647195147e-02
2.444126100005946101e-01 3.066668534515468725e-01 4.025380210435861583e-01
3.234224091411322388e-01 -8.709914928709584503e-01 -2.851290372756122848e-01
5.898596218072336139e-01 -3.380727230127772986e-01 -1.707303128813054960e-01
-4.701076300341641701e-01 -5.951767092105916257e-01 3.806243275787189462e-01
2.557024022246141004e-01 -4.246551660056315791e-01 9.815549812255965035e-05
5.700033670858473123e-01 8.334421096680155738e-02 6.986554267474866242e-02
-4.171583871603634086e-01 -4.466264837186207683e-03 6.652679393438523103e-01
-2.912489886505927050e-02 -6.575607924846323948e-01 5.975357736499146977e-02
4.087249785459009521e-01 4.659112138265273373e-01 3.815674574197458480e-01
3.824841681593260101e-01 1.884772172152188174e-01 2.487751204028182950e-01
8.564785523864097971e-01 -1.166460225347061702e-01 -2.247297733441147582e-01
2.842356886673956806e-01 -1.781483701472014458e-01 1.146895804628813853e-01
3.465771478975683273e-01 -2.318953508864181681e-02 1.578073951478508319e-01
-4.251854290905381362e-01 4.958879934184026034e-02 6.996977582499869230e-01
3.237942032197873021e-01 5.602453876863164872e-01 4.878373876653633867e-01
3.159569146830560893e-01 -8.598992498068421808e-01 -2.742750469638259303e-01
-2.142607083481514949e-02 4.102133756293936395e-01 6.315922630077983602e-01
8.404525293854627765e-01 4.139032894143447328e-01 7.232928727320638018e-02
7.168916602658214066e-01 -3.025412579835734875e-02 -8.715843228014859279e-02
-3.398745434660722098e-01 -6.733074545554421086e-02 5.809788242768648692e-01
2.658146328074250664e-01 1.203854894039039919e-01 2.879647274327015727e-01
-4.161513441154029991e-01 4.527542349142619355e-02 6.914845014672106327e-01
-5.267435468962031742e-01 -6.473401964826340782e-01 3.893250088905010897e-01
2.034907943689400200e-01 7.096278214132648587e-01 6.468811818302502292e-01
3.767394319746261017e-02 4.574003105545614289e-01 6.185984359355538587e-01
5.628832548150949355e-01 -3.880552424893525254e-01 -1.801657253601207653e-01
7.626719084383569713e-01 -4.856259579059793441e-01 -3.629797503075497533e-01
7.292950698941496057e-01 5.868852270604723032e-01 2.381665765337641627e-01
5.534839417777789317e-01 5.648003687782413018e-02 6.610996535443719457e-02
-1.872876843995875118e-01 -3.365043639243879836e-01 3.361962584754912275e-01
-2.662389240754341468e-01 1.904287154950975725e-01 6.722786715933917190e-01
7.602349026764693152e-01 2.785885456527774084e-01 5.146493932263334486e-02
-3.412939371718947124e-01 -1.289519690143280939e-01 5.486130091597553049e-01
1.769192799036771735e-01 -5.123218686881597650e-01 4.040938532126084511e-03
6.498710889070463681e-01 2.524875148628751842e-01 1.092332225019402581e-01
3.265907160883880223e-01 2.021913974358243160e-01 2.925819264975115797e-01
1.844875172431112986e-01 -2.118045466864739990e-01 1.614633674905666672e-01
-5.841516976161565955e-01 -5.811918682877227349e-01 4.624451074006901696e-01
5.040088702463972614e-02 -4.269773837985132436e-01 1.325362051013734555e-01
-7.627898877040774350e-02 -2.604974919441534476e-01 3.049690588422838688e-01
5.917089020145137601e-01 -3.467750300204276992e-01 -1.766358832920212896e-01
3.206341369243365658e-01 3.402860860665786746e-01 3.710648554166760538e-01
-4.259073711593197031e-01 -2.452717858818222185e-01 5.408729974836974375e-01
-3.448912755402779862e-01 -1.133627985017182233e-01 5.593774625083243190e-01
-6.165992296531864758e-01 -4.842155814341700948e-01 5.359652547102916609e-01
1.729414874351478393e-01 -4.083063315399468873e-01 6.282442676616714627e-02
-2.846283822209362269e-01 -5.029013768459197342e-01 3.096906528877063081e-01
4.003048894771518706e-01 3.624282403807956854e-01 3.311451960770262493e-01
-3.979615031001965120e-01 -8.884695529788987356e-01 1.751947439107393312e-01
3.694069136796721553e-01 -3.862300592741023109e-01 -5.318766010015767154e-02
-7.964122048890551198e-02 -9.836409716393007541e-01 -8.351103274830290468e-02
-2.113236972800221491e-01 -9.710006990836845819e-01 9.069513988481082978e-03
1.936134979814331802e-01 -9.539310481111601403e-01 -2.454044129842147537e-01
1.123824879455012637e-01 -3.331189176480504888e-02 3.048467648815006981e-01
7.849561022200680638e-01 5.578595817595189965e-01 1.862392873218233214e-01
1.094342402252012347e-01 1.681236246332062645e-01 4.155897862270798715e-01
2.796229513367608499e-01 -5.345240505087817118e-01 -7.483428107452777533e-02
2.992784089307670703e-01 1.165408823665995686e-01 2.640960723691779810e-01
6.095985197472137962e-01 6.401684803884973018e-02 3.363975470320187261e-02
-3.356067769426537284e-01 -4.624144523914984206e-01 3.647604211468986057e-01
3.249777873448156384e-01 7.249729057741240157e-02 2.235665838867016142e-01
5.878240110695139541e-03 4.768143310700008741e-01 6.497920284467220142e-01
9.027659208678034952e-01 -1.637379004392429671e-01 -2.803129863163537072e-01
7.266875491061773884e-01 2.193786908736173880e-01 4.132360431625792252e-02
-5.160978825835169648e-01 -8.704848646482933605e-02 6.850834072320730606e-01
5.475430286422670045e-01 -4.886722771638403462e-02 1.306610068102041777e-02
-4.352281091122695011e-01 -2.281736803839950201e-01 5.561797197056362885e-01
-4.659526063375934446e-01 -2.069945644377502447e-01 5.876293132491359206e-01
-1.697678865665831413e-02 4.679341263466825496e-02 4.323616140895881199e-01
-1.725720102635898978e-01 5.225792704792014964e-01 7.907230105055337299e-01
1.617238197061978133e-01 -3.956409206484388652e-01 7.697172196654153420e-02
2.028571713139133981e-01 -1.968772936533260964e-01 1.575652953030367287e-01
3.735684130971275163e-01 -1.535962573573421974e-01 6.977998424814156608e-02
2.373390258479813053e-01 6.349403395420561980e-01 5.844901565530936649e-01
-3.948563020572379845e-01 1.416363441121678002e-01 7.296749740321327726e-01
4.809437312928926955e-01 7.894432008352746111e-02 1.254842991193839963e-01
8.709926276945789692e-01 6.086926933490498237e-02 -1.382808523447970339e-01
2.145764430344805351e-01 -6.994919368289580219e-02 2.185050728982963208e-01
2.418685186612143379e-01 -9.298064860763742834e-01 -2.637951370204572599e-01
3.534679103267173161e-01 -6.575937893640383392e-01 -1.894091579684039073e-01
-1.586955014459512647e-01 -3.868600791516103587e-01 2.903729232211580413e-01
-4.304504335915891322e-01 -1.173543139610926100e-01 6.129373234495365530e-01
7.109201450356740226e-01 5.749590930450102499e-01 2.436893995750741837e-01
5.437684090043961582e-01 2.921769373827341476e-01 1.997691524078067937e-01
7.293484123640341377e-01 3.479709539441358523e-01 1.090612728041243651e-01
3.645761487309663873e-01 5.424520604492826248e-01 4.516675030869864993e-01
-2.849852955247105246e-01 2.272724250455091244e-01 7.043907034461789340e-01
3.541889510836810917e-01 7.019966787672655695e-01 5.446237231582480298e-01
-5.705958469123700860e-01 -5.758565701439529727e-01 4.564998514582908062e-01
4.172331125917578820e-01 3.056610894965589020e-01 2.894537447321256507e-01
5.154809857858053679e-01 -7.659884443028569523e-01 -3.534711831773620361e-01
-6.574081798554713973e-01 -1.790278423590923318e-01 7.274141045946226347e-01
1.256846752621087748e-01 3.286807162858402243e-01 4.917465236051731803e-01
2.226800153728115961e-01 5.548738075868647757e-01 5.507811398429489635e-01
2.779795640929355605e-01 -3.387509680383033461e-01 3.199995158762107550e-02
6.905291885458848533e-01 -2.405535913581200724e-01 -1.836029190716198800e-01
-4.664484507368672483e-01 -3.177008272425851376e-01 5.281444786700053573e-01
3.584830619781768091e-01 4.507720692647969318e-02 1.869345368080314318e-01
-5.887446417034476465e-01 -6.684131018495383936e-01 4.183158142194200457e-01
-2.583047920929311680e-01 -6.469005840790603701e-01 2.147548560413881369e-01
2.839311557245103451e-02 3.766853207487095290e-01 5.810368183541120279e-01
5.814906919457996093e-01 5.297181695719528349e-01 3.035331534113780427e-01
-1.941769358434305981e-01 -1.566183605529982148e-01 4.378638006707911701e-01
8.744429378390164986e-01 3.115335178973340224e-01 -5.109348383273371909e-03
-2.341265195604404215e-01 -4.617032970500124511e-01 2.990605455257738798e-01
-3.709056601206455195e-01 -3.204289441561901652e-01 4.644530631937885956e-01
-2.671648155091739252e-01 4.529110847504933535e-01 8.146845612058241093e-01
-6.086066824977766354e-02 6.042931014170066506e-01 7.621213627249114886e-01
-4.499624053355766318e-01 -8.429097261707079181e-01 2.336709449024444718e-01
-4.195625100467748059e-01 -7.384330471282178898e-01 2.703167668445294325e-01
3.874165283787480707e-01 -4.450656879991443104e-01 -9.670078529262055023e-02
-4.056035717426599296e-01 1.022501996340802015e-02 6.656802194873822076e-01
9.228871323023708773e-02 6.030469797698616574e-01 6.617170943829357999e-01
-1.618934235948909506e-01 3.066079859520745576e-01 6.670932087246870257e-01
2.845392751524835617e-01 -6.107272715433057497e-01 -1.192036722832357509e-01
-2.127285493712163245e-01 -5.197212418733080513e-02 5.064785068297741333e-01
-6.445940728577913559e-01 -5.833361678951584084e-01 5.006468245835101749e-01
-4.280158105145513425e-01 -3.013193327593274295e-01 5.119670016387531941e-01
1.993456078321216574e-01 -8.170193138154732138e-01 -1.751722496401409146e-01
1.786148993292607443e-02 -9.436060141104112287e-01 -1.253765129720441074e-01
-4.658158124544189427e-01 -2.055998632902509005e-01 5.882937034503746832e-01
3.243389428736990765e-01 6.361019001770176207e-01 5.284632224806220524e-01
-2.279434158856396553e-01 2.115718817225314685e-01 6.587629310900554591e-01
3.704555054074285536e-01 3.209661906037516999e-01 3.281837772992416413e-01
-3.294754610835077813e-01 -3.158138467034777297e-01 4.399669174667892313e-01
5.462695694221776366e-01 6.508330237446231514e-01 3.919000373922942315e-01
2.336642194972639586e-01 6.778214458576780066e-01 6.100491977294787427e-01
-1.116120958028163773e-01 -7.663928612849488786e-01 5.467412347669938638e-02
-6.418936882719190606e-01 -2.443132313434852598e-01 6.820414011238907781e-01
1.428761004858461192e-01 -4.998853053069274299e-01 3.292860297379316542e-02
6.438085492105166674e-01 9.592190881215245657e-02 2.859846727896119337e-02
-6.074152813970871145e-01 -3.882811676094381492e-01 5.818120713198881022e-01
-2.036610170310554357e-01 -2.493957805733037492e-01 3.939179589883933796e-01
7.067163646116981779e-01 -1.700537878615030474e-01 -1.560573558462842736e-01
2.322979381877191829e-01 6.698988704624621038e-01 6.066588455842090166e-01
-2.617620836682147401e-01 -3.309130636830568406e-01 3.877147119345098480e-01
9.435459051288146437e-01 3.379912852091352445e-03 -2.165855705624087080e-01
6.427739081935951448e-01 4.484034895054443415e-01 2.196961679772693188e-01
6.036812153849252516e-01 -1.172987357734242564e-01 -6.046045622394775887e-02
-2.267170665539587071e-01 -9.040399500427673818e-01 5.526843561378590175e-02
-2.385284510685264370e-01 -1.233871823235261067e-01 4.846983070620525802e-01
-1.079065114282642124e-01 -2.951165813630078905e-01 3.068623932656988629e-01
5.580218359720365978e-03 -4.663420995705629957e-01 1.404571648251680405e-01
-8.274440549266735834e-02 3.730318734726104646e-01 6.514359781099011704e-01
-5.788578278784796138e-01 -4.143212932590671360e-01 5.491475571918507104e-01
5.623472432118845621e-01 5.961414899982397930e-01 3.518837920503427585e-01
-1.082860037430630751e-01 -7.064966211435251831e-01 8.486639269760287707e-02
8.618215811166362039e-01 8.977337693334988544e-02 -1.166935584684604399e-01
8.493649753794448864e-01 -2.970185810241719460e-01 -3.175415119434664146e-01
1.412605251627633285e-01 -5.251219722309846683e-01 2.034686136549936075e-02
-5.699734641807208124e-02 4.398343899976409066e-02 4.569049961451723818e-01
8.361044461548156059e-01 2.407321735335674895e-01 -1.839285139296384722e-02
5.608056265046456046e-01 -2.423882188855680242e-01 -1.001179109836643905e-01
9.169619263139985321e-01 -2.202113502716383439e-02 -2.129966618625086516e-01
-3.947551738866496018e-01 -4.752312511757273428e-01 3.963538085470551531e-01
1.798079535087797609e-01 2.522527562838058346e-01 4.152120904597739193e-01
-7.859467651305940272e-02 4.104737159895263665e-01 6.689611752800149747e-01
-3.900731576804112866e-01 -9.202653098494525397e-01 1.528805678155761572e-01
7.311808111420771139e-01 4.791351941314861973e-01 1.787279181346860812e-01
-9.651185098810741159e-02 -9.457446198380431435e-02 4.077826481182273977e-01
7.751244483352257575e-01 1.641413565353773696e-01 -2.005987075323170665e-02
-6.672708315028648141e-01 -5.164277221612948443e-01 5.515604421157458415e-01
-4.952961464011200188e-01 -4.363627324555262033e-01 4.828244643230120148e-01
5.165652133708540372e-01 6.158804743949521932e-01 3.923608556265859026e-01
6.484535542243874406e-01 -1.730670156707840579e-01 -1.197444020109927620e-01
3.930424407695401467e-01 5.034084954525656075e-01 4.120374014717923528e-01
1.161927538328676457e-01 2.596013341004184682e-01 4.606083678600362830e-01
-3.709620837445812280e-01 -6.292864652037843953e-01 2.976332394989044117e-01
7.503423564761217968e-01 1.446987585169173807e-01 -1.442537207579856068e-02
8.431304510889692239e-01 -3.812320581650484042e-01 -3.589769017842488474e-01
5.134067790491245731e-01 -6.954186382895884977e-01 -3.139959669318042601e-01
7.825919244056647184e-01 5.070169739070288228e-01 1.603117344815922218e-01
2.197404378154260429e-01 3.715874785266126690e-01 4.536771580937511428e-01
3.566633441993612985e-01 -4.794295927933779344e-01 -9.523896073556864517e-02
-1.475403862777860675e-01 -5.686397729120175049e-01 1.849044018155719393e-01
6.700051196917506946e-01 -3.570896169387159369e-01 -2.331948085194636699e-01
3.900398490855285227e-01 -8.419289950781164711e-01 -3.128097308857593628e-01
2.597945060278798388e-02 -7.437066828620061965e-02 3.389310183916532382e-01
7.271895575997923133e-01 5.919363562536951173e-01 2.422665006265228016e-01
8.782720324560548963e-01 4.117869135409056858e-01 4.655783358288098639e-02
1.150545911566380752e-01 -7.704194158648745017e-01 -9.510680035934629406e-02
-2.957927603958927509e-01 -8.515487741601841520e-01 1.286083400588869385e-01
6.160503481244109514e-01 3.333121143294957012e-01 1.749218498869991312e-01
-8.070197809217086182e-02 5.933443860717612685e-03 4.517854285740430242e-01
1.168465637785570665e-01 -8.942042455611961538e-01 -1.631470029131202593e-01
2.743003906300214290e-01 -5.049236820251024049e-01 -5.537697936134144266e-02
4.898903951619422714e-01 -2.248073656157774380e-01 -4.443998002023466509e-02
-1.277647668233781487e-02 -1.229052459875625419e-01 3.379487032588225359e-01
-1.165069815763706412e-01 -8.325093538126835391e-01 2.214303800112316783e-02
9.143488280202319296e-02 6.456940661559235073e-01 6.853126861029968930e-01
1.383755904466951459e-01 -2.213085580470152691e-01 1.863570830778436549e-01
6.798408046379018632e-01 -3.094165215515187195e-01 -2.138450013856774412e-01
5.429385740301146956e-01 6.704492974610676281e-02 7.868467833994363669e-02
6.622708173273720300e-01 -2.592569052795414275e-01 -1.753052736326068672e-01
7.931668923851749320e-02 -7.524519103825367816e-01 -6.212750548376316795e-02
-1.301705674434689153e-01 -2.867954284093733874e-01 3.258561769577873468e-01
1.128527356228458123e-01 -6.635881355967413464e-01 -3.595863303965410318e-02
1.546067405803345507e-01 6.197672494136043930e-01 6.301684430104812495e-01
-3.039063950686851645e-01 -7.562197971479114322e-01 1.853922840359072399e-01
1.109708781793766336e-01 5.879493181555350834e-01 6.413949151421274308e-01
6.106560023964411332e-01 -1.301511926112406126e-01 -7.194583159508811943e-02
3.550148942350072057e-01 2.471009570075295980e-01 2.983339168971308464e-01
4.381834214952369522e-02 -4.875270459259287148e-01 1.041115385884364281e-01
-1.950034814099399216e-01 4.183129285419665555e-01 7.490017730303696331e-01
-4.182626175156338166e-01 -5.445438403708315889e-01 3.742165908560543541e-01
4.460766358138146259e-01 -2.021043920778621550e-02 9.462262668749729655e-02
6.718129731900623902e-01 -1.067714051549684545e-01 -9.914067697877569640e-02
1.227667235181769262e-01 6.868233120457388763e-01 6.871289339808380747e-01
-1.043191654088285181e-01 -5.900967197111097740e-01 1.451668316422522198e-01
-1.960295083460621424e-01 -1.321241795604841118e-01 4.523028853117991299e-01
-5.484327798215925948e-02 -1.015494083770612649e-01 3.768798909601054348e-01
7.348219338404617940e-01 5.532296914386193587e-02 -5.260265065444583166e-02
-3.131476434108060869e-01 1.078472555678874067e-01 6.582120454275374177e-01
2.452817058513170802e-03 -1.104143329894407555e-01 3.347794341437842491e-01
9.655283173017390960e-03 6.243992848826716013e-01 7.270634123690240536e-01
-2.011614785799687444e-01 2.834808004987152685e-01 6.801704303387745565e-01
9.334558407679023340e-01 -7.524992479313330485e-02 -2.524937337682522931e-01
2.752844655465278012e-01 -2.411792304989999747e-01 8.646696259943395524e-02
2.305126796945073941e-01 -6.507537749340458477e-01 -1.056453244928160368e-01
-4.917466119043517603e-02 5.741730791140269297e-01 7.382394401637908388e-01
6.643860665582327352e-01 -7.026479144890065975e-02 -7.458200655635231768e-02
7.091932020217051047e-01 -3.504831587504626533e-01 -2.551450763576221248e-01
-1.891364733583688340e-01 -9.807423904474965592e-01 -1.064166536708947321e-02
-3.974531467919432126e-01 -7.552138361337666916e-01 2.468535024793147015e-01
-4.036393687566124933e-01 -7.876970193959377531e-02 6.163227982661911852e-01
-1.320460774031471662e-01 -5.881492095947414844e-01 1.642747498799242145e-01
4.542129699219227823e-01 -4.408407846300202437e-01 -1.379162570896363404e-01
-1.713087407851516530e-01 -6.726737718879854944e-01 1.441792649285006389e-01
6.925231496928818675e-02 1.063975510466069613e-01 4.084095354895567742e-01
-4.059825263915392557e-01 1.351671760010655088e-01 7.334254946527009045e-01
1.700571421335489719e-01 -7.147524795211196436e-02 2.466716640536185667e-01
5.528468334594307532e-01 -2.426190108591918526e-01 -9.505981772998703394e-02
7.210582491395863824e-01 4.616354939275699176e-01 1.758657401041210655e-01
3.397893074596520790e-01 -3.557120562580826095e-01 -1.741365375098999357e-02
4.302893268621356127e-01 6.201622627754663775e-01 4.508570040726190831e-01
-2.949729375977531709e-01 2.146781445597534255e-01 7.040907594871428365e-01
8.963779418662984888e-01 7.970177072364881266e-02 -1.446377675139639274e-01
-1.495621183246782478e-03 -3.249226581064292713e-02 3.794471230617836310e-01
7.629331902707715551e-01 1.061635664857075168e-01 -4.344271331485357462e-02
2.890589318887763770e-02 4.180359299111892635e-01 6.030420669788945087e-01
-4.313225514631088831e-01 -8.846472954002728706e-01 1.989844285033181004e-01
-4.177695184321224553e-01 -1.044442995483535891e-01 6.116539761158634736e-01
-6.125606877577897125e-01 -3.836682261911371072e-01 5.876548524940783391e-01
5.287253229361886797e-01 -4.307901120482988122e-01 -1.810090380937001142e-01
8.509120418199350722e-01 -3.081099921883957427e-01 -3.245409652075691986e-01
-5.275323706446971572e-02 4.879096535438579713e-02 4.567384352820720861e-01
4.115106061665402826e-01 -5.967009470718272202e-02 9.581446278919431014e-02
8.328648858445650838e-01 1.295529554438225595e-01 -7.634648320045582526e-02
3.704823044813032595e-01 3.401355114499005072e-01 3.385223211015008227e-01
1.720245319005467011e-01 1.978415151706461594e-01 3.908856445960661730e-01
2.105642496511966888e-02 -4.715365969387675382e-01 1.275727751731986492e-01
8.229424707743870915e-01 -2.953280411305030939e-01 -2.994218504832828476e-01
8.220308280926223732e-02 -9.383035776433927833e-01 -1.644112599732799329e-01
9.690316375011946703e-02 -1.862595507559194064e-01 2.322987837899224695e-01
3.799335906144214459e-01 2.003502237331231950e-01 2.568503088396954515e-01
3.048883353839069166e-01 3.692805338682139671e-01 3.969824430426046602e-01
1.876395627300841695e-01 -3.530382548977379908e-01 8.311093672708080859e-02
1.239642836708342161e-01 -4.049411478457272118e-01 9.653644233696694055e-02
4.720623896306030409e-01 3.592277405388076827e-01 2.826875918781384112e-01
2.391382927613086851e-01 3.607826865020294371e-01 4.352080918893685424e-01
6.329083270661325922e-02 -8.113804953681180709e-01 -8.352690834098945583e-02
-1.540204891333325221e-01 -9.336969813341815527e-01 -8.093520271691297813e-03
-5.168737182971507860e-01 3.668749037016421407e-03 7.345975295069132605e-01
4.365728829014988710e-01 4.892874631237756899e-01 3.760616057298725723e-01
6.785864748412950842e-01 5.015364001043033371e-01 2.250793973157549088e-01
-1.972184594664670998e-01 3.047645896672835919e-01 6.891010429412608440e-01
3.632379254703153593e-01 -2.223505751084990101e-01 3.936351600206996343e-02
5.224905888263772225e-01 2.246309253451424237e-01 1.771343732713211716e-01
2.324802260252794572e-01 2.722683064099636896e-01 3.917250022394918596e-01
-4.176813689143605846e-01 2.466478629441352100e-01 8.012698977351955243e-01
-1.170133435340971612e-01 -8.765039362648501253e-01 -1.294763328099184530e-03
1.310931378950976750e-02 -7.729967570549034495e-01 -3.011228764514468220e-02
-3.828394920198080476e-01 -2.268968118343911156e-01 5.227540005491452257e-01
1.547973815075693038e-01 -6.188867619734268466e-01 -3.912365786337121398e-02
4.981157948834732396e-01 -2.680831054335589547e-01 -7.317556922214410453e-02
6.082706695818927978e-01 -3.071159552509266505e-02 -1.667145171989135519e-02
-3.745137761883093885e-03 -2.525934328205708401e-01 2.620049986411428500e-01
2.424085913333924591e-01 6.342055935675828815e-01 5.807919115676137833e-01
-3.378951771815397187e-02 -4.693707910600217748e-01 1.644585713033789032e-01
-1.489043566233357874e-01 3.750465553939417718e-01 6.956078275904292729e-01
-2.786191621710308319e-01 -3.202640792921049306e-01 4.044450481827870370e-01
-4.650094568372732384e-01 -7.504065674515910667e-01 2.934433240698332002e-01
-3.777616265255215877e-01 -6.334512281355685337e-01 2.998111469818496855e-01
7.797899953420981412e-01 2.010293894508526080e-01 -3.169763905339934452e-03
3.080177729219367166e-01 -6.864631418244159233e-01 -1.754082934294493024e-01
8.464339333241408525e-01 -3.284538701800220895e-01 -3.326153512180121119e-01
-4.912261724066659396e-01 -6.847065170731181372e-01 3.460093448369934710e-01
5.487429563572256974e-01 -6.931533833902492336e-01 -3.357831524149653135e-01
4.604477090269100126e-01 -7.131691173800734640e-02 5.765450801644384643e-02
-4.879817554668286483e-02 6.024036615861151356e-01 7.532455054216998791e-01
7.179011080538090228e-01 3.458650109320570154e-01 1.153780610649052935e-01
8.858815195680972421e-01 3.849687133734999711e-01 2.711431559746569492e-02
-1.059632688745778956e-01 -1.047639868501626242e-01 4.084326546534705060e-01
5.270544593679057366e-01 -4.850713856322556583e-01 -2.092457758941964063e-01
2.121863815241100959e-01 -7.226973155711121644e-01 -1.325778504186461149e-01
2.831059765582136234e-01 4.764682916185797867e-01 4.690740409320010018e-01
3.522795786325892964e-01 -5.383420447076681103e-01 -1.242109918884796022e-01
-7.777486296286517664e-02 -8.468452155737339268e-03 4.420988362144457895e-01
8.588032258389587392e-01 -5.971581015303931844e-02 -1.954877399708781494e-01
-2.763723585488531490e-02 -6.137559605023612530e-01 8.244984382596201589e-02
-1.235752759344229193e-02 -1.329949950305052697e-01 3.322250173378472615e-01
3.076690379832447420e-01 -7.343540784598046045e-01 -2.010537002259459582e-01
1.662637783180975493e-01 2.039710424488018758e-01 3.979484579387694843e-01
4.211075154276159860e-01 -6.396618325773788249e-02 8.724403339348311970e-02
7.397858877467751448e-02 4.704644546075666955e-01 6.020145529079505842e-01
-3.277559565054498636e-01 -7.573667123345264596e-01 2.003035406983764699e-01
4.000767366211701592e-01 2.023369675870706208e-01 2.448063818285042825e-01
-5.321317750324995322e-01 1.461978179116009413e-01 8.215332127676888696e-01
2.370319888666757302e-01 3.628280486806600980e-01 4.376847019383426907e-01
4.957568429168736635e-01 -4.413537476674417870e-01 -1.652468005375945515e-01
8.687417189070371082e-01 -2.690937516976195029e-02 -1.842364163697030044e-01
4.225605449200962593e-01 6.639473158372606321e-01 4.795443455280726242e-01
-2.060617278549027320e-01 -8.530989943323969982e-01 6.933789317817450060e-02
8.769335530408900459e-01 4.263752067380462418e-01 5.531060324481113649e-02
5.646287053354135388e-01 4.840041545362039899e-01 2.898172522205348378e-01
9.505077229143517048e-01 -6.748771787760295127e-02 -2.594045013770845398e-01
-6.339815672909753230e-01 -5.444550779065097101e-01 5.147409898334207590e-01
2.022438034365124648e-01 4.361098638088218848e-01 4.999284318096641200e-01
9.459968113171352000e-02 5.170029302651906189e-01 6.137279247512105185e-01
-3.287851169902676340e-01 -1.310990975227190325e-01 5.393072896385420201e-01
3.987822094298434927e-01 -3.484258503054361578e-01 -5.189361899554779944e-02
6.120918390922349683e-01 5.647462682974349057e-01 3.025291583530584916e-01
3.292949418665010453e-01 -5.125582977540752427e-01 -9.531400841398195156e-02
-4.981926850680978847e-02 -3.034873731307668465e-01 2.645136893092644437e-01
-5.334173938689914518e-01 -5.353404623997743972e-01 4.541775376581963508e-01
6.300811654258627881e-01 -2.428345860395698108e-01 -1.454713718556613355e-01
5.003665475108807215e-01 -2.630743514679844686e-01 -7.193534292653121220e-02
-1.722034689568039123e-01 -3.114603211085040235e-01 3.399031421667706443e-01
-4.862474025752627216e-01 -2.487741254161809634e-01 5.782744034785263221e-01
7.694871117671928662e-01 -2.904085804021294681e-01 -2.619539751926276416e-01
5.540917365577896492e-01 -7.361486745296815792e-01 -3.624939744066174585e-01
7.317404498771967747e-01 2.912453340486460818e-02 -6.474937480133402534e-02
-3.491696732292541294e-01 -1.255493874869434978e-01 5.555799020030438573e-01
7.286754517431762723e-01 -1.466683335265429045e-01 -1.577234295865377056e-01
-4.087621524164932740e-01 6.848250188697627139e-02 6.992099961412469034e-01
3.564436525559734892e-01 -2.734027815323794575e-01 1.620761344295832546e-02
8.955426688954156722e-01 1.975241218479465710e-01 -8.044172640083517567e-02
-4.124743701936727652e-02 -2.721431842420757863e-01 2.758650237239311243e-01
8.516767495228606544e-01 2.385473993881077615e-01 -2.971385254646976767e-02
6.082233494599611490e-01 3.587847968107642227e-02 1.933385168463968087e-02
6.382891235371075389e-01 4.915935497533850396e-01 2.459495766771106207e-01
-2.890403734071672615e-01 -2.822112719361803967e-01 4.317889260080199909e-01
-5.482666861597846886e-01 -1.441582935809544441e-01 6.751788843010562147e-01
-4.410960884910296587e-01 5.262416704964916619e-02 7.116986202267889805e-01
5.808613790712106040e-01 6.122877115972568118e-01 3.485501662736672501e-01
-5.533433014987165777e-01 -6.773782698819116321e-01 3.904190934493641518e-01
-1.698253975835129215e-01 -9.661255078766819437e-01 -1.532046644446613710e-02
-1.631503683343802080e-01 5.342334200543558120e-01 7.908836400213505868e-01
4.239903914524409956e-01 -5.399734878069603616e-02 9.075224408631303585e-02
-3.001548782812936689e-01 -1.973214886819258107e-01 4.848873912922305740e-01
1.050341322959433971e-02 1.802208754741921673e-02 3.989231098544773202e-01
2.305144372625764215e-01 -3.990488506844186434e-01 3.033409370229937091e-02
6.208532756761574456e-01 -2.358024898564649655e-02 -2.101263599444327251e-02
-2.864750040081530114e-01 1.656180020221817081e-02 5.915269186960776526e-01
-2.039137850833642462e-01 -3.655191753798053278e-01 3.313482922801186947e-01
-5.795009075977420876e-01 -3.145390277078656260e-01 6.034725022261303584e-01
-4.140890390249279962e-01 -4.377166345114595902e-01 4.292108665262957534e-01
7.883442746659817812e-01 -3.015714819704850003e-01 -2.802644064498143739e-01
5.217668863967280801e-01 1.290249281829886907e-01 1.259556573043878747e-01
-9.462482158786798825e-02 3.436528455648371061e-01 6.433008526933006177e-01
8.832837326990699012e-01 7.386578199188446880e-02 -1.392636251870931208e-01
-6.148817829454601425e-01 -3.791313740715784308e-01 5.916173324194755612e-01
-7.217709674190932179e-02 -6.195646188139828509e-02 4.095573090049313691e-01
-2.655647191661828499e-01 4.083669831482096557e-02 5.910243376201322896e-01
4.825275976565251979e-02 4.484798978404673508e-02 3.888330603813835440e-01
-5.291464262829534970e-01 -8.962892161006796865e-02 6.921865858807858540e-01
5.018248491781175658e-02 2.614091561724831703e-01 5.045709905476785107e-01
-1.467028872259078798e-01 5.248822996305024802e-01 7.751211895242092753e-01
7.266705965732751515e-01 4.420928985997155114e-01 1.616533200855743702e-01
-3.117779164665188119e-01 -5.482350609509553108e-01 3.028794846217902625e-01
-2.277033108796971406e-01 -4.408562396762299440e-01 3.061401165158246784e-01
8.103400662720343650e-01 1.751344805927042003e-01 -3.705342132120310189e-02
-3.033585434304937323e-01 -3.582264161616721121e-01 4.000466671451585743e-01
5.668931741865010920e-01 1.654383706767183215e-01 1.162412880813661620e-01
6.630069195825927242e-01 1.255306343435467209e-01 3.209222322867257005e-02
-3.061600179213544437e-01 4.117358208503052452e-01 8.178338432375250600e-01
-5.955330310542430450e-01 -2.662442935596918275e-02 7.694550451273355351e-01
-6.560310093389223329e-01 -4.513634667853183013e-01 5.793912387037790657e-01
-3.019441869578400398e-02 -5.283454155724262025e-01 1.302571056908182479e-01
-3.590473287108623124e-01 3.563186057953932617e-01 8.223356402897474826e-01
-1.196507834051880048e-01 -4.590633286587567641e-01 2.259400161893779235e-01
4.907761027147249933e-01 -4.881812200080362651e-01 -1.873013159796173277e-01
-1.523347165871624838e-02 4.588814971327345171e-01 6.538520029982261006e-01
2.890172665200198970e-02 -1.431797414025706150e-01 2.998547531676971634e-01
4.663647643132771137e-01 2.721193790718532401e-01 2.393386462700020090e-01
-9.518460592164094958e-02 -5.556837899305090700e-03 4.550090469370853818e-01
1.608182468769737972e-01 4.981336166780251373e-01 5.604123930028647171e-01
-4.896106159977567929e-01 -5.318171570611178733e-01 4.275539332847704266e-01
-7.412656067992245967e-02 -9.907537520553139077e-01 -9.094478022256373417e-02
4.189704955076561932e-01 1.163944537032496757e-01 1.860733316570384321e-01
9.149852419058793762e-01 2.424053128772226395e-01 -6.885622942466922136e-02
8.092557647605318552e-03 -6.129516681632477537e-01 5.961706751241706292e-02
6.966117342688239455e-01 4.720783064089182357e-01 1.974269447762783125e-01
3.339490541598892914e-01 -5.341467994257607099e-01 -1.100077008614281648e-01
