-7.961392820778836477e-01 -5.888688057768309836e-01 -4.597056216142327532e-03
-4.957504032694002860e-01 -7.218093056288183984e-01 2.744806116182934019e-01
-8.140194720383079341e-01 -4.727478488205957841e-01 1.721512304532853699e-01
-8.055929620740949204e-01 -3.728680179427684149e-01 3.651221446931806058e-01
-5.052555686919489863e-01 -6.479768570017769846e-01 3.900663162413126051e-01
-5.498055852073385763e-01 -6.466463335580469041e-01 3.158231449263593782e-01
-6.570930590054422371e-01 -6.913113718188970136e-01 5.148814256738930978e-02
-7.501005316132515199e-01 -3.658563199364273655e-01 4.730919354936435894e-01
-4.312994013039011532e-01 -9.405076266909556670e-01 -5.470047983985994698e-03
-8.552554903835681843e-01 -2.557023266225170732e-01 4.890754611423301368e-01
-1.964974834124090519e-01 -9.240530635531049031e-01 4.277644567700267797e-01
-4.239203169567282714e-01 -5.152466955957829553e-01 7.671328447795187078e-01
-2.713137210997051407e-01 -8.772287629331732006e-01 3.827612084498817069e-01
-9.188257061619070631e-01 -4.965745326720396591e-01 -5.067964313496143430e-02
-3.393727478043260248e-01 -9.464572985671428906e-01 1.420012008809399817e-01
-6.252548279555240063e-01 -3.347042576397564750e-01 7.434782532648829267e-01
-6.850849045709479501e-01 -4.146345553501463166e-01 4.977477546016275678e-01
-8.968739682216083642e-01 -2.332262806680982514e-01 4.576597673323329341e-01
-3.256618430612120973e-01 -9.776771004876437798e-01 1.097947070450163015e-01
-9.620182831119493683e-01 -2.469943683653759714e-01 3.210166853691294175e-01
-7.553876793828885328e-01 -5.480866386357224895e-01 1.383657485920100905e-01
-5.989289557763169958e-01 -3.748626959342859499e-01 7.169952791408864545e-01
-6.614425357667635952e-01 -5.335556134979814180e-01 3.259061431591375180e-01
-5.296085665239111950e-01 -7.180711566470711071e-01 2.229284145513681092e-01
-3.679561095677157390e-01 -7.025503182880080688e-01 5.286860543258541378e-01
-9.634296926635869118e-01 -3.909148864350048269e-01 6.141325957426144178e-02
-2.897719753641389007e-01 -7.322633071632913548e-01 6.100584092491976307e-01
-9.164143716820914998e-01 -2.823885132130437015e-01 3.362031049911134994e-01
-9.025348238392058020e-01 -4.945487125825187014e-01 -1.904126533659611029e-02
-9.263019190774254286e-01 -3.128752995842050688e-01 2.647199309753539564e-01
-3.010459488757233348e-01 -9.730820400500507228e-01 1.603421681223549389e-01
-8.391305980185945756e-01 -2.650478425034524799e-01 5.001085684232989825e-01
-7.750279063849793149e-01 -2.632440582385195960e-01 6.135808031792243655e-01
-8.357004087547861282e-01 -4.284954152882510248e-01 2.139386256790953844e-01
-8.928155442716209089e-01 -5.097269964684267851e-01 -2.944780071112396147e-02
-7.243765967204324197e-01 -5.789787111061055480e-01 1.364991307870081494e-01
-3.046193998812142811e-01 -7.613635133099174723e-01 5.325225596582648935e-01
-8.518648511169338855e-01 -5.157363133480383777e-01 3.024428406598347885e-02
-4.790705723667220695e-01 -7.287403907109964996e-01 2.907825672499527725e-01
-6.198912167110299798e-01 -3.239841955194892598e-01 7.718590324338374664e-01
-2.510615770120723234e-01 -7.596977542448181131e-01 6.276122341632528467e-01
-7.878543952051272337e-01 -2.364945717995159125e-01 6.393202438365505058e-01
-2.667038039542789507e-01 -6.848250426863604634e-01 7.345018012535159402e-01
-5.314389368088084931e-01 -5.429075257091433571e-01 5.327856376149581186e-01
-3.690367869812226087e-01 -9.113470461597638073e-01 1.537221676649864199e-01
-8.725967285144543562e-01 -3.256171677519431040e-01 3.343176312231580516e-01
-2.651552271252290982e-01 -7.408812650703221481e-01 6.369965931602239451e-01
-7.754147339377964743e-01 -2.806700148717047871e-01 5.817765317066212472e-01
-3.451589347779949191e-01 -6.361314029919368229e-01 6.865804690705369362e-01
-2.267536429760368677e-01 -8.149522629384385874e-01 5.706830174227003338e-01
2.493908037256438726e-01 8.733372375565334744e-01 -4.430251426157558736e-01
8.404827308172264644e-01 2.957511565275142695e-01 -4.585236122806850001e-01
9.262419112955299072e-01 3.073444139298435185e-01 -2.903116865848184291e-01
3.553646303913803317e-01 9.785824798048042839e-01 -7.269684015565694435e-02
6.502277991608284013e-01 7.252634548934068226e-01 -1.823079876941225211e-02
4.996218483644099817e-01 8.641145026384045025e-01 -2.913792498499438721e-02
6.411639393304974233e-01 6.838140894087648691e-01 -1.078866956820819373e-01
4.083520881622867416e-01 9.620531765359073839e-01 -1.110143831653017353e-02
3.153497591840576098e-01 9.839465611102216069e-01 -1.319324137565323352e-01
3.055990462406906194e-01 6.902752857443101853e-01 -6.734726504613648412e-01
8.989308096667331105e-01 4.598207707504192721e-01 -6.481887074667240511e-02
6.150304505721895243e-01 7.603265274434255483e-01 -1.611077250737820085e-02
5.718653363867632899e-01 5.123989864557539908e-01 -5.333789249580189740e-01
2.621202172439082156e-01 8.007605475826344854e-01 -5.508215709011199390e-01
5.383378426378873094e-01 3.988162902941873589e-01 -7.940066112844540447e-01
3.085340115716753151e-01 8.424962879194419774e-01 -3.964165015558138716e-01
7.266356036859231704e-01 5.712677853912568882e-01 -1.619980372998312823e-01
6.298610719279535974e-01 3.506808927798945041e-01 -7.226121656218348344e-01
3.656463556435189943e-01 7.110085970858066595e-01 -5.331494402245366970e-01
8.810221551722312583e-01 2.363125184749406416e-01 -4.950133467339646320e-01
3.289550383205104844e-01 8.906184367046273698e-01 -2.753038294423012511e-01
7.576991264222799893e-01 3.933609245131808874e-01 -4.264796800026507961e-01
2.425078936967524912e-01 8.991880868314784392e-01 -4.086692562732504030e-01
3.129744386495085795e-01 8.600027101234922755e-01 -3.574967351344330857e-01
6.876274872435660379e-01 4.636752822082347847e-01 -4.213476833497611374e-01
6.001991307729994674e-01 5.046862010789590069e-01 -4.984303837837085749e-01
5.206877414729563780e-01 8.301405003667142735e-01 -5.361627924251489291e-02
5.246260831406099889e-01 4.137830157830233446e-01 -7.908447062066604749e-01
3.701145079311120578e-01 8.270681715132189860e-01 -3.180743519914705497e-01
2.307192567615895529e-01 8.369890529460932704e-01 -5.400896616037488274e-01
3.525966401451341992e-01 9.347841042062164929e-01 -1.557221088850646584e-01
7.232237937049321719e-01 4.860594811084655853e-01 -3.201272656419441587e-01
2.799695281347680531e-01 7.668141371837078335e-01 -5.807827588475127367e-01
8.216429929298858514e-01 3.155544663837716035e-01 -4.555385791713629229e-01
7.947396643327414578e-01 4.687838185280815417e-01 -2.279988919258987279e-01
8.131553418181313164e-01 5.377346621197874876e-01 -7.311575088232505348e-02
7.913278528153150360e-01 6.146344161793289018e-01 2.675808603508409919e-02
6.947518204709232092e-01 4.803156321031091247e-01 -3.793595289574630547e-01
8.900769110180528632e-01 3.220572508412087309e-01 -3.262203636257797190e-01
7.338553391331457121e-01 6.054273470506538191e-01 -8.854018786817119402e-02
6.952147350843845830e-01 7.556964919370724454e-01 1.135230982764899726e-01
6.605289782222975026e-01 7.566155972854786693e-01 5.551010356899178932e-02
5.291193110758767304e-01 6.974276941717322265e-01 -2.762635501353544742e-01
5.157073346545886228e-01 8.387279881677560667e-01 -4.683674177059490851e-02
6.037565544203129519e-01 7.340901266633522715e-01 -8.238315749665352239e-02
2.397733685225996170e-01 8.495369583461299667e-01 -5.020954319531235610e-01
4.652236001416988898e-01 9.152889718758628890e-01 3.146405586316217053e-03
2.943761325547186170e-01 9.193484653664466544e-01 -2.834368647064076652e-01
4.322522182492409271e-01 5.731298236629269738e-01 -6.649750779880142515e-01
6.810561747988370662e-01 4.536858875542169045e-01 -4.504999127828140382e-01
9.450232721550737569e-01 2.247609700299888214e-01 -4.055808602063298851e-01
6.701808596258376216e-01 7.304725579586814899e-01 2.539439499009499279e-02
4.822450097751274090e-01 7.596171837198997245e-01 -2.457534692451424641e-01
8.171066080346057747e-01 4.902454545374003714e-01 -1.511799588871628186e-01
5.927510561902882280e-01 3.976770269998098351e-01 -7.024581467729353879e-01
6.455909841439070318e-01 4.330734567495085341e-01 -5.483288003903392660e-01
9.808494002513369336e-01 2.557544086005758555e-01 -2.885810633357016042e-01
4.679762966151181369e-01 4.815186843596045985e-01 -7.672366593372842436e-01
9.536650772467564208e-01 3.945405207400279890e-01 -8.733371971094527897e-02
9.107544034376120479e-01 4.329030498044568742e-01 -9.258379486309473161e-02
8.065251074132449016e-01 4.602132847794832560e-01 -2.230442815185482708e-01
5.270298417709927685e-01 4.011694691767641596e-01 -8.092500592311974161e-01
5.037997544660766103e-01 5.188087623196220299e-01 -6.389897977315841526e-01
7.732539845619734731e-01 3.580270457292732411e-01 -4.628663631377959997e-01
2.650916537481453616e-01 7.891975279809635424e-01 -5.663733667801454930e-01
6.644046674570877054e-01 7.415010359457571143e-01 3.516715632231815630e-02
7.833055947626134108e-01 5.830924907310106597e-01 -4.340247263556869933e-02
8.323076658712308395e-01 4.566755860703831660e-01 -1.850229725079642340e-01
5.328673026516425049e-01 5.204487029044599922e-01 -5.860666157079688077e-01
9.287022344270337015e-01 4.128613135044638671e-01 -9.752885314106242431e-02
5.838976173445079576e-01 7.948568295715956467e-01 -7.952287483426943165e-03
6.745262748095760541e-01 6.857070843754169420e-01 -4.712480024607230283e-02
9.103310163263776955e-01 4.038083760108560072e-01 -1.453021315072837716e-01
5.854744486653303825e-01 8.607767689606622419e-01 1.125540276948425455e-01
4.468325279624036916e-01 8.784248041563031961e-01 -9.435775614215888285e-02
4.965148075904334268e-01 5.785554804802567341e-01 -5.447558035280897215e-01
7.346359985913217816e-01 2.901290398261617276e-01 -6.506137216728957728e-01
4.472771290719843029e-01 7.706908166599654164e-01 -2.861062478730959646e-01
7.911512371721929338e-01 6.252578803511525951e-01 4.543772075081500134e-02
7.953069754263363267e-01 3.050665220718137283e-01 -5.195746217359289432e-01
4.437521658214890752e-01 8.894862579751550147e-01 -7.988956260587500025e-02
8.801881564586332418e-01 5.104052580424298657e-01 -6.663037458783029054e-03
2.767321702389906046e-01 7.762610728175001196e-01 -5.694696111737685973e-01
5.500607412897056125e-01 8.122354742266051364e-01 -3.509325477008671396e-02
4.652843361699117719e-01 5.408810697394014211e-01 -6.657900512976314689e-01
5.275011726268489243e-01 4.656198207154286783e-01 -6.932711246466271016e-01
3.353892784916511216e-01 9.065157342523643136e-01 -2.358303358780651504e-01
4.261680558685717046e-01 5.116360209784424073e-01 -7.853242670856420693e-01
3.104526099756155788e-01 7.062062768042759453e-01 -6.366575242064408391e-01
9.130555958562289742e-01 2.274005412405664950e-01 -4.558447269628014831e-01
2.022239718438759992e-01 9.503212022079008392e-01 -3.865814800764827419e-01
5.250491298072705870e-01 4.341169315640794335e-01 -7.537818211532752999e-01
3.218344244497469697e-01 6.077498189220214009e-01 -7.930170101070681543e-01
7.948465949138212583e-01 4.614304969228550379e-01 -2.409548590215978836e-01
4.885155877522231460e-01 8.267949360303377127e-01 -1.149268443285099417e-01
2.781622866486759271e-01 7.000669741347993469e-01 -7.031635433005939406e-01
8.524442992921499318e-01 2.250600696062178274e-01 -5.642712009357513381e-01
2.377848824690056428e-01 8.122184886147301164e-01 -5.722009045731530907e-01
5.216265765407489541e-01 6.433525276062376230e-01 -3.857787281709073590e-01
7.740699515961723121e-01 5.653275781049241777e-01 -9.103134424229560040e-02
8.797264401643239973e-01 2.304076558379426765e-01 -5.077934016744721779e-01
7.565694966035119151e-01 6.485021123034259150e-01 2.749707227389139655e-02
4.393282202767595512e-01 9.300703304855576503e-01 -1.497730352768172728e-02
4.998192365740296572e-01 6.426970038029904408e-01 -4.244561320430675355e-01
3.966964510646852071e-01 8.949140241675143104e-01 -1.511207483614142866e-01
2.692015410219857352e-01 7.708889043008576580e-01 -5.920210888333784505e-01
8.671177602453579158e-01 5.502888074287362041e-01 4.212656974746781940e-02
6.341429101515849709e-01 6.341594117703849287e-01 -2.086914899901143872e-01
4.193683644098830099e-01 6.754289766135801454e-01 -5.043322917805636019e-01
6.684436087823151240e-01 5.218977762645682361e-01 -3.503021173953639322e-01
3.678595545401264766e-01 9.140159070188741408e-01 -1.665830391874454364e-01
5.903977750055191542e-01 3.801553566601592604e-01 -7.378155181124753659e-01
9.048670517149970394e-01 2.389710591776104398e-01 -4.492523360675234056e-01
5.245511198740748782e-01 8.424711364117766221e-01 -2.493773820994674498e-02
6.189638823639197485e-01 7.946066262601889640e-01 5.191041743122243313e-02
6.109996055094976120e-01 7.923039697388388758e-01 3.409812219969055036e-02
2.546373952415939002e-01 8.091158922696058964e-01 -5.487607132294562984e-01
2.877763896022311196e-01 8.729653468515784498e-01 -3.776710479443349255e-01
6.346260708984357013e-01 6.392088283575727559e-01 -1.988375543098694354e-01
8.485593879944146600e-01 5.458353912057071211e-01 2.250433563815134371e-03
6.625147343424970803e-01 4.979432371575999161e-01 -4.033041730996343999e-01
6.021625580208960216e-01 4.180285096889276852e-01 -6.499047981559910037e-01
3.135969642716661121e-01 7.582787439297047349e-01 -5.381997272617368155e-01
8.396253621020151048e-01 4.243758366531770188e-01 -2.301548149774486629e-01
6.159305960508635325e-01 7.418368979743391600e-01 -4.760231306999890277e-02
6.146329186790799870e-01 6.560205959265098530e-01 -2.031819348083383492e-01
8.306632661320140221e-01 6.089265576813263081e-01 8.421076699496383988e-02
8.263485797070034833e-01 4.114272460897430705e-01 -2.761275319248994164e-01
3.907692010684017947e-01 5.214980780971040231e-01 -8.285832716884530269e-01
5.819157635836790243e-01 8.156360514403937501e-01 2.577018621033088513e-02
8.527265056457635772e-01 5.271705781610627195e-01 -2.393534470828634006e-02
3.551643351979235086e-01 6.557639176256391256e-01 -6.498956724336941715e-01
6.673780780615503616e-01 7.264852548981418634e-01 1.344891077747100046e-02
2.921872295664825758e-01 8.800794699584791880e-01 -3.573724844975149084e-01
8.597330964662210917e-01 2.773932485918495505e-01 -4.582195816913248732e-01
7.762608966324525683e-01 4.215049609455930879e-01 -3.442642069145493977e-01
8.309409546359116661e-01 5.840736449558976418e-01 4.027792934496125798e-02
5.161863971650622052e-01 8.690305436766027070e-01 8.135750660094928990e-03
6.460338519992891992e-01 5.687465612051925135e-01 -3.051287062807974682e-01
5.255757344528227959e-01 7.524143021916498419e-01 -1.841008307392632548e-01
6.144026427211084496e-01 3.530790857558747664e-01 -7.449134191061071997e-01
7.381948725788387566e-01 7.186169383786987774e-01 1.211852308138899742e-01
4.156266040844290299e-01 5.724373315443554988e-01 -6.948065902274828121e-01
9.017256462038647502e-01 4.127335780147803335e-01 -1.441536275076543694e-01
8.177505328226378767e-01 4.824503352956678870e-01 -1.640018215714918182e-01
9.550060098175973122e-01 2.718878897088524704e-01 -3.041992078281811618e-01
4.026962731393303185e-01 6.852005021978718746e-01 -5.155452662795174668e-01
6.048895550720012615e-01 5.696670146104624299e-01 -3.742472120644691480e-01
3.714519462759081070e-01 8.866624610533073714e-01 -2.092832611451957980e-01
9.270642231569552472e-01 2.417169036585861130e-01 -4.061692106088607424e-01
3.883090338481171022e-01 6.160201730073465720e-01 -6.639100480793996839e-01
9.361904194387352662e-01 2.397293848257929794e-01 -3.940247976723932344e-01
3.616271973986568411e-01 7.552214862794118799e-01 -4.610565518206654056e-01
5.497670498341092893e-01 7.355998084524181246e-01 -1.725409809113789550e-01
2.983186583907126432e-01 7.928101623532636255e-01 -5.027713480947190172e-01
9.387983601915851350e-01 3.030610803504005246e-01 -2.763701090470668809e-01
5.053577457390018290e-01 7.374935347414807163e-01 -2.455357392507707404e-01
2.967581819223841233e-01 6.976342189176600872e-01 -6.755279820514958899e-01
3.880783118339660165e-01 6.760025044961297525e-01 -5.571226023359442392e-01
6.625157945862015785e-01 6.393646092922240509e-01 -1.505921803996394803e-01
4.781449422389604798e-01 6.492503131360490842e-01 -4.500230291632646984e-01
4.589926044784495285e-01 7.126641413460524932e-01 -3.696466634041333799e-01
4.242816195748059238e-01 8.560561393620150783e-01 -1.731138839762156600e-01
5.965712298040584116e-01 5.959358594916058793e-01 -3.416131399177115280e-01
5.136724272682463566e-01 8.848437224197595041e-01 3.206907381776666344e-02
6.772950487223224902e-01 6.626439153937362381e-01 -8.357511982212699475e-02
6.192980881399043902e-01 8.098070645898880482e-01 7.964733908377082117e-02
3.430981709279703473e-01 8.470027717444776894e-01 -3.289174890766974335e-01
7.193611994873734261e-01 6.069432273643936560e-01 -1.107596095594971103e-01
3.699468889845639041e-01 7.053128178306640184e-01 -5.359309968116902079e-01
2.239724115973793506e-01 7.665225366072604407e-01 -6.776122022668685796e-01
4.096969999322817024e-01 5.513914633357291928e-01 -7.426123080842160773e-01
4.735223069497103143e-01 6.214841713057025485e-01 -5.075895783707020659e-01
3.898800636052324742e-01 7.706649377675017787e-01 -3.848686105805524948e-01
3.782157477272866108e-01 6.175344265266240473e-01 -6.785634326409373251e-01
6.266548071007690401e-01 6.161897337674081543e-01 -2.536807021655871353e-01
5.997169669776408751e-01 5.225331771317349716e-01 -4.673683415083135229e-01
2.780641172734739652e-01 6.880537211299344591e-01 -7.247992316451792316e-01
6.572104296571582571e-01 5.003314768056044137e-01 -4.081593272599241540e-01
6.070282731853763325e-01 3.891445744489457348e-01 -6.931499334470911933e-01
6.508874712396587325e-01 6.110571063974462591e-01 -2.211750535908086068e-01
7.461149517718186353e-01 6.859773618533083761e-01 7.648216788110381859e-02
7.073921606927425776e-01 6.135514868914759834e-01 -1.195364304751654339e-01
4.941393408274988852e-01 8.467470373804899531e-01 -6.960163931505816692e-02
8.467521314091077667e-01 4.203042382990043735e-01 -2.251732837356416050e-01
8.010382537165682271e-01 5.730544127321800518e-01 -3.084175864273141013e-02
7.767575500212663409e-01 4.686161930727255620e-01 -2.592255226419408198e-01
7.246255129789994642e-01 3.169299769642412445e-01 -6.199391519450674348e-01
8.214258820529756200e-01 3.408307095889908656e-01 -4.107450930514562337e-01
5.918184314437422433e-01 7.498864579212015657e-01 -7.468836088516513094e-02
3.364346532439373982e-01 8.161330406215250299e-01 -3.955400115141078365e-01
6.781888450433265492e-01 6.207954641785815575e-01 -1.568181721911466042e-01
9.339113212330349967e-01 3.984054180738346163e-01 -1.144015250890421664e-01
8.536701695662989309e-01 5.210050721969937682e-01 -3.332968603350728448e-02
6.835292748407065799e-01 5.648599782882283149e-01 -2.475860969078699514e-01
6.872448221684188674e-01 4.684073402830015720e-01 -4.135499626170869858e-01
6.219530890971870507e-01 8.141065833937879415e-01 9.189656609467483639e-02
4.703339604102261262e-01 8.615609645742815514e-01 -8.407260041618037916e-02
2.431276956005473111e-01 8.445816437671589405e-01 -5.051811917123736340e-01
7.817553596074113820e-01 5.838843559229677238e-01 -4.465368443502391177e-02
9.861334461028177234e-01 3.223558360527697397e-01 -1.604810087103913652e-01
8.943477545936215911e-01 4.703763081120441725e-01 -5.383916771285445629e-02
2.665908542129786785e-01 9.681653336017491673e-01 -2.439918825155924786e-01
3.139386107193183895e-01 9.337781069944496304e-01 -2.240069640264169826e-01
3.333910542067085592e-01 8.337648323712829601e-01 -3.692678522942551278e-01
8.476544280083790905e-01 4.503547383542602089e-01 -1.699232846507376105e-01
3.906600505890442387e-01 7.564719261886345691e-01 -4.088890517114994738e-01
3.715883939864831897e-01 7.106718689281551482e-01 -5.235315515614491488e-01
9.580339839126523760e-01 4.288779075268666641e-01 -1.846119521286064893e-02
6.834842876571850523e-01 6.377211923637073898e-01 -1.174655407238857224e-01
8.935977720118746248e-01 2.824592800085318767e-01 -3.909237254047569499e-01
4.251391292929940224e-01 5.984124671676630536e-01 -6.320304162406411574e-01
9.109665553997244869e-01 3.238107611025645705e-01 -2.871592613622490631e-01
7.949272802069985433e-01 5.753469735987208900e-01 -3.725525847578291250e-02
5.614284572159815578e-01 4.355996582380849413e-01 -6.885641797432049405e-01
8.690846576914895705e-01 4.484118192517516088e-01 -1.365377025585616244e-01
5.964262644366622457e-01 6.584477865688480591e-01 -2.301579913352131690e-01
2.893403958928434383e-01 9.662623530950410489e-01 -2.082658733692660247e-01
6.626172266563701285e-01 7.344117223071833234e-01 1.942485989229192703e-02
3.354946485781715171e-01 7.788414043312359425e-01 -4.637942714834996094e-01
7.931981921354166465e-01 6.558405754238147978e-01 1.036073914700942761e-01
9.096227518731827555e-01 3.609969754406853193e-01 -2.230212612802189576e-01
7.487420611477919596e-01 3.804569842095025245e-01 -4.649432108942428421e-01
3.761226699294510367e-01 7.839336901735693974e-01 -3.848193508182639055e-01
7.198453025194228028e-01 2.804641720879480493e-01 -6.933224052894829681e-01
5.996821033380261845e-01 6.359633283657604164e-01 -2.647365011552188507e-01
9.290624793436175199e-01 2.607419736060275772e-01 -3.687359693203828837e-01
4.313081291243323068e-01 5.010257913967292032e-01 -7.954436963622378842e-01
6.505309292872905047e-01 3.903114940285593026e-01 -6.162453401287067978e-01
9.750985777455640768e-01 3.725604772327525405e-01 -8.974746178474564406e-02
5.676913022000591447e-01 3.660581467556553448e-01 -8.020586828516517164e-01
-5.939267090891984235e-01 -2.981431742735722867e-01 7.633933110415151990e-01
-3.673401464260944715e-01 2.395835557274489658e-01 -2.962176530470235214e-01
-3.110007878280998672e-01 -6.225967685163922433e-02 -4.352169644661621484e-01
-3.998765786756582757e-02 3.872719488335250038e-01 -5.754795154710290461e-01
-3.196313691084728403e-01 -9.701913810177733577e-01 4.210178179637179274e-02
-2.363529461364212436e-01 4.081471078675914521e-01 2.272273495458610737e-01
-1.400595821839324129e-01 -8.732156048908051860e-01 4.799123984871759285e-01
6.682822325336333913e-01 -5.880356792385358494e-02 -4.773068185058555041e-02
1.310840572658702463e-01 -1.708398255337905403e-01 5.332859314417497387e-01
3.253344586531947691e-01 -3.168193724615869233e-01 -3.090275227768971011e-01
3.912774809987323854e-01 -3.004586817028051526e-01 2.036742865712481421e-01
-5.218303840493180440e-02 6.974750186594222967e-01 -1.345656144186467840e-01
-1.800628248457378233e-01 -8.389582709283390782e-01 -1.951841876689329458e-02
8.519804521598892677e-01 2.404870739435617522e-01 2.602883845448987574e-03
1.994553156780948522e-01 1.730699426557358589e-01 4.593982469927442303e-01
4.801307291399045107e-01 -1.941923919678583133e-01 1.702055153673329713e-01
-7.311368868392864075e-03 4.180707445925855303e-01 -5.951979949847517881e-01
-1.500773439346256462e-02 1.193464016459133345e-02 5.658709978896078185e-01
4.149201864391194317e-01 -1.115923536835205787e-01 3.192363189875740970e-01
3.863999661634405502e-02 -6.365075735845142635e-01 -1.084163742789820001e-01
-8.219815527524234611e-01 -1.703630023042234376e-01 3.146504471236540729e-02
-5.799000312367872390e-01 -2.717781740997424755e-01 7.475404463582571157e-01
1.999238087626275251e-01 9.321320677461135684e-01 -1.702334200441195100e-01
-2.925776459345189040e-01 3.921859043869075911e-01 -2.589179458864696581e-01
-3.190632239162010664e-01 -1.576326399293185854e-01 -4.254061101814251011e-01
1.610203549217832375e-01 -4.263856298825459690e-01 -2.939485725094500013e-01
7.756678498583224890e-01 3.424791430895120919e-02 -2.582049970307325748e-01
-5.395272831063523122e-02 5.814051304576012269e-01 -4.647651613880725008e-01
-2.693126716088016792e-01 -6.043394545687100772e-01 7.654234230386967042e-01
-8.027973991086903571e-02 -1.260391218305675909e-01 -5.172528579840702800e-01
1.230367002455002856e-01 7.819497336145381228e-01 1.762615650901275255e-02
9.687447382780245420e-02 7.177005994868022043e-01 8.713965810909798937e-02
3.452302926956866691e-01 -3.922522477889097137e-01 -1.227074044789611407e-01
9.187812613624727343e-01 1.870463953135229618e-01 -2.522849428717005571e-01
-4.305666155077604584e-02 -7.050804795297997973e-01 -8.659404936047024326e-02
3.010803138439895332e-01 -4.436079083853085581e-01 1.554827295180823687e-01
-5.510147778037839672e-02 2.463220820550064138e-01 -5.832773777337273424e-01
1.157036117465793379e-01 8.232267102106671786e-01 -4.856949749638374558e-01
2.263775878547049092e-01 7.031567663833979687e-01 -7.198896203522244797e-01
4.397377148736841268e-01 -3.075194688995973036e-01 4.348298982815711894e-02
-3.602256949596319147e-01 -3.418167442534584266e-01 -3.760556535263249733e-01
-3.009335534474524843e-01 1.560622312097159625e-01 -4.130551284110475230e-01
-4.465050883320050845e-01 2.348577249420679969e-01 2.676032032336018718e-01
-4.261193144849400594e-01 2.896282014530131010e-01 1.698171134557679984e-01
-6.734668102782747079e-01 2.101233272915283348e-02 5.595962996402191990e-03
2.493746637073392114e-01 5.893044067409602960e-01 -7.586790181792210097e-01
-7.774554267362354665e-01 -5.253551595105908356e-02 2.487932732379829481e-01
-5.273445416239475048e-01 -3.206259809314089271e-01 -3.084611571962022070e-01
-5.115201086095297889e-01 3.938978902791900882e-02 4.986869065406054347e-01
1.596679549570142465e-01 4.271515217700923017e-01 -7.088839913089995948e-01
6.824956349907076447e-01 4.813096780162206545e-01 2.110467865939080478e-01
3.077718436785878975e-01 1.218618887139430312e-01 -6.804828635529794889e-01
2.578793875100924282e-01 8.215347099853824719e-01 7.082493016060432967e-02
7.779028880252172873e-02 5.828403237428175787e-02 -6.154739918180739400e-01
-1.432276427026711318e-01 -9.169977834818161533e-01 3.610790442795829280e-01
-1.796110667192751809e-02 -1.537531796032971798e-01 -5.192855568029666191e-01
-1.188699655574560893e-01 -7.608937222874598838e-01 -7.560495408725668998e-02
2.821868077399730668e-01 3.493624515734046199e-01 3.833394076447682042e-01
-7.857846132194550304e-01 -1.576372154169269624e-01 5.385370398869077091e-01
3.947459350291776525e-01 -3.331246744785522074e-01 -1.755379433012843882e-01
-1.481430510181434845e-01 5.719646486922713713e-01 -2.885507052441579345e-01
9.443303702469989513e-01 2.180328965223682636e-01 -2.439407965523630872e-01
4.683569357507251785e-01 -2.668799896044430839e-03 3.082168043999880536e-01
-9.982446205415410057e-02 -2.096190913273907747e-02 5.956986086748479181e-01
-1.079292159366058435e-01 -4.570007884493008099e-01 6.703134402398494007e-01
-1.457852487149058629e-01 -9.050097272916742819e-01 4.243941926303045342e-01
-2.100694403728490811e-01 -2.361387689255926847e-01 -4.495097742448892486e-01
-7.361143967906274010e-01 -2.813843173770849138e-01 -1.552850520860599437e-01
-4.823200080498825093e-01 -6.159233157591547103e-01 -2.575288659432498073e-01
5.288486494620793510e-02 -4.957730470507149684e-02 5.608413993100759276e-01
4.759214756917506395e-01 -7.492041413693419083e-02 -5.047146600522550708e-01
-3.597729497907358742e-01 3.819777841316087663e-01 -1.787735741640848405e-02
2.852051205686423341e-01 5.242208907648640004e-01 3.057494835322643878e-01
-2.130135797458320712e-01 -6.870125532133377622e-01 -2.041000827928886874e-01
3.376345459671735716e-01 -4.196252166203197076e-01 6.342807383175887159e-02
5.682491453799296682e-02 -7.084078383729336403e-01 2.495469637711794364e-01
4.664690501474730994e-02 7.888874990882475124e-01 -3.617535905301012544e-01
3.365516397747312927e-01 6.621839493584320557e-01 2.264968924021255881e-01
6.155190108393573389e-01 4.069832065684247241e-02 1.731257696189202888e-01
-4.399449985916428774e-01 2.823328191723198932e-01 1.529953482027430200e-01
-2.283068506584340351e-01 -4.329081717593055711e-01 7.379256270610337065e-01
4.773774753947928606e-01 4.049125259031439161e-01 3.113050650618532922e-01
2.301478038303644003e-01 4.034775383027509599e-01 -7.436717398320670247e-01
8.260208556507725453e-01 5.350157372721184856e-01 1.286215637781540633e-01
-2.450444633653304019e-02 -1.040317162626022141e-01 -5.373979195496926264e-01
3.184779410058503207e-02 -7.327292058417085308e-01 2.734473495909396368e-01
-2.635775561676665518e-02 -7.960178489902359766e-01 2.900201913985070989e-01
2.582952067914298100e-01 -3.701798352306253093e-01 -2.933105489025499835e-01
-9.284275777933154172e-02 2.419661531533362775e-01 4.592204559532999109e-01
-2.258391307060544917e-01 4.575421838019436693e-01 1.528632923450272130e-01
4.708420266665990783e-01 -2.832117014502018026e-01 -4.984779294215953976e-02
-5.605833006373174277e-01 1.440880491677807088e-02 4.958054667455013553e-01
-3.344353730979157113e-01 3.481809794125533819e-01 2.089494667565510999e-01
4.579388711217266539e-01 1.111872675715055298e-01 3.395241597541053258e-01
-4.498813133463687719e-01 -2.751177604936249632e-01 7.514372972037681730e-01
-2.227173673348823435e-01 -9.816825027122069169e-01 2.053095272584370135e-01
-7.035732048005935990e-01 2.370339982356662115e-02 2.145793370725734561e-01
-1.173470388613123000e-01 5.821897108324615155e-01 6.464696463187571962e-02
-2.472251657546999104e-02 2.533258205727998980e-01 -6.016349811296967109e-01
-4.194111676632887309e-01 -2.991373818008343788e-01 -3.623455002237604416e-01
-4.120171803713590375e-02 -7.964263001593523406e-01 3.633527794176914516e-01
4.520191063534439446e-01 2.885909258454721904e-01 -7.723270010991251100e-01
-8.992550138996479037e-01 -2.046151306899589850e-01 4.533210714576590417e-01
2.916206476467176484e-02 6.252464180164196694e-01 1.552924309000234815e-01
-2.579615453280066292e-02 6.610753592020640612e-01 -4.258445576658447251e-01
1.341455353495299707e-01 6.331331215773945420e-01 -6.576732426300871959e-01
-1.377353462134513762e-01 -1.409189038999863475e-01 6.451663109214254010e-01
2.881431455080860765e-02 -4.219802203880724245e-01 5.741713551849912944e-01
6.825840041785280476e-01 6.376915365551457660e-01 1.877086515199201666e-01
1.371400764829880659e-01 3.735203346117887402e-01 3.901604664729308447e-01
5.397755723866025646e-01 -2.113313805912355459e-01 -7.935986760774280113e-02
6.802899284500001365e-01 5.196475674943613621e-01 2.087305640184746736e-01
-1.461526711949589705e-02 -7.575078904537985158e-01 5.976593081427150622e-02
5.038804359071294425e-02 7.201653681869002455e-01 3.728167945634656283e-02
-3.521116846876222728e-01 -3.508186607157171566e-01 -3.762567614242417480e-01
2.913146750395503859e-01 2.958172529532096355e-03 -6.160306817396787871e-01
1.853582554087615519e-01 -1.830955566731711781e-01 -5.051704276133112126e-01
-9.629232380442062644e-02 -6.808558357306825348e-01 -1.592536962599166439e-01
7.400211179066372713e-01 2.900411381472605687e-01 1.534440889801771957e-01
5.785621431410109539e-01 4.646438466519938748e-01 2.609294112932555865e-01
-1.777637959952763080e-01 -9.229469442237240306e-01 1.432828564132124227e-01
-1.319886363605468627e-01 -8.841120473673252933e-01 1.419254571471674775e-01
7.452793874419584297e-01 1.760246945684299236e-01 -6.281514002698572741e-01
4.199353033858326256e-01 6.851499339590643167e-01 2.159842382213599810e-01
2.444095676805836392e-01 6.802677832043487749e-01 1.983694509861356203e-01
5.583392888374636431e-01 1.698384346047890903e-01 -6.969135158493895421e-01
-7.511040209167939574e-01 -2.366247193527893367e-01 6.681787871994502304e-01
-1.482927319635547470e-01 5.432719908365517547e-01 -3.410462242616774109e-01
9.840266986970384877e-02 7.701557055561090159e-01 -5.228021068622172862e-01
-7.395784307260513391e-01 -5.967455301125790257e-02 2.119209358827766829e-02
8.579117792573281998e-01 5.236532078127085210e-01 1.066377749003406816e-01
5.710700386096763115e-01 1.971906214456117523e-01 2.697577553298652897e-01
4.909495194324995926e-01 2.561739776503343946e-01 3.237664598647105318e-01
7.372299619271337479e-01 6.507045856418487428e-01 1.649823045830386692e-01
2.535512027293256865e-01 4.132433887970933806e-01 -7.554648634476504032e-01
-7.365856932845394889e-01 -4.037169316161802746e-01 -1.822430231362292263e-01
6.304609890907054703e-01 4.138871930005597055e-02 -5.425311254326781185e-01
7.188353259359915315e-01 1.340594523341978594e-01 1.039979735010011369e-01
-2.860822774841865201e-01 4.584038195141464378e-01 -6.974852332950991218e-02
-7.221290869644306776e-01 -1.731372399563323172e-01 -1.204790599237493820e-01
-1.609954282529566516e-01 -9.343905911420020693e-01 2.435930652386539830e-01
-5.251903760150869460e-02 -1.976326927444327086e-01 -4.958402102852033089e-01
-8.019344710588010017e-01 -8.298594661908643977e-02 1.739207106198123465e-01
-2.203288264616161396e-01 -6.128337914048643809e-01 7.316252529860274301e-01
3.088877524765225036e-01 -3.254856568893417790e-01 3.169428863267739205e-01
1.098217657571953082e-01 8.265307341619529957e-01 -4.660863620557323395e-01
-2.078501883274732065e-01 4.776638145979886785e-01 1.395155693515865158e-01
-7.424479535239241201e-01 -4.496936138644262726e-02 3.719431148811348509e-01
-3.552352353376599936e-01 2.314417614265583956e-01 3.717416108453390211e-01
6.827337559554014224e-01 1.114467175825715473e-01 1.346092729058362691e-01
-2.844897505039387098e-01 -7.861673106839901504e-01 -1.407946759032076001e-01
-8.701278266801144856e-02 1.049725451495914404e-02 5.811830916147788795e-01
5.954124269958116500e-01 6.152704061070085606e-01 2.205395622727675531e-01
-6.546440081094035968e-01 5.323450560432060191e-02 2.992827505744031780e-01
-4.355228652186366595e-02 -7.400717666810189277e-01 -2.927982340340478176e-02
7.025722167112888883e-01 -3.230526861734386163e-02 -9.970176206193130664e-02
1.376898220299073716e-01 6.802309435784512637e-01 1.584007271907935943e-01
7.072133997826153262e-01 5.861683423022583800e-02 5.728876595663346533e-02
-9.095957970858467578e-02 1.518401729961218194e-01 -5.629005475115492763e-01
2.551368372338711499e-01 4.098135567496923315e-01 3.638011936598110063e-01
2.746917394204750201e-02 -5.201556938965490318e-01 5.418159084477557341e-01
3.732154686043849812e-01 8.176070319756559845e-01 1.206298616392019879e-01
1.000084672479066433e-01 -2.480547494305794243e-01 -4.717577171170981298e-01
-2.151305981247109145e-01 4.717196775807264708e-01 -3.053304564011479760e-01
-7.873706000819001849e-01 -6.241602354278476955e-02 2.221592035898036499e-01
-7.349272750274817023e-02 4.063367902886909633e-01 3.346968297910390966e-01
5.508132388135702495e-01 -1.999857495786052097e-01 -8.951601503428896489e-02
5.940928139157117260e-02 -1.268863769589167190e-01 5.698916038933635742e-01
2.108395949491462338e-03 5.698997164899589629e-01 -5.470869774642818095e-01
4.637818711002070216e-01 3.511879506132902229e-01 -8.012170397664849508e-01
-5.017454391447498940e-01 -1.197648857921475990e-01 -3.126585132531348177e-01
-5.184835243035446073e-01 9.443795240421343218e-02 -1.984695829696384861e-01
-4.707144269932172498e-01 2.666772813234761230e-01 4.285560328745965236e-02
4.108919262023856267e-01 -1.220249453768689069e-01 3.187705394057169239e-01
-7.232658624081782506e-01 -3.133799829501458523e-01 -1.759800043740773756e-01
3.499616053354092093e-01 2.338612068211478323e-01 -7.354207412135949085e-01
-1.132381423158937556e-01 6.340353915683982766e-01 -2.171427097879944923e-01
-7.732490793437605259e-01 -4.925966636875507565e-02 1.874700912884567916e-01
-5.906287347591410164e-01 1.420949066065228528e-01 1.235000411937146880e-01
-7.126339010106961247e-01 -9.227303164690996151e-02 -7.187782915259860461e-02
-2.815483100092212587e-01 -9.671365426736362458e-01 7.442243150690791564e-02
1.542257451523623701e-01 8.734395526473016647e-01 -1.143637658829445986e-01
9.358046689486034311e-03 -7.595050247605833471e-01 1.601342600187203591e-01
4.044943571060224397e-01 -1.838542766764887371e-01 2.924823442467683332e-01
8.793633562435029805e-02 -7.540512167349792960e-02 -5.671551215143300073e-01
2.376033177823195508e-01 9.809523170410738846e-01 -2.217908133670606075e-01
6.810769672810088604e-01 9.323309510587438065e-02 -5.710205087732398432e-01
-7.734389117420921167e-01 -1.303810920500168002e-01 -9.756436597104822459e-03
-2.177791664070151678e-01 3.094660094471954337e-01 3.665940190097108919e-01
-4.667622060860873168e-01 -6.531473887739351891e-01 -2.439955716283601916e-01
-3.624152284574866933e-01 3.376414671812884571e-01 -1.882456415071834255e-01
9.263713883592293863e-01 3.424752174887047418e-01 -2.166215663738654471e-02
-3.805460469901668641e-01 1.784779825057331570e-01 -3.210420105677195823e-01
-4.024639322211394643e-01 -9.642977213667230929e-01 -1.874270261544123961e-02
-4.447433770916516260e-01 -8.183079757691859024e-01 -1.521629335669899274e-01
-2.356261833279836293e-01 5.028770409395073582e-01 -2.839088168971435830e-03
4.249567223507837860e-02 -8.430278555966319587e-02 5.712752743044464676e-01
3.180611944849942030e-01 7.015483148662189361e-01 1.976261019908012728e-01
4.175865739615787220e-01 9.702035731518847406e-02 -6.663359370981271068e-01
6.365555686589321471e-01 -1.065142236467723075e-01 -9.031802546448201852e-02
-2.532247005732865541e-01 -5.534622332251710741e-01 7.570151035367200798e-01
-6.635626140201543455e-02 5.339023404724585475e-01 -4.850189915669798624e-01
1.698093880813592860e-01 -8.125038199038744913e-02 -5.694897630713270376e-01
-5.358921205952559275e-01 1.407385725144724709e-01 -1.154153087555845197e-01
-5.726359789136344913e-01 -8.041293573451490095e-01 -1.630862191091525248e-01
-1.273499040216810596e-01 -9.040722178092680528e-01 2.685482982216785830e-01
2.566184008390298699e-01 4.913159289811455110e-01 3.240744275823596587e-01
-4.569841493244896080e-01 2.972970228073554960e-02 -3.099433703278355878e-01
4.197401071215274282e-01 2.017157129543986627e-02 3.544743959917944220e-01
2.349920014506434729e-01 -5.139966332241380220e-01 -3.192245773599880487e-02
3.140323157202470905e-02 -2.980940285647683541e-01 -4.457300832540385116e-01
-1.621777959994659679e-01 -6.796188498410113410e-02 -5.059727994156925091e-01
2.456770035853373391e-01 4.263927071355492759e-01 -7.534701629468609774e-01
3.452827706048970380e-01 -6.338602829882844514e-02 -5.639900341737265066e-01
6.332471703636909088e-02 4.675896739100799948e-01 3.229576782287683634e-01
2.015320169596119815e-01 -1.544835723264021687e-01 4.886836785547208351e-01
1.135950319558006426e-02 2.493639327153818475e-01 4.597630233405199940e-01
-1.581993350987370150e-01 -4.513087550901391798e-01 7.017789067647968171e-01
-9.867410001965686017e-02 -1.797934205428540211e-01 6.432616442961959224e-01
4.944441647131647688e-01 1.442494372148707960e-01 3.177778320658873890e-01
-6.252614089378069062e-01 1.061424179743519214e-01 1.373929763807890947e-01
4.583945414151809339e-01 3.866299980865427477e-01 3.220402486404022602e-01
-7.820802076483054366e-01 -1.378915958618314452e-01 -2.982198020497021755e-03
4.771127640550250071e-01 -9.474731876494486837e-02 -4.815253915953533470e-01
-6.820899496020619290e-01 -4.422697788216189418e-01 -2.194842623559883910e-01
-8.974297943080333795e-01 -1.964671822876510043e-01 4.317626311339260448e-01
5.014959288388422254e-02 -4.824359383651950495e-01 5.348323866965363216e-01
-2.343682551826224703e-01 1.996034854521163138e-01 4.629441849013858357e-01
-3.973721696047568391e-02 6.186920484774844908e-01 -4.511663445520884830e-01
-2.570184850692746048e-01 -5.113824275344709402e-01 7.582576136366481201e-01
-1.337643680646255495e-01 5.655208411214641684e-01 -3.382193745215782976e-01
6.902756266870618829e-01 1.730760855867048142e-01 1.585051577630770536e-01
-6.333651374803086487e-01 -7.289339637856506737e-01 -1.861218879326606290e-01
-6.137882709854581842e-01 -7.486258790472840596e-01 -1.826206460385197128e-01
-6.688434162780682035e-01 1.159908136424255172e-02 3.799064450844769070e-01
-5.775135347118491858e-01 1.513564216125514450e-01 5.074543909246264500e-02
-5.743613026120703013e-01 -6.342637859487334495e-01 -2.316223759582075881e-01
-3.040816482425127143e-01 -4.019487258467439039e-01 7.646019903271552565e-01
1.030910466301867279e-01 8.228869389837155657e-01 -4.558759156124030376e-01
-3.511657091676796405e-01 3.133351886629549554e-01 2.524515489552420222e-01
2.139047829500756726e-01 -1.968285743088828699e-01 -4.899551953655804648e-01
1.303692419853954010e-01 6.574139417969244725e-01 -6.443382802063443160e-01
5.233705929643510668e-01 -2.250991870230454051e-01 -1.416397675054866523e-01
4.502782578523945589e-01 1.766135710688645777e-01 -7.135010693030918727e-01
-2.902350256641187953e-01 3.026212170655604439e-01 -3.539081719910607826e-01
1.293056638775199052e-01 5.635145704669086708e-01 -6.738318459552846695e-01
6.817847897956735848e-01 3.272461258662538383e-03 -4.316716907582558438e-01
2.386315678513581118e-01 3.004851707713782072e-01 4.099398507852138884e-01
-3.357132007660851292e-02 1.149232085908379469e-01 5.294036841772750135e-01
-5.152781345315773226e-02 2.717360540978733807e-01 4.439112007409029559e-01
6.738175108319149897e-01 -6.896014924582562211e-02 -2.277133988324956393e-01
-5.616789009924101350e-01 1.141135870804612235e-01 3.368448849045319604e-01
3.229316792504314249e-01 1.155119200368931870e-01 4.195603281156790043e-01
8.839054849477201437e-02 -4.814482840409867875e-02 -5.790745681404485534e-01
-6.201668016220024046e-03 6.707915633140686396e-01 -4.510007280951487396e-01
-3.210008690874984194e-01 3.922421709654436706e-01 -1.883343876343200052e-01
2.036056633307240793e-01 4.996948189908724247e-01 3.189177255206090966e-01
1.375812907798395768e-01 -6.280295280166587890e-01 1.030515186081090301e-01
4.415672794999273565e-01 6.404057003629877454e-02 3.452638697955411340e-01
6.052512288331610701e-01 5.108357984886175984e-01 2.422229547563868879e-01
-5.858926544580109752e-01 1.423554404744234447e-01 5.368800628717306650e-02
7.295775008666918193e-01 -1.363029435223725438e-02 -2.315569525172954113e-01
1.313501564246511155e-01 8.317605958156055745e-01 -6.112410662381508736e-02
-5.986265330977407206e-01 9.167392302444203611e-02 3.223053408551474486e-01
-1.221788588797496772e-01 5.481043363409784375e-01 -3.862295515750591157e-01
4.413117864464401463e-01 7.501642565322187428e-01 1.785829972336524241e-01
-5.710623476906865337e-01 -1.801510082011583691e-01 6.829890555195216040e-01
-1.026806085931047385e-01 -8.013458589864487225e-01 4.809583919251045163e-03
-6.181939011921653293e-01 -5.134024197825534097e-01 -2.456060044086879057e-01
2.544895399289169302e-01 -4.754567305550319034e-01 2.264393864915641985e-01
-2.741516933240562698e-02 2.638378361354957735e-01 -5.997873486698247492e-01
2.364921258396240900e-01 2.380808501940462896e-01 4.304828889363842559e-01
-2.566327349386260392e-01 -6.508163102815899270e-01 7.526989571823500258e-01
-5.363143740495440737e-02 -4.667667199914979914e-01 6.305751006198526687e-01
7.867994519652452001e-02 -6.631312888223467317e-01 1.302183753903543920e-02
3.473802398789982981e-01 -3.449431427966448971e-01 2.307597790946251393e-01
1.909220222973671555e-01 6.761508117830924980e-02 -6.425354880723505024e-01
1.706366477475937740e-02 -2.631445004323958448e-01 5.998663719922026072e-01
6.421835668687195797e-01 6.198659251538816972e-02 -5.598142508615575608e-01
5.038204276255682235e-01 7.885541829222976196e-01 1.579916767914536224e-01
-2.864686472810301643e-01 -1.139822016148635403e-01 6.606544782261983828e-01
-4.158782309927745446e-01 -3.046641412473606314e-01 7.614699885593917417e-01
1.382776835331959303e-02 -4.786417669179223178e-01 5.713080860562202989e-01
-6.605216230336413696e-01 -2.563787558730506663e-02 4.626711486683920960e-01
-9.157259832655411103e-01 -4.632592475073264993e-01 -4.922516372267592838e-02
4.855408099530310051e-01 2.681873799297371797e-01 3.260859599305866441e-01
-1.183606942564424946e-01 -8.934232144952288790e-01 2.458557720634268473e-01
2.008435909998843028e-01 -4.830720981482830023e-01 -1.769256454692389180e-01
7.849265652867853937e-01 5.715016532793517484e-02 -1.325233711256848246e-01
-3.806820058584918787e-01 -8.095350808779356866e-01 -1.481024715629566946e-01
-2.416426591043506766e-01 4.979700762359542399e-01 -6.897558714828384667e-03
2.090379565926170080e-01 1.872562485270822252e-01 -6.895090441578480833e-01
-7.195912329144289465e-01 4.211166697491222459e-03 2.522544231229434941e-01
3.366354818883984246e-01 -1.747650796316383981e-01 3.723359111740940364e-01
1.020102194318639466e-01 -2.990085536850144443e-01 -4.355352539809337342e-01
-5.711807747946183733e-01 -7.633207353276069695e-02 5.911269650937410747e-01
-3.534626369546226693e-02 4.490974021163041119e-01 -5.619206324243500861e-01
8.186013983914354197e-01 1.352620081027176291e-01 -4.906053334789783893e-01
-1.672077566571468510e-04 7.329080086775848768e-01 -3.566494774671653545e-01
-7.600239672867818985e-01 -3.767963374179358893e-02 2.748538246937001772e-01
-2.374164708363312448e-01 -4.552818599218791951e-01 7.444411358900295816e-01
-2.451891828287123265e-01 4.438670541807860914e-01 1.508784939822838123e-01
-3.841161306673954168e-01 2.112144329377058094e-01 3.758317762060376932e-01
-5.829916429172828790e-02 2.522489686404930653e-01 4.558804268303098262e-01
1.078563381999416010e-01 7.481037702870420025e-01 5.401550342095420149e-02
-2.855857636334088734e-01 -8.152452064711972479e-01 -1.141914448925140935e-01
-7.179623100132569435e-01 -1.007855923965477601e-01 -7.161927123121071548e-02
1.984654511532552013e-02 3.061828051535041006e-01 4.273247376255919217e-01
6.897414440928485435e-01 1.077170685512917614e-01 1.235107057748496828e-01
-2.781507237080158706e-02 -6.263727798757010579e-01 5.480124195079145721e-01
-5.773213406966875016e-01 -1.139615043962902141e-01 6.247189868759326359e-01
-6.262793521088516613e-01 4.697063641483616159e-02 3.744563108627425030e-01
7.447017881963808872e-01 2.057259561920065372e-01 1.154227694306109581e-01
6.801661077358844842e-01 1.951855723517652574e-01 1.775322825000269222e-01
1.579843295506500878e-01 -4.101201227095293556e-01 -3.144663249694855667e-01
-2.642837876840067879e-01 -9.116098919525708055e-01 8.440131979168137219e-03
-3.940588750287644659e-01 1.914081094773718017e-01 3.939273858726869415e-01
8.775091270821332445e-01 1.397328488108913191e-01 -2.718207515965974652e-01
-5.193388135967783592e-01 -8.390148880100510853e-01 -1.448578017255173489e-01
7.233295912261186733e-02 -4.088878028611691029e-01 5.401034253544314545e-01
-4.558626759280982044e-01 -2.294891918757231974e-01 7.278118350714796181e-01
7.753821068134722494e-02 6.890525670572198447e-01 1.097991651185855205e-01
6.137472116902797925e-01 -2.571019174581648872e-02 1.244545830745395903e-01
4.089748452186198757e-01 6.448018640479201702e-01 2.380249246498708782e-01
-3.879138853014217347e-01 -2.561835560174211546e-01 7.367501555447089068e-01
6.006411770449043841e-02 -6.834716073346428500e-01 3.255298294553999883e-01
5.488661218721228030e-01 4.873470502983926478e-01 2.680002385463789438e-01
-3.189388031042176830e-01 -5.471767782714168638e-01 -3.072917664310092500e-01
5.723019936111016781e-01 -1.341887493782950302e-01 -3.169071946006685181e-01
2.767860233121196764e-02 -7.435662132634008881e-01 2.126635734917377840e-01
-4.021369484838340641e-02 -7.282850516538174057e-01 -4.598082891924580584e-02
4.344240818952741501e-01 -2.132441713137777362e-01 -3.577059136665783345e-01
-1.171534667760664034e-01 4.422709246104892800e-01 -4.798295961128826170e-01
-6.052843752748946621e-02 6.154864761144690499e-01 8.313040147184767859e-02
-7.294557705963823357e-01 -4.978488828135228805e-02 1.421861455152100516e-02
-4.718078872459245954e-01 2.861040406112853179e-02 5.316510345197532628e-01
2.194468999989403757e-01 9.509574502143147701e-01 -1.775171069506492338e-01
7.002680928387560177e-01 8.005585752029538427e-02 -5.376799689402140814e-01
-6.045933236662519583e-01 -1.778941199231131309e-01 6.721572035195959582e-01
-9.742125142249857817e-02 2.570062182642758319e-01 -5.542815248647675608e-01
-2.084802767464690246e-02 3.917120547290782739e-01 3.629189110324195222e-01
3.594446950892510317e-01 -3.611102216553045974e-01 1.764796809251556187e-01
9.264512080958103857e-02 8.438020157298734558e-01 -3.602499408908816370e-01
-5.453128774856341732e-01 -1.473189879581782713e-01 -2.837951990862756513e-01
8.745103641777071113e-01 3.273601708006072530e-01 3.286637969777868318e-02
-7.011614185498706853e-01 2.549005583579166956e-02 1.439491203251027640e-01
-1.297180948797266309e-01 4.950467007977881750e-01 -4.273429981160740687e-01
-2.632633022670157197e-01 -2.949204900003259411e-01 7.249734149265335548e-01
