-3.978706449653029997e-01 1.388421496701966185e-01 8.865488719800312944e-01
-2.207840166487303468e-01 -2.723905992120653208e-01 7.537662460996107372e-01
-4.253838037429652497e-01 1.162105403411724802e-01 7.715925525895399595e-01
-4.966804616426670482e-01 -3.053845371108248052e-01 -9.506065747311982783e-02
-7.684911234211031505e-01 1.740373572036817418e-01 -1.290999300831088548e-01
-3.819503244819554277e-01 -3.395099900368941936e-01 1.829427618987234938e-01
-6.777464512169838473e-01 -2.938203431601100202e-01 -6.000771913882669839e-01
-4.569395178222955267e-01 1.532962978442464208e-01 7.385367272576705000e-01
-7.036263680160954603e-01 4.803892919119711613e-01 5.383779928481134958e-01
-5.782758723183236693e-01 -4.539886458549483028e-01 -5.636777552611201836e-01
-3.731403240262735066e-01 -7.784909800493704235e-02 6.184333014545344565e-01
-2.744269456255051809e-01 -3.307249421902334063e-01 5.073673630326530626e-01
-3.635623501656786161e-01 -1.712992414545564668e-01 4.996647519517455893e-01
-6.013494747270710095e-01 -3.447974416338448478e-01 -4.592338719743357944e-01
-4.147184916415805334e-01 -1.066588388049379693e-01 4.531587117888253302e-01
-3.732812001898317966e-01 -1.770457823653118490e-01 4.625797863986066960e-01
-5.015428894067627263e-01 -5.636683095340068173e-01 -5.138536914998143024e-01
-5.554776684295632122e-02 -9.313254620117413785e-01 1.985829299518635516e-01
-2.328369498835409501e-01 -4.275489059827243810e-01 4.758014125029709218e-01
-5.173963741830664986e-01 -2.983331239667303403e-01 -1.438634045046313370e-01
-8.876818015144753993e-01 4.116673447758072424e-01 -1.010883459607545692e-01
-1.059335487878482057e-01 -4.896110790197421014e-01 7.451976563438683643e-01
-7.591067430479303546e-02 -9.296427686318637917e-01 1.423870197008472449e-01
-5.561018062360438829e-01 -2.672354688870373085e-01 -2.069599649941332720e-01
-4.669815108716126595e-01 -2.342049181785849921e-01 1.022882006804540778e-01
-1.170198192925855502e-01 -6.862321482350441926e-01 4.050513578012083227e-01
-1.667159907029066301e-01 -5.161329204061646525e-01 5.280230847488140977e-01
-4.034081443845868864e-01 -2.240877878883359639e-02 6.178610525401060372e-01
-4.193055280860521483e-01 9.598770713366593099e-02 7.574637287293196630e-01
-7.687131490905156905e-01 -1.355663588563233435e-01 -6.149069414210032170e-01
-1.208478283229605377e-01 -4.346978737835803241e-01 7.881590441319059615e-01
-7.535224463771864611e-01 -4.964114136094153334e-02 -4.363683654716820626e-01
-5.454114669157623663e-01 -8.803122356437281804e-02 1.047493122094434737e-01
-3.962979700265276684e-01 -3.745016492940497765e-01 8.665555948178926826e-02
-8.311896775918998781e-01 9.516494006498731062e-02 -4.338467021075709806e-01
-3.187703510039334165e-01 -5.433669635939553100e-02 8.123649309018206033e-01
-4.284423313847026127e-01 -6.309957436251847351e-01 -4.081562755007194787e-01
-2.310251294043105807e-01 -1.417894738254631415e-01 9.288364156418534856e-01
-2.461560311739513784e-01 -6.190120979365323350e-01 1.372867163216496267e-01
-8.423803401556292370e-01 2.259919368056380051e-01 -2.611660319247528506e-01
-5.477470676290955298e-01 2.740844175703104901e-01 6.654557823565419028e-01
-2.107812673127890946e-01 -8.459550630123688908e-01 -1.161397772939968959e-01
-1.858995024316060229e-01 -6.131614407493669594e-01 3.205489647742919557e-01
-6.890003779625790692e-01 4.114150618391030911e-01 4.725492996065560058e-01
-4.992369605545221578e-01 -4.483594583450936644e-01 -3.264962531349130392e-01
-8.649318018791427587e-01 4.590711857971971899e-01 3.892559925958417183e-02
-7.436101487296320478e-01 -7.500363338957333897e-03 -3.416927783187153622e-01
-6.948753057547693013e-01 -1.850088741413994653e-01 -4.790527295463108404e-01
-5.156513816469514566e-01 -2.801028301939404996e-01 -1.102539066573367532e-01
-8.035603136099271904e-01 3.596819030091978897e-01 6.049260588895417207e-02
-3.087555677054847902e-01 -7.481200750425337498e-01 -2.458957737794437715e-01
-5.421772366385107372e-02 -5.918237648861078837e-01 7.344429706349419051e-01
-5.087669441566317063e-01 -3.638401427574358138e-01 -2.215841330170711387e-01
-2.818872629612165781e-01 -5.665105423230469839e-01 1.163243078640478767e-01
-7.419786613363835714e-01 2.531037447049472311e-01 7.140146986700121601e-02
-8.037389056055556369e-02 -9.184514301076863729e-01 1.470292607110151861e-01
-6.067425672570541106e-01 -3.918027116104353946e-01 -5.484754304437877703e-01
-6.185104015021289925e-01 -4.919507927332689157e-02 -4.559078367582021507e-02
-1.320251896326030683e-01 -9.471153774689784477e-01 -4.712028697177318010e-02
-1.889849194841769220e-01 -5.826331687452147579e-01 3.594739672465542824e-01
-4.202807282186174498e-01 4.321257613663839758e-02 6.719447232950892523e-01
-6.098488641284263156e-01 -3.647789657069684388e-01 -5.151025334882517459e-01
-6.656612910999732957e-01 1.370905167249253931e-01 1.100997070320889754e-01
-4.408489099412830070e-01 -6.662965645793578195e-01 -4.993197944685145440e-01
-3.552828206724585325e-01 -7.889785833676058457e-01 -4.443503872228975471e-01
-5.908246773767170668e-01 1.364605904031901962e-01 3.253315091734654274e-01
-7.521044229983773199e-01 3.310832398997866077e-01 1.643440128915433229e-01
-4.322860580488153692e-01 -2.098645491871049817e-01 2.406734161527061266e-01
-7.328561552424832648e-01 3.134930099272392745e-01 1.923915333525579030e-01
-6.488804168026601760e-01 -1.762529587413708687e-01 -3.324427041257315141e-01
-2.921122369433364896e-01 -7.194391982471515234e-02 8.617944472153699076e-01
-2.401044316135357015e-01 -6.906389900368680168e-01 4.252791826418594878e-02
-4.615100832694604693e-01 -2.403253253945619727e-01 1.085053169282644003e-01
-5.854693917882827225e-01 1.103101200438254409e-01 2.998248893904103540e-01
-3.340274931622977950e-01 -7.571100157111033679e-01 -3.329994701369277110e-01
-2.980692795132198758e-01 -5.135862498445027402e-01 1.525062008169563166e-01
-5.264556317805005881e-01 -3.737192952141402125e-01 -2.881716810118634120e-01
-3.459000071205250437e-01 -1.439916291643025537e-01 5.934875107274151240e-01
-5.932495482876705140e-01 -3.383308222968055556e-01 -4.256979204799513083e-01
-6.211891550600360246e-01 3.517855126877785232e-01 5.750276950656377783e-01
-1.828164760331196237e-01 -3.031090613082594865e-01 8.153250965517789828e-01
-6.099416657705820644e-01 2.026841532081331831e-01 3.738743085643346786e-01
-1.842029875856394106e-01 -6.529599238872302314e-01 2.630842125936060927e-01
-5.417521513619728557e-01 1.130043186607916222e-01 4.303552692604575847e-01
-5.225122429309130290e-01 -4.776042269181127731e-01 -4.395716173607218114e-01
-3.171336667562309197e-02 -9.147769438454673718e-01 2.933780032844881536e-01
-1.049351360686523876e-01 -6.481502013059035061e-01 4.996430252320404053e-01
-5.780105865805468257e-01 -4.510907583762543971e-01 -5.583701440114822168e-01
-4.910091032551420209e-01 -4.923267661021037966e-01 -3.716233351239568994e-01
-3.990709637199105209e-01 -6.607806760880242658e-01 -3.699707104717573358e-01
-5.732849159224751023e-01 -1.782724465621471355e-01 -1.171958321764915434e-01
-7.501378231427038856e-02 -8.332882275935626915e-01 2.959710355085787836e-01
-2.170460044713898584e-01 -7.741196079728421831e-01 -2.166994994634405952e-02
-8.653292379178073590e-01 4.107391318649787348e-01 -3.796158386735570822e-02
-1.016121915061484748e-01 -9.288671654305448167e-01 6.934526918092648318e-02
-3.004910077478251118e-01 -5.171092162448215346e-01 1.399886354953900625e-01
-2.748747845212177743e-01 -8.063423834648436594e-01 -2.392444304988148307e-01
-9.990911799540194704e-02 -8.482553247089055226e-01 2.005888644244036845e-01
-2.037865815714102191e-01 -6.452062904270782218e-01 2.186533919267077963e-01
-3.466166063227494876e-01 -5.785260747214383548e-01 -8.952154369312965987e-02
-8.460248869404795036e-01 3.853042199440617210e-01 -2.204506193372106349e-02
-2.210000078335223328e-01 -1.729600045051383483e-01 9.089552452969527074e-01
-3.879015347578663730e-01 -3.189791467726522944e-02 6.477929714400079142e-01
-4.157296249173844660e-01 -5.578967290688822134e-01 -2.568765028790253035e-01
-6.688889185040851337e-02 -8.503115933943709015e-01 2.927690541402316882e-01
-7.532577245241299790e-01 3.934573424722164758e-01 2.587554235913154255e-01
-6.540323846656109774e-01 -1.134641881688443731e-02 -8.891049629010318311e-02
-5.079150942181334116e-01 -4.921933842349063282e-01 -4.202593304378610117e-01
-8.085170131450249986e-01 1.845845386632802287e-01 -2.282152622326328872e-01
-8.373252188890364933e-02 -5.144495711337906396e-01 7.704179141512691453e-01
-7.553641127800133637e-01 1.334794071310979879e-01 -1.547296684088970975e-01
-5.392630985157969015e-01 2.518628616882550575e-01 6.551454147159215813e-01
-8.714153321198743196e-01 4.128863795046680552e-01 -5.218075586739585880e-02
-8.583662813526014013e-01 4.512268158114840499e-01 4.560224161242439761e-02
-6.528191427858641704e-01 -1.690131682150179115e-01 -3.324773853286095426e-01
-1.887809437684950242e-01 -4.073815472074425736e-01 6.346919323410592506e-01
-4.413001256151339452e-02 -9.165698616095863116e-01 2.546940686735660320e-01
-4.951485780290872385e-01 -2.385194930295117532e-01 1.414637031795365658e-02
-1.865777966607672922e-01 -2.444784259309326080e-01 8.963351713989541336e-01
-3.713162093012635223e-01 -5.573787070444620184e-01 -1.277449092383368678e-01
-7.935005971958623006e-01 -5.260091299572677848e-02 -5.565118854679803606e-01
-8.546116517593084216e-01 3.368067826701135470e-01 -1.228521261747209797e-01
-4.039348606182739942e-01 7.087293011329070212e-03 6.625611743680069887e-01
-4.477769342249979800e-01 -1.727408469737937713e-01 2.540917935151462692e-01
-1.642279543718655754e-01 -5.036694655256691577e-01 5.547424504720166460e-01
-6.161811756658440720e-01 -2.481283437711828410e-01 -3.506001867518162007e-01
-5.670940270232482927e-01 2.481458372469017570e-01 5.689111539239685156e-01
-4.963443424333284226e-01 2.318199312981091276e-01 7.477385095502030454e-01
-4.310012574513356620e-01 -6.159133314572654561e-01 -3.919146143080014522e-01
-6.531219241666953446e-01 1.298439803555679339e-01 1.349729022782077681e-01
-3.724772362964604011e-01 -1.913066512563690869e-01 4.425550674962193121e-01
-3.899326011111955426e-01 -4.246925579481329871e-01 2.639463705444689695e-02
-3.103219929845557612e-01 -6.499048330153023301e-01 -9.651298901257510110e-02
-3.886994382741769116e-01 -5.697300570634291628e-01 -1.973239874779663117e-01
-6.425758722465368944e-01 1.677481926162531223e-01 2.248406161733506048e-01
-3.247831453641503718e-01 -9.189014646703225209e-02 7.361444274678664579e-01
-2.220111793959846924e-01 -7.552399488403087613e-01 -6.429966182790273002e-03
-2.471678496161657801e-01 -8.112868547126180774e-01 -1.669414392521726964e-01
-2.438375862860145404e-01 -2.611559890749575730e-01 7.047648021329214751e-01
-3.103442926282367620e-01 -2.818427672536814588e-01 4.801954655281557294e-01
-8.473398717880251674e-01 2.890870360555680141e-01 -1.766217911540268193e-01
-2.957400529387679833e-01 -7.273853242117273021e-01 -1.757987168708200765e-01
-1.128219299001806397e-01 -6.021805399777770962e-01 5.488933071016580678e-01
-2.506218845002475826e-01 -2.699274338444407895e-01 6.714181966877132979e-01
-6.208722838143974077e-01 2.905514246633050246e-01 4.799861225661645192e-01
-5.434998876593307715e-01 -2.697963762041714064e-01 -1.745634141423770824e-01
-3.654614096790252953e-01 -2.041239241178945396e-01 4.427399361662355814e-01
-3.225008032775542044e-01 -4.583142863343053763e-01 1.685324345417251179e-01
-7.706440561856270355e-01 2.390318877552092824e-01 -3.347031675717113131e-02
-4.731627632949984008e-01 1.364119435296231864e-01 6.652056291871083493e-01
-5.189143974977102891e-01 1.407031041928481219e-01 5.397438824844040806e-01
-1.711651330900553214e-01 -6.688956274454888051e-01 2.757812563604767897e-01
-4.428516606796778499e-01 -2.023429301001765102e-01 2.219339160182351722e-01
-7.784493615297318758e-01 3.520217244179760230e-01 1.210395911432514404e-01
-4.077668728723545244e-01 -3.003695967348370410e-01 1.696883335387569802e-01
-1.023232711140811962e-01 -4.959652905335085182e-01 7.456711298979342706e-01
-8.926687630545637742e-01 3.834877724040666180e-01 -1.596556334474492633e-01
-4.973425242782749112e-01 -2.711396720414077643e-01 -4.330996798320966429e-02
-2.113303015675362662e-01 -1.667034863044663806e-01 9.466973856630312989e-01
-5.388477133727711532e-01 -5.110208627636624312e-01 -5.391339239889014756e-01
-1.346957120916199568e-01 -7.138896029137560273e-01 3.106412292210051218e-01
-2.502381381787396331e-01 -7.058151273577822904e-01 -1.053233665523660607e-02
-5.648586278496677826e-01 -1.935781035064244593e-01 -1.168352702320474973e-01
-3.578996321239177880e-01 -4.503230439871241386e-01 7.878037475943815149e-02
-1.686827129255380475e-01 -5.316716328610573417e-01 4.979908140165963393e-01
-3.095661752277706902e-01 -6.292676702649501186e-01 -6.198973594160521461e-02
-1.003578505859500924e-01 -4.875118416527049470e-01 7.645966539340922630e-01
-8.795231387889218544e-02 -8.435122801639726164e-01 2.425672241103017102e-01
-2.964534501002427658e-01 -2.647603440146347742e-01 5.470981388495431696e-01
-6.933527924647407970e-01 3.699170476925321971e-01 3.949446453503139831e-01
-4.276048547268298528e-01 -4.594303303174220310e-01 -1.368844759917444975e-01
-8.051869769133240817e-01 2.837436667624788633e-01 -6.320643655726145005e-02
-5.390591041915079318e-01 -2.947170684550005637e-01 -2.007850976294000001e-01
-2.740018859373587468e-01 -6.302757509708482031e-01 3.918336098556749608e-02
-4.774531046745001950e-01 2.292992421608274212e-01 7.983692682716014843e-01
-5.591903690766779345e-02 -7.935204473676136239e-01 4.134580576176749012e-01
-6.034653308998541021e-01 -3.296990595660919676e-01 -4.416870617226541507e-01
-1.468732060085246593e-01 -9.552318515559911072e-01 -1.027383191782431787e-01
-7.824324017338292192e-01 5.147632184798986987e-01 3.645563378585801595e-01
-6.348996414431828939e-01 -2.847315827961608425e-01 -4.620410519963429330e-01
-4.389912424650770917e-01 -4.940373199412547711e-01 -2.240131755157562243e-01
-4.595811649326680959e-01 -3.120905324168975481e-01 1.618467108718222311e-03
-2.928739119379185629e-01 -4.593034402564020735e-01 2.525807823688870912e-01
-2.868208116608077507e-01 -5.295285952339690017e-01 1.600229170170985038e-01
-5.582840484268262182e-01 2.852533048887166411e-01 6.525144405988865248e-01
-1.521168351332680413e-01 -6.575488101482223069e-01 3.485969175052512914e-01
-5.404279049101953225e-01 -2.703983830014989320e-01 -1.666311778646695219e-01
-2.548665281093367430e-01 -3.892404845043049844e-01 4.721846040223278695e-01
-7.072842058209707350e-01 4.127850314945817889e-01 4.218702387846000601e-01
-1.660127432700717609e-01 -4.379516449852152160e-01 6.525691438866305649e-01
-2.324838795769826327e-01 -7.876253762229824540e-01 -8.743752108864814854e-02
-6.826836294533854543e-01 3.923446463800407957e-01 4.609153747141960245e-01
-3.134478727719687552e-02 -7.413276981232724827e-01 5.662471244978516394e-01
-5.765921280658210524e-01 -1.991440005682159342e-01 -1.594579111175085939e-01
-2.804903524911644963e-01 -6.559974923605591535e-01 -1.987054236173862662e-02
-6.511208451745238435e-01 -1.872592702586801383e-01 -3.561632563229079063e-01
-4.319155770776893499e-01 3.640068622324276609e-02 6.276545699724829230e-01
-9.009856505729614273e-01 3.725952992157732235e-01 -2.007539807311763957e-01
-7.956172929353353407e-01 1.652868881211708441e-01 -2.211856680548140719e-01
-5.577386894194245187e-02 -8.410573662440735676e-01 3.393845921593596215e-01
-4.442219812785312971e-01 -6.557448887715762176e-01 -4.925302779829427990e-01
-6.337651157504629040e-01 -2.287218936799100821e-01 -3.709929960078302003e-01
-7.319343196967061926e-01 1.114937498390224241e-01 -1.214886988679569624e-01
-4.717700474006663591e-01 8.063473166053050645e-02 5.818236171286392810e-01
-8.898516350457486013e-02 -9.547862706506876629e-01 6.521082488689003420e-02
-1.083626002260761195e-01 -4.945109096378599856e-01 7.305013130790584119e-01
-5.529930197159140803e-01 -5.028964336395126411e-01 -5.672713157768380920e-01
-5.587503155311356329e-01 3.118031932512023152e-01 6.927723863036274743e-01
-4.380810165461657135e-01 -5.493633450671377982e-01 -3.080821702826718744e-01
-2.269266895448628363e-01 -5.769116066881593285e-01 2.588180981675998193e-01
-2.756373148920436833e-01 -5.973780470305571910e-01 8.601071436007090565e-02
-3.127684705671009979e-01 -4.614637329025117474e-01 1.917158677156818869e-01
-4.519607858646427778e-01 -4.863604867208126126e-01 -2.494549441654063393e-01
-6.154647082916263612e-01 -4.369852888594162321e-01 -6.444790630156863598e-01
-3.746929686707908269e-01 -2.136926068336774190e-02 7.024542968106832763e-01
-4.164889471487107087e-01 -8.024442255905414600e-02 4.894362871481866550e-01
-7.627626330928108933e-01 4.072395128397161002e-01 2.528911123986831155e-01
-4.254911289829815257e-01 -3.596163244112323132e-01 2.563639784143564165e-02
-7.339066752842849928e-01 -1.423005449913016494e-02 -3.242031598961933603e-01
-5.074656029081417441e-02 -9.367306851505600163e-01 2.039843662965727944e-01
-8.117445783457420683e-02 -8.115481279614035204e-01 3.122394259895133195e-01
-5.577893249919460006e-01 3.042133307771484330e-02 2.546085140093303223e-01
-3.058585409624975382e-01 -6.024437009425138712e-01 -9.242999933467915818e-03
-3.391637174995369430e-01 -5.212253244422745402e-01 2.180477197558971028e-02
-3.707843065964842033e-01 -1.953606395526431005e-01 4.410934864600207783e-01
-5.653034691733276329e-01 -3.246394855671968366e-02 1.343539601390268401e-01
-3.697227126208378345e-01 -6.453875538025928282e-01 -2.610555133405993433e-01
-2.277378353269458588e-01 -5.583543131474144605e-01 2.855547935838188001e-01
-6.862989533321253721e-02 -6.556841235881578633e-01 5.927305471125352554e-01
-3.626749466230204111e-01 -7.887111048845225209e-03 7.583041718146592558e-01
-4.429294346279448735e-01 -3.436047235836628411e-01 3.444477096816004366e-04
-1.622161210551174015e-01 -3.975120842390099107e-01 7.269093428270474444e-01
-3.336835476326571737e-01 -4.761715028058344790e-01 1.082398918292385992e-01
-3.653660627377264963e-02 -8.496156922111567367e-01 3.815537917544131741e-01
-1.025295269404788434e-01 -9.316985815534831739e-01 6.225791151669175794e-02
-7.321850292821272532e-01 -2.532202435818129219e-02 -3.366106658040653454e-01
-4.922222632340415016e-01 -4.540535121678333508e-01 -3.151521831843220878e-01
-6.009904904164162232e-02 -6.267223794141096871e-01 6.627625780322352611e-01
-4.903112038623471669e-01 -7.835789110757818143e-02 2.791043458856583559e-01
-2.977789481303190211e-01 -8.214804071854739931e-01 -3.291415321052023613e-01
-4.249739862244993338e-01 -4.866159610287521531e-01 -1.718846689804635897e-01
-6.381398783382211670e-01 -2.698234144220135744e-01 -4.480408923406529742e-01
-5.649336008097518569e-01 -4.038542120947854475e-01 -4.465657576601235745e-01
-4.092515164198860106e-02 -7.294029699016850721e-01 5.572540945392960854e-01
-3.197189349415233695e-01 -1.507885588932703254e-02 8.711433990275827544e-01
-4.238507532082312346e-01 -3.035363535363089782e-01 1.182560978145113934e-01
-6.497708687093928237e-01 -2.942764470104596852e-01 -5.199645089073241522e-01
-3.490612546265923766e-01 -6.663333372607994631e-01 -2.341833162632493415e-01
-2.142032213125229789e-01 -8.555604819162799801e-01 -1.410787354767762958e-01
-4.820176335257915223e-01 -3.182360013968575374e-01 -7.283555111368161805e-02
-8.357195844983781319e-01 1.287497487569243815e-01 -3.943053827797868283e-01
-1.543446891948612454e-01 -3.709333607418060508e-01 7.913018644158172910e-01
-2.425180484506229139e-01 -6.201158969458681058e-01 1.460679120284213983e-01
-1.103259380846802612e-01 -7.549771690083092457e-01 3.166642943787074671e-01
-6.739476268061347364e-01 3.216947707813060942e-01 3.754434263746744271e-01
-6.308932334708412526e-01 6.591879632018872448e-02 9.902215625897495266e-02
-7.225654760642813423e-01 -7.247816824546887693e-02 -3.827139178633197636e-01
-4.690598262254813133e-01 5.678128649003699041e-02 5.522744033500284200e-01
-5.866481570891971531e-01 -2.768642640174239222e-01 -3.103037196995575009e-01
-4.920462248008310446e-01 2.339957283475603833e-01 7.635662776329810164e-01
-2.999925363347432650e-01 -1.103117335126041626e-01 7.789021724885479836e-01
-5.556527992616582257e-01 6.717758841240870082e-02 3.183804043337573053e-01
-4.819389056775092994e-01 -2.707206292535023207e-01 1.851032200400603515e-03
-4.092367500744115705e-01 -3.145650224206198997e-01 1.431965559798223375e-01
-6.577631238951271442e-01 -1.338057373259607108e-01 -2.915896791377417530e-01
-2.258666871955515021e-01 -3.437676061466881650e-01 6.272297515430990122e-01
-2.425039387915295663e-01 -1.160517223780927060e-01 9.360041172511321950e-01
-1.699861019986982358e-01 -4.473607077246399832e-01 6.263447604767684584e-01
-8.874474671404645187e-01 3.536436772802863393e-01 -1.913374849212047812e-01
-5.163001532638777924e-01 -2.752149848052158343e-01 -1.044688318046643888e-01
-4.286339439062147871e-01 1.621099002774021858e-01 8.341289492917016712e-01
-3.248236955234393153e-01 -6.758187465981841946e-01 -1.790199834091585895e-01
-7.286275394318648679e-01 3.890494629635609519e-02 -2.256852315162700129e-01
-6.466642273133519359e-01 2.516061128667646529e-01 3.444383193836677015e-01
-4.380723403799708371e-01 -6.304164281887956189e-01 -4.350716061776035981e-01
-2.189623997148807538e-02 -7.248424801644658411e-01 6.193792074211329490e-01
-6.411673193211985256e-01 -4.952889660147112572e-02 -1.115745586770116177e-01
-4.004864114341242232e-01 -4.317973010534111311e-01 -1.523108205507603050e-02
-1.456447608228289836e-01 -8.352682891843541402e-01 8.880021980560755257e-02
-1.454911284298044116e-01 -4.193837622390746422e-01 7.409573261830438851e-01
-5.874155222443794289e-01 1.628471056799038197e-01 3.765303615228181022e-01
-5.573865237839047415e-01 -3.023244728261060832e-01 -2.656581280574317194e-01
-2.063548222743955551e-01 -3.458242811335353051e-01 6.803807693541522594e-01
-5.090318151478073760e-01 1.624678521740672288e-01 6.024032902372195020e-01
-5.745793844797454364e-01 -2.036730148557513165e-01 -1.607398727185041787e-01
-7.205628398436985105e-01 1.745654585086024724e-01 1.020266114664973404e-02
-2.457799711259727737e-01 -5.873131452403241859e-01 1.880471831026162555e-01
-8.722837779463979979e-01 3.427362776908005615e-01 -1.646188310976427205e-01
-6.386377632301449836e-01 -1.383325133016004016e-01 -2.434261344763920532e-01
-4.548487008615532123e-01 7.125198962971873717e-02 6.160097374018124183e-01
-5.048859738129726216e-01 3.347038899514639954e-02 4.122356063966457485e-01
-5.791531115755504944e-01 1.609089889513513547e-02 1.704274258667966280e-01
-7.448543518015653397e-01 3.234257268596388291e-01 1.732912828566340602e-01
-2.840041811099311975e-01 -1.090890360956521254e-01 8.270119710861815188e-01
-3.012684505647604261e-01 -2.653322992238356659e-01 5.322902917632212905e-01
-2.717299237116806987e-01 -5.522203406844310436e-01 1.680645341920911917e-01
-3.821532630586837453e-01 -2.631217415491372558e-01 3.020608876668598453e-01
-5.857890201895485927e-01 3.472398714681599330e-01 6.701829689243030685e-01
-7.474282854520696295e-01 2.503168963042347664e-02 -3.017447275508506332e-01
-6.971883128405605978e-01 2.498442577853067226e-01 1.957025450086729568e-01
-3.805192093937866393e-01 -6.248375264041869381e-02 6.211924441420897391e-01
-3.392977855958074218e-01 -3.278148193516989273e-01 3.245019952358810245e-01
-6.328498987956092670e-01 -2.391108860693726135e-01 -3.846288441639539868e-01
-1.339489352847164638e-01 -4.831227015099045508e-01 6.744228661318573126e-01
-1.235312646474742981e-01 -9.593854454313798241e-01 -4.180737777000120836e-02
-8.814511684551816495e-02 -6.793294913173933969e-01 4.992933599659307164e-01
-6.330042144681448102e-01 3.180044758177436592e-01 4.879547837125883247e-01
-6.117520450534834620e-01 -1.651859355467696078e-01 -2.078283078688493990e-01
-4.907845515218899335e-01 1.857754271687503400e-02 4.296397372151440353e-01
-4.019952326447547297e-01 -2.083765390848139332e-01 3.305218591398633166e-01
-3.774671297521251523e-01 8.915184190716136936e-02 8.676316150662810589e-01
-2.844542229150274770e-01 -5.013135470281665507e-02 9.181015348758442274e-01
-4.388918001210889153e-01 -1.366564429828993898e-01 3.363090251793032226e-01
-1.516712964806967434e-01 -9.504961347785623182e-01 -1.091799046715694055e-01
-2.637612673477613967e-01 -1.336702755615740978e-01 8.469779512392889842e-01
-3.294016447319602081e-01 -4.973509315462749242e-02 7.888598145946857931e-01
-6.108976822091486403e-01 -2.778199428660722559e-01 -3.818633668573934714e-01
-2.701096197617807726e-01 -6.236192306429984011e-01 6.086006999200253148e-02
-4.184627309671128392e-01 -1.701375191828258526e-01 3.428663292208875002e-01
-7.276726215205189252e-01 -2.000536956202876582e-02 -3.152418762903285154e-01
-6.972595446478613290e-01 2.885174415217598431e-01 2.560996821908014254e-01
-2.480093188723782038e-01 -5.163227959489111729e-01 2.928517849324583366e-01
-3.571508474739180650e-01 -4.589876920637296909e-01 6.736580767978410378e-02
-2.060054223149038466e-01 -5.006221497750960037e-01 4.388137459801527140e-01
-2.035288991745061449e-01 -4.048861858940569491e-01 5.959923095269852311e-01
-1.159508753796373165e-01 -4.444914245412129872e-01 7.869603688369798400e-01
-1.124809351887976760e-01 -6.995673694473327764e-01 3.972681588453834123e-01
-5.963512385676458250e-01 1.969475792082658883e-01 4.041504325360168459e-01
-4.557743700905547007e-02 -7.248869615448283454e-01 5.508894762661005196e-01
-6.140415873719404782e-01 6.939604403484224415e-02 1.531591867574433885e-01
-7.171691331709965089e-01 -1.153086832917405435e-01 -4.342404337830675365e-01
-2.298294020871708143e-01 -8.925221567697210201e-01 -2.441470182091826924e-01
-4.760876161455271927e-01 -1.264330749962751244e-01 2.448629462674610235e-01
-2.019006548064473661e-01 -4.555155757081887913e-01 5.213577010915358967e-01
-5.042803423502102422e-01 -3.562152350542301393e-01 -1.966727470223204322e-01
-5.021371766934726866e-01 -3.172512486506179341e-01 -1.294220402286219984e-01
-3.688063059825443801e-01 3.555344353826993264e-02 8.086630329661590455e-01
-2.171144166497850914e-01 -7.538025117511391038e-01 9.970365820311655539e-03
-2.843815831214937528e-01 -6.281272622829567887e-01 1.256099947395225916e-02
-7.146159430347552854e-01 -7.239114144690201279e-03 -2.575129458337599431e-01
-6.199132291453522958e-01 7.696838900535601935e-02 1.480610303355775204e-01
-8.673952864678587948e-01 3.934190411042029489e-01 -7.107234432580435135e-02
-7.335922394241025657e-01 -5.033138284145221436e-02 -3.798673941848804136e-01
-7.516899788091127022e-01 3.397102759162621277e-01 1.790604559543445828e-01
-6.363728269598308840e-01 -3.528166281506450730e-01 -5.729902955207999415e-01
-6.658309426395196962e-01 9.042827629984523385e-02 3.648732868484987762e-02
-5.801040842928941593e-02 -7.352232074826275943e-01 4.987705229081969560e-01
-4.565316350425327463e-01 -1.545642571611589577e-01 2.572812820315484861e-01
-3.045555273622431169e-01 -3.348813251695780258e-01 4.138061940044169829e-01
-1.995804002493088425e-01 -3.473611235793017116e-01 6.975452046556698260e-01
-8.452967707590277602e-01 4.192775643407471442e-01 3.329666313655910148e-02
-1.454142221675120139e-01 -8.079641199664501228e-01 1.322533842113044200e-01
-6.155162800145914659e-01 8.152588595050407061e-02 1.679065944194350068e-01
-4.377740802030796741e-01 1.972719729412192036e-01 8.628219898762915507e-01
-5.956554609110951137e-01 -3.358611130463489552e-02 4.490209688684075606e-02
-8.618942760186257823e-01 1.806823538363891701e-01 -3.885484850233612564e-01
-2.496001051899791323e-01 -7.061065749320459828e-01 -9.145637228105962802e-03
-4.127613540411113058e-01 -6.347157312151764375e-01 -3.686800080881684760e-01
-2.620005385986756141e-01 -6.121671483332367103e-01 1.022349577493377459e-01
-3.671000226122322907e-01 -2.234386864198678324e-01 4.077383716575328498e-01
-8.234895326165722618e-02 -5.523534236210206894e-01 7.150179808882719534e-01
-8.274950753377944279e-01 3.392983693818807933e-01 -4.060210710584824523e-02
-7.067508570857025108e-01 -1.172866026868425310e-01 -4.072393184250321929e-01
-1.607018320908703279e-01 -3.868955005096459954e-01 7.479211992565883982e-01
-3.908887700244738084e-01 -3.502296983480462367e-01 1.403193327579204952e-01
-7.362787374580374022e-01 3.227570721461877623e-01 1.970202432040435991e-01
-5.733564679759850513e-01 -4.346498118452359893e-01 -5.191595633419898714e-01
-6.117693067164645671e-01 -1.603173094527213793e-01 -2.002487837972181106e-01
-6.076332512347162318e-01 -6.257452113010849963e-03 5.312117346713386701e-02
-1.741861259719233723e-01 -3.943724548713500866e-01 6.972454135583749935e-01
-1.579003889715226150e-01 -8.211706760384309689e-01 7.548280901798434805e-02
-4.462155409413695595e-01 7.215840408384605054e-02 6.423731765593176934e-01
-7.872540363328158763e-01 6.668264673314927560e-02 -3.515405409603219455e-01
-6.267686777070150539e-01 -1.540292057290036654e-01 -2.337313702355784395e-01
2.428057929539420012e-01 8.799035118463200966e-01 2.663154303638086140e-01
7.849748835813317172e-01 -4.115004772377279241e-01 -1.909414019164156484e-01
1.884725834398855437e-01 2.000085170441218974e-01 -9.560965047782647996e-01
3.916123995202229202e-01 1.767751265897800350e-02 -6.549046781485824420e-01
8.309303380397563554e-01 -1.489674341055443607e-01 3.532369799823915080e-01
8.228143098974175507e-01 -2.802531388206072616e-01 1.240563448074404745e-01
3.377377671124232594e-01 -2.863487733653068482e-02 -8.831339604589157899e-01
5.698622231105225922e-01 -2.606594552447022983e-01 -5.760718098176766944e-01
4.419028863791615858e-01 -1.020850727222796100e-01 -6.972790982913860125e-01
8.375548766188299910e-01 -4.045915724108503642e-01 -2.819997107428278554e-02
4.542808567269836506e-01 5.501961319739874234e-01 3.606429256008998330e-01
2.404164932571032504e-02 9.356361376819970488e-01 -2.784048189581729837e-01
5.052564673774081472e-01 3.684918284002129396e-01 2.231819988596995541e-01
8.530193686976559331e-01 -3.008839294171873346e-01 1.789956496724353641e-01
7.688569369897879646e-01 4.514858284087294553e-03 4.144086281093230517e-01
4.355967929378080084e-01 3.247896675363270980e-01 -4.656326661045976506e-02
3.215638554379926517e-01 2.626251170785061650e-01 -4.734438972442236992e-01
1.521159267428537354e-01 7.468193508540869052e-01 -2.042569024821678514e-01
8.232074441581942459e-01 -3.264743316640144610e-01 5.276111968686290205e-02
6.361840829740654790e-01 1.231830994347790642e-01 2.170479319843191812e-01
3.247756923727110889e-01 8.122960955437616981e-01 3.971995173176198768e-01
2.286100023504465117e-01 7.249204582103080385e-01 -1.756594396582878206e-02
2.977740442136790899e-01 4.405770648380187282e-01 -2.633175422969922241e-01
2.801676828581726730e-01 3.087808046960304753e-01 -5.207178407963118927e-01
3.395046137077484955e-02 9.610774999051928669e-01 -2.099081774618308527e-01
6.208494584576762509e-01 1.498173967046071420e-01 2.144802968350598138e-01
6.103269297542418537e-01 3.213052932865430589e-01 4.528091463531951355e-01
1.118081696574945993e-01 8.871369394518778817e-01 -1.008294618833451561e-01
5.616712148119992198e-01 1.548559172727500266e-01 5.139736606777235706e-02
5.673610792233123590e-01 6.428689092398584548e-02 -7.408989635351195813e-02
3.445373082707362533e-01 1.836114654792966594e-01 -5.308872999103039225e-01
5.610484820922667648e-01 1.374901524883794246e-01 2.238507909029827103e-02
6.066937837409505097e-01 3.375845724169553863e-01 4.678227114740407533e-01
4.804138622600591657e-01 -1.401154211309290493e-02 -4.479967606796377289e-01
8.085111619443937636e-01 -1.857204330031660827e-02 4.927997314286666208e-01
7.701344736918289691e-01 -1.906650172620192596e-01 1.122424315583074733e-01
5.604098001963360165e-01 2.308758282454849431e-01 1.668801243930715938e-01
1.290212881322481686e-01 5.219356295517840749e-01 -6.233870192061248261e-01
2.209521165461667269e-01 4.338947997351338404e-01 -4.957439335061599728e-01
4.648869768140447833e-01 1.850019727837761974e-01 -1.809924529613914090e-01
2.253361845221648341e-01 6.173627489727004924e-01 -1.955733671649785566e-01
5.496486240482628682e-01 -1.517888743267372942e-01 -4.638672009965490450e-01
3.044192342591552358e-01 6.541547203866862614e-02 -8.320163920692699167e-01
3.634473566875770500e-01 5.333953948912495413e-01 7.187792977190490817e-02
7.533249380866758882e-01 -2.561045308185667113e-01 -3.887110729174643453e-02
2.722020694062070589e-01 7.087024419049243740e-01 8.296633412682145881e-02
2.897519995970368467e-01 1.975078208140739200e-01 -6.673974056839930835e-01
4.460545132978638860e-01 6.859167989144796529e-01 5.495567878246749860e-01
7.626907570914398526e-01 -3.309516587684142169e-02 3.376563065997115753e-01
5.837620888997498980e-01 -2.649635180191419748e-01 -5.426568303308562102e-01
3.737731052279703037e-01 1.727226508461626175e-01 -4.634822033319980217e-01
3.911886531526354571e-01 2.431856005349376237e-01 -3.027457734243450549e-01
5.539412084263908298e-01 -1.437226287231148647e-01 -4.388247726885292632e-01
7.598314182041965292e-01 -3.362823167897575072e-01 -1.457153650999397643e-01
7.349946597387150282e-01 -1.194493975328357049e-01 1.223146916448270144e-01
5.547793782700904952e-01 2.987278681927618695e-01 2.569403998121799759e-01
3.691013307200811111e-01 2.970347394750441627e-02 -7.010986320986846154e-01
4.697221348463215262e-02 8.274231847788261485e-01 -3.817289982629462619e-01
5.167073265568326024e-01 -3.610319509722417081e-02 -3.777560037024340622e-01
8.249519255521780003e-01 -2.106519838041440718e-01 2.393010933230001192e-01
2.437005079858337586e-01 8.355357678786667908e-01 1.993738322334948632e-01
7.691023950012872978e-01 -2.436948390231387096e-01 2.615997783701611706e-02
5.870037112219781417e-01 -1.137366502990452971e-01 -2.963105269298333955e-01
6.460162402755109667e-01 -1.391351654799804216e-01 -1.656115781453391111e-01
4.912569731982416865e-01 -1.418054382215613030e-01 -6.169285511751400053e-01
6.265254583786987741e-01 5.356107209493448339e-03 4.500926935921818924e-03
2.607570945310886401e-01 4.369736306970019024e-01 -3.759141744284892894e-01
4.940745572383020146e-01 -1.683702596313054189e-01 -6.504164418938688241e-01
8.535980062349495245e-01 -3.191770573500560815e-01 1.520011499657361875e-01
1.601717523146944933e-01 8.501928066475753498e-01 -1.899018777248609804e-02
7.500531096269907883e-01 -1.696263897229275952e-01 8.719174112944176602e-02
1.530349209573388658e-01 4.582653783903795075e-01 -6.537811935033776001e-01
3.021699473236857947e-01 5.880098202024114373e-01 -1.958185200946462381e-02
2.008988837959410634e-01 3.387626571181133195e-01 -7.027591378977425807e-01
6.858434079666332339e-01 6.568858699081636665e-02 2.704273412319098679e-01
6.507442768710396397e-01 -2.682930126051749804e-03 6.187665622112928365e-02
7.264867582890638387e-01 1.898255246369163485e-01 5.823838449830366359e-01
1.724270944306579845e-01 4.537718703108757912e-01 -6.047946371939882937e-01
6.276628271032412831e-01 3.670855002496324904e-01 5.746362747764995893e-01
2.615864612033905190e-01 5.598175265062020900e-01 -1.810150222603783554e-01
5.479613806581715707e-01 1.189980543036006366e-01 -4.440445068108066218e-02
7.672136777578383304e-01 -1.696193486213195545e-01 1.367833144303434167e-01
6.305199983885254600e-01 3.711288033687968890e-01 5.892273232806545247e-01
7.391122393776511368e-02 6.583027284381446353e-01 -5.689172273415467052e-01
2.714795431067632547e-01 5.900117479309275881e-01 -1.051158446944530367e-01
5.727567669796599370e-01 4.544231278124877815e-01 5.528636819621013387e-01
4.169968560753962161e-01 1.320731590786579090e-01 -4.022994940723672586e-01
4.411505033811498611e-01 1.180965108820143106e-01 -3.544166110644415002e-01
4.100717141678054123e-01 1.761903487498779619e-01 -3.531737166596056743e-01
4.198598396312075987e-01 2.133276276152700490e-01 -2.666976393934241685e-01
7.582312695926924917e-01 -1.192493625696501927e-02 3.579467752281739745e-01
7.587685538610899894e-01 -5.010652325318956657e-02 2.996665212614909590e-01
6.861344761849224039e-01 5.596745941909714306e-02 2.560347741049793235e-01
5.479711465380072699e-01 1.983941022426012959e-02 -1.997631176118803420e-01
7.184419103927706107e-01 1.263643321004761233e-01 4.596934918557120109e-01
2.750862283451658841e-01 2.920428926121680924e-01 -5.616284468584565870e-01
5.111751106898956287e-01 2.597440646065345971e-01 6.986867654534524574e-02
3.383769900078760218e-01 1.174791822760182514e-01 -6.523185866973104652e-01
6.542834983108763991e-01 -3.843773844205206625e-01 -5.260333412750660687e-01
3.378649935839264096e-01 6.153168876126130504e-01 1.263403766043499077e-01
4.580135266962661045e-01 -7.691295582987087154e-02 -6.112859746378859205e-01
5.642847022106062260e-01 -1.651722316985775318e-01 -4.425528857853767706e-01
3.945389411603440755e-02 6.540139878674737783e-01 -6.751924837676620550e-01
2.417802077291824059e-01 3.915490352824325671e-01 -5.019252089391866845e-01
7.844073305560161913e-01 -1.445336296527479636e-01 2.257701018583204711e-01
4.807683132101097656e-01 4.761934337462732092e-01 3.212046597041534612e-01
3.086381192142192420e-01 5.966289101286007535e-01 1.261264893326833475e-02
8.692888123949494839e-01 -2.155753720593890921e-01 3.596845989667703525e-01
2.010456899710988954e-01 6.926585562931694140e-01 -1.477612390111579521e-01
1.679296603393317100e-01 5.052236651534762757e-01 -5.371609769739474904e-01
5.868981687818695114e-01 4.577076955534720715e-01 5.988682991405736011e-01
3.173624862357690146e-01 3.607244930904905389e-01 -3.318555953973612027e-01
5.531896385903282143e-01 -8.782318767237905222e-02 -3.533988133467891868e-01
5.759750536162774326e-01 -2.504035715363017722e-01 -5.423390227508233519e-01
8.219570630468575612e-01 -3.795656733963916341e-01 -3.404846133988164575e-02
3.865684104661032405e-01 3.756161282273132729e-01 -1.085689410674355176e-01
2.660201558205203543e-01 7.539902712829670006e-02 -9.273147521971155660e-01
1.909413759163737512e-01 5.506694534527432072e-01 -3.994592516303866470e-01
6.170325724014733559e-01 1.291699478016443588e-02 -1.107773030283968306e-02
6.664690130798842649e-01 1.601274220973503415e-01 3.624412745922910850e-01
5.250665853836351538e-01 3.787870063062431236e-01 2.965507455257329061e-01
7.656226854197371035e-01 -4.131525577657976789e-01 -2.494429260735292198e-01
6.071885881988152711e-01 -1.256314354549564472e-01 -2.566318770467594934e-01
6.621628175988908405e-01 -1.184309169109387522e-01 -8.651601271960909778e-02
6.754192147074543628e-01 1.571497364579886313e-01 3.836341228718713192e-01
2.186088635479271625e-01 4.150957697920802381e-01 -5.319731732673120828e-01
3.774960690049054546e-01 2.268289406313549472e-01 -3.679383261755480583e-01
5.127607037430044201e-01 1.328555412062510099e-01 -1.243912892731922626e-01
5.982724637143294055e-01 4.069248106351289751e-01 5.521515733785367086e-01
7.156870424240644457e-01 1.229816582366198702e-01 4.464332607109121054e-01
8.190737002580917858e-01 -3.863851601943340541e-01 -5.306561053809495665e-02
6.473906760986786191e-01 2.347126123612690018e-01 4.241988622432522615e-01
5.956227020931621485e-01 -1.639820734456083895e-01 -3.501456822293695925e-01
4.678546086607480170e-01 1.742090063304338188e-01 -1.893314858721254768e-01
3.461658376145206883e-01 6.021730226487409521e-01 1.297261472744351551e-01
7.892300668924063789e-01 -1.440914783854681525e-01 2.403968898291349299e-01
1.092374811861264172e-01 6.827758608933831574e-01 -4.285014359856909039e-01
7.599334760088808371e-01 -1.318641446807836681e-01 1.749136773961178226e-01
2.980699072668631100e-01 6.461360829883104617e-02 -8.516175144998180402e-01
4.220829204118718980e-01 4.251809391658555037e-02 -5.279423323781238242e-01
3.564142961816272326e-01 7.157614315451710230e-01 3.373352223171973141e-01
2.934854350640846987e-01 5.195522588833358935e-01 -1.519499081425552400e-01
2.156518992853114769e-01 5.372368869751313891e-01 -3.491148298989380505e-01
7.605551927021173553e-01 1.913444845418396309e-02 4.133327964918517283e-01
4.973258327118099814e-02 9.385284321226222692e-01 -1.996458545349079350e-01
2.927572202173747140e-01 5.565200034682064034e-01 -9.612344910154013711e-02
7.769688712861554380e-01 -4.772420566870126390e-01 -3.170930386012748570e-01
6.858508621983101516e-01 -7.188304966228901971e-02 5.486678782452076436e-02
7.938492914816227541e-01 -1.410268669418628107e-01 2.585452239108390060e-01
4.685221913511962710e-01 3.111630806480582614e-02 -4.116365853823496512e-01
8.614609403302174728e-01 -1.772272583007932778e-01 3.971617469413442625e-01
3.801862676105244310e-01 2.235897056613760647e-01 -3.652418228445840631e-01
3.425607386911148633e-01 2.766439237423358732e-01 -3.908112079763301216e-01
4.854604777882242650e-01 4.573921640939089261e-01 3.052987313462065533e-01
-2.037766768482061550e-02 7.951465992971809005e-01 -6.268962927255238293e-01
4.421903222621673124e-01 3.670072685836305720e-02 -4.789638864303217280e-01
2.848633691084091757e-02 7.880695961776681413e-01 -4.968078081572665505e-01
8.008102263228096263e-01 -2.764465790140969159e-01 6.644693885031494052e-02
3.858361187145408766e-01 2.913061743087149713e-01 -2.428028814346135378e-01
7.833767968668597925e-01 -3.878143041361774013e-01 -1.584411188538719650e-01
1.902605464837952565e-01 2.734017603344972569e-01 -8.359195726642483226e-01
3.784891876327107774e-01 2.106158597315787862e-01 -3.904757570413600609e-01
3.555234497412778638e-01 6.403388133033646179e-01 2.165701125530841153e-01
2.250670876159464040e-01 1.757464101298293335e-01 -8.883871964580473124e-01
6.408965866073312867e-01 1.693275267652129268e-01 3.029741377185685147e-01
1.133350336195036168e-01 7.348724695237667248e-01 -3.350245698785790371e-01
4.795733070606485460e-01 6.259415255808848944e-01 5.524152770117531919e-01
3.325884901883012779e-01 -9.803027469883365472e-03 -8.685008062867234369e-01
7.750754684855335475e-01 -4.756762091866740261e-01 -3.201097163891467035e-01
6.653693752823918173e-01 6.030622149343594501e-02 2.028390425384780371e-01
4.352053490321477480e-01 3.928027161374972875e-01 5.888584227071429894e-02
7.562150712749272641e-01 -2.103084519651676754e-01 4.124400110636229633e-02
3.902366051822384607e-01 5.699062745746428238e-01 2.064922747558005645e-01
3.548285870150689192e-01 3.717806318629761075e-01 -2.062824844471980168e-01
8.217730957236333289e-01 -6.535271565201523913e-02 4.578084771898669469e-01
5.160684745670337525e-01 3.486801221873918055e-01 2.233741924295055414e-01
6.457273902468328997e-01 3.560529454735661958e-01 6.095400469805916099e-01
5.524163234681579437e-01 5.244435837623138141e-01 6.038215927262483573e-01
4.779397601299970044e-01 4.752006395078421826e-03 -4.257414881200592416e-01
8.372003302535919733e-01 -2.095507988498398755e-01 2.764149610895366149e-01
4.616534110722622097e-01 7.875223851840514044e-02 -3.568339127762105711e-01
5.379359611264109553e-01 5.311322450439862619e-01 5.724662279654648689e-01
2.442619037237160617e-01 3.152477672273126252e-01 -6.143232157792096748e-01
1.034385206790441999e-04 9.228866512471022299e-01 -3.675465380566620976e-01
6.262011496550079492e-01 3.630033719866838093e-01 5.640162643802165698e-01
6.220828740765439457e-01 -2.032352178923690911e-01 -3.352083751612764950e-01
2.884257910773676548e-01 7.954565687412961106e-01 2.657884671949221622e-01
8.310956707137956423e-01 -2.349851957215390308e-01 2.189202422050263719e-01
5.357006596461536541e-01 -2.045462852710433210e-01 -5.868395195957658572e-01
2.241099689954721697e-01 7.224524712749700317e-01 -3.443496674547303488e-02
6.253770138550809321e-01 7.797628312534014838e-02 1.149825138235985450e-01
2.834154599210194081e-01 4.480479203785472375e-01 -2.930953242020065685e-01
5.075944418865945273e-01 2.256340316142292635e-01 6.071120542226256245e-03
5.612228507847303316e-01 -2.328504613388869271e-01 -5.574546218676068587e-01
3.783947356365463532e-01 5.496765634124199940e-01 1.405775531720664384e-01
7.422990909855269326e-01 -4.124915184062064033e-01 -3.157938784563403822e-01
9.368386298351780161e-02 7.050901654219151604e-01 -4.384714495557953673e-01
1.171936991357548502e-01 7.745861169915857491e-01 -2.616426594292866059e-01
5.247380391333725941e-02 9.563076430301798991e-01 -1.638649122217940013e-01
3.148585878662317761e-01 5.275104633119297864e-02 -8.217007044782274061e-01
7.719836577932435162e-01 -2.941191871843552574e-01 -4.453308205726762975e-02
4.853311680682064200e-01 5.800876442559078222e-02 -3.209299553228602830e-01
8.016435337773974990e-01 -4.765496179489345785e-01 -2.447175902393225744e-01
6.438409900810546094e-02 9.598694875960837036e-01 -1.238719303656677234e-01
7.957566340964093987e-01 -3.133625544874263369e-01 -6.003268398385904099e-03
6.788557812458272389e-01 -2.428900043461927095e-03 1.434948636903210506e-01
3.230360777028828956e-01 7.313962223586780720e-01 2.653989846471551672e-01
1.526663784180156691e-01 3.869863008428369722e-01 -7.665441067447064105e-01
4.105785009402736496e-01 5.411734233209352096e-01 2.202384379504073453e-01
7.879276660901232687e-02 6.645284551552395058e-01 -5.450573642099246774e-01
8.514018419083219102e-02 7.744909966497239839e-01 -3.544011557331261386e-01
3.707770035710142853e-01 6.874816710028712752e-01 3.345162530111054355e-01
8.228181706494664960e-01 -6.573612919227736495e-02 4.602270919714563369e-01
6.420322472648569700e-01 -1.143714741821122600e-02 2.298742021768757429e-02
6.655702112649605207e-01 -2.760803512564571349e-01 -3.237163959002999358e-01
6.306944661956007669e-01 -1.969022907518017396e-01 -3.004036152451243780e-01
3.965831465167684589e-01 1.320705276400584993e-01 -4.612831762666577684e-01
8.242948253141333392e-01 -2.592186217379696678e-01 1.612960793312836205e-01
4.686209058418028262e-01 5.743383109629547345e-01 4.399064662134020698e-01
2.848798635149623060e-01 2.786553976600371629e-01 -5.543114655452746620e-01
6.581400130953674044e-01 -6.944520581643995327e-02 -2.137553117219341894e-02
2.129289404868008051e-01 5.735213512151671189e-01 -3.001223480969226753e-01
6.447422945773718939e-02 6.166704786990244713e-01 -6.614226713860427154e-01
4.474988208692038394e-01 3.705087873961183109e-01 5.946852795681843717e-02
3.275286105717041818e-01 4.502691215547527936e-01 -1.621622875069059777e-01
6.490353861228449484e-01 -2.413529144906066959e-01 -3.170692853739150996e-01
3.386007441166579701e-01 6.248354602674575098e-01 1.433822276387383132e-01
7.314831449613456993e-01 -1.821551302976305575e-01 1.390595003244811216e-02
1.661547414432622549e-01 4.632819336794172793e-01 -6.080140256810037114e-01
5.541240820449269133e-01 -3.242316845162588890e-01 -7.211637274068711800e-01
4.947736377698979116e-01 1.276850085635278936e-02 -3.645425527923773501e-01
8.238641422253271118e-01 -3.619052373090100860e-02 5.095486660258700118e-01
7.607187805382636947e-01 3.181257972020181540e-02 4.336727443441655283e-01
5.735475264968648013e-01 -2.888569204629449216e-01 -6.096111142739221167e-01
7.296772963970465931e-01 -8.474507371686611223e-02 1.613352213604868357e-01
1.990492146602740320e-01 3.678883746026463397e-01 -6.624616739837343449e-01
2.598591168855013955e-01 3.530209876754919485e-01 -5.100668914350748873e-01
3.539205244854298771e-01 2.904872589637792490e-01 -3.362971207535770390e-01
3.084354270197089964e-01 3.962288798591213634e-01 -3.020105052485850816e-01
3.686172658258601853e-01 1.934343231602295154e-01 -4.459222275460973384e-01
5.598499390817445187e-01 1.379988052680742594e-01 1.971931886285215735e-02
5.038430543301517517e-01 -1.870772765917273206e-01 -6.515080644828131762e-01
3.445758943916593098e-01 3.306612765500354656e-01 -3.003409213991329318e-01
3.528273638110985266e-01 6.158855033926580874e-02 -6.981519767959466494e-01
4.167681221742854381e-01 -4.393787856925663454e-02 -6.787790363807889582e-01
6.480512788598304930e-01 -2.704833908731550662e-02 1.591411582724074417e-02
2.933829574117702843e-01 3.633519634172580615e-01 -3.970201798803250637e-01
6.192452411260260803e-01 -9.246441022229447138e-02 -1.698231394918131854e-01
6.339719815565236782e-01 -2.102903954738019332e-01 -3.119140486698616099e-01
6.052220372999475018e-01 -1.358174153343110792e-02 -8.672581668873710625e-02
2.646002271615010004e-01 5.507856260966461637e-01 -1.864610794939490501e-01
6.023227844519443153e-01 -2.201498424038693044e-02 -1.083177172140402655e-01
