7.372678785745373498e-02 -1.185896369609956424e-01 2.850703674361734774e-01
1.307306925983444668e-01 -4.958759863863733131e-01 -4.470857930299263483e-01
1.511654826986791877e-01 -4.597191702740566766e-01 1.130658374066323968e-01
1.607351283566769151e-01 -3.527823503628157442e-01 8.073358272980375450e-01
2.264830571327267894e-01 -8.437840835445372667e-01 -3.051260874416079627e-01
1.400871784709780410e-01 -5.399815667046696799e-01 -4.817320828851821557e-01
1.696431843111515514e-01 -6.451571513047432704e-01 -4.272894089850812760e-01
1.889205982944012763e-01 -6.438699325625872882e-01 -5.638172666325912824e-02
1.855386194455997395e-01 -5.523807428955891385e-01 3.187062695403825030e-01
1.387814319949643715e-01 -2.553464794781626357e-01 8.595849302232081435e-01
-5.935286557046827449e-02 4.696723270923284232e-01 5.903828985495379600e-01
1.669162187752600279e-01 -6.363243842349807222e-01 -4.364935423110252177e-01
1.141802514662309115e-01 -2.404854399991089298e-01 4.654499868802275953e-01
-1.620220347557727036e-01 7.298212785608328979e-01 -1.036172849901623172e-01
-1.031862275554702030e-01 4.710631983810263934e-01 -2.322723833689167849e-01
1.414258567718086335e-01 -5.135717946824586155e-01 -3.296583115189438140e-01
1.930684276155670287e-01 -5.462764294717461500e-01 4.904666259033508835e-01
1.397770916663242935e-01 -2.765334230945775684e-01 7.767424195722879565e-01
9.685728519962776006e-02 -7.930665505232663282e-02 9.112280796810795502e-01
1.513101866333143031e-01 -4.905484038402476710e-01 -3.215213275332394482e-02
1.958176149489499751e-01 -5.887432091094906284e-01 3.386747118200491569e-01
1.881750916044258315e-01 -5.771977927853673140e-01 2.494864286898977324e-01
-1.746126436237476209e-01 8.608839202487726938e-01 2.871638364837054702e-01
7.325075928401442171e-02 -1.421688263299552279e-01 1.629025342712959179e-01
1.856836232889542623e-02 1.077645146830619877e-01 3.277887298669019955e-01
5.483326180391068921e-02 -1.822598102696101896e-01 -3.779626486198754964e-01
-1.597033482958377104e-01 6.372959203225352365e-01 -5.037956338401496925e-01
2.199544072231944813e-01 -8.388952368209965371e-01 -4.051860401934341271e-01
5.606692536561274504e-02 -1.564246063876258419e-01 -2.306332333387379752e-01
1.169217984050734543e-01 -2.852007163496438902e-01 3.027225217151282566e-01
-6.025098530229402484e-03 9.520375023811411541e-02 -1.978029860268484541e-01
-4.915840809306707034e-03 -3.141879890434306349e-02 -7.845031861870160883e-01
1.067014234925158372e-01 -1.697065692781404567e-01 6.636322592552250654e-01
-1.273135896765900839e-02 2.636056629262802375e-01 4.835092066243677489e-01
2.428309535014251119e-01 -7.753251846615946130e-01 3.327255027619850924e-01
-6.645153640084609792e-02 3.380594131862812990e-01 -1.755616774992382056e-01
-1.323115182114705524e-01 6.731108369250466961e-01 1.863428472781692713e-01
2.061166408217554313e-01 -6.771604992387613153e-01 1.092004144390293641e-01
1.634318852348421169e-01 -3.794662301021380357e-01 7.302972805101084486e-01
5.959967672442906261e-02 6.670329941781918959e-02 9.070429992956300369e-01
-1.113619898215410520e-01 4.895194605616371430e-01 -2.983830265741924115e-01
1.904858195199996274e-01 -7.093265322154865826e-01 -3.409071991844517813e-01
-1.688785487461584300e-01 6.589666889070151523e-01 -5.733886474937760491e-01
2.332213126219791557e-02 -1.065168702520941368e-01 -6.106496859428559576e-01
-2.247009657684794631e-02 2.220277251521668160e-01 9.971058911019484161e-02
-5.233947232033132890e-02 1.797260564924856030e-01 -6.684344798045290803e-01
7.594594863057146927e-02 -3.672033653868291836e-01 -8.660909347252077062e-01
1.523734801179818521e-01 -4.758069517198506015e-01 5.871269134344452023e-02
-4.935414609027417854e-02 2.473110138650856382e-01 -2.875978998608365589e-01
6.024963477437091791e-02 5.283568997012000334e-02 8.527867664718017382e-01
4.689714125948290634e-04 3.996203878379440966e-02 -3.400509552047987771e-01
1.872930711328604780e-01 -6.957697146490557927e-01 -3.362522957832326242e-01
6.222198944723482394e-02 -4.552938565609641192e-02 4.180298006785049258e-01
2.311418048012696957e-01 -7.475401863986284035e-01 2.449118427921299634e-01
-1.539965204317593570e-03 -7.441693036482746604e-02 -9.269881789203724409e-01
2.547141234820131661e-01 -8.652724840790330108e-01 1.258804990798155776e-01
5.861887844855865476e-02 5.745686717537357852e-02 8.441107114867437700e-01
-1.501751863041654866e-01 7.945391355624974450e-01 4.311201324439897786e-01
-1.155755143932869905e-01 6.984637335097714228e-01 6.246629625153409249e-01
3.847036861717992307e-02 -1.185755998128592559e-01 -3.819162495771639687e-01
3.273841608817826265e-02 -1.534419788319181521e-01 -6.576960664291968683e-01
-7.782708318637767374e-03 1.827053950547630479e-01 1.888811485314020322e-01
1.975714233109107099e-01 -5.628799088616919244e-01 4.959801442683290373e-01
8.834306126902227718e-02 -3.172231165710098222e-01 -3.916712665309382557e-01
8.527350366996261366e-02 -2.627433135619130500e-01 -1.882878318669584383e-01
1.423557628800878050e-01 -3.158011217327573172e-01 6.370773703757978135e-01
-5.346089066382880839e-02 3.263934504602128972e-01 1.423493863385185895e-02
-2.148059383941841247e-02 1.938822019177786349e-01 -1.664405384664041990e-02
2.327339471275491345e-01 -8.691063182545227805e-01 -3.083853682230025539e-01
-6.044274373301898595e-02 3.066865531495445718e-01 -2.124396419628059862e-01
1.923771545618196688e-01 -6.408794343440267216e-01 2.336857698041282239e-02
8.595640875698998262e-02 -1.766777528484155535e-01 2.376789589362593158e-01
5.161079833294783710e-03 2.473242710369477348e-01 7.438977137801414674e-01
-2.081919300842968723e-02 2.743031805196025630e-01 3.818263742148950701e-01
-1.057127923588807028e-01 6.531970858550790737e-01 5.940224982709935153e-01
-1.875295800838360991e-02 3.095032670986733736e-01 5.898520827810657119e-01
5.232839637440945407e-02 -2.075466436150364968e-01 -5.467115525017415267e-01
-4.519254611500617136e-02 3.483827019579208706e-01 2.762035136132142688e-01
1.513526422576465247e-01 -5.760029965433077770e-01 -4.414628867231496501e-01
-1.447056851416249901e-01 7.924426376132379657e-01 5.245419660555089569e-01
-1.143565492574393772e-01 5.527828699501942111e-01 -5.142630299068776806e-02
1.407779661125756199e-02 -1.345251165876606980e-01 -9.199704474513414887e-01
1.511175289311766090e-01 -5.254988849323073419e-01 -2.035317166472550565e-01
-1.657692771081475391e-01 8.117935243569973647e-01 2.188861450332973135e-01
-8.335725704690398474e-02 3.238406912442541863e-01 -5.636576725680076949e-01
-8.012047514560766137e-02 3.444155666152814987e-01 -4.036745037183318563e-01
-7.056134765112119511e-02 3.988191104835742684e-01 3.827857674201790711e-02
1.406667884013476089e-01 -4.285448336196986396e-01 6.404178637664482976e-02
1.781831555526071920e-01 -5.952809970892967151e-01 -2.634670425827645782e-02
6.959662286031598200e-02 -3.197783619530176757e-01 -7.586183712853024064e-01
2.653338903518162595e-01 -9.093773643244831284e-01 1.151389362124872195e-01
-1.141112568951631739e-01 3.764137249687792286e-01 -8.932168482123977737e-01
-1.074599692748672147e-01 3.875801895413364950e-01 -7.137838680401575875e-01
2.468197669300917774e-01 -8.649462531911302765e-01 -2.191564529655543395e-02
2.198910403026639593e-01 -7.299396337377277444e-01 1.165152120070680197e-01
1.642912454527033772e-01 -3.835230744403042569e-01 7.270868142463898787e-01
1.714053281824501618e-01 -4.591575192434690922e-01 4.987006454250230147e-01
1.603626469257502518e-01 -3.650493965087878157e-01 7.414163957577195596e-01
-1.301148790023261004e-01 4.788272475230548886e-01 -7.045031475833201107e-01
2.073327816319342209e-01 -5.642036988458830615e-01 6.743126066658454709e-01
-3.131583912158451138e-02 7.326322901621931671e-02 -7.816026501518522629e-01
-9.855680551399029210e-02 4.547241139473164884e-01 -2.230979841411224740e-01
1.931670285523596209e-01 -6.709779899051210306e-01 -1.061360566294255597e-01
2.554165580423179982e-01 -8.751428405971529711e-01 9.180075758353629933e-02
-5.563305368747448881e-02 2.816247945708165723e-01 -2.417164512181408098e-01
-2.336679527684060870e-03 2.511210664217080613e-01 6.202611635246922939e-01
-1.546161162571523806e-01 6.910089573810946906e-01 -1.497650195734288037e-01
1.593658945934944560e-01 -5.364619650998010414e-01 -1.000861033792317667e-01
-1.868266611607666827e-01 8.989958371006507853e-01 2.389806087364537979e-01
-1.008135886903588907e-01 5.804945660179451350e-01 3.378015643676784974e-01
9.319846005845064396e-02 -2.399872121756769228e-01 7.086408345804441622e-02
5.495727992174950088e-02 -1.034681601849932187e-02 4.494293012966776857e-01
1.682900160399362563e-02 1.598549133519506504e-01 5.448723462168705289e-01
-1.076139287971664554e-01 6.604569737728545054e-01 5.928945429699324920e-01
1.169979890951225038e-01 -4.770075488917073225e-01 -6.163560501543803305e-01
1.428215586209137522e-01 -5.896819660085875769e-01 -6.685197658976963497e-01
-3.418860436465553237e-02 4.072816307297023042e-01 7.670668524725640092e-01
-1.341170498393296773e-01 5.449160584916512562e-01 -4.630508256991198723e-01
-3.149377945446952404e-02 2.217882289227718628e-01 -7.216753026348292355e-02
2.817638133188115485e-02 -1.964077947817047254e-01 -9.502118045745318042e-01
-1.101845857471141915e-01 3.870836805491421617e-01 -7.677166552859633342e-01
-1.454048913415558475e-01 6.023153343996201503e-01 -4.011467669021868132e-01
1.747795540490095778e-01 -6.346807456342548059e-01 -2.798305173474240903e-01
2.279511070992024796e-02 1.075074141437764030e-01 4.065252348824748840e-01
-1.222328692930785693e-01 5.521462862241588443e-01 -2.035019388660015416e-01
-1.334984410046671788e-01 5.528488917792507840e-01 -4.132754174014781068e-01
1.387425955236870345e-01 -2.613372421409751456e-01 8.300992496616993455e-01
-1.611103604714408666e-01 6.830460667445147349e-01 -3.108521225904953278e-01
4.020695125788836810e-02 1.148218262510750619e-02 2.751138397580623618e-01
-9.344671018839345589e-02 3.832398620088384167e-01 -4.694821166550747216e-01
-3.579782939607577957e-02 2.396884827915804206e-01 -6.769349549967301760e-02
-2.075887912106275102e-01 8.425503658470592239e-01 -4.247337106130578688e-01
1.227110849822894839e-01 -2.421898207481551768e-01 6.186742988955165057e-01
-1.490692116989877636e-01 7.125258369385346624e-01 5.844670605447256639e-02
2.383676032462396857e-02 6.834940893859400846e-02 2.383060677976530095e-01
6.909014789287416802e-02 -2.700260550227304157e-01 -5.294294469267089021e-01
5.023096135626343821e-03 6.083193469501883312e-03 -4.164780760596742959e-01
1.617968951784922449e-01 -6.726871951130486416e-01 -7.078640574299337462e-01
-7.437728516725482242e-02 4.586797804431084202e-01 2.533643276036625092e-01
-6.959956586165938486e-02 5.041988989285014489e-01 5.622146524843895099e-01
-9.770579885205579740e-02 4.950169737439868434e-01 -1.362322575195312746e-02
-1.375659132506256987e-01 6.363853511469987900e-01 -8.932378003811430878e-02
7.105114078985057258e-02 -1.374154537922439023e-01 1.440979985647320993e-01
5.171608091141011686e-03 9.468419846378868521e-02 1.154607248048061113e-02
-3.953040603197401082e-02 3.438205667561592960e-01 3.614369934351520097e-01
-1.481584858199922194e-01 6.689761490372785335e-01 -1.333261283823546084e-01
-4.491097737629418107e-02 2.384150246098452886e-01 -2.462264953085887553e-01
-3.746589503253153902e-02 3.008879914387408427e-01 1.944555054820180373e-01
1.425470329099763067e-01 -5.105496607037425250e-01 -2.939417411836421912e-01
-8.419751649979302643e-02 4.034972554086170837e-01 -1.972673457020606147e-01
1.344178242593588035e-01 -4.231062054277188733e-01 -2.808797818029665910e-02
-1.258525064542284910e-01 4.444879421035826117e-01 -7.886600824896240480e-01
-9.113606559988768341e-02 4.673596712458537583e-01 -2.205643571870791186e-02
7.322424546514443022e-02 -7.237055224766903057e-03 8.099659775486067748e-01
-1.227061038884706412e-01 5.100833123023821303e-01 -4.143243612963687927e-01
-1.257769125909480035e-01 5.839652611848141772e-01 -1.178497428063450952e-01
8.448646227243505891e-02 -2.127819351021426886e-01 3.659613239073564173e-02
1.229774371344907191e-01 -3.447148719842356712e-01 1.316750715759091583e-01
-1.606659477528231961e-01 8.091695025705740729e-01 3.028482872794435732e-01
-2.110400417193225853e-01 8.850897931424498433e-01 -2.858762313046654957e-01
1.333541104678305222e-01 -3.089520215532082781e-01 4.996356887574451844e-01
8.521535778887659451e-03 1.185509635091533953e-01 1.894684176094957317e-01
-1.397378926862819226e-01 6.664385125058486237e-01 1.381346325303502848e-02
-1.921875023774929914e-01 8.064872515659060603e-01 -3.064144596764910577e-01
1.229654707881302766e-01 -2.296699009613324960e-01 6.835729448993899116e-01
6.168123351673897303e-02 -8.110485560743829758e-02 2.370647243117197933e-01
2.437281969999759504e-02 -1.721339702626416557e-01 -9.056804297108028701e-01
2.320706705582148699e-01 -8.371228353290250945e-01 -1.674393514901967861e-01
-4.518600466378076136e-02 3.247857356250143934e-01 1.630806246979820406e-01
-1.149616617541541208e-01 5.923861373188072932e-01 1.271890816448297545e-01
-7.580355629634424018e-03 1.172873240477317475e-01 -1.212449877548902460e-01
-7.633656416065633110e-02 3.118982270458439121e-01 -4.881399800884929085e-01
3.221483039571849949e-02 -8.918555198914950369e-03 2.599503783969776133e-02
1.048791462263818919e-01 -3.336852229851225426e-01 -1.578123573677583935e-01
-1.684179350016444532e-01 6.903393790817290432e-01 -4.141098642769892590e-01
-4.183428033827420872e-02 2.361867298834902096e-01 -1.987092071957777539e-01
4.142908595067297528e-02 -2.363823664722278228e-01 -8.913158030696738399e-01
-1.343296270332276429e-02 1.151575402030245998e-01 -2.421980009295250647e-01
-1.284196264252657760e-01 7.433148918649410408e-01 5.969012960009469904e-01
1.608971131754735884e-01 -3.877497665246903424e-01 6.425848305170216435e-01
2.218568094634488716e-02 1.565100264985264389e-01 6.301683099481857342e-01
1.552601732262457734e-01 -5.733582748317697098e-01 -3.548395613166277496e-01
-5.667408686593774364e-02 4.754959701265655259e-01 6.690144345866241293e-01
5.977475604424362793e-02 -3.018291338397837142e-01 -8.583067906907481115e-01
2.076508824572829426e-01 -6.207917852096866973e-01 4.087533304642912424e-01
-3.466044851681154837e-02 3.471041436552236847e-01 4.693354945532182687e-01
5.885812279524578472e-02 -1.913992999476891166e-01 -3.456742644101051809e-01
-4.879769670425068706e-02 4.252401556749530465e-01 5.768483997352438220e-01
1.614918995158833581e-01 -6.467569249752139759e-01 -5.891899428305932274e-01
1.593267504359494879e-01 -3.391198706408318220e-01 8.462582423101988605e-01
6.838788252861480177e-02 -3.043671409233506542e-01 -7.075262325883394654e-01
9.805131956263604676e-02 -4.252336125185236515e-01 -7.263547193710101491e-01
1.536579425905882090e-01 -3.524342660135187377e-01 6.751054920968931894e-01
2.020500434179220983e-01 -6.246393725004685260e-01 2.843196975258848180e-01
4.037088535353447472e-02 -5.072134131100728555e-02 -2.031191212679826774e-02
8.514174905812731120e-02 -5.173241005990927843e-02 8.219037195008200847e-01
1.975892441237788177e-01 -5.245920602120244247e-01 6.800685091702730611e-01
1.757434288921872478e-01 -6.892769791204439445e-01 -5.236123945869312069e-01
1.300931420401117145e-01 -3.019395836543014022e-01 4.715920514489881921e-01
3.153864290796454251e-02 1.253154752570813379e-01 6.574180089738895783e-01
-4.151636454080733646e-02 2.403821120380837950e-01 -1.725597229362950957e-01
-1.107789632143766911e-01 5.741332828390767196e-01 1.187268674040618532e-01
2.215389409574365087e-01 -6.280272029580707960e-01 6.367921494125077242e-01
1.767813887283567753e-01 -5.935164849684743116e-01 -4.439997973744041343e-02
-5.050053035201237939e-02 1.583181604141433718e-01 -7.363824247566478354e-01
7.935996098925013342e-02 -1.254699979397628506e-01 3.586301521927013902e-01
-1.421523909380876804e-01 5.588914071814093942e-01 -5.480095079844776729e-01
-2.025479256658456739e-01 8.975580896485406690e-01 -6.536688803183554608e-02
-1.967146828883293286e-01 8.610216956356691043e-01 -1.303471215968521335e-01
6.405460893888728635e-02 -1.474437392297963667e-01 -3.640467346557307859e-02
-1.602656087414290262e-02 1.412097242529065100e-01 -1.662393204272468172e-01
-1.087670269296606845e-01 6.063758660840081749e-01 3.115315787420669391e-01
-1.926637934864451895e-01 7.723615685884203108e-01 -4.792020336422062599e-01
1.021506973191312756e-01 -3.293419237134396771e-01 -1.885904277019657127e-01
2.889044429909033707e-02 -1.381486762226103449e-01 -6.571042910029974982e-01
1.687737820220151508e-01 -5.134861007714425218e-01 1.881776609038867676e-01
1.834053633529182936e-01 -4.424963834297864773e-01 8.057023612281541958e-01
5.203458934801542812e-02 -2.776064034415016701e-01 -8.885014774777031388e-01
1.523591021321677730e-01 -4.552706216060335986e-01 1.569986950799428516e-01
1.675885948153323923e-01 -4.248768601773306730e-01 5.910076498317690108e-01
-1.998653131822038936e-02 3.673838358024216211e-01 8.442934401564364810e-01
1.583617549638965949e-01 -5.223942256975028231e-01 -5.157054701458397422e-02
-4.353248056087127837e-02 3.048139981044854507e-01 9.851697821527026500e-02
2.005671742036858884e-01 -7.145164793425160532e-01 -1.750748591903664164e-01
8.950132861679753471e-02 -2.084126195319876418e-01 1.524470002656405920e-01
-1.701891644068752596e-01 7.347933499133713076e-01 -2.342779801616342861e-01
-6.032250705823784948e-02 4.022146959737461502e-01 2.482942833559678153e-01
4.489561030769806393e-02 1.158826740738954642e-01 8.648628549354920869e-01
-8.723956738746829753e-02 5.955589837409640541e-01 6.669202350989649197e-01
-7.933416516172565880e-02 5.347273808473640422e-01 5.245477450931128605e-01
2.435682870745533579e-01 -8.873902724253922569e-01 -1.911473030767101289e-01
4.084248347521594186e-02 8.855074159056200434e-02 6.570058862858211279e-01
6.851356373310293901e-02 2.712264607262970112e-02 8.857387544745872754e-01
-9.909533810955875599e-02 5.389601350128450097e-01 1.709787841085305127e-01
-1.424952654944195984e-01 5.116424280419685777e-01 -7.812542057528145678e-01
7.966696369786600840e-02 -1.629790084360171198e-01 1.844252747755082689e-01
3.173329958844767901e-02 -1.523182539072553132e-01 -6.713199577132403784e-01
1.517017024672627779e-01 -6.247392963123672427e-01 -6.687540840407957266e-01
3.073635462626279902e-02 1.699428735565076676e-01 8.564146425215393155e-01
-8.443178148578078801e-02 4.406826081742157286e-01 -2.323956480275583131e-02
1.444856038370310458e-01 -3.721099128723234784e-01 4.071367423223460347e-01
-3.741966646540351160e-02 3.723191459338251463e-01 5.381428309154667744e-01
-1.869343683302624459e-01 8.430956726667909740e-01 -3.133350767709392609e-02
-4.167367643826577761e-02 1.094107840516841956e-01 -8.040941877750725775e-01
-9.339318241992093650e-02 5.518718982341085377e-01 3.408301641257566184e-01
-4.655179783586983755e-02 3.817844921706972650e-01 4.107883764059330201e-01
-1.701416727263672934e-01 6.515777282529170433e-01 -6.327481729523842802e-01
-5.983588922624340396e-03 2.484940845959401207e-02 -5.346624550680553201e-01
-1.010382199512353668e-01 5.036969619614523053e-01 -3.501583868815223016e-02
2.525998461048161725e-01 -8.664829633861949043e-01 8.006888220309173188e-02
-3.046510398498123579e-02 1.996719433572276547e-01 -1.588454811803889088e-01
8.529291865618196522e-03 -2.270272262059380361e-02 -4.882900827598383175e-01
1.160620846963625885e-01 -3.016278678627730137e-01 2.076194264444013449e-01
-3.126385486125805857e-02 2.886608369018439646e-01 2.531179428061223202e-01
4.375688373963945721e-02 -1.708041118163972361e-01 -5.325502840268288018e-01
-1.890490814680567677e-01 8.822345373281684777e-01 1.164913611100740903e-01
3.976953559445522979e-02 -2.583063202549222212e-02 8.776609715159862379e-02
2.319920210590692422e-01 -7.675830400959191557e-01 1.648082531509421356e-01
-1.307361112035648476e-01 5.251262620460707131e-01 -4.940584928343632609e-01
-1.307240500612779355e-01 6.184180602748116096e-01 -4.610393013864166195e-02
-9.671054993915220721e-02 5.075770627836342364e-01 6.548538388266182675e-02
-1.188550367334065133e-01 5.594413024796078826e-01 -1.045828335326293435e-01
-1.282989252594858853e-01 5.433761783646542387e-01 -3.603616895519834995e-01
-4.947411982935309011e-02 3.140119985526921287e-01 3.024381645658585568e-02
2.692224424748415057e-01 -9.392918160687809825e-01 4.514506717875782504e-02
1.030180800836117544e-01 -1.329741589056779305e-01 7.702294657646069354e-01
1.149330578752294219e-01 -4.818363664763650744e-01 -6.785991774847514035e-01
-4.556509621032705376e-02 1.253364199204168861e-01 -8.012897550412932945e-01
-1.096838898434891220e-02 2.617534810491535802e-01 5.079757267753332028e-01
-5.671947765358525961e-02 4.725727231605015288e-01 6.541263792863942772e-01
-1.011700017664442369e-01 6.562591483372883783e-01 6.946678848531958606e-01
-1.832398878320206370e-01 8.279239600866604709e-01 -3.424581400358554101e-02
1.365355613996858397e-01 -5.696350493033055518e-01 -6.912420432796434477e-01
-3.213352153442687598e-02 3.017207910864459497e-01 2.993411703834513160e-01
-1.630061704709678816e-01 7.800894616860037933e-01 1.190100587788905789e-01
-3.556158273420221422e-02 1.447134825232319899e-01 -5.190280865564217416e-01
-3.409079057268623453e-02 1.210648891138681460e-01 -6.046950157385501123e-01
-1.364702043466254344e-01 5.832199249904668203e-01 -3.237446112140149879e-01
-1.708806840356720258e-01 8.459111411001556391e-01 2.859153593356394962e-01
7.467122378356640111e-02 -1.303210709634124720e-01 2.466376187784889429e-01
-7.738272152546664395e-02 4.214038391007269846e-01 1.760641154200684455e-02
-1.174261364075330216e-01 6.124763403864375011e-01 1.769780257896366449e-01
1.052427605167119418e-01 -4.513108301240322251e-01 -7.154420253346256420e-01
2.653500524156940932e-01 -9.000327688883229538e-01 1.602913427954796022e-01
2.087917931269104022e-01 -6.780525938512416140e-01 1.555331442093785821e-01
-9.833459135443455013e-02 3.119331926243175679e-01 -9.041764275562593767e-01
2.647617481944201656e-01 -8.605699474167389784e-01 3.385507127080527034e-01
-1.816059859438614310e-01 7.571144279939923116e-01 -3.431616578768631465e-01
-2.178053960405569589e-02 1.066587681471860144e-01 -4.409220956960532845e-01
-1.828981548631199439e-01 8.731073105926455691e-01 1.890639117858478047e-01
1.579617910564405370e-01 -4.495551327885050630e-01 2.904317683281913420e-01
-1.096729672193817312e-01 4.674706078859717229e-01 -3.722435381243343056e-01
-1.086749239306565862e-01 5.708655454557473030e-01 1.428529036610815817e-01
1.032078780498837944e-01 -3.140179991226871858e-01 -9.504585317743625972e-02
-1.871682181018020918e-01 7.316463070393770529e-01 -5.706261960486692653e-01
-1.673438637803980333e-01 6.836963336570213157e-01 -4.256696893632752055e-01
5.014371399162507320e-02 -8.421757941781268797e-02 3.835429914861503402e-03
-1.858120699027554779e-01 7.688176863965647811e-01 -3.665747447012928095e-01
-1.729307199277909102e-01 7.843444271666633050e-01 -4.834268265611202375e-02
2.067187244391344714e-01 -7.890144366118243546e-01 -4.162179764903605195e-01
-1.205457342701716228e-01 6.172252483268101386e-01 1.407459878452969326e-01
1.821598890813374283e-01 -4.988538423129562638e-01 5.116669602085978097e-01
-7.161545500916248475e-02 3.839586089604816732e-01 -5.298378754092235299e-02
-7.163579417754913081e-02 4.830456250781245964e-01 4.221701914374402231e-01
-9.397274537632357982e-02 5.056060656174423684e-01 1.078256254883207393e-01
2.069156608115937934e-01 -7.170825683657419125e-01 -6.727622115285514237e-02
-1.220142056131003211e-01 5.980249249760399843e-01 2.081613722273779887e-02
1.708670567786814420e-01 -4.209206649170758041e-01 6.720229734926906895e-01
2.539714815281368665e-01 -8.422247236802371528e-01 2.224405623387361586e-01
-1.589570224191990712e-03 -1.821731292330447047e-02 -6.582132843756454132e-01
-3.418326022201298442e-02 9.868197042585290235e-02 -7.138647395544786001e-01
2.011672403076573412e-01 -5.599329985504278850e-01 5.781560836564791916e-01
1.318275132373995517e-01 -5.282528042011752634e-01 -5.817168191742919658e-01
2.222117464087330074e-01 -8.450760279901322614e-01 -3.921398979711512300e-01
-6.740996936562085318e-02 5.071559163161553085e-01 6.178333049248383446e-01
1.405922437430998373e-01 -3.441062061573449959e-01 4.678695891407070873e-01
-1.159098316081637881e-01 6.968875725563017376e-01 6.107733389515026534e-01
1.427818621440166413e-01 -3.120617470170632402e-01 6.630852208960557048e-01
-1.959753363485114419e-02 3.083402508478109705e-01 5.682910991048917282e-01
2.663869298050985067e-03 2.805057177091448417e-01 8.558948404896740136e-01
-8.351076700950454609e-03 2.532334003030229930e-01 5.166058581230963398e-01
2.613400458887453759e-01 -8.372015013671098016e-01 3.859617975371111287e-01
-7.750958190311676987e-02 2.603101036691773951e-01 -7.579154846505230525e-01
-1.202419932931124945e-02 2.120965881474659032e-01 2.496861634837335697e-01
7.042178331347885567e-02 3.092846912994058964e-02 9.401073269706933244e-01
-6.284576975695735368e-02 5.082986205503889909e-01 7.096723599782850389e-01
-1.856215591513122598e-01 7.505217873649198124e-01 -4.507760182000242200e-01
1.348613693084118048e-01 -4.959832698297869102e-01 -3.694479681329518317e-01
9.671010048085496025e-02 -2.648215084490376237e-01 1.811972009731194211e-02
-5.427020816342877779e-02 1.413291880782475696e-01 -8.892385425473479099e-01
-8.023032137839455902e-02 5.821483802334382895e-01 7.351754518930807558e-01
2.390714688569159710e-02 2.336494444083815278e-02 2.374816762673782194e-02
2.267486073321903772e-01 -6.386878981854315906e-01 6.841965609138586091e-01
-1.183484328060105256e-01 6.290371057938257682e-01 2.390066021748866176e-01
-4.316707621696181524e-02 1.167008101854284524e-01 -7.973630967483339438e-01
-1.514889182636793841e-01 6.934000093872089154e-01 -7.912306274804982442e-02
-2.273531454366703106e-02 3.235038289057028948e-01 5.816971624144864350e-01
1.534835101854173378e-01 -5.241387490538140792e-01 -1.522396119336350273e-01
-1.833740676921076229e-01 8.159516462732278042e-01 -9.424208213910918730e-02
2.045709208306035476e-01 -6.074819301781222425e-01 4.143569439050369119e-01
-1.085816939693484869e-02 2.924561826134606801e-01 6.574096153999766656e-01
6.220183187582819379e-02 -8.906239009887115254e-02 2.087246518233789316e-01
-1.153016980921339196e-01 6.732311397174786105e-01 5.087472232197428612e-01
1.691458153752475324e-01 -4.922375854212070467e-01 2.971925171152530742e-01
-1.704087090713470309e-01 7.734407494305524100e-01 -5.295502920095739030e-02
1.113957346670513132e-01 -1.377128003204312334e-01 9.059935856514442776e-01
-5.254936698343991991e-02 2.118538382904115724e-01 -5.182179251277947429e-01
-9.605893133598390754e-02 3.220409865940698779e-01 -8.126114119906873157e-01
6.143410271035282949e-02 -1.334038049123941264e-02 5.576045272313207013e-01
2.003589098075448383e-01 -5.658080308994786201e-01 5.346669341812001486e-01
1.585301829411978891e-01 -4.488263555483588130e-01 3.046833342073467232e-01
2.126005582243216951e-01 -6.634641955050494255e-01 2.976079521244520132e-01
-4.387971556612830365e-02 4.303812998412288038e-01 6.945703553842154099e-01
-4.194392018682176204e-02 3.431728318823156765e-01 3.126645205319278920e-01
7.686963104277248771e-02 -2.349461501252496642e-01 -2.138854494375903026e-01
2.229919258325310794e-01 -7.541086699800882975e-01 5.919205513656291412e-02
-1.814185393758903642e-01 7.158066535706995026e-01 -5.378595888424727578e-01
-6.406569954928086064e-02 3.901055803132579269e-01 1.193586970801718272e-01
1.250966912810131670e-01 -3.870104875462702099e-01 -3.121377233932296283e-02
3.923586700716118203e-02 -1.349825709191845302e-01 -4.461733653298282642e-01
1.248583375654912370e-01 -5.259357753084147324e-01 -7.024542292385117515e-01
2.024153842819165494e-01 -7.386467812208650230e-01 -2.559128314611397448e-01
-1.884857941975678908e-01 7.316289255319514684e-01 -5.956382478079740306e-01
2.472526985857693982e-01 -7.850232609428813291e-01 3.698421914925097420e-01
-1.392098826746554774e-01 5.265789288391835576e-01 -6.474112134680679587e-01
-1.358774220615531492e-01 5.643530527660983731e-01 -4.030750951976622143e-01
-1.399695050062968286e-02 2.503236240833406900e-01 3.958209108663069964e-01
-1.515672993730265983e-01 7.744054890290485993e-01 3.081557775613718020e-01
-1.972744206216801577e-01 7.863687866688948702e-01 -4.992119340687050100e-01
2.027073501292647462e-01 -7.764362149155937809e-01 -4.317480154906164214e-01
1.469931291617606051e-01 -3.917531396499754348e-01 3.603074503404224971e-01
1.232876734802145352e-01 -4.846784037350636565e-01 -5.341687665990133560e-01
-1.750533490539218084e-01 6.876755698872408784e-01 -5.524365382671286850e-01
-1.497508813576811648e-01 5.601844207019879285e-01 -6.855680568745092796e-01
2.963394604247965303e-02 9.606797387002197208e-02 4.810162837829824456e-01
1.731254240610006767e-01 -5.971846545932322226e-01 -1.311753879076943130e-01
-1.297678966733238348e-01 5.183736438963472137e-01 -5.081469959700166683e-01
-1.156207950331172712e-01 4.725709079857685624e-01 -4.602994872338443400e-01
2.637774420656619490e-01 -8.562622554518706242e-01 3.406010622807219557e-01
-2.034829140553600854e-02 1.643773954338789978e-01 -1.368203938084010252e-01
-7.135602128196746885e-02 5.316534878305095857e-01 6.607425608327397448e-01
2.538503504160195545e-01 -8.593766663021068508e-01 1.378330825007334781e-01
1.346399618263988129e-01 -3.399891378812072151e-01 3.750106380476037060e-01
6.434622481997784305e-02 -9.754062556696208031e-02 2.086079393303457152e-01
8.674383236311714040e-02 -3.713260233149669465e-01 -6.815796751439833212e-01
-1.732816355792325402e-01 7.880322035542575154e-01 -3.728364103922420653e-02
-5.378425315589999839e-02 2.989125891393206169e-01 -1.237693606857516448e-01
-1.308444808704930518e-01 6.499886058046255854e-01 1.031309965892914238e-01
-1.344723181795909883e-01 5.157814437682014530e-01 -6.095954857924651416e-01
-3.715870021874954215e-02 5.635814565134498327e-02 -9.732809443257045556e-01
1.390820665027195091e-01 -3.436571105577632679e-01 4.414522286594488865e-01
4.981173147658316328e-03 -6.928296177769330266e-02 -7.789688107138236228e-01
-1.444532293873520834e-01 5.804548396704671820e-01 -4.880542266712550314e-01
2.468664693139819011e-01 -9.104322294518659708e-01 -2.393285090262319281e-01
-7.781218579700124871e-02 2.323781925786811420e-01 -8.976917096300092158e-01
-1.671170193739091037e-02 2.221396187589393667e-01 2.091968294956617624e-01
-3.505312343817523074e-02 1.940188191403629803e-01 -2.727816347252247087e-01
7.913507649489133489e-02 -6.588690609512269647e-02 6.403267301557190594e-01
1.603739926610075195e-01 -6.264056092681423715e-01 -5.126707064210305198e-01
1.500878907225545733e-01 -3.865805844005009151e-01 4.436847088363444769e-01
-1.126388736094879744e-01 5.876612044878830599e-01 1.484604839376466867e-01
2.064169337680086536e-01 -7.112150499752666333e-01 -4.855275529705007503e-02
2.406537399981111269e-01 -8.184158712470590569e-01 8.473147435556764584e-02
9.577042830719170730e-02 -3.499859004528312889e-01 -4.083802300098189897e-01
2.104036193923964626e-01 -5.841214907659211253e-01 6.368235323138835557e-01
-1.315933190294612531e-01 5.171370479325734237e-01 -5.486187942638010018e-01
5.632359748338430262e-03 -9.136275358601493590e-02 -8.726137371567064260e-01
-2.665681167471680227e-02 9.879236867752634599e-02 -5.709339687647418948e-01
-5.996725756430681953e-02 4.837820231786070790e-01 6.464738668573077884e-01
9.858910636986949194e-02 -3.586664241350271398e-01 -3.967102420258138418e-01
-1.692887076442183003e-01 8.025747970543051224e-01 1.080557141921245357e-01
-3.512426696263974690e-02 3.051807914777463493e-01 2.593612995733046711e-01
-1.185864479144063677e-01 4.965410330134855110e-01 -4.013723344235273216e-01
-6.481003068625845742e-02 2.857279154346198946e-01 -3.956538013387118080e-01
6.388850300214687916e-02 -1.106947255695501925e-01 1.368186011899668042e-01
-1.408156615973880400e-02 2.644979792973756183e-01 4.622455978160729950e-01
-1.834297959720282423e-01 7.239642354420686710e-01 -5.367628090858355128e-01
7.520062544470919319e-02 -8.056184615027750517e-02 4.954586036773679369e-01
-2.188275027086541633e-02 3.354180522435612488e-01 6.550065271942274725e-01
8.091726824899555387e-03 2.020640331157665948e-01 5.821326534810901121e-01
6.989955266804294409e-02 -4.157655289969214123e-03 7.618412193269946675e-01
6.571820153352188332e-02 -5.074713300344999532e-03 6.783286071456916533e-01
7.543462016518577562e-02 -1.095098788145668633e-01 3.609582883664209096e-01
1.956930851565432672e-01 -7.170132477119358638e-01 -2.792754745998868859e-01
-1.872062506918874547e-01 8.150251098821740259e-01 -1.711938968156068719e-01
2.574380037290165957e-01 -8.535213681099010907e-01 2.338125109642205657e-01
1.159275457161545730e-01 -4.291976337954744869e-01 -4.071593831764809268e-01
-2.440694075070695343e-02 1.995874950520433178e-01 -4.462988232769545677e-02
8.637984291987199637e-02 -3.866887208005133081e-01 -7.621950997529257643e-01
-1.714223996129982108e-01 8.621377401183629718e-01 3.535408195410905119e-01
2.667124684151804537e-02 1.475711261638509575e-01 6.721359331923699720e-01
7.591118466832713629e-02 -1.349054369427403755e-01 2.480964605320937211e-01
6.038139975251131941e-02 -1.356141689701513831e-01 -4.912953496147249438e-02
-2.099240852731948659e-01 8.568715011950159832e-01 -4.001875929048788194e-01
7.821109816755737743e-02 -8.764404148411676643e-02 5.184280641029005432e-01
-1.362313391090529124e-01 4.823732374001759027e-01 -8.032090835218916869e-01
1.275894037539259951e-01 -4.827155840511528351e-01 -4.433597489214972098e-01
1.073356366924336225e-01 -2.174576834255198543e-01 4.464642837045757484e-01
-2.650451661449286858e-02 2.185178288292201343e-01 6.534364005938805842e-03
2.287948072523663945e-01 -7.622381184405474519e-01 1.299681073359235939e-01
2.461475737639417516e-01 -7.374888243437661695e-01 5.770606055937279599e-01
-8.912848092700394187e-02 5.842704680272646778e-01 5.770059662528296274e-01
1.312083709890874139e-01 -3.992203587537363485e-01 2.582198475393068099e-02
-1.227175399996816157e-01 4.322311914024504764e-01 -7.881689381917194037e-01
1.423791705377164263e-01 -3.598133249424865232e-01 4.262967061756148257e-01
-7.353639901162781212e-02 2.695588522106466822e-01 -6.383559486090167878e-01
-8.574349572737151315e-02 4.219242032127444308e-01 -1.380827033374874557e-01
1.652877823828902415e-01 -6.469724262274368920e-01 -5.184058008229971426e-01
-3.188624614498593302e-02 2.951513926628934192e-01 2.724917557563744652e-01
-3.201165952926444264e-02 1.557967947480646265e-01 -3.986722089377184863e-01
6.482288975855922397e-02 -2.392957058413526794e-01 -4.626850646360103347e-01
1.280022798718695454e-02 -1.106674979389520898e-02 -3.516402580408338197e-01
-1.929167944962541931e-02 2.189165818277786224e-01 1.449154581519621898e-01
-8.043729983472645839e-02 5.664000046286958856e-01 6.556797384864122558e-01
-1.075022764241224255e-01 6.172614901914958985e-01 3.877030791761595929e-01
1.987828121370621148e-01 -7.853923035895594706e-01 -5.489826521566533168e-01
7.865378016843138642e-02 -3.837594785357861804e-01 -8.943147308988470545e-01
-6.912240317190960180e-03 3.689660663667562734e-02 -4.944156452707790805e-01
-5.258325907457490206e-02 4.308289925096226991e-01 5.320472555290965966e-01
-9.173141213637998892e-02 3.073785650412396153e-01 -8.011023891209395620e-01
1.948529231096439440e-01 -4.972923702471464535e-01 7.593138985208935932e-01
-4.888971548555671315e-02 1.345468434578163119e-01 -8.199890896341670565e-01
-3.210434496124414672e-02 2.679439831253288551e-01 1.377914036173672474e-01
-1.888502493937515431e-02 1.098167349869640652e-01 -3.709830234046392339e-01
-1.210147080166723843e-01 6.099164876393635693e-01 9.679673783991032954e-02
-7.343991879212996565e-02 3.758518360229094468e-01 -1.264088299175962216e-01
2.358984203167923677e-01 -8.261865606645510951e-01 -4.253263876110228298e-02
4.513650866170183795e-02 5.967785397722261825e-02 5.996822754081631013e-01
2.589649956856432921e-03 2.430433945072862090e-01 6.747012763575205296e-01
-1.639838383776976161e-01 7.512578164891100529e-01 -3.785643326935209801e-02
-8.085211864672191273e-02 3.451484684010771575e-01 -4.139999061729948693e-01
2.244494380474687436e-03 6.766884918856258535e-02 -1.734872996563104064e-01
-3.562695165611023257e-02 3.425691854371464840e-01 4.292849964250158856e-01
-8.052323173582423554e-02 4.205931531024072467e-01 -4.570291462202760724e-02
1.333395472782348823e-01 -4.792093676991071027e-01 -3.177395731567377313e-01
-5.474912076948397488e-02 1.394289260628183424e-01 -9.074193483885442113e-01
1.307952767757317725e-01 -3.958471854274746016e-01 3.419475926430621399e-02
7.729376742710619697e-02 -1.375125275578020501e-01 2.617430660909476070e-01
-8.983913525445171022e-02 3.013395803265749850e-01 -7.942826938077335308e-01
-1.163240450038612317e-01 4.466990238514616518e-01 -5.977694752908579989e-01
-3.369230275323766011e-02 6.673288440907840235e-02 -8.579059682662130149e-01
1.326192812628137763e-01 -3.178716951976026106e-01 4.429253345837179667e-01
1.554197117081964341e-01 -4.350924668145447205e-01 3.117447279170203478e-01
-3.134203381915411785e-02 1.246082068466307230e-01 -5.356832361448826685e-01
1.460401310419555676e-01 -3.564755204269908773e-01 5.115811464066529757e-01
8.520503068403892377e-02 -2.310399022422603144e-01 -3.743220936951537070e-02
1.773965041523682951e-01 -4.870709911453181551e-01 4.780916809160435377e-01
1.750139582101894187e-01 -5.060547159078245816e-01 3.419069740234019772e-01
1.361019125846514837e-03 5.623011394712590372e-02 -2.450995380895907849e-01
-1.546982702131605852e-02 2.984446344253391392e-01 5.988965234272091154e-01
-1.629996452105558491e-01 7.044895447096285457e-01 -2.436859017465128063e-01
-9.125019905501642603e-02 4.465134420354903710e-01 -1.242611541106809908e-01
2.992528221674388769e-02 -6.048279306606300400e-03 -3.548338789926972631e-03
4.361300625154256733e-02 4.490791408813255697e-02 4.999735467772167263e-01
1.934212801852505104e-01 -6.960384138957387279e-01 -2.215956828642623166e-01
-1.150687453766840729e-01 6.200741264321915081e-01 2.580433580778962455e-01
-1.162415297345748555e-01 6.944071117278169947e-01 5.925933492123545143e-01
1.961813715685402082e-01 -6.507362201727736606e-01 4.803991064684487444e-02
-1.322245735808067271e-02 2.037629991925898609e-01 1.870204426283118004e-01
-1.453724510935500702e-01 6.095467065244020155e-01 -3.658281655346017347e-01
5.614758166006384582e-02 -1.539336627507251753e-01 -2.171526639547692317e-01
-1.085141935027747612e-01 3.600073299040346675e-01 -8.660576425744211937e-01
5.296665238123817593e-02 -2.849128678452683694e-01 -9.059319906542779854e-01
5.841430564561440192e-02 4.365985128510237179e-02 7.740254864321979289e-01
1.603612730668914077e-01 -6.038106150033099029e-01 -4.044733767033060756e-01
3.545185176254267434e-02 -1.829627980184131142e-01 -7.480341001489759778e-01
-9.724078360912583041e-02 4.474741752701730246e-01 -2.329926894006734139e-01
-5.655395653007017943e-03 2.235613142746117610e-01 4.252059451735671347e-01
-9.654932643956640193e-02 4.100527179110032838e-01 -3.995034754453272718e-01
5.745235466488467224e-02 -1.370489338254883560e-02 4.805201965392657537e-01
1.198009598137197707e-01 -2.621443389515938915e-01 4.678487194484186595e-01
-1.094101688032956057e-02 -4.234719222331216615e-02 -9.509475383828774886e-01
2.141243571446457827e-01 -8.163493116406724814e-01 -4.072885135865336736e-01
4.546103785927742974e-02 -1.159884285585643382e-01 -2.372359229851473128e-01
1.151428815883386719e-01 -3.211722731949673837e-01 9.643045067612891763e-02
2.277765273827811743e-01 -7.324672536601152251e-01 2.535786304265567059e-01
-5.305573858782496738e-02 2.678563367294365949e-01 -2.590311014592318606e-01
-6.009451246540364194e-02 2.719315767111969429e-01 -3.726473009991413954e-01
5.443947072489977758e-03 2.931328047188034441e-02 -2.970296211925494978e-01
-7.390559318436010217e-02 3.934820084423655273e-01 -5.060863004068318766e-02
-5.234780896082458918e-02 4.734573798838219161e-01 7.410843129539553820e-01
1.630095803581273206e-01 -6.279077336766289985e-01 -4.700141992727566720e-01
1.549673590189146744e-01 -4.427745549998822749e-01 2.663182747116041860e-01
1.640347604245339930e-01 -6.758581141254091929e-01 -6.807413732475946500e-01
-3.769055588264026008e-02 1.396211864124588531e-01 -5.837473789532798829e-01
-2.502461229733917922e-02 2.400496752135957146e-01 1.378699818357484452e-01
-1.340229984223727244e-01 6.549841499623016983e-01 6.696785139709876544e-02
7.858426417815421450e-02 -1.215043277138105476e-01 3.629859729631793597e-01
-6.863347977568731717e-02 2.581387381605765308e-01 -6.003998208057412800e-01
1.517592082567810995e-02 6.758750748888897597e-02 7.078584201984844393e-02
-2.010215940385592093e-01 8.478269736907959597e-01 -2.751583513410557624e-01
-9.205799709631372341e-02 4.314245923301883168e-01 -2.119592179250904818e-01
1.241883357076560279e-01 -3.796894996755844631e-01 -1.326501123985039492e-02
1.116858717297008613e-01 -2.140128918637529409e-01 5.453033002576500587e-01
8.592649318010651960e-02 -5.376267354371443846e-02 8.270074861517600073e-01
1.664991288137344094e-01 -6.197522027252910792e-01 -3.648516356515369430e-01
1.588717377562823552e-01 -4.843104228137088407e-01 1.408503006448355854e-01
1.011265676935622915e-01 -3.717633750109736179e-01 -4.115562297004697334e-01
8.102533413286454322e-02 -1.669927045649018671e-01 1.908631947147566010e-01
-4.419688351235268736e-02 1.526554808932883978e-01 -6.442933276512807783e-01
9.074288727014083455e-02 -7.166135646050314500e-02 8.322345787919929183e-01
8.576069811947752489e-03 1.748761524639619869e-01 4.608162738155221483e-01
1.307182947494256453e-01 -4.641089601101052731e-01 -2.948639237630081844e-01
2.979584542369934433e-02 -8.899456795951114080e-03 -1.968067443231924507e-02
3.951710511689101452e-02 8.397623981033927598e-02 6.099756656201528182e-01
2.400316938735546080e-01 -8.856218081591376023e-01 -2.495726797757560622e-01
1.786461578486686283e-02 2.578289311897158723e-02 -7.897272596983664905e-02
1.282193916428405189e-01 -4.557743295417408524e-01 -3.021437582038831171e-01
1.044035647302747616e-01 -4.424208276429830722e-01 -6.886547350098692899e-01
-1.067271910603380045e-02 1.376050013377489722e-01 -8.224405005390977852e-02
2.881369612038467767e-02 -1.057568792960268816e-01 -5.031015328348076299e-01
1.874936828185470028e-01 -5.386179845410729028e-01 4.217464929996644907e-01
2.217814431022941679e-01 -8.237032105444751506e-01 -2.977087578794796463e-01
2.119547306460201619e-01 -6.106766058460152413e-01 5.387272558881599505e-01
7.451382427591536628e-02 -1.202645741913731664e-01 2.919227876542995204e-01
8.068222294585536414e-02 -3.167260527128961112e-01 -5.342293669853439564e-01
-1.330493671287447943e-01 6.700293027710743088e-01 1.575937819380808236e-01
2.358917650425146686e-02 1.148953918826780551e-01 4.570054285659362892e-01
1.427247812558858076e-01 -3.475349171422354444e-01 4.917622687966100026e-01
-9.930176265030794813e-02 3.989880333884735508e-01 -5.046814437159807820e-01
-1.252621378391319817e-01 4.278478408384233100e-01 -8.573495053362480967e-01
2.601220030965196777e-04 -6.147154760606325652e-02 -8.308028678176353488e-01
2.128457086409262788e-01 -7.845058931947940239e-01 -2.786575760499703791e-01
2.966318600599002903e-02 -6.059054091273140263e-02 -2.702666543602351701e-01
-1.426769736643500319e-01 7.151375935975311515e-01 1.919226615928366630e-01
-1.876957640069240318e-01 8.085372538408183152e-01 -2.115920681263466774e-01
-9.038252751651247585e-02 6.050916608463764446e-01 6.532044651898940568e-01
9.902143286360094721e-02 -1.395922719875087592e-01 6.628509389876078295e-01
-4.125761597076939291e-02 7.220472077866658955e-02 -9.747817790563106932e-01
-1.291785136349572483e-01 6.322634634421887556e-01 4.958464338911010294e-02
1.650023976561811878e-01 -4.913574128145746789e-01 2.230228841251904182e-01
2.034502852024585307e-01 -6.979235840828368342e-01 -4.089350383043809101e-02
-6.447628472841601677e-02 4.560431642861164647e-01 4.280383083669394018e-01
1.497340920282147214e-01 -5.024596186076799587e-01 -1.191363046412301230e-01
1.919494892289822507e-01 -5.201034594008869805e-01 5.949056521807348785e-01
1.355760086693548749e-01 -3.442814176775048640e-01 3.721211854615921744e-01
7.611599638322112671e-02 -3.740854376643359402e-01 -8.959020873766635473e-01
-1.720330196953191726e-01 6.705120852869729253e-01 -5.776627526868454154e-01
9.611739811401204259e-02 -3.898650492702324666e-01 -5.932037042121920400e-01
-1.163311379139264634e-02 6.877826330915016995e-02 -4.307283383496177676e-01
2.333834018377375363e-01 -6.894045992397154210e-01 5.663275582802218544e-01
5.476202921102420879e-02 -1.703520225928166487e-01 -3.221624729361470818e-01
8.820428225151787094e-02 -3.703848955456220948e-01 -6.494311942730913723e-01
-1.597073583786164930e-01 6.278889088256017770e-01 -5.490176714723629114e-01
1.195294417496487946e-02 1.961745490264118763e-01 6.269223278502329411e-01
-7.185750659176728949e-02 2.236562282206726315e-01 -8.268872370549028572e-01
1.622832571287822767e-01 -6.384406015822173819e-01 -5.343056680196059949e-01
1.328994246342901919e-01 -2.943074596046753033e-01 5.613152394381845101e-01
1.024486091024645051e-01 -1.835109910153598090e-01 5.169184704571938571e-01
-1.368460028310398147e-01 6.228719044309914965e-01 -1.405568098292675483e-01
-1.858747890061427377e-01 8.993631787298715929e-01 2.587530456574835824e-01
1.545196866167226346e-01 -3.364106549833610904e-01 7.683103280459111506e-01
-1.045680948127928750e-01 4.061674289730586862e-01 -5.698654429300579194e-01
6.068363625266567050e-03 2.261805588563056968e-01 6.595906016206311007e-01
1.841170201645356275e-01 -5.627709535554722420e-01 2.419447691748507767e-01
8.029017298257317553e-03 -5.573698280762562351e-02 -6.562934649321466862e-01
-1.931704127923348224e-01 8.194202218878072763e-01 -2.629432332781639348e-01
8.447840998931023526e-02 -2.498927019592620813e-01 -1.416583556581058612e-01
-1.393673652751961922e-01 6.307764714344059609e-01 -1.503255393025630382e-01
-1.247932975899147534e-01 6.127388672669512593e-01 3.885072714540787481e-02
9.574949717703463981e-02 -2.426490712380944270e-01 1.063550844750820734e-01
-1.143688495968163271e-01 6.611482654057270203e-01 4.684086058242743489e-01
-1.723072223676735404e-01 6.798069571500683361e-01 -5.382427013348634048e-01
-1.194364060977544245e-01 6.845894213049937838e-01 4.850289604697160528e-01
1.723336819614142423e-01 -5.525071439003544915e-01 6.826127975877130383e-02
2.386646260660075236e-01 -8.394758919162583766e-01 -5.397403813246787196e-02
-1.931461691920565230e-02 1.128499495577558742e-01 -3.645539192173011256e-01
1.014553384231264427e-01 -2.371538682486840910e-01 2.406826104477824690e-01
-1.291909160149188607e-01 6.970853084220030027e-01 3.604432428697033619e-01
-3.801550008661924718e-02 7.280632312756733782e-02 -9.105535013194888672e-01
7.069766731311084851e-02 -4.249531090887157664e-02 5.929513780872012196e-01
-4.033607273192534384e-03 2.701482952984669006e-01 6.794707203738186152e-01
-1.205381054812090097e-02 2.418673776295248712e-01 3.920020070811955359e-01
1.154860765665261940e-01 -3.587784909189321580e-01 -7.755618371101924424e-02
6.192377874601676102e-02 -3.237049877152056165e-01 -9.226338107962762658e-01
1.436611070855811356e-01 -4.286903954826984386e-01 1.199959298695125604e-01
2.123233506006920457e-01 -7.154652494724704770e-01 4.279950123259396166e-02
-1.044926652065140439e-02 3.160816062605426024e-01 7.785293132831074825e-01
5.598820170908559712e-02 -3.620436868104797562e-02 3.448387471067758114e-01
4.313241905452526448e-02 9.555054428029373381e-02 7.339251125119293784e-01
-2.749768237783169200e-02 5.088043765926490714e-02 -8.167824306609262619e-01
2.439339897700874282e-01 -7.943448845523969348e-01 2.623156096565280593e-01
-1.671592498995760900e-01 8.390254821165525900e-01 3.232794787863456087e-01
-1.879685456950608291e-01 8.179670204727659266e-01 -1.714977441456360385e-01
-6.216458925334618184e-03 1.224861998426718113e-01 -7.048949898960983618e-02
-1.561987597703902164e-01 7.110520367291901511e-01 -8.351792326399425093e-02
2.142576359366946681e-01 -6.410906922052032053e-01 4.363349864957796753e-01
