-6.011743729528580271e-01 -1.708969425010236354e-01 -1.445869828229139897e-01
-4.953770177476805592e-01 -7.717775518027162329e-01 -4.844707090228585478e-01
-7.087529580407856411e-01 -8.383886763230156969e-02 5.038360424790307990e-01
-5.937192781523956686e-01 1.530944613988443337e-01 -3.802637038320557106e-01
-6.515541786004049873e-01 6.062772868983299368e-01 -2.665397064776924840e-01
-7.245411580835494636e-01 -2.797935425078365915e-02 5.740981253941396245e-01
-5.938510234431598755e-01 1.625665871234879267e-01 -3.848825275756632691e-01
-5.826703542921229939e-01 -5.990992572155419138e-01 -1.728870196929901265e-02
-7.441431433075257340e-01 6.776920363294559602e-01 2.935647008554413406e-01
-5.654323549741893107e-01 -2.054170896956245274e-01 -3.567854960328010749e-01
-5.186888812184352604e-01 -6.679976067729586076e-01 -3.930374787721856999e-01
-7.566649045119248074e-01 2.131049780401776672e-01 6.434091482463600853e-01
-5.339823304137444326e-01 -1.462564426809743190e-01 -5.952508049491705977e-01
-6.799692679060029832e-01 1.056677202579632893e-02 2.623187124694082994e-01
-6.942545233260759563e-01 2.514826242770980547e-01 2.158633950240761157e-01
-5.764808002247239216e-01 -8.167205394705895349e-01 6.828605041264909636e-02
-6.593228295920229298e-01 -2.961669768769875088e-01 3.054974267256472809e-01
-5.709479271854310811e-01 1.540891313605138035e-01 -5.287419772811436935e-01
-6.382343327750051865e-01 7.702425120313245444e-01 -4.478198155877275433e-01
-6.280826568065009941e-01 6.548102795517703190e-02 -1.064310848872611071e-01
-7.490634207875218609e-01 4.485061904975856106e-01 4.579833800325605053e-01
-5.650104076011992493e-01 -5.358841315483350298e-01 -1.685286902114806196e-01
-4.820161103227043053e-01 -2.438136320951086178e-01 -8.763949614234589625e-01
-5.340548531578904745e-01 1.731304753570951649e-01 -7.793732855561050776e-01
-5.216052882326324136e-01 3.438878967267466197e-02 -7.800476724648439664e-01
-6.354725543746435612e-01 7.121458036461052465e-01 -4.321802925247372751e-01
-6.231255371693701361e-01 8.893790508919215132e-02 -1.521855172070987749e-01
-5.772750236897485898e-01 -8.466201718456441982e-01 9.072550641710687425e-02
-6.632213551406499485e-01 -5.032497419129241534e-01 4.505049290164014342e-01
-6.893321188612790973e-01 7.120219210799718645e-01 -8.228262054634402634e-02
-7.479152720295821899e-01 -4.607798232516639031e-02 7.363768753500578024e-01
-6.857000270974675793e-01 -2.110170123749295357e-01 4.276078905520827589e-01
-5.804986026733333082e-01 -5.803205759137253228e-01 -4.224792509614831021e-02
-5.975547195180415105e-01 1.516163297173774849e-01 -3.544976240800038481e-01
-5.239652957718066162e-01 -5.958219219397640209e-01 -4.004811716026203117e-01
-7.053508706161500941e-01 -3.102969675774380071e-02 4.512172684767447595e-01
-6.490841921457648489e-01 6.926168351071099183e-01 -3.324836293127512721e-01
-5.902321034430741964e-01 -3.827312845606605785e-01 -9.322647291797468705e-02
-5.235594116793983455e-01 -9.720565001603315158e-02 -6.912987472917669907e-01
-6.010452046991222597e-01 2.799004393251340317e-01 -4.059697419101523930e-01
-5.860845032788923881e-01 -9.965878366402508570e-02 -2.837709384171678284e-01
-5.610887219641105261e-01 -7.469150631561173315e-01 -7.203275980127318845e-02
-6.772292352823283679e-01 1.324139429222869202e-01 1.740987392488123897e-01
-5.268266784564736849e-01 1.290996967702847109e-01 -8.008732605849565589e-01
-5.329065170345201885e-01 -9.473471903384635961e-01 -1.392383033838419382e-01
-5.415106549484401954e-01 -9.163705975980634966e-01 -1.012564133915048598e-01
-6.201984105685418580e-01 5.197464155612750991e-01 -4.201886321776255873e-01
-4.849068941652407982e-01 -3.570325662872120831e-01 -7.921826296975885695e-01
-5.921054251787819522e-01 -6.192512217534714702e-01 5.564059142319210949e-02
-4.930714516859007746e-01 -2.184465315662906804e-01 -8.192500580067757499e-01
-7.477780258274624448e-01 6.448558078904710611e-02 6.715838936670647241e-01
-6.114085350622190385e-01 -6.309441869878291698e-01 1.877753198927721023e-01
-5.731405857278817351e-01 -4.263674186398675459e-01 -1.790184522752841234e-01
-5.199448211194888092e-01 -4.539967229552829830e-01 -5.085643534030028778e-01
-5.016778310140119768e-01 -7.582778694270354558e-01 -4.513482719110674113e-01
-5.607773072730674047e-01 1.105881146185731662e-01 -5.696597642588955290e-01
-5.992949613109437301e-01 -6.910778632743967975e-01 1.438507983521686018e-01
-7.558918267368550659e-01 2.982970573171608505e-02 7.443140476316701948e-01
-6.874453141279894819e-01 6.107465049063115492e-01 -3.600435459932378734e-02
-6.775450819128771007e-01 -2.100301858276947264e-01 3.740699315001912439e-01
-6.763376692599574191e-01 8.601829740132019286e-02 1.951228058754406747e-01
-5.667747899944167722e-01 -3.717697557652327803e-03 -4.646407759987837838e-01
-6.324426253600174963e-01 -4.424956236537678778e-01 2.154788159612781306e-01
-5.160278941911227157e-01 -6.469181599449416176e-01 -4.225041155982019458e-01
-5.508840511519550454e-01 -4.448154221132675223e-01 -3.129157869306155582e-01
-5.309080283108915665e-01 3.264015684833794784e-01 -8.883972716041422801e-01
-5.896984446990152229e-01 -1.865812731958118031e-01 -2.100599359124608323e-01
-6.691149097276092306e-01 6.815015414391846216e-01 -1.959568503079753832e-01
-5.323482593839540256e-01 -4.449843388886766116e-01 -4.332109494239092529e-01
-7.524187054988638046e-01 6.673550602233998541e-01 3.532901176022827383e-01
-6.382530415799791967e-01 7.431564993224973881e-01 -4.320436108574820522e-01
-6.483795127084485133e-01 -1.441745205169104038e-01 1.465730412883857192e-01
-5.099142040559762057e-01 -8.770006286284445229e-01 -3.292345222204343114e-01
-7.310864596961674788e-01 4.425228562350419503e-01 3.446784206913176551e-01
-5.585950652107974923e-01 -9.065585942483049831e-01 4.038466864338802892e-03
-6.120378203977648868e-01 -1.398746198594396084e-01 -9.195696354978435960e-02
-6.001224964992240007e-01 1.827345274760167615e-01 -3.558046598349324796e-01
-7.138814704028076941e-01 7.734988148083447035e-01 4.163784259760335699e-02
-7.617754018324361942e-01 6.582184334251638402e-01 4.193439088471473397e-01
-6.658204868621749872e-01 1.352062737174714868e-01 9.838331973713053402e-02
-5.548658913037671780e-01 -4.567801746230190640e-01 -2.801379556038670060e-01
-5.346524982729263797e-01 -4.050210415937993691e-01 -4.413418373258994887e-01
-6.057384967352579253e-01 -6.910131213085862756e-01 1.856651236910948910e-01
-6.864101039524697079e-01 3.035955224880798609e-01 1.347934177735606864e-01
-5.989801226067963391e-01 -6.200614966616788681e-01 1.007611062002168045e-01
-5.440636390866071537e-01 -7.805290187815249192e-01 -1.631856738581735911e-01
-6.496056514552849270e-01 4.849028420617742530e-01 -2.090458606198253577e-01
-5.673519231240945482e-01 -7.346355191378678429e-01 -3.844942534676182300e-02
-5.193228421789117810e-01 -1.258015130309352303e-01 -7.022885868874676474e-01
-7.201984990353003102e-01 4.380815008731991922e-01 2.765263932604851149e-01
-5.239595308050077893e-01 1.799851104597076368e-02 -7.552835489799945012e-01
-5.699199847603102498e-01 2.272989379842583757e-01 -5.777311118323414929e-01
-5.430311406045977840e-01 -2.088023829634654271e-01 -5.003282232709279631e-01
-7.520267139793088695e-01 3.721882590199312446e-01 5.213392908093241740e-01
-5.797974022313232556e-01 -1.822768814007561800e-01 -2.768564896017878252e-01
-5.213305221496732367e-01 -4.631462591232258230e-01 -4.942759292733893139e-01
-6.819616435092410445e-01 7.390855961861448886e-01 -1.457967581682584890e-01
-7.564316505787126443e-01 5.015539573496768933e-01 4.751815569195508848e-01
-5.662538979487237167e-01 -1.901620178778832757e-02 -4.591820938549935338e-01
-5.977886720727975112e-01 -7.061950214478085464e-02 -2.245341833973367729e-01
-5.437506249244875578e-01 -7.066247091793415036e-01 -2.079326368635111277e-01
-6.473167332272388164e-01 1.350482461448002935e-01 -2.171004374969402739e-02
-4.981583158830918401e-01 -7.386861242611633127e-01 -4.855313443540772433e-01
-4.921323334322428855e-01 -4.658274074630182615e-01 -6.823730089439998814e-01
-6.902848574424365058e-01 -2.415726037135107473e-01 4.750470348443652235e-01
-6.408637717562368774e-01 -4.074136687146644453e-01 2.498994045141843534e-01
-5.735310458712122861e-01 -3.693721218732110567e-01 -2.094234743511181329e-01
-7.326991139121098451e-01 1.912039331608943182e-01 5.004056624337119841e-01
-4.812565504604017219e-01 -5.413578506602391149e-01 -7.093591434934062301e-01
-7.291569274804914347e-01 5.641522168997142872e-01 2.618486570900335764e-01
-5.911745592119708181e-01 4.243504227648467464e-01 -5.535676999684371324e-01
-6.207035975413406348e-01 -2.197335193084253568e-01 1.048399402008343660e-02
-5.466815615753300994e-01 -4.795392832913765724e-01 -3.201425216783591599e-01
-5.086687771103151068e-01 -2.651642764479084091e-02 -8.288713760817163489e-01
-7.633625584285369525e-01 5.433413243699546369e-01 4.960473452934640592e-01
-6.628078750369065242e-01 8.173367772020716515e-01 -3.154296161414555377e-01
-7.221100642321972574e-01 -2.386798214573186694e-01 6.800846805334823664e-01
-5.817055130489229287e-01 -8.836127199445270586e-01 1.408824994110501605e-01
-5.682532326070484086e-01 -5.446920254779511472e-01 -1.423754193331261131e-01
-7.496164808488813280e-01 1.086208081313209672e-01 6.580164512603049465e-01
-5.098875365924850911e-01 -7.276817067486903712e-01 -4.157084058485447930e-01
-6.241350570852518542e-01 -5.767741020289522957e-01 2.391277634290625287e-01
-7.286988917483169237e-01 5.219487545422064612e-01 2.832656460722710601e-01
-5.984173546717094228e-01 -9.477839479844052395e-02 -2.064878703845555163e-01
-7.505464205761992469e-01 4.007519162618854436e-01 4.952158490531675117e-01
-5.519441252629855299e-01 -8.635076789359784621e-01 -6.404219731618199241e-02
-5.769682587345851266e-01 1.454792992912435495e-02 -4.089894843891928033e-01
-5.550176662313971443e-01 -1.285469028626479715e-01 -4.688585381924347262e-01
-6.214694747360622884e-01 -5.080992838671908318e-01 1.821229595628395814e-01
-6.168141373132045580e-01 1.905461232580975550e-01 -2.519047172385201483e-01
-7.343527489989860602e-01 2.097107400357571816e-01 5.004500415617548770e-01
-7.084373317877742382e-01 2.004046478323702474e-01 3.375040290154767697e-01
-5.700068191445267773e-01 -3.686190144351180198e-01 -2.327491311159870235e-01
-5.402957430512699277e-01 2.656180649553610551e-01 -7.922920748808037761e-01
-5.984378665584446644e-01 -3.676044349220856100e-01 -4.867153744208804755e-02
-7.118044617836339905e-01 3.834865256456770899e-01 2.535596684856380456e-01
-5.278780425450272373e-01 -3.044911037201753282e-02 -7.018313306009384966e-01
-5.686739461851130217e-01 4.309119039300947085e-01 -7.035048950428987036e-01
-7.080456287813090555e-01 -1.051200356993815671e-01 5.115415393543317757e-01
-5.480167074368674784e-01 -7.425002937308305961e-01 -1.594890539468144242e-01
-5.541078760742609299e-01 2.722473351756388715e-01 -7.064116345116863149e-01
-7.041931329766010217e-01 -8.763155822216785185e-02 4.764113156961776174e-01
-7.022986375477858756e-01 -1.850490083104984751e-01 5.204098713087061956e-01
-7.557198081850879934e-01 5.410552494220191022e-01 4.477277833259936668e-01
-4.773025781887496599e-01 -5.673717286686178474e-01 -7.200057604767009511e-01
-6.207484682071895410e-01 8.459931160354383639e-02 -1.651173995663996197e-01
-5.787561432820699237e-01 -8.436126034731094014e-01 9.860734323309208738e-02
-6.636137427032765546e-01 -1.944860545734514723e-01 2.745998436023077138e-01
-6.611647373984870235e-01 2.987741313908613416e-01 -2.639250089625896217e-02
-4.829094360976408096e-01 -7.869546136932569214e-01 -5.566777840523376986e-01
-5.515844418922963843e-01 3.032425556535219835e-01 -7.407157858067854317e-01
-5.909162151677241903e-01 -3.101679740843884536e-01 -1.307219048145136231e-01
-5.939787932635341994e-01 -8.122954126997595781e-01 1.793806241600562346e-01
-6.564336128059995445e-01 5.943987397445766874e-01 -2.279816885214047129e-01
-6.124125373685167517e-01 4.125664708275911252e-01 -4.088131205781456168e-01
-5.872198681929892139e-01 5.071974133740514423e-01 -6.271364391771125923e-01
-6.769440056964053376e-01 3.868903751422154147e-01 2.516840205817207077e-02
-6.282021210012145307e-01 2.080004960611306075e-01 -1.880259947106422413e-01
-6.172182956766085749e-01 6.026710013919726050e-01 -4.874721981375830238e-01
-5.605503492696751744e-01 -2.848258956142371567e-01 -3.425995879784707876e-01
-5.985753790455206058e-01 -8.134448021088488412e-01 2.099004522290238428e-01
-4.809829455867576931e-01 -4.367412516992988381e-01 -7.716006757508021563e-01
-6.608409852122457684e-01 -4.120235872984413100e-02 1.679981980979407263e-01
-5.088913218236129632e-01 -3.256105831112311999e-01 -6.545608346353413154e-01
-7.012381642579997854e-01 7.085501337490934803e-01 -2.944481336935146545e-03
-6.696159985920024926e-01 -2.467331245613094415e-01 3.437822347107176713e-01
-7.302162055981474831e-01 8.159566410018125326e-01 1.231954215272702963e-01
-6.295802144506026377e-01 2.262650529356381723e-01 -1.896312891612638996e-01
-7.167565587159843155e-01 2.238375511581132959e-01 3.779953451829232702e-01
-6.693262006483271520e-01 -2.825424950606686414e-01 3.625964111288582647e-01
-5.150926188571766096e-01 -5.619813304144049004e-01 -4.776691378111292963e-01
-4.692880458576639824e-01 -4.481745862071375153e-01 -8.409527965052402410e-01
-6.794939789912237682e-01 -1.519173013783040038e-01 3.531412713213614163e-01
-6.162253986380067383e-01 7.194909250799004230e-01 -5.614387014523843922e-01
-5.509773152470275326e-01 -1.742606546061414852e-02 -5.593248631685684424e-01
-5.283174067334130974e-01 1.534240974665559143e-01 -8.052493346079957481e-01
-6.786973485153974250e-01 -5.037258175687283623e-01 5.512990161949939960e-01
-7.503541710282373156e-01 4.926902349534934000e-02 6.971109420917922517e-01
-5.257680761749597975e-01 -4.567027303112520809e-01 -4.691774554740329450e-01
-7.473631448053267290e-01 4.082642929622569694e-01 4.701981193536198256e-01
-5.419270652401874111e-01 -1.878841223847713959e-01 -5.195893222353571428e-01
-6.474986644486920850e-01 -4.382069249844665615e-01 3.107913772345542447e-01
-5.683442175610243785e-01 -3.233249838632585860e-01 -2.697262136013721667e-01
-6.368431343395014599e-01 -6.598458282800269137e-01 3.696809677951994333e-01
-5.624136630142427817e-01 2.166108656019896661e-01 -6.203085140378141737e-01
-6.020140725582848740e-01 3.820147267188093720e-01 -4.586949833827498879e-01
-6.862189755886484166e-01 -4.363190593968790387e-01 5.611945793239606628e-01
-6.349068635597590049e-01 5.651079149288394943e-01 -3.508722167801012204e-01
-6.968893703068036460e-01 -2.127478238509509512e-01 5.012847218989403553e-01
-7.403998090232439822e-01 6.029860636974019306e-01 3.124283938706799990e-01
6.255080137580915078e-01 7.800591448284438512e-01 -3.643530605253788579e-01
6.145476677886386740e-01 -3.861499701920771965e-01 3.808606991197273084e-01
6.097267499536807023e-01 6.105906728549312934e-01 -1.639049988604531216e-01
6.271729882593978234e-01 -3.470877680499009910e-01 2.762808486747567738e-01
5.610651280703774502e-01 6.364086907426521611e-01 1.372378097203294789e-01
6.813861599711766859e-01 -2.271448587520081275e-01 -1.451644097628748131e-01
7.165706039397548022e-01 -5.515812770905017398e-02 -4.730945393672539301e-01
6.322022390151544879e-01 4.364357096986350437e-01 -2.092317582438009416e-01
7.307260744044205003e-01 -1.125007912104294405e-01 -5.318945905309463429e-01
6.710021214232460007e-01 2.841067524415194501e-01 -3.732025418603125422e-01
5.291278314391121285e-01 -2.816770550311362697e-01 8.752941599609239676e-01
6.965901987125338035e-01 -2.128618881624284309e-01 -2.521719718752731820e-01
5.098206303403970407e-01 7.000280511073007084e-01 4.333090477669303553e-01
4.741457789830192948e-01 4.887675213641892724e-01 7.871232143484042654e-01
7.404779559515456411e-01 -5.021431823784945347e-01 -3.700360199788529925e-01
7.302152329177856727e-01 -4.102884558470991649e-01 -3.564666197977267026e-01
6.049778631584094013e-01 3.538376292222769059e-01 1.533326665051827110e-02
7.537054444755260096e-01 -2.330306168539455491e-01 -6.114874297142572912e-01
6.424688155105311438e-01 9.452226348317394056e-02 -7.830172996458101276e-02
7.063840056473973394e-01 7.480808981844125349e-02 -4.820465775093811800e-01
7.279502238653990931e-01 1.773633471571222364e-01 -6.813954983834025203e-01
5.819421799990569522e-01 -2.578914137137773288e-01 5.185097253219324021e-01
7.708597038469071627e-01 -2.125531541493804744e-01 -7.347421533150195749e-01
5.654892784332564704e-01 1.804413370290693375e-01 3.720341187533104943e-01
6.320248702020292431e-01 -4.343146210877397717e-01 2.951809499093278055e-01
5.956396302422743982e-01 -1.346677543786258813e-01 3.583240980545643883e-01
5.531459246247825146e-01 -2.034876776826699818e-01 6.741024924584806399e-01
6.410733664522425546e-01 -7.051755506897660064e-01 3.929569347008675662e-01
6.955696191701954412e-01 5.151671239524101276e-02 -3.983439577322633873e-01
7.643711370461436783e-01 -7.708132393279956696e-02 -7.708955044465372053e-01
7.165683011705988870e-01 2.490281276523685638e-01 -6.488877028147873594e-01
6.337850963133908611e-01 5.553306626615963637e-01 -2.882294315103136606e-01
6.797439705484489281e-01 2.426352980874711407e-01 -4.060132551114689070e-01
5.919171795163293837e-01 -4.093934582664782162e-01 5.412830210699434152e-01
6.100594648751828109e-01 -5.152757384572743682e-01 4.846420578278837765e-01
6.811671948015575184e-01 -6.369107045019621882e-01 9.308692210742317008e-02
7.359197879930748920e-01 -2.330082877911291983e-01 -4.959797879849414115e-01
5.036660576626873498e-01 6.861678313188883209e-03 8.739078117694332182e-01
7.315341367211155577e-01 -5.444233390976573883e-01 -2.875082249585310112e-01
5.119823282969399036e-01 -1.952693983440630388e-01 9.367164647960983803e-01
6.359473722289733510e-01 1.706561085388876575e-01 -7.994643813227368667e-02
6.551777265978430131e-01 1.374818607419393823e-01 -1.856770607732637635e-01
6.960447845032551317e-01 -1.655880674486368276e-01 -2.759518991959762357e-01
6.180287963058646028e-01 2.264303648838805749e-01 4.202035852665087640e-03
5.121585434489518418e-01 3.152457412902178735e-01 6.405135295373359794e-01
5.526420168697334656e-01 -2.783980449633863263e-01 7.206708016039140574e-01
7.392711278519752405e-01 8.424691848837737029e-02 -7.011087289933370936e-01
6.240072414729036510e-01 5.214161591642408888e-01 -2.051194785247103525e-01
4.717797008325681496e-01 4.227368390167442480e-01 8.406544826081538968e-01
6.599042502511484054e-01 6.937018199678698926e-02 -1.770105842189777234e-01
7.213799613969679170e-01 1.210123147306475522e-01 -6.061518833897276970e-01
5.982860725420163783e-01 8.120935402717761598e-01 -2.060570729953762059e-01
5.586427105905426016e-01 -2.021921567407040099e-01 6.376512686377269201e-01
6.714692874634421438e-01 -5.640678534047390835e-01 1.139759013755479028e-01
7.181100172591601272e-01 -3.459113903722432215e-01 -3.150489033751037171e-01
5.285157262539480483e-01 6.240160614652098259e-01 3.558136005959368631e-01
7.497376600013708758e-01 -1.053677148403801556e-01 -6.595003815252957757e-01
7.202594347818463971e-01 -4.242529252642268101e-01 -2.837312611682302199e-01
5.115638709456501454e-01 4.477812217371373027e-01 5.677755362936760530e-01
5.284894418804881866e-01 -1.048882581030255792e-02 7.227040848301439224e-01
7.705232277413842645e-01 -3.748129119837887435e-01 -6.387767029413100595e-01
6.420447947103308239e-01 1.926059770639046431e-01 -1.322363172322256475e-01
7.235001868988898410e-01 -4.760538751457746853e-01 -2.748414549966768927e-01
5.733625874916387088e-01 7.688750996532118798e-01 -1.919662273353690135e-02
6.487837945657286554e-01 5.752184917656415486e-01 -3.971426715538544649e-01
6.005239883880061358e-01 5.038253756422598206e-01 -4.242536813608229623e-02
6.264370995042438661e-01 -4.488320578294017760e-01 3.398648993511629302e-01
4.609663719195260523e-01 6.151224425593451173e-01 7.996971172236478909e-01
6.884138916496551630e-01 -6.186297301439580565e-01 3.545281269229903776e-02
7.641563120724425007e-01 -4.160696590382460536e-01 -5.735777809153261853e-01
4.802726444168494147e-01 6.773764976489263789e-01 6.383194545306309919e-01
5.072758623370351438e-01 9.198019568397076684e-01 3.228167201679921772e-01
5.240343984390488652e-01 3.455718901852781744e-01 5.458506789998633923e-01
4.590599869380700970e-01 4.185790602715411257e-01 9.256739996315732633e-01
7.183483979145863785e-01 -4.242548070055019993e-01 -2.713176981461108417e-01
6.824066755678491747e-01 -6.157659650401228202e-01 7.281544823359982488e-02
6.554143327139931863e-01 5.760207928284787338e-01 -4.406727260504552102e-01
7.197998620360460675e-01 -5.392592630498659334e-01 -2.142769642215597847e-01
6.142381278095735420e-01 -9.195805019805212976e-02 2.128394349720118539e-01
5.787032377954325346e-01 -4.735063270058316176e-01 6.641643914888606393e-01
5.449279460302509648e-01 2.811491969209412023e-01 4.473777796051972566e-01
7.477171652922365297e-01 1.049765304165989621e-01 -7.679479578371645188e-01
7.189302953248544181e-01 5.155272391403681320e-02 -5.500959197863041217e-01
5.066337444944615243e-01 -1.553230146470644391e-01 9.483688360888378188e-01
5.237179572629352409e-01 -2.799310996311690225e-01 9.094230204871169843e-01
5.617240444979610947e-01 8.448952667598926825e-01 1.246071245498238389e-02
5.972039029478980465e-01 2.725267621533706830e-01 1.128209196658659652e-01
5.763611087347557671e-01 -1.519209028989945975e-01 4.935126963651775833e-01
6.440244394013330265e-01 2.105878055052305686e-01 -1.554872258757105941e-01
5.852563067430595067e-01 8.940923932966259313e-01 -1.688189875823299657e-01
6.823550900662667118e-01 5.577840441914977410e-01 -6.051168981904615496e-01
5.430905419358764696e-01 8.701276110764042393e-01 1.189048107678673943e-01
5.870568638396723715e-01 -3.056289161571646429e-01 5.128795410790440990e-01
6.779393392373093130e-01 -8.908815805261097176e-02 -2.025683218824015919e-01
7.007856200844592154e-01 -2.995275286278961113e-01 -2.293324188591083501e-01
6.860101142631100934e-01 3.161438209970903745e-01 -4.891979513460924522e-01
6.184682779385486384e-01 -1.111523647129782216e-01 1.964575516631780483e-01
7.037961911050381048e-01 -4.222315924430792289e-01 -1.779682403420992098e-01
6.082098703657882188e-01 5.867923728346831069e-01 -1.402981200259771632e-01
6.955719838893605900e-01 -7.060917342888172188e-01 3.950963530251497963e-02
7.051319029839780983e-01 3.555413581528726885e-01 -6.361671632160533774e-01
6.717908857525839439e-01 5.705174058607460907e-02 -2.470964997854988576e-01
6.577928032040863959e-01 3.041479958515624360e-01 -2.989890873293041262e-01
7.495899036858796327e-01 -6.752343103998059703e-01 -3.291793999373016644e-01
6.865573098651966966e-01 -7.073685867754917478e-01 9.879928807327530149e-02
4.907722097121295368e-01 3.258857778366299751e-01 7.732714860279419344e-01
5.921628484238112833e-01 -7.351378363212771050e-02 3.455616493582524540e-01
7.520610550967190555e-01 5.451755185349989319e-02 -7.669988074526277178e-01
6.598984791224249413e-01 6.084044545734189624e-01 -4.885144682147620765e-01
6.217276580989054002e-01 7.748717137149999101e-02 6.626088292410792224e-02
6.470522914371626966e-01 -6.211493826399274720e-01 3.055589678086386707e-01
5.473775998546768218e-01 5.905329700158777895e-01 2.526548165718468519e-01
6.693169432190994028e-01 -1.076814149122083675e-01 -1.358183494356858534e-01
7.561621963862203977e-01 -2.742340920296357787e-01 -6.036303613263243051e-01
5.147598782186331157e-01 -9.220638479934695209e-02 8.591093416308422936e-01
6.738576992689423450e-01 -7.264998729816194434e-01 1.923423506023084761e-01
6.909217517651117246e-01 -6.243171595145552422e-02 -3.022974807584343782e-01
6.878402995911095941e-01 -7.542857915448889505e-01 1.175824396102773117e-01
7.202663958901056596e-01 -3.201192806117268419e-01 -3.439617722917819864e-01
5.175641371112915667e-01 6.810263571238848179e-01 3.939960507262617595e-01
7.565182165836337180e-01 -5.883110064082007762e-01 -4.244182205964701082e-01
7.412393741425516991e-01 -2.939854773304967361e-01 -4.952888068567873336e-01
7.199121969115265252e-01 3.029549518723220758e-01 -7.017744742206459829e-01
6.192741173537311683e-01 1.795743862054698936e-01 2.319446483061715636e-02
5.535175279893358447e-01 6.220064839588238526e-01 1.945845508843409011e-01
6.475719249675967459e-01 5.568569566229361611e-02 -8.900113949550138293e-02
6.008520196581143002e-01 6.682282130997887482e-01 -1.395745867704281662e-01
7.366988083741237148e-01 -5.159606617939240802e-01 -3.375039018942373459e-01
6.295381949848910530e-01 -4.066884072003645323e-01 2.953653801025348247e-01
7.117386740209866725e-01 -6.844465397739212253e-01 -7.800558041235315654e-02
5.715697373111132684e-01 5.238242718465823122e-01 1.340782978706577533e-01
5.771118348039632195e-01 2.993685786312916264e-01 2.278084096540126946e-01
5.650772203950921169e-01 6.571612159617494509e-02 4.410173223796080566e-01
4.621089138759436610e-01 3.955657535228397914e-01 9.191715735019124756e-01
7.531659905322199977e-01 -3.942270641115541707e-01 -5.148181605673016747e-01
5.297199924602753462e-01 8.827989132096988323e-01 1.984250334361192247e-01
4.903151004085958276e-01 5.982970932679718690e-01 6.187970705888071743e-01
5.595917003763577480e-01 5.217859431527767378e-02 4.844707875829528110e-01
6.694974060603489097e-01 -4.737376532895102854e-01 7.457614117214181326e-02
6.605508145602987380e-01 8.835993962982519045e-02 -1.921854776440150292e-01
5.886661741452330343e-01 -1.491896534570961164e-01 4.120108642247600761e-01
7.515639132146201273e-01 3.947820263275168134e-02 -7.550776216992715062e-01
6.322453452665360851e-01 7.400994035608979837e-01 -3.850178394641740054e-01
6.381747768754377770e-01 -4.670022959308249844e-01 2.741286060985523854e-01
5.495299636811432631e-01 4.013159658106252858e-01 3.480351387437220501e-01
6.904471931323232781e-01 2.962585501564741763e-01 -5.065245217779894560e-01
6.895168886341341841e-01 2.894356782921801360e-02 -3.459841297063643850e-01
6.102339573259207839e-01 -1.440449662990971047e-01 2.689513942521555290e-01
5.269452307691703252e-01 2.358493674844727161e-01 5.903598370189853117e-01
6.253823279581636196e-01 -6.343963462136800180e-01 4.539649228925429769e-01
6.642354092248554664e-01 -3.295260907231233882e-01 2.540479747491709503e-02
5.800736636820978953e-01 -5.590082295434409820e-01 7.046801239535436245e-01
7.676937929693353757e-01 -2.700158060789740189e-01 -6.809678463675329363e-01
7.119092307548268161e-01 3.633249000908105875e-01 -6.846855311470604333e-01
6.648601647581726670e-01 -6.803060320493492519e-02 -1.297875602303803777e-01
6.048766417741265888e-01 8.060192011133467949e-01 -2.453530860227174926e-01
7.134104161590743010e-01 -5.738141451779330549e-01 -1.528051288438680433e-01
5.385877184652805294e-01 3.262951031329873741e-01 4.624659012951993220e-01
6.227561421379164130e-01 -7.101860188288122711e-01 5.148259563697464847e-01
5.879540589423294383e-01 1.501036337292543932e-01 2.436559906724050095e-01
6.084603492741508246e-01 -6.820232050200695229e-01 5.914022694500755684e-01
5.649086173624264795e-01 2.240197072042341420e-01 3.506189554383236096e-01
5.656227409612100132e-01 9.429319703702644384e-01 -6.952341168008167871e-02
5.147102224660863312e-01 5.697277051397598990e-01 4.768590611058842743e-01
6.988709148935895454e-01 -3.926440728269354197e-01 -1.630782856991538354e-01
5.293162188488003128e-01 -1.311444081503343462e-01 7.870683936332465436e-01
5.099391939269339868e-01 4.764348338110518388e-01 5.617673597404561070e-01
5.092178840278842600e-01 1.018152812202251650e-01 7.829682724881706912e-01
6.297026570708713633e-01 -2.155439087307564616e-01 1.838229022549405511e-01
6.823966042458041725e-01 -3.694631978924634019e-01 -6.947279614321284769e-02
6.752396678626849669e-01 4.482810385025995381e-01 -4.956125627824823354e-01
6.981165461241122250e-01 1.554525316381232154e-02 -3.940964967889375448e-01
6.609256297647813083e-01 3.992692223758898505e-03 -1.458588898343873008e-01
6.057060928891548901e-01 7.233916217478817412e-01 -2.029848898356151898e-01
4.990006326793969271e-01 8.630800065934030041e-01 4.093487331054017631e-01
7.194635955699905105e-01 -4.144988026549464299e-01 -2.841996772780310265e-01
7.404370128663327888e-01 -2.970074438541284723e-01 -4.883307661399450827e-01
6.160226440452598595e-01 6.956133030548418139e-01 -2.539376457004370868e-01
5.654792383992836013e-01 9.318006908510252373e-01 -6.215788324613038401e-02
7.678407347294253782e-01 -5.405931049149302892e-01 -5.255388375471984341e-01
4.981062562515235492e-01 2.250715826038443557e-02 9.009770744241540896e-01
4.883796909907348049e-01 8.811117235629933875e-01 4.679117180155026312e-01
6.768233210492730079e-01 -5.674318425289532897e-01 8.114489612024800014e-02
7.447471433801930996e-01 -3.074044467187444507e-01 -5.103166467505182435e-01
5.452170170676201577e-01 1.668079010443756782e-01 5.115851521801588753e-01
7.120232288313701474e-01 -6.545445053203405861e-01 -9.713604920781135355e-02
4.941710480457320864e-01 4.412888045959356687e-01 6.844969403420403387e-01
5.409488999817928523e-01 8.143915968455796017e-01 1.650284039790186619e-01
5.489536213432322231e-01 -2.917796820213949816e-01 7.523615709443304267e-01
5.484855588207916410e-01 1.871168919204804215e-01 4.786176492202107724e-01
6.646188143950471083e-01 6.622647279012235932e-01 -5.503029600779177910e-01
7.199455285449946063e-01 -7.635910729865494906e-01 -8.556781131872021051e-02
5.198348881986601944e-01 2.371410900588211967e-01 6.357960280450593027e-01
7.241277018568146318e-01 -1.235550494852681036e-01 -4.826482140134568111e-01
6.072672805774600446e-01 2.521829168495643425e-01 5.921572071699075790e-02
7.017014096915931143e-01 -3.300207652071629472e-01 -2.176566774230868084e-01
5.309831615470181898e-01 -3.375184468251625769e-01 8.955177152447097999e-01
5.877280143954640712e-01 4.215276070909640960e-01 8.825142072878736088e-02
7.423429979817846025e-01 -2.453938770633767863e-01 -5.305411140112439305e-01
5.010397849364769396e-01 7.653692626656216635e-02 8.506962019289493471e-01
5.351583905824246479e-01 -3.027967964947664847e-01 8.483311697156767917e-01
6.263721391925226589e-01 -6.087256927948457852e-01 4.326992840099067039e-01
5.872461841490211887e-01 -3.610322863625544110e-01 5.436709238206511863e-01
4.853714291360924915e-01 5.519433457996478776e-01 6.776976764934343755e-01
5.278651963609760633e-01 7.129529614152134709e-01 3.086367357906333320e-01
7.172074181639095380e-01 -2.234256128907920885e-02 -4.961968976837650147e-01
6.916073614529886227e-01 -7.808491705649494019e-01 1.084674249460026441e-01
6.957496319070543001e-01 -1.072421230669227087e-02 -3.635402736839946636e-01
7.299000543394682516e-01 -6.720452436294503951e-01 -2.031339899108408342e-01
7.425186662385266922e-01 1.825778696284597047e-01 -7.790335461819657414e-01
6.777822400462509833e-01 -1.821157744327611960e-01 -1.477815042294318149e-01
5.176376057545850617e-01 3.631790273575932759e-01 5.772225639371980632e-01
6.130074701526182501e-01 6.622062611181038505e-02 1.294114673724330311e-01
6.251042148363855633e-01 -1.765348572819630257e-01 1.911447323333437531e-01
7.221133997097836099e-01 1.929902385098691275e-01 -6.525161873184527339e-01
6.702349859924319198e-01 6.493361197693506837e-01 -5.793086045560166264e-01
4.720757352551387953e-01 1.437076221369454621e-01 1.000000000000000000e+00
5.748599508959743032e-01 4.600603565396949035e-01 1.495609846349142680e-01
5.972185832931568017e-01 -2.910307301033909222e-01 4.384404279521357251e-01
5.511639933312383333e-01 2.079796220755819325e-01 4.491629423531460774e-01
4.942005507220045279e-01 3.423395566557239089e-01 7.414942289350809901e-01
7.274253235353088654e-01 -8.105299003796256896e-01 -1.070213565069187273e-01
6.571873175893011565e-01 3.608226596061814839e-01 -3.278121725040958334e-01
5.706048611772791546e-01 1.060378044805965481e-01 3.818100501706275240e-01
7.038839032503850790e-01 -4.361821968865495780e-01 -1.704750237469222218e-01
7.288500762211397310e-01 2.245312119054963806e-01 -7.145014135851252002e-01
5.842678047144781450e-01 2.442719301661660514e-01 2.131730688877769286e-01
5.290849660785674757e-01 6.318766945847651417e-01 3.475731534036049508e-01
5.887213908828269338e-01 5.905604631547496375e-01 -1.589529157934697901e-02
5.217518035095048967e-01 -1.507569906606766874e-01 8.475357520427565516e-01
6.770684422879958975e-01 -1.622613932046305107e-01 -1.546203585337337649e-01
6.643485193822269430e-01 -2.203144897298702498e-01 -3.845003408526460192e-02
5.834678058343018003e-01 -4.925867859547330418e-01 6.442455782797404940e-01
6.540099917241543048e-01 -6.103376198993202273e-01 2.541188561317929140e-01
6.097495130645657069e-01 5.971200635655765643e-01 -1.562673473933966772e-01
4.759788333936020854e-01 7.901467968976323419e-01 6.010314544426835770e-01
6.056071352322053292e-01 -5.213496844679968989e-01 5.170711272753544252e-01
5.867234862540795515e-01 3.739241802079474319e-01 1.222889594937690144e-01
5.371036961753722361e-01 7.486592579965105632e-01 2.279943873728915993e-01
4.840711385082540619e-01 5.926086915153150336e-01 6.626402343996512512e-01
5.604518077698775746e-01 -5.555184115829835817e-02 5.411483654561708434e-01
6.478612201746621890e-01 -7.713612555306192942e-01 3.871216186967670891e-01
6.798967376413955765e-01 1.936799324786724341e-01 -3.787111557997250300e-01
7.334190321308926563e-01 -6.349417771505022623e-01 -2.474346830935478525e-01
6.609445108034643912e-01 6.403327328310568500e-01 -5.137619373152144675e-01
6.361210692951061452e-01 6.699698503982967623e-02 -2.116358459222891439e-02
5.710354829214585592e-01 -3.688686458474666474e-01 6.534910153148822953e-01
7.462704613901401940e-01 -4.988041548562555660e-01 -4.095890561147450537e-01
7.415805740637905208e-01 -6.876287607609660180e-02 -6.276750749601521795e-01
6.758580924209715013e-01 -4.228971526983560381e-01 3.878633341984028590e-03
5.172950848182704675e-01 8.357112254877813173e-01 3.063415983649864227e-01
5.249223958374176213e-01 6.469737697442909941e-01 3.658841440230005126e-01
6.044531602209657350e-01 -6.645400595219347339e-01 6.073249774222591046e-01
5.131338151478760379e-01 9.576048019364093999e-01 2.629198137584270456e-01
4.930188690407835694e-01 6.179949670193114475e-01 5.898510575712279103e-01
6.908016986444353025e-01 -5.521746069339243945e-01 -1.846489844300677405e-02
6.068411056274870541e-01 2.354533939316239277e-01 7.165282174244340385e-02
6.611724502320739383e-01 -2.300518735436625217e-01 -1.219314274954300982e-02
5.627611567043547813e-01 -2.311930376072459381e-01 6.276627433843708914e-01
5.822243266881566015e-01 3.526538679913855945e-01 1.638051198137585318e-01
7.606597480767369746e-01 -5.754326802166623844e-01 -4.587612824447924176e-01
5.446551605361552584e-01 4.572175076211473232e-01 3.473887561833312598e-01
6.809807024737462022e-01 -6.172259947397638058e-01 8.292120241247660783e-02
6.980046734298664957e-01 -3.550484037319476260e-01 -1.791807865278237100e-01
5.011064794910152775e-01 6.796842335131698665e-01 5.016667395336481539e-01
5.658834431247373731e-01 -4.729766165095941610e-01 7.471247573698677202e-01
6.031190053660903105e-01 -2.192560718688429666e-01 3.586332574998603029e-01
5.193706894571527011e-01 1.837283033670469509e-02 7.652508275702499807e-01
6.355169115053247442e-01 -6.309307905416360052e-02 5.794763603405778812e-02
6.571631727243191223e-01 3.962361992777421044e-02 -1.420144834672136813e-01
4.814232274304197090e-01 8.081283397915479672e-01 5.552766362552615798e-01
6.650100699427113904e-01 1.201053396126953859e-01 -2.394966577097743798e-01
5.241160128551674013e-01 3.427995815469474516e-01 5.469228702015175303e-01
6.466265677020931468e-01 -4.627469121438912425e-01 2.167734872659671519e-01
6.186555744969874926e-01 -4.539719934496967424e-01 3.933777770409838115e-01
6.807902083767241042e-01 4.136081008448969643e-01 -5.116245255005367198e-01
7.742828639174395011e-01 -4.855091387889103327e-01 -5.992178911015451082e-01
6.766343391778436578e-01 1.388577681490780757e-01 -3.258362489896454162e-01
5.999722167843678511e-01 3.625763602799914054e-01 4.279504689898267628e-02
6.113686076735740382e-01 -1.570716582592650845e-01 2.691106014269032953e-01
6.490201790792065051e-01 7.261270469110583381e-01 -4.858974471009772644e-01
6.789379657644866173e-01 -7.542014610338820813e-02 -2.169541458275091317e-01
6.669617479212398559e-01 -5.685411207535766565e-01 1.458384359594889490e-01
6.115865045851195392e-01 5.900761762687366518e-01 -1.641277872985364705e-01
7.231996218016563116e-01 -3.191930024770786578e-01 -3.635488748661255265e-01
4.821841566111474409e-01 6.984055999824066996e-01 6.137498680764897907e-01
6.715440401694132699e-01 -1.124179017007587850e-01 -1.475461735014140241e-01
6.626129323442190300e-01 -3.735169317981618109e-01 6.136806979562140635e-02
7.055407133912708906e-01 3.397175400224125563e-01 -6.296768822506521035e-01
5.290121029271348529e-01 7.958595597313574688e-01 2.532705331510641811e-01
7.197471229081511268e-01 -9.772760839124457199e-02 -4.691229682369846832e-01
5.591343429248217811e-01 -4.254932126158041950e-01 7.635175840652603796e-01
5.410668765105834943e-01 6.785262403903227213e-01 2.427871522214255229e-01
6.911257724092499943e-01 -5.382613884428085749e-01 -2.861111956473396528e-02
6.024581557766829354e-01 -1.751288304134772378e-01 3.374217040376391585e-01
5.374262530750252287e-01 6.571569179552951834e-01 2.787842137967571632e-01
4.704718200734050448e-01 7.639138555944801068e-01 6.519619897826998134e-01
5.781763682045483188e-01 4.505188925902278707e-01 1.335349535563792878e-01
7.643703565739971006e-01 -3.651979009653904540e-01 -6.043699795588870494e-01
5.704290957667506046e-01 6.042430283473465558e-01 9.500794676022265850e-02
6.129573039831454073e-01 4.210891448850538898e-01 -7.536324228712770745e-02
6.585776672097090056e-01 5.450628970308922794e-01 -4.433265754926829505e-01
6.893022057549470505e-01 -7.742405359116348862e-01 1.196202219937871070e-01
4.638348459191509732e-01 5.400995526023616433e-01 8.244263271986845831e-01
5.009718804649075929e-01 2.810845354084313130e-01 7.329164905577718603e-01
7.186737392633087973e-01 6.551243430580305782e-02 -5.564977323286559585e-01
6.040239697816072173e-01 5.666628079735276380e-01 -1.014759332045819806e-01
5.341098770339440804e-01 4.874232292942434208e-01 3.984242165944726910e-01
6.072178600655131486e-01 5.843184297040409092e-01 -1.324250167590464711e-01
5.204239532962817716e-01 2.551089909740579253e-01 6.215851951864835856e-01
6.848472577912242398e-01 5.287809390201648752e-01 -6.045412121104805081e-01
7.544791585620793661e-01 -6.686953213972240961e-01 -3.647151425192791674e-01
6.911718524914076678e-01 3.692170395753239798e-01 -5.533985348202677956e-01
7.239331671510215171e-01 3.433707454398262637e-01 -7.512500842396256928e-01
4.844642289651386324e-01 3.819917070110110946e-01 7.818156820773934923e-01
5.268163705196891033e-01 9.343334397263217683e-01 1.874994980352131246e-01
4.809476431495356419e-01 7.927790620716762549e-01 5.672369290255665497e-01
5.311646991392757755e-01 8.674189439560850978e-01 1.979304825613051322e-01
5.284561557453121283e-01 -2.387094352388569596e-01 8.548231410414557363e-01
6.230085146654008588e-01 4.843721551326007901e-02 7.473129734538543067e-02
7.445028509289826069e-01 1.589087927092892177e-02 -6.955823685364874720e-01
5.603001828776233983e-01 5.785726471052491382e-01 1.756332851965443642e-01
6.315477062838864564e-01 -5.108160295817215646e-01 3.424951152477535565e-01
6.187021338831515394e-01 -5.166488280700572977e-01 4.293002003253253429e-01
6.325489756234122796e-01 2.577621789048128303e-02 2.586174797250400878e-02
5.784293959475916846e-01 8.557957429133230542e-01 -1.023431507894545650e-01
5.308490468348880942e-01 8.884170198520305872e-01 1.878446007614591740e-01
5.222458330158368245e-01 7.403258775525545232e-01 3.293148488845766830e-01
6.376244320825289469e-01 1.624905018599603207e-02 -1.597772925694016140e-03
6.752406659773196873e-01 -2.506870601470601589e-01 -9.164199085475281670e-02
5.570382758720719973e-01 -9.354708677619058554e-02 5.852795860279120799e-01
4.985589046989505890e-01 9.912325253229545274e-02 8.537558567704629509e-01
6.972226680489291839e-01 7.974645652488383807e-02 -4.253964834918254612e-01
5.875171800160035041e-01 4.950380609925900816e-02 3.046364712579994194e-01
7.044532589930277977e-01 2.671428238212404938e-01 -5.806682665525425557e-01
4.672951724848063426e-01 7.362824799919541752e-01 6.885646868442623081e-01
5.883734344613651412e-01 8.370286925074490458e-01 -1.560845516654559006e-01
5.833166534835426686e-01 5.203065345700451649e-01 5.981340737083955944e-02
6.912976874184568743e-01 7.226983612835075066e-02 -3.825916290366128680e-01
6.703915957711807927e-01 -2.645118940887228876e-01 -5.215631174190948210e-02
6.732588082293741172e-01 5.136528010071976791e-01 -5.205289775454692291e-01
5.452318527941225623e-01 -3.274090396313112383e-01 7.971274419518936671e-01
7.130304757657338621e-01 -6.464316446267140970e-01 -1.083671972462788430e-01
5.119492643113140451e-01 6.044573662222622046e-01 4.747194776414683237e-01
7.199203451954658828e-01 1.197074207045307204e-01 -5.959172746417078503e-01
5.576398738365150320e-01 -3.840390381581258450e-01 7.492654475408209169e-01
7.519077360243213715e-01 -6.183438534341876291e-01 -3.771146006454925703e-01
6.477933996521055837e-01 -6.108919084179740278e-01 2.948169259862405411e-01
5.495305410264937906e-01 3.193536133278419564e-01 3.954025203662085430e-01
4.811021273113798014e-01 3.767308378659225965e-01 8.066936271306088813e-01
6.685313786339339703e-01 -2.323650631720589332e-01 -5.865356738118695373e-02
5.974528800409572016e-01 3.098913846689413387e-01 8.960844065740733444e-02
6.028586197958974990e-01 -3.472053150423378143e-01 4.342743119055262335e-01
5.589417381958765585e-01 7.235104968061177866e-01 1.006880094441016116e-01
6.124230841467065423e-01 3.334517837353716697e-03 1.695529292885708250e-01
5.383857093651337467e-01 -4.232592015090166915e-02 6.768269538160542886e-01
5.953846088741924225e-01 5.813930093379693353e-01 -5.387546638450010916e-02
7.153686993764321045e-01 -3.476696162263266943e-01 -2.962274384370456315e-01
4.872776670149320810e-01 -8.788955978999826724e-03 9.893983776112411643e-01
6.800487853394429072e-01 -3.836356364310124500e-01 -4.603222281354460432e-02
5.544389907223997715e-01 -2.947383107298534588e-01 7.184432367644886241e-01
5.686147586806356014e-01 8.169446957397952236e-01 -1.614115530125974363e-02
4.742207671191367990e-01 6.021025294932504934e-01 7.211328181639774515e-01
6.328319718706143515e-01 -2.589365378904220916e-01 1.885768202530465620e-01
6.004940681246766498e-01 8.800802341874029988e-01 -2.596920714168144406e-01
5.676626236348555343e-01 -1.230093216876653323e-01 5.333008840514137372e-01
5.363949629145822184e-01 -2.737871338825573764e-01 8.235329592361904094e-01
7.096892419454823298e-01 -1.523006497680984006e-01 -3.722543514644188201e-01
7.539925709279858834e-01 -6.855084840883139963e-01 -3.518373112943034564e-01
6.260115203492380154e-01 7.956212010851795302e-01 -3.766176908779219623e-01
5.670162896109056661e-01 -3.199371280305752796e-01 6.513157261477602322e-01
7.409432603058941913e-01 -6.492628315603971023e-01 -2.880286644391096829e-01
6.656783882175054678e-01 -6.830280659683563016e-01 2.203431654266194140e-01
6.222157756187799427e-01 -5.565716397977413799e-01 4.295524334595941518e-01
6.065016955938373755e-01 -3.177110738723167849e-01 3.935654269464821109e-01
5.093665454888424149e-01 5.278888156888413841e-01 5.357483482496420146e-01
5.822956184340265517e-01 1.486247798369344595e-03 3.663036366034856939e-01
5.203708539999414295e-01 -1.788464540640008135e-02 7.797100525973019725e-01
6.641658067992237680e-01 3.000726390489877327e-01 -3.380273144122338258e-01
7.133576040484498337e-01 -3.386527478295738858e-01 -2.883764760484114342e-01
6.521642188979408505e-01 -6.553289761854405038e-01 2.921107294709486268e-01
4.854743949142447113e-01 7.484909946852053020e-01 5.634318104864551868e-01
6.983441200108536639e-01 2.368308893043128416e-01 -5.234693299576606007e-01
6.163205617552551807e-01 -3.102220132201640723e-01 3.254620030486490845e-01
6.040871739593106637e-01 -4.614482112113976187e-01 4.923227272220140338e-01
5.349350556065923801e-01 -6.130935635018117807e-02 7.102111816454521609e-01
6.578089541563283404e-01 -7.490139392404094876e-01 3.095936703778882082e-01
7.349019429371311807e-01 -7.751449427040982831e-01 -1.760343016611652378e-01
5.777304011778978676e-01 2.362350510187116726e-01 2.602795116839501932e-01
6.262480314478174881e-01 -1.952162259407431155e-01 1.945125919249195146e-01
5.683100840067533133e-01 -2.582565438823168358e-01 6.072632959463574176e-01
5.785574765764723848e-01 3.532310330577064783e-01 1.872882901203848371e-01
5.810053135353331344e-01 5.622542376036048228e-01 5.058173066531602285e-02
5.072104675924423711e-01 8.593591455058539053e-01 3.581751218376534318e-01
5.874464715904496037e-01 8.941204738943405728e-01 -1.830606712838089567e-01
7.087785287257475364e-01 -1.979948748889859556e-01 -3.399296011187669664e-01
6.486024739569585806e-01 7.302341953874426084e-01 -4.855581647964438141e-01
5.606422135882822566e-01 5.301384696747659664e-01 2.014048614893891864e-01
6.581585699814530566e-01 -1.619945115653549927e-01 -3.195210595755548777e-02
5.155759092547947953e-01 2.835151334671682233e-01 6.366563063024320845e-01
6.704436243457945199e-01 -4.782801699034616716e-01 7.105571166931483329e-02
5.953072701577967196e-01 -3.562294642271220946e-01 4.885370936673973374e-01
5.737939302656900331e-01 1.290948850921903868e-01 3.477704426152475325e-01
6.215145104387764796e-01 -6.367632974902137644e-01 4.804549947133082699e-01
5.974545951174292657e-01 2.230024860369255249e-02 2.558140716233673340e-01
6.336394235035213152e-01 -1.645776042961650349e-03 3.462799554829555648e-02
6.529172430006068284e-01 -3.750367814860811055e-01 1.252214639320169687e-01
6.350069947197797271e-01 7.653597950616274348e-01 -4.175547215460521655e-01
5.554155375848207621e-01 -1.691008920740725285e-01 6.394867526182050899e-01
6.885064315947733160e-01 4.214258257316926271e-01 -5.662609187751653783e-01
7.638535659521127341e-01 -5.958298483494927078e-01 -4.677168261871931243e-01
6.370793666038675473e-01 1.781989123394703001e-01 -9.165836852576682292e-02
6.733228671954721856e-01 4.240247902652158341e-02 -2.485802348784757476e-01
6.613990294142948478e-01 2.087262192813609807e-01 -2.672619074014780938e-01
6.255388492723076288e-01 6.279200200296907175e-01 -2.766226971536912549e-01
6.146607312531158218e-01 4.561295346439845910e-01 -1.066792782701384140e-01
7.659399137158526827e-01 -4.201571143067042158e-01 -5.828001510376674688e-01
7.313603623591741210e-01 -1.660000705838053647e-01 -5.050938326957999935e-01
4.849314170306793237e-01 5.903608861239891814e-01 6.583517406768029101e-01
6.301726707850603404e-01 7.278035913332890905e-01 -3.644489899129868538e-01
6.582888433455946764e-01 -6.604495536503491859e-01 2.552898606777887491e-01
6.071166513264830700e-01 8.311709544006283812e-01 -2.744390487504581588e-01
5.815100231306031819e-01 -4.246677708428581166e-01 6.177070599345950708e-01
6.082888712458889291e-01 1.931323791961147285e-01 8.670930522383880901e-02
5.639001421730911456e-01 4.776352718807886921e-01 2.105889765501613164e-01
5.423950565000145163e-01 1.776063392393087692e-01 5.236731279879744960e-01
5.433006418120150949e-01 2.781314876355786558e-01 4.596914898224750412e-01
7.629049923220234675e-01 -1.190880153193194513e-01 -7.370943965644265461e-01
4.733021524914154954e-01 6.246202987001180373e-01 7.140849433633575938e-01
6.286441963195005256e-01 -2.646563544307844462e-01 2.190828971855178497e-01
-2.563509729044300411e-01 -1.462264982862293006e-01 8.828810964555078300e-01
4.308842662586157557e-01 -6.032938366720530521e-01 7.150564192742189240e-01
6.234322867515142141e-02 -8.611966692765666842e-01 -2.496831211112214566e-01
5.554037677526053596e-01 -5.122866591155710303e-01 -6.298707371183526194e-01
6.319333036560782768e-02 -1.002818194857379858e-01 -8.955099718057207836e-01
-6.431161519181441966e-01 -5.282677380852636162e-01 6.897991320992788999e-01
-2.263100800058963635e-01 -4.462130050479237720e-01 7.809835806615750275e-01
2.578934541698799099e-01 8.860133411268549253e-01 4.043798978037126401e-01
-1.017664412994677588e-02 -5.157582348931034621e-01 -7.518632656118239277e-01
