-1.520789797845711611e-01 1.475012544190931231e-02 5.702182271138231950e-01
3.997778604198441443e-01 1.507835580695173761e-01 5.948304224339573398e-01
-4.979191669577298085e-01 2.587070245343537911e-01 -1.652077207110965729e-01
6.078278739739045866e-01 4.245842139699593232e-01 1.174488644512442920e-01
6.439385255748317216e-02 4.092539114069909112e-01 -1.662341585288141799e-01
-2.398026754457508181e-01 2.010771510117506378e-01 1.115003633023003565e-01
-6.186485247504549534e-01 6.188506850941466464e-02 1.947858246722306286e-01
-7.049635924076375071e-01 -4.021211260545048266e-02 3.676969372281197468e-01
2.672798418223367167e-01 3.612987460221830371e-01 5.707559039813425716e-02
-2.068659128816899839e-01 1.933529104966497658e-01 1.476196377871036303e-01
6.147932398288212807e-01 4.793617534360965493e-01 1.711819858922937823e-03
-3.477278992201023877e-01 8.338987304196561479e-02 3.058940475714928553e-01
-5.990703757890716297e-01 4.354453167464342189e-01 -6.107921263788335109e-01
9.375609206964516384e-02 3.608711336172512052e-01 -4.327793075260645550e-02
-2.234857125216940521e-01 -3.690768693111658866e-04 5.616038120699402558e-01
6.418384413964847712e-02 -9.927682310080757078e-02 9.458405181130797867e-01
3.889129779600650899e-02 4.023137761204218510e-01 -1.659418012686831589e-01
-2.773108311424984929e-01 -1.006152234091506059e-01 7.494314964380912603e-01
-4.214617662843242463e-01 -3.992807426915523372e-02 5.325605270390082469e-01
1.829517786792635159e-02 8.338614032549269972e-02 5.195560636042435565e-01
-6.219098722219279507e-01 3.566634449094436832e-01 -4.518216911336629393e-01
5.273560753983244087e-01 1.826110007832643378e-01 5.996908264800423494e-01
-9.345679643615782961e-01 1.566826990697397226e-01 -1.969516645166583257e-01
4.585474406965672212e-01 6.842204746682798433e-01 -5.375338490645973355e-01
4.585753366238368711e-01 5.886634688833062290e-01 -3.285267752201810332e-01
5.720518815358812681e-01 5.628774128904909801e-01 -2.058924389102848029e-01
-6.021944931719771382e-02 1.673185030593453693e-01 2.901589802700708098e-01
-8.386653990942380954e-01 -1.400075766999793470e-01 5.079135712009944514e-01
-4.422881129969837843e-01 4.327215651396433826e-01 -5.133186095778972113e-01
-4.295715747642036564e-01 1.148834426287492355e-01 1.892415640992949066e-01
-1.776486548078937966e-01 -1.189053494188258425e-01 8.476079559503044702e-01
-3.068993333504873577e-01 -2.601515352958130509e-02 5.690038871697392642e-01
4.105019983764674613e-02 1.912115924818606205e-01 2.970156933519798592e-01
-3.766662304641605341e-01 8.834910320385913618e-02 2.781560230822004987e-01
-6.686167880690684351e-01 3.360832752409646518e-01 -4.340748348555678593e-01
-1.155520451404940252e-01 -1.498344967577216677e-02 6.565693152854358283e-01
1.372285994610548676e-01 1.142576269090503360e-01 5.214611080155590050e-01
-7.158426164444821049e-01 3.407657757842684210e-01 -4.718823505593413015e-01
8.546847858822450433e-03 1.495484885380624629e-01 3.691634679869156832e-01
-7.417704356762895301e-01 -7.030087692765356333e-02 4.120186877228394495e-01
-5.173491878281863965e-01 -3.197592683606546166e-02 4.591974390601433198e-01
-5.376998856478486521e-01 -1.791352950594273311e-02 4.165628088443735777e-01
1.121187755673041381e-01 4.464794234699849818e-01 -2.197914778006372361e-01
2.519559345452402899e-01 6.221847652567645826e-01 -5.224477579078312672e-01
4.768459048682797685e-01 2.071656616029647902e-01 5.165041858331274049e-01
-3.373519483686441833e-01 2.329975444565641485e-01 -1.525324043859681809e-02
-1.563476582736948450e-01 5.847798906110707184e-01 -6.789740181654649875e-01
2.488062111612567295e-01 1.379817316397758120e-01 5.347043359326042467e-01
4.665716449438328528e-01 4.689032420818540214e-01 -6.193403036099780212e-02
-1.349406002974123109e-01 7.210988450522799742e-02 4.547718222601169757e-01
-2.311028699166820244e-01 5.387469497538274199e-01 -6.219321859153521537e-01
6.868999931247470325e-01 3.875048251180090997e-01 2.447001757413121148e-01
-3.454907325854665312e-01 -6.363060802194359100e-02 6.287454337191868969e-01
-3.398939964609162812e-01 1.379096480366388822e-02 4.626851904451790287e-01
4.816245351846235589e-01 6.766779122235907495e-01 -5.075671737925080418e-01
-8.888939791523190470e-01 1.100236516844905858e-02 1.483235175917063109e-01
1.286229821567660969e-01 -3.355637674123961023e-02 8.397188752066322426e-01
-9.728784933830218751e-02 4.904648139382503103e-01 -4.382252176285170719e-01
-9.584205548794203812e-04 3.275327935774176025e-01 -2.565078374381963774e-02
-1.237341214579128212e-01 4.711056988755709662e-01 -4.113224251801276821e-01
6.612448798486106893e-01 6.351581623899055229e-01 -3.119127414928263842e-01
3.047048439751704474e-01 1.637202393874037376e-01 5.110411434383135276e-01
-2.275136445842053656e-01 1.195018924450715753e-01 2.970852727533509485e-01
-6.996158359254552872e-01 1.391340998049242494e-01 -2.142595300778109974e-02
-1.194460320386399599e-01 5.826206315679756109e-01 -6.527114439703045612e-01
1.234124935964540787e-01 6.485033354647300463e-01 -6.550415469631388765e-01
2.679718223860894089e-01 5.237978584569038532e-01 -2.979190039929496825e-01
-7.407898660480206621e-01 2.632855587705235645e-01 -3.169890693210417054e-01
6.093948026622196534e-02 9.494267248865603803e-02 5.191732059268789889e-01
-1.563644269306133094e-01 3.082469402693194249e-01 -7.418419562964297109e-02
4.995180630603265198e-02 5.771182620429883281e-01 -5.417969437107864605e-01
1.014774915810570249e-01 -9.870245900742879303e-03 7.720701371956213421e-01
-2.435856127656596815e-01 -1.023831255486549741e-01 7.729840189648936599e-01
-3.715258836020698952e-01 4.567708872368374529e-01 -5.246112860011581391e-01
-1.723355906792103931e-01 -1.280648847996361250e-01 8.707419153987211446e-01
5.781536857975153043e-02 1.245371794781888614e-01 4.526240627789297477e-01
2.962901950023195674e-01 6.037693556255817606e-01 -4.562931321213769542e-01
-1.539512991293170985e-01 4.025737144052566330e-01 -2.790757879902054928e-01
2.842337531786197635e-01 4.568804548716072778e-01 -1.420729432810060311e-01
3.728212474388784559e-01 3.960939576780646565e-01 4.258198931440242141e-02
4.654859684506001405e-01 5.065140825831986326e-01 -1.448256649988815536e-01
3.141943830266197279e-01 3.842157313895924187e-01 3.433912629729418686e-02
3.340947366134464636e-01 -2.579705843671760424e-02 9.426859609423120512e-01
-1.510952590003508123e-01 1.609671316490303150e-01 2.510041909275759764e-01
-8.696160076252086313e-01 1.012933893390116358e-01 -3.789727368699877946e-02
-6.715788432898687210e-01 4.060163057957895671e-01 -5.887529501810075949e-01
3.864631467218495597e-01 6.492286384848304504e-02 7.748425831930247920e-01
-3.577400765439422425e-01 1.538063887264504159e-01 1.460432363694407765e-01
-6.636335398556529874e-01 3.853209771382828941e-01 -5.388528085329571393e-01
-7.833620019752493002e-01 -1.910114639217324120e-02 2.757630950921239332e-01
2.905202473762169002e-01 6.466360682326223464e-02 7.194061081391804890e-01
-4.982344036214600425e-01 -1.273437440869367443e-01 6.789320815655554009e-01
5.740975125040981286e-01 6.182765880380767243e-01 -3.258607826501244698e-01
-6.838271335781400673e-01 -1.939585751408698100e-01 7.162904171903484718e-01
3.480755242833596941e-01 6.709453351253696907e-01 -5.729843839408870210e-01
4.397151543882248936e-01 6.181195810813238101e-01 -4.039586480889778564e-01
8.775994088111233049e-02 3.148788135217586159e-01 5.381088559153936884e-02
4.359808061836508153e-01 5.843019727551089781e-01 -3.321766444839119314e-01
3.021544797436966912e-01 1.709351984549209447e-02 8.302367791136395780e-01
-5.493659770160965738e-01 2.552904759584572192e-01 -1.877658285461713539e-01
-5.640303996795287267e-01 -3.486067145524270050e-02 4.382579937355399746e-01
4.008246810993621456e-01 2.512705877174598035e-01 3.756683235603338056e-01
5.762410328094317302e-01 5.203482999994192282e-01 -1.104325997691621014e-01
5.029631147869878527e-01 4.113954501040544831e-01 8.508241146127532017e-02
-3.482727903733756070e-01 -4.691745260657623900e-02 5.905684961466858285e-01
4.998564886483766734e-01 7.878529036603455771e-02 8.107139600461809037e-01
2.894066418720233069e-01 3.529792099349550200e-03 8.524606048671921066e-01
3.664526849746939097e-01 3.460415269724767540e-02 8.294715773244104584e-01
-3.801818282541018501e-01 4.988424991661827290e-02 3.602296102589078175e-01
-3.597848710394575544e-01 4.954247213726851728e-01 -6.022968758300559777e-01
-5.584341680608120306e-01 -2.037466677807627247e-01 8.108917480891294494e-01
-4.161970930213376718e-01 -1.726841062215652978e-01 8.259816324131369347e-01
-3.678872529525283319e-01 4.246360798990266305e-01 -4.522059700414367556e-01
-1.786020751738564560e-01 2.959715397596107689e-01 -6.031740686025750114e-02
5.158832617812280086e-01 3.182964449757814118e-01 2.962390665902590592e-01
7.905873109486163397e-01 3.006385544049172687e-01 4.952076744464815605e-01
-9.843779290532505000e-01 6.055161972703724388e-02 -1.578024704261189390e-02
-1.739477458039972169e-01 6.666778987371425880e-02 4.439049874545537566e-01
5.821791689846746998e-01 6.668914656650860584e-01 -4.274679967517109880e-01
4.291730527620172819e-01 4.915466351455453631e-01 -1.332871262994658468e-01
1.979859703257132175e-01 4.560223559210463407e-02 7.070810263735114454e-01
1.888075273201226256e-01 2.809292654557850599e-01 1.870444369621481195e-01
2.746219856581059160e-01 5.818571261022591479e-01 -4.210174388406016099e-01
6.181086468616130425e-01 4.097413797809850711e-01 1.559123870370270060e-01
3.426171705188144623e-01 6.053976427811321726e-01 -4.328124878767973804e-01
-7.147779408639333143e-01 1.603677588903548723e-01 -7.671603515436074827e-02
-2.410514719379495130e-01 2.051560282677573344e-01 1.018505899250228830e-01
-1.697509290659716397e-01 2.189275321667347729e-01 1.133505440321598973e-01
6.277228792603686269e-01 2.271958473446851479e-01 5.607660108752240413e-01
-6.499308445615948893e-01 3.910841779456782352e-01 -5.434588935214442751e-01
-1.149450608074099878e-01 -1.250231866090375024e-02 6.514971909398034056e-01
-8.052273084021231986e-01 1.517039577639202677e-02 1.880453511905653963e-01
-8.102794135570509093e-01 2.587638729530782333e-01 -3.476620044896547856e-01
2.266554114799237130e-01 3.510793968921527286e-01 5.571295560189117729e-02
-1.467482099981013699e-01 4.785432700002070772e-01 -4.410226984282326623e-01
6.075388160570569518e-01 2.794426356503202369e-01 4.347163405511314527e-01
-9.695987509246691838e-01 -4.333050951311331195e-02 2.200451081422450106e-01
2.410506972697999684e-01 2.811467815982725549e-01 2.170639325107864281e-01
-7.577678238318087678e-02 2.750581021969241702e-01 4.544280867895372777e-02
1.732280397789799087e-01 1.648231492193662773e-01 4.318837604261266394e-01
3.988720386235319881e-01 2.142998015802238809e-01 4.553865901717172870e-01
-8.460618788805170931e-01 3.434894334741377120e-02 1.222645100347058977e-01
-8.207037951884975369e-02 2.724319531110747650e-01 4.751272716761453102e-02
-2.889243906986230237e-02 2.746917749137252063e-01 7.361117873099269626e-02
2.476427141166238355e-01 4.331791253388528884e-01 -1.115950533878595358e-01
-6.162975658058510858e-02 5.441350032892908750e-01 -5.347919699109566771e-01
9.977375341066892223e-02 1.205624403561797869e-01 4.858089520588279031e-01
2.966410172391333380e-02 -6.575181748260623682e-02 8.523689011472430632e-01
1.602966085497346260e-01 6.110185744222750293e-01 -5.515295049838621066e-01
-1.293728800097493081e-01 1.685993870160503727e-01 2.469915594227477806e-01
-2.173290491903699384e-01 4.749807889699507735e-01 -4.744304963325129965e-01
4.682213795778154830e-02 1.756600735724925533e-01 3.343972829167345395e-01
1.033216493722379642e-02 1.103452434882177813e-01 4.559462103631985452e-01
6.528886466119731002e-01 5.506332889998591940e-01 -1.319277786028268951e-01
-8.047365531856197352e-02 5.252967494016257399e-01 -5.045907086330234659e-01
-3.048976162211400331e-01 -1.905349994342307451e-01 9.299903436153796887e-01
5.647906749866152820e-01 5.063050654317140520e-01 -8.640269334606585916e-02
-4.471506826655833877e-01 3.256039629127410739e-01 -2.818822369445282416e-01
-8.080123237730562069e-01 1.484202031106286734e-01 -1.050082621194831228e-01
7.789264411427455626e-01 5.676682729673101502e-01 -9.561425729230356441e-02
-4.439428906571984967e-01 1.810830687070782152e-01 3.606892387395162908e-02
-7.082178065152880952e-01 -3.057098068519314288e-02 3.447114732812733284e-01
1.298800308553870464e-01 4.735433045047052758e-01 -2.686147987555122518e-01
2.728975764529742998e-01 -2.653478162831787723e-02 9.085776043664248736e-01
-6.628734551773360906e-01 3.073824333244525378e-02 2.370915758497907921e-01
-3.590409848107137813e-01 1.036199539638323203e-01 2.550456084889541897e-01
2.323056215261028734e-01 3.567075676164428444e-01 4.670182052431523512e-02
6.861099076891025161e-01 1.743371521472590613e-01 7.104536864159276544e-01
-9.187347844445464817e-01 1.657402117236780881e-01 -2.075190723141121241e-01
5.487169336499300720e-02 -2.345596273113391417e-02 7.745785915102891828e-01
2.102665484211567182e-01 1.702793856050046351e-01 4.415705394995367294e-01
6.467270258023015694e-01 4.400281999260368115e-01 1.063777277338254917e-01
-3.822300351106617811e-01 4.640308432784003290e-01 -5.467375827389940879e-01
-2.707328630876997821e-01 3.911470929139783115e-01 -3.222522270729289429e-01
-7.669008225295730341e-01 1.524594910933192438e-01 -8.984502933904361943e-02
9.325752873757395256e-02 5.315360273234519262e-02 6.294338241236984155e-01
6.104995785195823504e-03 4.938097284922910446e-01 -3.851886624318784369e-01
6.446975409153307135e-01 3.409967756262742289e-01 3.217827039586647064e-01
1.124841626458800009e-01 1.288685544928473981e-01 4.750620987374319371e-01
-3.262887956996667338e-01 9.992190068435390093e-02 2.822515518349640873e-01
-6.654038450807394645e-01 -1.640804396666742382e-02 3.387272338747602252e-01
5.186845764967183969e-01 4.343808975964394414e-01 4.398828787751125208e-02
2.534574477300756135e-01 6.709986204282150091e-01 -6.283310925452059159e-01
2.056146130881849887e-01 1.425112068107543539e-01 4.995863472852604681e-01
-9.169819723465193195e-02 4.591863971130656363e-01 -3.665540518250732238e-01
1.471208219961347430e-01 2.824604920845503742e-01 1.593622882459094503e-01
-9.816680475194041744e-01 7.271967626646581861e-02 -4.081095324569511407e-02
-6.151942668857843799e-01 2.282046471524194486e-01 -1.669520460106383719e-01
7.324741535177383689e-01 4.994883717237177945e-01 2.638563791527687510e-02
1.078618148322420256e-01 1.020694619942417031e-01 5.309757082630014446e-01
-1.045883042541442959e-01 -1.241482049587379621e-01 9.017210596540808920e-01
7.126473792664614337e-02 5.617976524301222102e-02 6.099778019754206193e-01
-6.464115348020577079e-01 -1.851652318495683458e-01 7.188987912700167682e-01
-9.065832516908697292e-01 -3.045944521472902788e-02 2.286782755416447155e-01
-3.011051924182003847e-01 1.392937839779192222e-01 2.108421984973497532e-01
-5.830562115191944006e-01 -1.657196145859971270e-01 7.133512481750871048e-01
6.240122965012318001e-01 4.975483627098323813e-01 -3.268242557076343757e-02
3.183400204000674250e-01 -2.303452868363542114e-02 9.274477941592722541e-01
-6.105796294798112589e-01 -7.967394410314529440e-02 5.090966223713929706e-01
-4.653660948678787768e-01 3.858355656267300482e-01 -4.242461981779046543e-01
2.957978227280008143e-01 2.366833929141514692e-01 3.462657304971144545e-01
2.745743276541237621e-01 6.815275875103992131e-01 -6.390325035613407811e-01
-7.922213978654414623e-02 1.974159162258371236e-01 2.132413465885477089e-01
5.397960996548663015e-01 2.600178483606486735e-01 4.376573313648269292e-01
-3.077651026424673211e-02 5.244385730413791968e-01 -4.737047455489067360e-01
-1.351637098380219781e-01 6.290420538396518380e-01 -7.634134697168364347e-01
6.798252839503447775e-02 4.931772817409525445e-01 -3.476864900552821269e-01
-8.202461274115846468e-01 -1.533974062736198074e-01 5.479498360504787557e-01
-4.714277806856422837e-01 2.168608563825724922e-01 -5.822334490982432331e-02
4.896437534573782613e-01 5.631659241148981865e-01 -2.546264522071905456e-01
1.810782979119457403e-01 3.818980028309436059e-01 -3.829392378306989420e-02
-2.859404617474667898e-01 2.364748040659387929e-01 7.151468638795803814e-03
-7.270988219354205251e-01 -1.422316956995393622e-01 5.779011922493864084e-01
-5.693663187224275862e-02 3.543650575946398762e-01 -1.170105119432442442e-01
-7.968790749035801202e-01 -7.541670142064284266e-02 3.910395602688708228e-01
-8.639798332767797406e-01 1.756344104496652403e-01 -1.971970839871143022e-01
-3.548711192841316059e-02 -5.642131585461724122e-03 6.828743616533446970e-01
-1.827721012707953785e-01 -1.962146335879008316e-02 6.274755388836171788e-01
-5.196433765065009425e-01 1.981200446570979268e-01 -4.537995308968479496e-02
4.495433252508589939e-01 4.243534146695220055e-02 8.608455532387920828e-01
-1.561207987839741129e-01 3.150169993422128334e-01 -8.884864474245997290e-02
-9.135929446200089510e-01 -4.261840504231394211e-02 2.511792139747047181e-01
-6.378881328055411304e-01 5.880390835566896846e-02 1.902940834110854462e-01
-3.514746991252987174e-01 1.994136133546864642e-01 4.995380641407402844e-02
-2.446494698023979897e-01 -8.808737264761502817e-02 7.410970762326208883e-01
1.262403105172511808e-01 3.380130171842707920e-01 2.567617936142414792e-02
4.872285373363833827e-01 4.878310004419111889e-02 8.689599939198991985e-01
-6.480256545458745743e-01 -1.491277996127375605e-01 6.391398647053988524e-01
1.022740675384462145e-01 5.335706731010442239e-01 -4.160135069832882615e-01
-1.299350137777832703e-01 -2.704344690661935821e-02 6.745499090623844340e-01
-3.308222596360701484e-01 4.293963275831536586e-01 -4.409815486341424062e-01
3.170804111398389802e-01 1.494000927984499572e-01 5.495842733692444249e-01
-8.135614384614557881e-01 2.971962912025001291e-01 -4.336325408321867747e-01
-7.069002285400286523e-01 1.953190568628776491e-01 -1.485589567877357575e-01
-1.016122728285904359e-01 3.542437698007082358e-02 5.544602598591773512e-01
-7.876122618690805099e-01 -2.676444380671811826e-02 2.900423890535591687e-01
1.408888659263696566e-02 4.843487402843322798e-01 -3.598363949722336308e-01
1.008667217101519992e-01 5.794877162451642638e-01 -5.172592328878284906e-01
-6.231313515566931915e-01 3.070045577918248392e-01 -3.439267437665570748e-01
-8.637427148210206074e-01 -8.300940417644939173e-02 3.686159706133350644e-01
-3.654725377574840617e-01 3.582038471609925723e-01 -3.055038702816041951e-01
-4.504393197806910165e-01 -4.362702256109955018e-02 5.237357344635332757e-01
-8.541988773977580163e-01 2.628684214907502925e-01 -3.822755122524106319e-01
-8.510251645737874071e-01 -9.304808398168403979e-03 2.148415919757302450e-01
-4.363882362433280093e-01 -2.002990097690331150e-02 4.803288029193432673e-01
4.191103042653333555e-01 5.707802840987673265e-02 8.110565610487192600e-01
-6.381776360627743339e-01 -1.505608797039627855e-01 6.480225798491967559e-01
1.046255478527389066e-01 1.745552301129732475e-01 3.705544903175929661e-01
-2.293711141759400551e-01 4.766249897507295330e-01 -4.850556512585428859e-01
5.619741365495688479e-01 4.119339269368161860e-01 1.183504498030074487e-01
7.493938605232414174e-01 2.477855842133552255e-01 5.867560215056459860e-01
5.989367674203441294e-02 4.706303581041358930e-01 -3.030961697015419620e-01
4.600670035312014461e-01 3.027321803961331020e-02 8.935879356331515311e-01
3.489564766030787690e-01 3.243229508993955013e-01 1.856206337067327072e-01
3.889410503265720020e-01 1.132309757432667791e-01 6.706352850046840564e-01
2.188897137614002619e-01 -5.292463093626336573e-02 9.347690072411510842e-01
3.983886950412810490e-01 6.380392152086190594e-01 -4.716474284717355747e-01
1.362166351576234169e-01 4.763015535406459611e-01 -2.709485263579786696e-01
5.881821512314135136e-02 4.621162286126195284e-01 -2.851028547740320218e-01
-6.051218808961387197e-01 2.585779095682889661e-01 -2.275013707825505882e-01
-7.743540236864235315e-02 7.901255082232527469e-03 6.287679695382207834e-01
4.394168794202413797e-01 4.116677872536222971e-01 4.739377751183777854e-02
8.388390779218711790e-01 5.054251796562195809e-01 7.548836851361148681e-02
-2.731200281601194324e-01 1.803415740601066741e-01 1.374028218519243172e-01
6.038317486160312830e-01 6.129731551836535841e-01 -2.969053763142593949e-01
2.293467014490318256e-01 6.078735479271721309e-02 6.921757483993575821e-01
-6.639398974225975136e-01 3.189285824822654103e-01 -3.938261739653546312e-01
-7.987753125676322341e-01 1.069799142346461451e-01 -8.983246811147066468e-03
-1.293839579076561386e-01 1.259226027999670212e-02 5.881851178640506994e-01
-3.019244280860785556e-01 -2.716230820379130547e-03 5.209512217848802917e-01
6.617509553153098911e-02 1.252202562693038521e-02 7.024898491661335509e-01
6.175531146828437956e-01 4.931152022476215091e-01 -2.675708370298241628e-02
-2.539488578267219687e-02 1.926998790174665743e-01 2.549755732911976880e-01
-3.078851321508997985e-01 1.032219110178710098e-01 2.857766953762013173e-01
-7.164803857357875394e-01 -1.413126182041448686e-01 5.820892570446649650e-01
1.190475493941459215e-03 2.151435769078939297e-01 2.214077409514064454e-01
5.060032085300992799e-01 5.634352235322814817e-01 -2.456661412648139253e-01
-1.474939451145433067e-01 2.709029551848505246e-01 1.266792728838666247e-02
-7.333046277279046121e-01 1.244799316389447325e-01 -9.040835619423153932e-03
1.910712986633757993e-01 5.497141163742623737e-01 -3.994880609499478208e-01
-1.917003671303311452e-01 5.015080238845116556e-01 -5.174877795463148633e-01
-6.986177572616894538e-02 8.755685972597779254e-02 4.589756649413541667e-01
-2.020119738589256086e-01 3.456405974137080617e-01 -1.826123493796157349e-01
4.192598154782938291e-01 4.192271775925509453e-02 8.442897060120589936e-01
-8.563929870407039902e-01 -7.545324893066024385e-02 3.563802168733822828e-01
-4.155514441738629716e-01 4.791821486597055424e-01 -5.993249649128048473e-01
1.258584684008195176e-01 1.998937168074911286e-01 3.275312140016325979e-01
-3.643944624307844937e-01 3.916824433901860414e-01 -3.780949387443509058e-01
-5.082514971431190132e-01 5.979759508812462765e-02 2.637919051189613340e-01
8.619273903514500235e-02 6.567161126338600940e-01 -6.947293448310964958e-01
2.371568061914446079e-02 9.916056105706963497e-02 4.882201867608155221e-01
5.110235427936308250e-01 3.503070446590721421e-01 2.233926327868918094e-01
-3.454355295137292448e-01 4.655292128374037830e-01 -5.285370620492686466e-01
-1.709078797903609004e-01 -1.370008670834909070e-01 8.911190000896288543e-01
5.290260695063575547e-01 4.770393618251542178e-01 -4.327267045937748663e-02
6.519239072325661022e-01 6.236123964407065401e-01 -2.921020399535698142e-01
-9.815064763686719151e-02 4.147834666077359067e-01 -2.732077067964462369e-01
-5.473261750155891114e-01 4.736496672718384232e-02 2.681745051602612562e-01
3.969959477477104093e-01 1.765743860652553565e-01 5.367999758615542572e-01
-1.462544809006247060e-01 5.262274098026360480e-01 -5.450235160734909767e-01
6.724345720032026685e-02 1.442581265765907270e-02 6.989497358896950008e-01
3.933000094977811556e-01 1.842220997219516654e-01 5.179164347519824574e-01
3.369231293949309647e-01 3.350748585615227482e-01 1.550812863772903227e-01
-2.518954719058417169e-01 3.587671837348352377e-01 -2.404390806117721879e-01
4.810899948748986188e-01 6.668465123606784339e-02 8.262247032364995469e-01
-1.821682850863565739e-01 1.480812100720181046e-01 2.610488786709371789e-01
8.096450548801936709e-01 5.202118950485001836e-01 2.610759864794109930e-02
6.373977008018432144e-01 2.566289389884404137e-01 5.020408494594866822e-01
-7.643743157103902730e-01 -1.688796732504577736e-01 6.144241085213443254e-01
-9.304665039731691012e-01 7.780736560175714744e-02 -2.205092969909198605e-02
3.566268158614066541e-01 4.930371363057124978e-01 -1.788934349724586592e-01
-6.527671232930916112e-01 3.397074232003087224e-01 -4.327494183669983174e-01
5.616311555317407000e-01 5.881381338933345804e-01 -2.672224035858576929e-01
-4.034008581189437170e-01 4.957298382894578109e-02 3.473570341050348786e-01
3.630957223640674525e-01 6.709943573678899265e-01 -5.643240561806368571e-01
5.554861728526396814e-01 1.146785811663625504e-01 7.646844575171937164e-01
4.464276024456925729e-01 4.867537720012295455e-01 -1.127329803799700519e-01
3.237107741627824331e-01 6.223011846111713430e-01 -4.808178644827646453e-01
3.791086956001729624e-01 6.415929051101001424e-01 -4.906736929420413285e-01
2.021872353168747694e-01 5.701956632656700608e-01 -4.377942770439038345e-01
7.228485991653137432e-01 5.626182439860606399e-01 -1.173030247916439228e-01
-5.038313555004251265e-01 5.553262753867337781e-02 2.756998405340602698e-01
-5.400854686518049563e-01 4.604490558782376453e-01 -6.310468108761735362e-01
-5.512427827334137609e-01 -4.228920480528334386e-02 4.619691364538219269e-01
-6.956703403516322215e-01 3.954787937165531453e-01 -5.797691848400579051e-01
3.366513463720158805e-01 6.667114761910534204e-01 -5.703930824841799696e-01
2.433845788738537297e-01 3.763336650837941777e-01 1.024495508137461194e-02
-2.021808639466163571e-01 5.792899728250959779e-01 -6.937207465315592403e-01
2.787774525707314432e-01 3.708153079115138473e-01 4.297346037017370224e-02
7.186067447550396059e-01 4.851002105743980053e-01 4.975905281576919331e-02
-1.609272501267100877e-02 2.801040152553669338e-01 6.924558686413019581e-02
-2.909762420009565642e-01 4.850519054755700332e-01 -5.394459414682044596e-01
-8.486543145592442272e-01 2.510815164209979564e-02 1.409616097807380453e-01
4.283070131993911844e-01 4.146142373385214297e-01 3.446463969183071602e-02
1.087350898111700270e-01 3.400422271343250813e-01 1.102004241733902518e-02
2.513395666435264911e-03 3.533528210386521762e-01 -8.009468469378977495e-02
5.442000846836924088e-01 4.648640981852584231e-01 -7.787069180768507563e-03
-7.984859363478954419e-01 2.848038470706100167e-01 -3.977294522407652244e-01
7.558775974828078059e-01 4.293156387949964570e-01 1.935199853125046943e-01
-9.020991685207863098e-01 2.295095124771933670e-01 -3.372771274680402831e-01
3.591815944444473052e-01 4.709797147814138163e-01 -1.291608280259725905e-01
1.687654229299697106e-01 6.501255941405899297e-02 6.475725735131162564e-01
3.592654451035269814e-01 3.746845416583671207e-01 8.149333836377296858e-02
2.307049503273524149e-01 3.748877308569009137e-01 6.006015178037263716e-03
-8.435113687359830914e-01 -1.717198994960284289e-02 2.364336748277829636e-01
5.318787847217476550e-01 6.223470847603145284e-01 -3.594070680145704522e-01
-3.313379896190868368e-01 5.102781596186054536e-01 -6.181776043979929636e-01
-7.092943085108721624e-01 1.316884193976045614e-01 -1.079114422345245176e-02
-4.823569251685231873e-01 9.653009570354031954e-02 1.985700965739971569e-01
5.199209167335472510e-03 3.864522072100538552e-01 -1.509179265980621354e-01
2.240513101755924052e-01 -5.754288644139639031e-01 7.864283147232661308e-01
-7.126705529929147631e-02 -5.087855127858630366e-01 8.289314689428883831e-01
8.429327619266581140e-01 5.004938726758392242e-01 -8.458688197246147511e-02
-2.820859993902861684e-01 4.938647338499009831e-01 -7.943909654767061790e-01
6.142301444762531260e-01 5.471433929330660195e-01 -5.114623433104126260e-01
7.599133167368591346e-01 2.094996908115757395e-01 -5.959154168111844285e-01
7.737906496936314271e-01 5.926297808405813772e-01 -2.014018421293811145e-01
9.410493626033991088e-01 2.027116900155179757e-01 3.103943607422782539e-02
8.277607126536171700e-01 -2.830794625768056627e-01 4.812595338988542859e-01
-2.068266287392226954e-01 -6.900120594826913978e-01 7.062647569825780680e-01
5.179086635933322080e-01 -1.289534113447666219e-01 8.130414630601013881e-01
-9.218943913572847926e-01 -2.913542986821551772e-01 -6.568884530278580602e-02
9.714013337583630170e-01 4.446955731968110087e-02 8.257360024904387974e-02
3.098765440733380894e-01 6.822260796911187031e-01 -6.547320307158041031e-01
8.727515513098089706e-01 4.348181307830258358e-01 2.191847071197137731e-01
3.460760286660385932e-01 4.629575124796539987e-01 -7.654846776173167555e-01
1.135299151020042058e-01 -5.907296378845113827e-01 7.943770664764409073e-01
-7.718060354715036153e-01 -1.167836369246212369e-01 -5.864693494518070649e-01
6.366202765809788611e-01 2.207316049547886072e-01 -7.268369432201070568e-01
2.181230794281889818e-01 1.926337200013886475e-01 -9.517169691550705357e-01
4.795489790172685063e-01 5.873422049753129759e-01 -6.089014963981951301e-01
-9.186896775152040284e-01 -3.046887527536719653e-01 2.415490296483168570e-02
8.788256609156873678e-01 3.704027656374368760e-02 3.972201141849243666e-01
8.037422893666773538e-01 4.322998447390787868e-01 -3.074173468286839350e-01
-5.012791686143066583e-01 -2.081680410791502123e-01 8.510769000729119238e-01
9.760511363749445612e-01 -1.166929445296436239e-02 1.154026762620395941e-01
-9.339195280667774712e-01 -2.139690073214244037e-01 -1.269717939422706776e-01
-3.431719198261536929e-01 -5.385505290583785243e-01 7.371015854117333177e-01
6.476825439178320876e-01 4.958406399300993583e-01 -5.116744787103133518e-01
-9.787458271978660695e-01 -7.878634613109794516e-02 3.411430207115421359e-02
6.782011350024708118e-01 4.745561083568200500e-01 -4.897118473098697189e-01
-1.142622074164884316e-01 5.858820015586104768e-01 -7.848189778482398404e-01
-8.656488590869849675e-01 -3.663294250639902438e-01 2.341069663365121789e-01
-1.185026209537233532e-01 1.138548911830023491e-01 -9.829626173794330235e-01
-8.859321528520197608e-01 -4.093985863410721793e-01 -1.803873395410660052e-01
-9.746759947932825963e-02 -3.518237983169493210e-01 9.022443816338668876e-01
-8.300030176501792534e-01 9.708396065106397743e-02 -4.869688998012562386e-01
2.753416954693406193e-01 -5.358828951011707087e-01 7.906347484219324873e-01
9.383292508650855623e-01 1.277766636473981476e-01 -2.749252883085220311e-01
-4.800100110578266466e-01 -3.946970241442548377e-01 7.481629121527687554e-01
7.506884556087764504e-02 -5.162964355117651838e-01 8.295230702880591611e-01
-9.110769708509021125e-01 -1.653021137647057714e-01 3.542832844166235451e-01
8.691558799242351530e-01 3.446838546871742737e-01 3.304245209120991733e-01
-4.317003864326685036e-01 -3.262761435721894254e-01 8.182856004444644116e-01
3.217495290494290505e-01 3.926274150615083336e-01 -8.157531867655789526e-01
9.728557966924920031e-01 8.425980814079628289e-02 -2.806020636252979858e-02
3.010841366451699752e-01 2.473632956114351633e-01 -9.028026068364939372e-01
-6.855462092691110287e-01 -2.928974338255717069e-01 6.411583477402421627e-01
8.617173542083865767e-01 1.684697049803172142e-01 -4.567926308867537588e-01
-9.455348933736760220e-01 -9.215220298339811544e-02 3.337800731942547894e-01
7.769810314969057830e-01 -3.047979148369306945e-01 5.412363877610580909e-01
7.554231112842109130e-01 -4.549342811780755780e-02 6.016424525763028885e-01
8.590039118744912106e-01 2.255842669270762546e-01 -4.017148657871791317e-01
-5.065230228429270509e-01 -4.235945294368519409e-01 7.116559163793957365e-01
-8.702730156950776452e-01 -3.483140919505311756e-03 -4.163918150140548113e-01
-8.174652747075569215e-01 -3.146576790632873988e-01 4.233236106013441580e-01
6.931246037946343641e-01 5.652650869374739040e-01 -3.915242186950964043e-01
1.040806268378921956e-01 4.974017163992263679e-01 -8.177896368671210281e-01
6.766255567184409347e-01 5.988165694792402238e-01 -3.878587749534978535e-01
5.730756628080603265e-01 -2.703181439430539790e-01 7.359153335930382900e-01
-9.454310537361354516e-01 -1.371068015715238009e-01 2.588432945876991687e-01
1.764285663757961808e-01 6.188516160497038454e-01 -7.403483196538129807e-01
6.605775494305133888e-01 3.041336013036390895e-01 -6.429496624435693253e-01
-8.180636505135933101e-01 -1.460411786765955511e-01 -5.087539110943263276e-01
-5.071527390083503395e-01 -6.231069982070167601e-01 5.784713697798296028e-01
6.805985876030176129e-01 -2.517717294042509657e-01 6.509260345975005357e-01
6.867191541859697379e-01 5.291088913295397544e-01 -4.324504158485523164e-01
8.036624636924137866e-01 5.532636747546957334e-01 -1.619871974793838654e-01
-4.751407933173788511e-01 3.486387021020191379e-01 -7.667819000493070192e-01
1.103168221288145234e-01 -5.445145099723729398e-01 8.148280254503376119e-01
8.357657766338981720e-01 8.691387867197174211e-02 4.810435893977886845e-01
-8.242752435902257480e-01 -9.758677807017463596e-03 -4.994338647809072884e-01
-9.011976850383360826e-01 2.408900388204553156e-01 -3.678796538598063104e-01
5.992815131235197379e-01 4.313552484484438065e-01 -6.126681436607819276e-01
4.152939002651109268e-01 3.129908485598673629e-01 -8.201666343522679981e-01
7.429945921975615875e-01 1.314309883061186290e-01 6.349920535209572225e-01
-3.568161527683953449e-01 -3.926583700567281565e-01 8.152552906027283885e-01
7.702075845590540260e-01 5.883113086985582996e-01 -2.158491416970989563e-01
1.848170610308922657e-01 4.792756131872463188e-01 -8.115397106766026880e-01
-4.266776366907382712e-01 4.018144657555739463e-01 -7.742607619403034658e-01
7.810160729019005599e-01 5.782311852358563709e-01 -1.987481106498741878e-01
7.998711092352887853e-02 1.625140666256291166e-01 -9.803027749518151701e-01
-4.094698815234484868e-02 -6.681544950545876826e-01 7.546681277118109099e-01
-6.420076677391277631e-01 1.991792098886250445e-02 -7.271606970505718470e-01
7.652503870885932757e-01 -3.013454547491694613e-01 5.550420086435402522e-01
-6.829754121704961767e-01 3.162057353113654212e-01 -6.275376042806481980e-01
-9.070534999144991284e-01 -1.426161424271226164e-01 -2.993313052615145242e-01
5.536530060306877887e-01 -1.035048989099376093e-01 7.933289156968396094e-01
-4.182610931615003413e-01 2.740157013312478629e-01 -8.202668768399919985e-01
7.526174194667546447e-01 7.129023186362339060e-02 6.166462459476154123e-01
-1.975043780856511333e-01 -6.867814665685324504e-01 7.110568680605590108e-01
9.010593246353879593e-01 3.556639555176768219e-01 3.861041791950218377e-02
-3.373795715418866914e-01 -5.616885882742540526e-01 7.263411327533707551e-01
8.739484216668218508e-01 4.572676064621813974e-01 1.171386374671453401e-01
4.050949623196187788e-01 -2.024159009408196819e-01 8.595367831878110154e-01
-4.905693853841584517e-01 -2.348819862263544223e-01 8.409677307171602445e-01
-7.962637548502737861e-01 -2.451432569446992948e-01 -5.453223023121868129e-01
2.106797090049510046e-01 3.495896441929255416e-01 -8.728659216368133134e-01
-5.894132774548419551e-01 2.616273832792908038e-01 -7.176238750348760131e-01
9.884616037221617413e-01 2.213603128828753319e-02 -3.533885709382424828e-02
2.988819629970860259e-01 6.641467002587808643e-01 -6.705183488939058245e-01
-1.053702416238370271e-01 3.479484190026079227e-01 -8.883817123277595318e-01
7.965986629401909935e-01 5.027830931794980973e-01 -2.456161414730898829e-01
-9.295217620466860176e-01 1.689570912904951594e-02 -2.844208792876905534e-01
7.732215611137052136e-01 5.382537584746563963e-01 -2.643476606611696589e-01
-9.072215672804839759e-01 -3.045568148561584310e-01 1.445381068973115579e-01
9.345631015770092809e-01 2.002840431216189043e-01 -1.492067228287500269e-01
8.701605690356104539e-01 1.435746552067455606e-01 3.999026203428684978e-01
-5.387915484096710284e-01 -2.364802269755351405e-01 8.095403760515739178e-01
-6.133263545628482305e-01 -6.218689553098856182e-01 4.726348261148312080e-01
4.786719924051929254e-01 5.053621746989991337e-01 -6.632072398333361818e-01
8.538494265582714515e-01 1.542520056708633069e-01 4.366811408398612593e-01
9.268622530021488615e-01 -1.703442609833172583e-01 3.182119904005928368e-01
7.302456650470035004e-01 -2.415144316092316668e-01 6.031526988708898473e-01
1.723355310355586534e-01 2.615634092445409675e-01 -9.248264855622725378e-01
2.435577051395811446e-02 1.499745840722827850e-01 -9.853539000992805885e-01
8.270632032357151386e-01 5.407146923885731704e-01 -9.096964292664615204e-02
-8.622578414889233711e-01 -5.044175839118207882e-01 -1.718951190336961976e-02
-7.004082387848904467e-01 6.029293886057007085e-02 -6.591470536740732244e-01
-2.573875922038029174e-01 -4.490677435820388252e-01 8.208731920079992417e-01
5.782636652700520186e-01 3.589018081782677227e-01 -6.827412061370186080e-01
6.653282790732253371e-01 -8.263439361429303354e-02 6.991406729685607502e-01
-3.044959710542926024e-01 -6.998973869347976384e-01 6.612419366169139945e-01
-9.263394231618122809e-01 -2.740343185311170937e-01 -6.145522341778454634e-02
-8.347543965810367839e-01 -4.024876363688693892e-02 -4.813918900566534487e-01
8.658078209685624582e-01 4.019146569887568354e-01 -1.465634855984908891e-01
-2.944762252050254769e-01 -6.503879168970706504e-01 6.945894740211795426e-01
9.009376210171727850e-01 1.405580530349770929e-01 -3.901109614673894388e-01
-9.411216909421784571e-01 -2.187862440580138346e-01 7.451851277639363891e-02
8.752011663590465451e-01 4.507581358155742790e-01 1.348644725184137971e-01
-1.639943969772792720e-01 4.636010507022282900e-01 -8.316347913480035547e-01
3.095480866524599195e-01 6.596639757630945455e-01 -6.681144200456371474e-01
-3.162270577571671959e-01 5.736732422672291554e-01 -7.543156236324738417e-01
-8.949379613331880368e-01 -1.933136882697682746e-01 3.683300490209270861e-01
-8.239595900583600585e-01 -4.128492631886412356e-01 3.024316767308349307e-01
-5.547910609475027455e-01 1.620975192739897153e-01 -7.691497244650860043e-01
-5.336151555040802297e-01 -5.817920246371310368e-03 -8.279594961484524340e-01
3.897105892922739234e-01 -5.137983258336581427e-01 7.617097813122402084e-01
-8.780520995373068960e-01 -3.831652992451486384e-01 1.550898961554952882e-01
-7.274668744507892804e-01 -4.470415986979386913e-01 4.606444446528393244e-01
-5.579555331470569257e-01 4.823650653046614861e-02 -7.954217308590411095e-01
-6.820941773030521071e-01 3.347522897618805948e-01 -6.242718666918896098e-01
-7.982540962027560028e-01 -1.258414159830973933e-01 -5.442012165021608006e-01
3.269665279602761432e-01 -2.930110764446105520e-01 8.641517777156915159e-01
7.060055780300388273e-01 -2.857082106605772220e-01 6.197222594242119964e-01
7.463442820814618628e-01 2.362568594545402245e-01 -5.925417458216590827e-01
2.912493879244553718e-01 -1.610756368366138558e-01 9.246725057638613965e-01
-3.626266223224086649e-01 4.145738460361032551e-01 -7.972098712572942558e-01
9.605311071257456312e-01 2.096242780503460024e-02 1.617212386045870920e-01
-6.089088561781776932e-01 -3.849698006360770530e-01 6.530875736956945898e-01
-3.095241269342177137e-01 4.279733915380567466e-01 -8.111502215489516665e-01
8.220103365978879972e-02 -2.861474728069705042e-01 9.288363753205723938e-01
-6.642085490661504554e-01 1.796323406963014901e-01 -6.737392543594153960e-01
-2.290055531553641111e-01 -4.240674814074790189e-01 8.425041859055858451e-01
-7.967827978233250896e-02 4.628931235859107818e-01 -8.411691396500436957e-01
-5.968799652330406547e-01 1.343758497130297935e-01 -7.430928455770097196e-01
-9.006806359665637807e-01 -3.739015974804598130e-01 -2.144311542430019091e-02
4.384416257072141360e-02 4.490180157578430031e-01 -8.476051396781364433e-01
8.732106287076618623e-01 1.720994601241752076e-01 -4.263342924521089650e-01
7.007106215568701391e-01 5.470550005716796615e-01 -3.955342396496905888e-01
-7.582432153299689670e-01 -5.538045953499949325e-01 3.042963531175668646e-01
7.252883940353400671e-01 6.327002824500417288e-01 -2.711325165628594713e-01
-7.950975869218640524e-01 -3.733772765548045713e-01 4.100723421845154926e-01
-2.592296013148254197e-01 -2.974901555671373155e-01 9.013261747476314367e-01
7.501213650979919878e-01 2.065221914811909698e-01 -6.117516763565986615e-01
-1.526996990438763691e-01 5.316766821898305517e-01 -8.045866248230126860e-01
-5.094402942975350124e-01 -3.120820654615316658e-02 -8.528837931847396137e-01
5.933449220898447951e-01 -2.562923154072970985e-02 7.788837662735562661e-01
-4.486371398601717853e-01 1.594764790864218809e-02 -8.820781679628516558e-01
8.390040458632879172e-01 -3.009351973745347797e-01 4.643814624543055047e-01
2.552467685995005175e-01 -2.285711570562369011e-01 9.130823923307794798e-01
9.749999835332503473e-01 1.528711634697065697e-02 9.507811488341827433e-02
6.386614731661759414e-01 -1.506814784035317434e-01 7.109895982174475604e-01
4.652672976386275083e-01 -4.676276808245980465e-01 7.436522780769412311e-01
9.262579294927357765e-01 6.822122077435488485e-02 2.640817307032063410e-01
-8.330730389470741848e-01 -1.983296662130473731e-01 -4.751637723333742014e-01
-3.420186515915130676e-01 -3.085067809097544189e-01 8.688441365859548293e-01
-1.193689803425667523e-01 -5.194998205975347449e-01 8.170822942843425363e-01
-9.196227209714371575e-01 3.222068276227268296e-02 -3.130141491263367937e-01
8.786421441897448448e-01 -2.706921503499110440e-02 4.044082368340689571e-01
1.021639144462398036e-01 6.098097059642706430e-01 -7.618130987960940459e-01
5.978466784082715757e-02 -4.610588715977750884e-01 8.548062884099473235e-01
3.887183091246154132e-01 5.506468780828402965e-01 -6.919691235474387803e-01
-8.785151254870944282e-01 -2.334038224206528289e-01 -3.541069304594940403e-01
2.581006382028758553e-02 3.865604603269164885e-01 -8.777314097304261820e-01
9.852035562354949372e-01 3.524228507567887109e-02 -1.491301073860442084e-01
7.360494894831064450e-01 -2.680214920297928072e-01 5.923842563748812351e-01
2.487979178701849037e-01 3.735449848444177823e-01 -8.505914142471360240e-01
-1.282190844929440576e-01 6.188878514398101771e-01 -7.693697303587451186e-01
-9.041663437588834951e-01 -3.174357457064195809e-01 1.361323351689071315e-01
-9.535738409043439390e-01 -1.204701933366283118e-01 -1.200802962339476421e-01
7.057097885089744782e-01 4.989663430860287741e-01 -4.297877109109907168e-01
2.643657954629096141e-01 4.845427765079879379e-01 -7.857289897467493178e-01
-4.424711456270506993e-01 -2.562771704858672339e-01 8.543871314553066476e-01
6.057649944104643858e-01 1.130271234501204897e-01 7.959504197863214170e-01
1.145689481807208171e-01 4.854464813039039983e-01 -8.221543023132441563e-01
-4.596262108684531777e-01 4.581836225445070077e-01 -7.399146667481411033e-01
-9.594604075010949584e-01 -6.843816784141025511e-02 -1.399715038186387928e-01
-3.314838136593030171e-01 -3.353784147982811215e-01 8.578228546648639652e-01
9.664548092974691862e-01 1.110011344140222761e-01 -6.401679593903231158e-02
8.395626938830688113e-01 3.306367900595612586e-01 -3.321563710504583100e-01
-3.717141654620205182e-01 3.201462912012052464e-01 -8.264366303691217386e-01
1.249985083898045163e-01 2.261532670655742039e-01 -9.478532826745961204e-01
-7.435454395681490025e-01 -7.314648693592704087e-02 -6.239883808286813549e-01
9.218060196347936941e-01 -5.042640486742559075e-02 3.115250911517769561e-01
8.132663168965633682e-01 8.937968125597066382e-02 5.221870728630085834e-01
6.760282865016682685e-02 -6.319335913023428342e-01 7.777819299276211851e-01
-6.036545423327472903e-01 -2.390630668103061740e-01 7.590877242054732132e-01
-2.293111384363548388e-01 -2.387598266394058977e-01 9.389135586040036063e-01
-9.259016090611110750e-01 1.299283319734887421e-01 -3.138581666525823155e-01
-4.656781604630323979e-01 -2.094040420849782314e-01 8.702560430654507906e-01
4.890839551314649647e-01 -1.080110793688599108e-01 8.385121587330076620e-01
8.242461910959899551e-01 3.093449558251876730e-01 -3.920981282514663935e-01
-4.177549850127182940e-01 -3.893850078628528499e-01 7.879036710381647213e-01
-7.918387762455965095e-01 -5.596318340458239504e-01 2.161781480055852134e-01
2.879931845533666435e-01 6.002904739108940735e-01 -7.120432122314619416e-01
6.884956816964097337e-01 5.535338791486599935e-02 6.970673504744743232e-01
5.773597228532089121e-01 -1.567546591228838049e-01 7.615661137720405316e-01
-3.046069994518996737e-01 -5.116301068131924312e-01 7.694066301788000661e-01
-1.828748299833108659e-01 4.130291084254893996e-01 -8.492146512433043082e-01
9.023039936297019281e-01 2.682915033910896474e-01 2.385612176153090735e-01
-8.212839319212386080e-01 7.037467974203950871e-02 -5.016191067628670286e-01
-9.115719424735406751e-01 -4.478431689303929292e-02 -3.165697470027685756e-01
5.702260883875746034e-01 3.224775286805197649e-01 -7.142388556316692227e-01
2.791502435985879771e-01 -4.311179528829539032e-01 8.297972257229556670e-01
-2.268159195940228634e-01 -3.254266172255299572e-01 8.947466860537542921e-01
7.898151818026618587e-01 -3.287865757133627276e-01 5.228331397883473342e-01
1.395881560824522305e-01 6.146193805098167928e-01 -7.517669848415330369e-01
-5.364323054679953628e-01 -1.458412809846913218e-02 -8.279203580040220833e-01
-7.703938235675553692e-01 -1.044304940993931036e-01 -5.879771121192807204e-01
-2.652501122684461365e-01 2.391547814337166566e-01 -8.954926364133339867e-01
-8.133582458609545096e-01 3.033200652301236144e-01 -4.917062662180488042e-01
8.340123969695213413e-01 3.525861183758166040e-01 -3.213211258824952843e-01
6.866258739399553335e-01 3.128695854603965043e-01 -6.071723478828299214e-01
6.676709675870239336e-01 5.614247453902535545e-01 -4.326450577651581031e-01
-7.680706595550201854e-01 2.399905527722464293e-01 -5.547408024737543464e-01
-5.410528941551735471e-01 -3.742590148682861662e-01 7.183958148502704866e-01
4.041497205249584002e-01 6.630633294503237574e-01 -6.131502369650246864e-01
2.215062825749229969e-01 2.123928350370065943e-01 -9.410360667059125550e-01
6.074229542149770511e-01 5.110352127889407070e-01 -5.461364319967639824e-01
-9.166913187589524892e-01 -2.929447660925880159e-01 1.005050792816492566e-01
6.368781065351118188e-03 5.042309243013296527e-01 -8.235367430324330718e-01
8.455355104583802683e-01 5.027571585974960344e-01 -6.629669030284036924e-02
2.133563974500954086e-01 -5.384004599472160812e-01 8.035137918326287210e-01
2.809007778697117930e-01 -5.536032797313955589e-01 7.823182503672907462e-01
9.257227356286457098e-01 2.636472960440836011e-01 1.834714090038176357e-02
1.713159615883054834e-02 6.093621276976770584e-01 -7.731146519428612196e-01
3.114111821328734500e-02 -3.793095209112633537e-01 8.924969127424680071e-01
-5.602190986258676064e-01 -1.337660479327760533e-02 -8.083494215162089214e-01
6.186987747692123119e-01 -3.079744739196145775e-01 6.916497655113289511e-01
-9.386945457174349361e-01 -2.324575490956690693e-01 -3.994350245244398384e-03
7.905524375867182263e-01 2.591051551896284000e-01 -5.058591210572312979e-01
8.789893526176051353e-01 3.854687350115880706e-01 2.475517738422169933e-01
-7.305746193574349512e-01 -2.780312487065402793e-01 5.979518317232308533e-01
4.979887023652665445e-01 -1.333569266420180366e-01 8.254940595642270562e-01
-6.270747383044460443e-01 3.104911612752790373e-01 -6.762081334817743317e-01
-7.348954464317785096e-01 -7.161963310431540553e-02 -6.354167131038425120e-01
8.584968276385016583e-01 3.638779321241067399e-01 3.605125192597496975e-01
-2.051301149355463649e-01 -6.300057679768569230e-01 7.393774635953398455e-01
-8.880432852903805685e-01 -2.765064580718186726e-01 -3.031433105215534662e-01
9.107432892525574308e-01 3.059144961644940097e-01 -5.833040807133502148e-02
8.059843438566074436e-01 4.823050459742121987e-01 -2.443612532299003770e-01
-5.293550441695136222e-01 8.610001686110313468e-03 -8.276345175939466836e-01
7.193498652962203588e-01 -3.847121961178991412e-01 5.870510643906622361e-01
-8.789622310499035640e-01 -3.327728503377134772e-01 -3.054816507349670252e-01
-1.816825167592399648e-01 -2.127454112600326297e-01 9.603602574174111561e-01
9.584314610299505821e-01 -8.707677068531756480e-04 1.839845517782646989e-01
8.045170716423083457e-01 2.644886258713136651e-01 -4.762807745662558379e-01
-3.863909289757283538e-01 7.605076034825691833e-02 -9.000180146706940887e-01
8.066009571599126460e-01 2.723658253013706565e-01 5.250782733820444914e-01
5.161656106923429022e-01 5.428220943010522159e-01 -6.096011371918049759e-01
8.651107597288039130e-01 2.824665870981468707e-01 3.747588104277700949e-01
-8.582246036700738046e-01 -1.495592013601618475e-01 5.055905348638923824e-01
7.913265325408637141e-01 1.548485482375441813e-01 5.598915929825815097e-01
-5.383624237073284524e-01 1.828637937609349784e-01 -7.755188829001182782e-01
-4.888382368475378825e-02 4.406420768111881658e-01 -8.526288476751937573e-01
-8.149874216023690332e-01 -2.916975512175642438e-01 4.511988836732722663e-01
-9.500563896702798328e-01 -1.608467581756311549e-01 -8.701294517074482926e-02
-2.814106872931088077e-02 3.472238920585931088e-01 -8.951718179338616910e-01
