-1.134154680043470420e-01 -3.937044527025516105e-01 5.573441140585715381e-01
5.728870381337609619e-01 5.381901612635250354e-01 1.559610514255205804e-01
-2.378412001975227855e-02 -4.535807021536388262e-01 -6.119302479101503822e-01
6.056347301304177977e-01 -2.149804396935357520e-01 -2.619237657259347318e-01
-2.503037121219445771e-01 -5.547239627241438154e-01 -5.989411586669474152e-01
3.078896398324686492e-02 5.672176132529099801e-01 3.118926188037929870e-01
3.658743517950662771e-01 -6.225911115893162373e-01 1.012684302213883031e-01
-8.017782104286435008e-01 5.157133795248496355e-01 -2.458573185729993893e-01
3.280303007392965098e-01 -1.940055717151867587e-01 -5.234532145454232621e-01
2.205319698721230626e-01 6.050766482010283553e-01 1.160078407911675769e-01
2.624535453737462110e-01 -5.578445634903345107e-01 6.857855649336973558e-01
-3.802965564245385233e-01 -4.778496637553198423e-01 1.782322674730558720e-01
-8.178199540163439973e-01 1.677962753850472943e-01 4.596815931306575537e-02
8.529320070489850858e-01 2.259883869994872008e-01 2.746264418469612908e-04
-5.642432684534811616e-01 -5.337078239534731594e-01 -1.289424383381531924e-01
3.056814759429078432e-01 5.886885797733680814e-01 6.636204409258811276e-02
-1.827509534875582653e-01 -6.187131939049064222e-01 -2.443905363345797443e-01
4.073814480958778406e-01 5.783023963594433603e-01 5.350334933788885028e-01
-1.430737405474330481e-01 3.100829378954039206e-01 -9.051675408053014849e-01
1.418302028802446713e-01 5.596274550247808399e-01 -2.479153816222794682e-01
3.738333815998887699e-01 -6.460145621590176468e-01 4.624430281572977641e-01
-2.173982385186651600e-01 -5.665399100147701095e-01 1.520253032970713125e-01
-8.361212969899679548e-01 4.223306614900106948e-01 -1.463993704359294878e-01
6.157338343078200271e-01 -2.659084797627063179e-01 -2.265765866214351221e-01
-3.502050088882983914e-02 -6.245208236285595405e-01 -1.283111123424910682e-01
-1.708063820879195394e-01 6.256248023469898056e-01 -2.351222280369192619e-01
-6.217221311811744755e-01 -1.215747560457458298e-01 2.376742003716730833e-01
1.347840586547862929e-01 -2.567896465339664092e-01 -6.651402762740028507e-01
-3.768173552929629522e-01 -5.947677237736501699e-01 -5.380317950515361991e-01
5.258124978422294010e-02 -5.688902660057342242e-01 -3.208274786560425529e-01
-1.719572263263965117e-01 1.716365581807432206e-01 6.331361793722941611e-01
-7.855379924872710751e-01 -5.054048241001358743e-01 -2.937775087622240267e-01
-2.666781001454823774e-01 -4.276722725111713475e-01 3.660405172006312990e-01
-3.780759431786401975e-02 2.360747250896055860e-01 7.206783501825253513e-01
-9.838365867900183970e-02 -6.889108198283999673e-02 7.402083250401051417e-01
-7.184492340099446483e-01 3.196016446597386707e-01 5.327156458759039342e-02
-4.854481200261504537e-01 5.333881797755182230e-01 -1.445709531309085499e-02
3.502656347592091879e-01 4.589395497979588678e-01 -2.524460858067850699e-01
3.953559613738495959e-01 -3.329817015413136239e-01 -3.774858371157809311e-01
1.889233827118015629e-02 8.369713306323495194e-02 -8.468742201519845469e-01
2.043716740846695801e-01 -5.330389474837702313e-01 -2.831573469554702904e-01
-8.428370313930660940e-01 -5.958774223666249426e-02 4.297228260378616049e-02
5.242189996432830013e-01 -4.521216932659619658e-01 -1.419044255350938866e-01
-5.707020289930974100e-01 -2.550839140019940388e-01 2.265560517981679844e-01
3.564616620455084428e-01 4.051230458284044156e-01 -3.229797532345959343e-01
-2.932894460452310434e-02 1.434662777966139446e-01 -8.791554178902238892e-01
3.558661118115064581e-01 5.961655550487994226e-01 3.628759240475111225e-01
-5.209853745915123818e-02 -2.293715588217014600e-01 -8.498736517793515910e-01
1.946304178477734625e-01 4.006363553897410168e-02 -6.871984887386265450e-01
4.054809069349425005e-02 3.423648423613821490e-01 -7.005438515158421975e-01
3.622913014166156964e-01 -4.491548020142059894e-01 -2.857933053975517113e-01
-8.635290821234678504e-02 -5.838231367786362869e-01 2.401579764753207225e-01
1.837413017905214496e-01 -6.404420433308363192e-01 1.555382643403383502e-01
6.818362811133109602e-01 4.784134937968752554e-01 1.224287580723645574e-01
7.035747634735869394e-01 3.161959700691205910e-01 -7.582965339272708383e-02
3.040680598931549614e-02 1.422578477634165173e-01 -8.229741439219916410e-01
5.807294259346115206e-01 -3.868337753577936744e-01 -1.653781397139648113e-01
4.368259404696341053e-02 4.241394696956140575e-01 6.147854021106766709e-01
-1.221243982640903350e-02 1.975734373406897448e-01 7.656663056085171171e-01
-3.927854636612401196e-01 -5.714321208673147634e-01 -5.714424943849316652e-02
3.206837830186289318e-01 5.977798592585138460e-01 3.329421863014736527e-01
-4.050517013632735225e-02 4.129932082171986485e-01 5.568019040935948683e-01
2.640366800078189913e-01 -9.973053660048999958e-02 -6.127536186863753453e-01
-2.170728138532773133e-01 6.201938771688593199e-01 -3.867380373183235687e-01
1.690382906017887654e-01 5.827257940530651270e-01 3.529663364629609945e-01
7.500348358057935538e-01 -5.969342317128298880e-01 3.075785937559993855e-01
-3.400062093610716207e-01 -5.356731703772614761e-01 -7.209333390572749689e-01
9.557113346501737439e-02 1.361904536689099998e-01 -7.630604685001628473e-01
4.593275728514778500e-01 5.928521455111549487e-01 4.199141016274627325e-01
-2.662703111360307032e-02 -6.277393185443376211e-01 5.849187090493847968e-02
3.811264479616941481e-01 -6.235481093830013144e-01 1.162471944863546630e-01
2.885210107214038547e-02 5.720768447015752711e-01 -3.314532868074566152e-01
-2.097777811819135363e-01 5.705872871797458279e-01 -5.969955940835096619e-01
-7.517647477376599996e-01 -8.203197658028370254e-02 1.245259029088763847e-01
-1.717560569611101262e-01 -3.303101705043381409e-01 5.589729387751115608e-01
4.190601076599948516e-01 -1.515070063617813267e-01 -4.564659308807297866e-01
3.226963422332068676e-01 -4.948954570334656439e-02 -5.667924168895556170e-01
-1.203763164543354830e-01 3.004149188245796021e-01 6.012868733859365600e-01
-2.124714941388162470e-01 -5.830796076390990512e-01 1.021598255012215739e-01
3.874414909364947146e-01 -6.510803873419807042e-01 3.527343679802835696e-01
-5.222838201372274058e-01 -5.683727987610467380e-01 -1.910703427462921711e-01
-4.413391771405790198e-01 5.778820449945861748e-01 -8.588345450174861284e-02
-8.449052124710954015e-01 -3.017861007455810984e-01 -7.305263706132589241e-02
3.844863118019869463e-01 5.927764388767323700e-01 2.073240225840670414e-01
-1.062740191686539770e-01 -4.382499293279900066e-01 -7.044705792455386861e-01
-1.738826040119663963e-01 -3.186168933609880849e-01 5.661262973564286094e-01
3.127442940417057282e-01 5.656319965376015446e-01 5.280911681678970293e-01
-5.861661383286783655e-01 -3.099636635705186327e-01 1.721741892035243693e-01
-4.642412254973744129e-02 4.921179961266535230e-01 4.306723094612193714e-01
-1.746213716429476093e-02 6.179290687926634051e-01 -8.249847330122296596e-02
1.575449752877609022e-01 -5.858602392109759638e-01 5.012026007546471762e-01
3.555753480663398358e-02 5.535039588772171504e-01 -3.811555366296038305e-01
2.238044010098147463e-01 5.020253805546365244e-01 -3.041322274683490035e-01
3.875002038590742021e-02 -5.166414004888818523e-01 -4.531536468361690995e-01
-1.823918828535682490e-02 6.931843230042186721e-02 -8.836837884908752550e-01
-5.095700893373277252e-01 4.659249936108021406e-01 8.077692010146461654e-02
-5.095621229502569349e-01 4.226988327052427774e-01 1.378044798959909278e-01
-6.188446060714327679e-01 -5.926788617869328535e-01 -4.396576982457587879e-01
-1.084374931052299734e-01 -1.809160336645522782e-01 -9.258207573162509085e-01
6.190299358451477607e-01 5.780379126092953790e-01 3.995863613189478691e-01
-2.194366585408729919e-01 -6.095574057888627495e-01 -3.773099996911679493e-02
-1.210834090096220630e-02 9.584180457338370429e-02 8.058736452470638412e-01
-1.068971338170905672e-01 -6.101477031887128089e-01 1.011651389067486223e-01
-5.637574598363217504e-01 -5.763907757078684524e-01 -2.716698340204094508e-01
2.222265499703393599e-01 -6.382367396894741418e-01 3.209373013658516349e-01
1.118266765064450941e-01 4.792082087900866316e-01 5.867321399706079132e-01
7.534910843113459267e-01 1.173566492896617602e-01 -1.456822954071079479e-01
-6.646021437279626964e-02 -5.572112961385088381e-01 -4.468550389609217133e-01
5.091829614970294626e-01 1.691268575688671116e-01 -3.587332452251467685e-01
-1.470893490277441762e-01 4.444070392104329525e-01 4.225148368031493296e-01
-6.699534978022659848e-01 -4.393541165073861637e-02 2.073576492739082067e-01
-5.280633123158665621e-01 -4.472692165734554748e-01 7.700669410846541774e-02
7.724181600529227143e-02 -6.143205624833165679e-01 3.017200117021785477e-01
-1.085940556827404424e-01 1.872457220567725067e-01 -9.396602291855220557e-01
9.877594905165656969e-02 -6.032847228714192100e-01 3.759972448695402814e-01
7.504991060410752812e-01 -3.120701630679291738e-01 -7.613494390077588103e-02
-4.005949989120048960e-01 6.357894137300585946e-01 -4.890237560560676822e-01
2.651042521059500112e-01 -2.388928861702547812e-01 -5.582673334457600722e-01
-7.218913887362197190e-01 -5.614716842253117957e-01 -3.901243585364400079e-01
5.878268586565007503e-01 5.716797384811045379e-01 3.135291796730068636e-01
5.455643949125228431e-01 -5.781467318090681706e-01 9.620682123869631064e-02
-3.704100023372339234e-01 5.815653374891194272e-01 -4.166218430209331358e-02
3.225091915012706090e-01 5.879144718096427358e-01 8.264467389430484034e-02
-5.022985843314295984e-01 5.939605437320278902e-01 -1.823509609557275868e-01
-6.202726084039040799e-01 -4.944686908620745669e-01 -9.836282587170361302e-02
-9.381104124943799860e-01 1.843624775608762312e-01 -6.977827475515574474e-02
-1.506178170430269858e-01 5.599823600058789763e-01 -5.630851081010228576e-01
6.929543650442498981e-01 5.021537929188700788e-01 1.860553941683638357e-01
-1.865706620002940963e-01 5.971698101811883097e-01 3.902081040755016328e-02
6.638776085667671412e-01 -1.593915498360052446e-02 -2.514737445595607301e-01
4.410830146306150001e-01 5.546345817755361507e-01 6.643057539306624903e-01
-6.484676988932054353e-01 -3.160583916761156714e-02 2.286358548572232363e-01
5.386862020873691703e-01 4.183022460972871670e-01 -1.234793169348928493e-01
-2.921734030137710381e-01 -3.312504569635584817e-01 4.409425149176215419e-01
6.399296881565247341e-01 1.743742333114788323e-01 -2.317367148893503259e-01
-8.935961468756346837e-02 2.358679229184874604e-01 -8.994591860161247343e-01
1.097518891351160902e-01 -6.720541945090878488e-02 9.351342243508392604e-01
-6.934687287683886092e-01 -5.166841707515622550e-01 -2.233272027158998696e-01
3.148758497254690314e-02 -4.930946333551496363e-01 5.716456049388179972e-01
3.076963474005878774e-01 -5.849337118251465295e-01 -7.495710351484149991e-02
5.158428174092185570e-01 2.494605338979139497e-01 -3.098078398401980516e-01
3.960287045790227278e-01 1.164586843272001071e-01 -4.843970182804637759e-01
3.232821481420404264e-01 -3.227341322644360910e-01 -4.498667541637197953e-01
-5.690292458569654599e-01 6.361085488057742765e-01 -4.227904517039361987e-01
4.268610388504028297e-01 3.917777960851952512e-01 -2.693048507639014266e-01
1.645640852127725762e-01 3.366378705261948712e-01 -5.844500543265676029e-01
9.063674326005712045e-02 -5.420915762388694992e-01 5.409648974358528539e-01
-3.580352139944670276e-01 -5.539471421607979895e-01 -6.854858975243196539e-01
1.139112152960749108e-01 -6.238456097541069667e-01 2.924343329886027187e-01
-4.049049010962685879e-01 -3.501344265531738942e-01 3.141612501615821951e-01
3.829390136785039700e-01 -6.176186280925016758e-01 6.418411838078693643e-01
-7.435831214002944778e-01 3.714888939575999860e-01 -1.294884916338952426e-02
-3.576821892493950439e-01 3.061623172992924413e-01 3.853527517512841949e-01
5.084804004839637015e-01 5.094831774858182838e-01 9.089462017170131178e-03
-1.965409832800036893e-01 1.643970866191681313e-01 6.138362306652859202e-01
7.404199353065565870e-01 6.886673695154815755e-02 -1.707921327775751008e-01
8.862313408688374250e-02 3.288838566121410345e-01 -6.652366509238720749e-01
4.574760154830824210e-01 4.354005078176246823e-01 -1.805690699285095457e-01
1.424695519198320923e-02 -1.236070750774905941e-01 8.375788377153131625e-01
-9.634556480729257466e-02 -6.247867954403681923e-01 -1.760397089541402074e-02
-1.470884669507047382e-01 -5.007434832075196018e-01 3.765524756525625572e-01
1.157526368059469679e-01 4.633036153487296027e-01 6.174712810307469990e-01
3.912465564282857633e-02 1.698416083221054307e-01 8.257140092197540193e-01
-6.301692572765554834e-01 -2.608031415984744528e-01 1.655269971589637124e-01
8.338126864084758338e-01 -7.532123358157759296e-02 -9.076545359619919706e-02
1.666816506187376312e-01 5.280808813103907706e-01 -3.069068479846895903e-01
-8.087364322667036642e-01 -2.351828451747148274e-01 9.560780175010165707e-03
-2.645583598792756175e-01 -4.059826297557564412e-01 -8.836017717558429796e-01
1.351856569603926139e-01 -6.047983506022699407e-01 -1.387803051753831174e-01
4.008147318198794218e-01 -5.881133936880418578e-02 -4.934460014100512382e-01
-4.315578921773303156e-01 6.376439061196262914e-01 -3.859563544336359620e-01
1.919430697711966838e-01 9.253742397169689715e-02 -6.825821043377899855e-01
-6.231536045458335726e-02 -5.833182659198336006e-01 2.684604985422279211e-01
3.788319239227884161e-01 1.200733095758772240e-01 -4.996545413155956128e-01
-4.913547616425338327e-01 3.580742737256580321e-01 2.223906445777023011e-01
1.173358174903196306e-02 -6.192800186451365985e-01 -1.481524930572615528e-01
1.405285908427318002e-03 3.786360400012646066e-01 6.343642882174133080e-01
3.505694094912941705e-01 2.719882375933109775e-01 -4.543841672503833307e-01
6.298523007924179684e-02 1.719801791121140511e-01 -7.822670968655964785e-01
-3.408668440584818882e-01 -7.991889518188226293e-02 5.113999806978415386e-01
-5.590822436052567818e-02 -9.971584886298780204e-02 -9.068076734204845168e-01
-5.382985339450641060e-01 5.861315943695912800e-01 -1.857090287453805888e-01
-1.977017327505658228e-01 -6.155992661471531013e-01 -2.855843702559782704e-01
-4.111097897946642266e-01 2.330722593988748259e-01 3.860486946141068465e-01
2.987334378796255296e-01 -5.124108081696121531e-01 -2.437809280901639397e-01
-3.554899698510134987e-01 2.130691929807863039e-01 4.470457046266491652e-01
3.180818424779014997e-01 -2.740600945934145161e-01 -4.894359588058773136e-01
9.393893058563254073e-01 1.869735418039248087e-01 6.087964596846939802e-02
1.701281127949574590e-01 -4.755190204269662546e-01 7.385941612744234552e-01
2.261120197385177999e-01 -6.120579603296850690e-01 4.856248542225661824e-01
3.989275211497907980e-01 4.359093619164651212e-01 -2.387942340449078493e-01
-8.104559787827540773e-02 6.845849288458159820e-02 7.490687011922650962e-01
-2.835482020518383939e-01 6.267772884856482873e-01 -2.041063691704279037e-01
-6.611721898415694465e-01 -3.976871429228271554e-02 2.160171774801214750e-01
7.428314888675622285e-01 -2.116484051685176004e-01 -1.386816597657614114e-01
3.829702240868297636e-02 -5.190112888917611800e-01 5.332074259615459111e-01
-5.372145280562602432e-01 -4.584690133865149814e-02 3.315066586791290404e-01
-7.401720058737221164e-02 2.582306221503040677e-01 6.738042503353719459e-01
-2.040077177951948872e-01 6.053177876985622596e-01 -4.625385177325088693e-01
5.406388443992986570e-01 4.282772540585460530e-01 -1.072918557146527591e-01
-5.017884795052433150e-02 3.883145664394486718e-01 5.783385844636962370e-01
-1.023409053556086357e-01 -3.912878169514239501e-01 5.707896431546078952e-01
1.763059448344596047e-01 -6.395088083111741817e-01 1.310109174524158870e-01
-6.420032854654955656e-01 5.376678643735056662e-01 -1.526387386539549973e-01
1.530985474351199971e-01 -4.373137148515396366e-01 7.718658398972266799e-01
-3.791310733701968583e-01 -3.930898515154130357e-01 2.956585970805422625e-01
6.655226195056915262e-02 1.746910601133968566e-01 8.483580614669480324e-01
-6.186091414960974422e-02 -9.729275540459876581e-02 -9.128954885765270255e-01
-4.158355208733183206e-01 6.282067233404841078e-01 -5.891644423327548896e-01
6.326033324210954545e-01 4.574716929552898881e-01 3.256559893779228942e-02
-4.442785579393527806e-01 -2.524659914259732574e-01 3.499245867842351587e-01
-1.347017944315636040e-01 9.427442874346002311e-02 6.937756054850241494e-01
-7.140501708192602548e-01 2.898336675138877827e-01 7.855520087973913435e-02
6.888320333678821239e-01 9.433315069018234633e-02 -2.135501632289779073e-01
-3.316268409153919072e-02 -2.636475315177440049e-01 7.387112726585260969e-01
3.769338783002077475e-01 5.703109235639431951e-01 5.489397760660173764e-02
7.055702530036795928e-01 3.928322252506770140e-01 9.396246147134794391e-03
3.950189676240933694e-03 -6.312108724416896077e-01 -1.091808364319282396e-02
-1.338816897526167449e-01 1.529041002952047090e-01 6.755298738050530272e-01
-3.078716162637080145e-01 6.249173416432050043e-01 -4.708991176895443442e-01
5.480506433111449471e-01 2.444663573350492058e-01 -2.819466876776647313e-01
5.458717824369980764e-01 5.768535166114158175e-01 2.936109155229047474e-01
-5.619261057151777594e-01 -2.975114348605508718e-01 2.055520406906624908e-01
-4.915717358315907504e-01 3.378961439232663344e-01 2.402900268946587259e-01
-8.075015705200954130e-01 5.563287389365237368e-02 7.990906931716011685e-02
1.914973610773070267e-01 4.887412828531736420e-01 6.355579606905987777e-01
6.986224620547485387e-01 -5.765237508389936538e-01 2.162462070376093004e-01
-1.641181405420319428e-01 -6.143674838829378260e-01 -2.813043354159711074e-01
8.269934457235966763e-02 5.770390890074692525e-01 -2.535025273947898450e-01
-2.284125061484851005e-01 -4.162093039188497490e-01 -8.393023501679464093e-01
-2.166954890523962729e-01 3.439937420619925690e-01 4.781669418453496356e-01
-3.813991466854904644e-01 6.110621647166553094e-01 -6.437722947122862527e-01
7.952508777724689448e-01 2.329189753075174840e-01 -5.094271024595902614e-02
-1.648192906879313024e-01 -2.857638841833521348e-01 5.983127126517626682e-01
-4.039170936125685007e-01 -5.393644831928730010e-01 2.710988681454696084e-02
9.013423862592642166e-01 -4.114354932131938924e-01 1.412451684871391389e-01
6.045163485046829432e-01 2.727549526738310970e-01 -2.079821890340544099e-01
-5.403554404777471953e-01 -5.768896327100705435e-01 -2.466923836375837786e-01
9.229863554376853685e-01 -2.957376396139995700e-01 6.801714824007938642e-02
2.856360380924773956e-01 -9.735688475140261144e-02 -5.933951759853504093e-01
-4.141325078167628626e-01 -2.756182520377020717e-01 3.643091196013069077e-01
4.884669332952730203e-01 5.056247468702440573e-01 -2.084034467138859079e-02
-6.551391097215740755e-01 2.943188831363779401e-01 1.282846814857561968e-01
6.939636169995676562e-01 -4.985224079447235224e-01 6.843071537818311290e-02
-8.334304539998405037e-02 5.488626267918529367e-01 2.766362096880828347e-01
-2.398878851868365691e-01 -3.955184007285150738e-01 4.305973559982029797e-01
2.100817151502739899e-01 2.933460448901688000e-01 9.009802137964249003e-01
8.605546928327788281e-02 4.966007713117588929e-01 5.326137273144941897e-01
6.872087420096647525e-01 -5.584081776867612090e-01 1.676339839621897032e-01
5.716514803238151865e-01 5.134200016240368925e-01 8.532700680993685061e-02
1.074428872514689437e-01 -5.579465343169197622e-01 5.225915432337687738e-01
-1.212364442895182415e-01 2.842570126915196504e-01 -9.019112954311302444e-01
1.870865263847098503e-01 -3.591397257612613525e-01 8.846386083886811358e-01
6.974732324910287024e-03 6.161159210820624788e-01 -8.226263845257815715e-04
1.128279578022708673e-01 -1.880473653361338510e-02 -7.639136906386577719e-01
6.978622870668679812e-02 5.803946615812288767e-01 -2.550865103529125211e-01
-4.003902836715830249e-01 -5.448347245398356131e-01 1.654553469069418303e-02
-3.424470912416026636e-01 6.343413439912881646e-01 -3.338815456651471059e-01
3.041160999133233483e-02 -2.666725672073858577e-01 7.980686582424756370e-01
-6.922517074504003221e-01 -2.634707645493380435e-01 1.038019971653002943e-01
-3.271528265724044093e-01 2.623779265366176228e-01 4.439219441292848178e-01
-1.093212641871392360e-01 1.369777798110231870e-01 7.039099756232869431e-01
-6.608019267297666755e-01 1.409704740125956035e-01 1.982738301476961451e-01
-3.058769015815535064e-01 6.723891979143376690e-03 5.487325901008202056e-01
9.970950812637051353e-02 2.509868526737867866e-01 8.344667517835823167e-01
-3.219598764368162835e-01 6.323977873184574161e-01 -2.915443697290136527e-01
1.706286751821063929e-01 4.818304688575312245e-01 -3.967247587759840655e-01
6.612237174329048672e-01 1.955198448489897656e-01 -2.012112092736427216e-01
-9.919973235743158313e-02 6.116230569480245460e-01 -2.963128343336034476e-01
-4.008723925235205265e-01 3.055557101703890721e-01 3.473140811779819592e-01
6.539993075568373282e-01 5.512129988770011479e-01 2.926334889176075427e-01
-6.475294083513988275e-01 5.744714380962132605e-01 -2.399920834876230480e-01
5.435263709733225701e-01 5.815458793281429450e-01 3.259681825915424214e-01
-4.369315155239518744e-01 -2.863955803764157149e-01 3.348709508678308633e-01
-8.694371662634842179e-03 5.317066079196572925e-01 -4.828039506457741936e-01
4.734308012121622444e-01 4.523788592833358768e-01 -1.380836301939256106e-01
-2.542946224320100645e-01 -6.059651149457421226e-01 -3.933764829567513166e-01
9.185004067243844883e-01 -1.241380072093060810e-01 -5.120980313013905397e-03
-8.302278590180085793e-02 5.659187930203359862e-01 2.286473276948580990e-01
-3.395563661919308307e-02 9.048527987068943944e-04 8.015829607609022966e-01
-3.193925626695449105e-01 3.928257326501053553e-02 5.336461999778582266e-01
8.751854373237050178e-01 2.348165175338831623e-01 2.741250070169944791e-02
-3.029777934758917657e-01 4.915586254654913390e-01 2.161510243544607635e-01
2.605569691340583471e-01 3.718399550566602874e-01 -4.562336127974125355e-01
-6.301784319428145320e-01 5.760077456139915952e-01 -2.300906057914667013e-01
4.625458814500491012e-01 -5.911181928682814890e-01 6.419244051232096682e-02
1.656537479860041573e-01 -6.064857601702170475e-01 -1.099190079083544325e-01
-4.287189756039466171e-01 -3.970813789196965815e-01 2.420480169349302491e-01
-6.360428436253232620e-01 1.875313810531330921e-02 2.413906420384316909e-01
8.248884594942679227e-01 -1.582602894667718349e-02 -1.013606590953915199e-01
5.549421849563694886e-01 1.752114986114561845e-01 -3.124765262922071796e-01
3.420812461520397751e-01 2.520682413066727134e-01 -4.756899417609967151e-01
-4.950387972633331635e-01 2.427516327772753432e-02 3.721317618170309482e-01
-9.533220573291116551e-02 -6.241792348768797627e-01 -1.487583084604526817e-01
-4.255833880283289017e-01 -6.034461318497696958e-01 -2.673736319315380694e-01
-2.049576602788467927e-01 -2.466071522332919375e-01 5.832866640917500067e-01
-4.760862873271893281e-01 -3.928375978538631297e-01 1.999975740067701790e-01
2.203902560536190880e-01 5.823130439609673914e-01 -7.284974532817201087e-02
-7.635824350078708189e-01 -5.326730965307269194e-01 -3.398119282512237493e-01
5.428847702923880192e-01 -3.550150659854867663e-01 -2.279762069801317959e-01
1.476095780412144953e-01 -6.376547768499444269e-01 2.033404613452415299e-01
1.154406939438733098e-01 2.219326808502945780e-02 -7.621305275901152365e-01
-3.685986290446400804e-01 -5.557949668810386878e-01 -6.881627016195003277e-01
-3.467880799773503941e-01 -4.436145357633786701e-01 2.646277940178577981e-01
8.447244926681398702e-01 -1.147536569920552529e-01 -7.492891154647939034e-02
1.586451069678979919e-01 5.640497203783378932e-01 -2.151048447155680665e-01
-4.700129497430634573e-01 -5.633708698884619670e-01 -1.147962703884013724e-01
-1.863157181825962324e-03 2.781872071906122956e-01 -7.906728438915630042e-01
-1.893647976045788328e-02 5.870625494277941225e-01 -3.292447080254585767e-01
-4.053554924050118552e-02 -1.836601811336895373e-01 7.687138646194182634e-01
8.556368724975157436e-01 -4.047233103176893221e-01 9.433990716995700743e-02
-2.217020320620552085e-02 4.844771824747333144e-01 4.648317310412378167e-01
4.949922114250447369e-01 -5.424421796867554546e-01 -2.363625860857924976e-02
4.397631661716607243e-01 5.726746864463355680e-01 5.863000233770369052e-01
7.240453333894972254e-02 -5.355501393044060920e-01 5.357974802377226675e-01
8.651822251756374760e-01 6.406182627788559181e-02 -5.424742672003405458e-02
5.032460708281041167e-02 -5.284711552178692484e-01 5.272905369458287250e-01
3.319263028043761832e-01 1.649465300586775152e-01 -5.291949452333704063e-01
-1.490730270548464020e-01 -2.637593688169192485e-01 6.272161843977399620e-01
9.583468389369881324e-01 1.922153396545834281e-01 8.186783682797843520e-02
6.107109762968561117e-01 -6.421636818464707686e-01 3.629806646519733726e-01
-2.861443167769236462e-01 -5.541522156765441715e-02 5.656815113231974390e-01
1.769166704307888749e-01 -3.974899714222662195e-01 8.392606868126817332e-01
-5.531753770763422340e-01 4.825478398074740105e-01 1.869096660111685057e-02
9.418788945163123483e-01 -1.576031829433642562e-01 2.431461285262105296e-02
-3.987572601841761766e-01 -4.867552488678280054e-01 1.439814959852591669e-01
-9.142232822783999957e-01 1.936947128939218998e-01 -5.156020418043823217e-02
-3.917520274901108990e-01 2.271460535470235242e-01 4.068016276906436524e-01
-8.979368191369827557e-01 1.673826077432073456e-01 -2.711620179116014731e-02
-5.742084586804454549e-01 -1.255972849874975872e-01 2.814837252809471724e-01
-6.100579711452583376e-02 5.299629821815455832e-01 -5.414617617227179824e-01
6.945212541093133130e-01 -6.180022076224568339e-01 3.256627202787993336e-01
4.432161345208139591e-02 -4.217893132820288993e-01 -5.960130282501013843e-01
-5.745034481325292375e-02 4.283966619110998741e-01 5.218768149628463249e-01
7.156153580750025389e-01 3.778645268277177061e-01 7.936774499642922911e-04
6.845787642797456218e-01 3.228818702185597411e-01 -8.824667967414327741e-02
-3.162463820637592682e-01 3.553669003265729209e-01 3.795360542880412691e-01
9.843086132613212969e-03 -2.929084798107292054e-01 -7.523646357521743822e-01
1.219466581611830525e-01 -7.461013990132547846e-02 -7.487018143742170118e-01
3.102644594393764166e-01 -6.432640801444323708e-01 2.043196138517928973e-01
-3.087973842123668544e-01 -4.895298512929519563e-01 2.310587579715988604e-01
-4.759403240330527529e-01 -6.039269933124314926e-01 -5.132549881766246269e-01
-3.304955035833517796e-01 -3.366674094233161607e-02 5.257174698812947522e-01
4.694492438054794631e-02 5.400344917270747391e-01 4.035097078459456976e-01
-7.405823812483822710e-01 -1.390813746827864253e-02 1.436778561970021018e-01
-2.063205859228996186e-02 -6.299730364631330737e-01 1.804338551982572619e-02
3.017453069147700839e-01 -2.129227860040096842e-01 -5.386303056973033021e-01
3.442383036630091153e-01 5.857323051382564705e-01 4.511215336351335758e-01
1.406849669070290021e-01 -5.294066683029525766e-01 -3.432010268786584439e-01
-1.186933463779571291e-01 5.507254432374811826e-01 2.435960965956087132e-01
1.878581105724315137e-01 -2.137281556025971141e-01 -6.414232761368093838e-01
-4.486638623894922406e-01 5.393427467041459478e-01 3.371478027260103698e-03
-6.162821868436006989e-01 -3.002916173832719249e-01 1.506049101359102360e-01
-2.019662086394132527e-01 -4.930126351728829071e-01 3.340952747287673219e-01
8.070959093338014867e-01 4.208430558946188449e-01 1.502252828238094529e-01
-6.866954322657081722e-01 -5.810953671784855334e-01 -4.436450903460826822e-01
-7.545996513199063616e-01 -2.791319698730088117e-01 3.243265208698231650e-02
8.557519668931475032e-02 -4.235708005783779817e-01 -5.580142613650097561e-01
1.910940739256220822e-01 5.969194931117290936e-01 -2.417913372297433861e-02
6.865186435641351670e-02 -6.840068722102414511e-02 8.966023397035137732e-01
-5.860158320297811363e-01 5.035771891491360591e-02 2.855937188937168192e-01
-9.782861993477329765e-01 -8.010740910239666501e-02 -8.856886508722017215e-02
1.525218716835657906e-01 4.478277734146674516e-01 -4.694256661796029628e-01
7.989634758288083338e-01 -3.033865624711097261e-02 -1.256439537221872293e-01
5.628001201347092586e-01 5.543137617257573035e-01 2.013554351362164541e-01
-1.188014089851324173e-01 -5.266750916408342587e-01 -5.625047863557866012e-01
2.206337387464742117e-01 -4.941755730095874211e-01 -3.408789642282188947e-01
8.480747392075703439e-02 -1.132213057197798967e-01 9.060160741803109374e-01
-3.757810940785081821e-01 -1.432789938734642041e-02 4.840300227369928598e-01
-2.731103087047391242e-01 6.241752452294975217e-01 -1.740923794320537177e-01
8.759768686284223616e-02 3.731959770597306214e-01 -6.251611658148156225e-01
2.807301163134562350e-01 -3.242810418999468314e-01 -4.865185563881923025e-01
-4.426458101691126412e-01 4.721115210872606771e-01 1.288867174643983649e-01
-2.088490276996127770e-01 4.937989696638904746e-01 -7.631760202591922893e-01
-8.537980154336959338e-01 9.471715411889776448e-02 3.185746085194075122e-02
5.092060375617551982e-01 5.809895599837897606e-01 2.754177812563153860e-01
-4.236505476689288452e-01 3.566908044387193666e-01 2.834842647798933579e-01
-1.208806767869817084e-01 -6.154961367090385771e-01 4.760020320039717173e-02
1.070310119648451019e-01 -6.312523767119191387e-01 2.248559100120231524e-01
-2.625497925548150313e-01 -3.670668362479839186e-01 4.376264921491224702e-01
-5.331585876535654966e-01 1.457796181975346550e-01 3.135894230754242007e-01
-7.193170997491193930e-01 -3.087280979944379555e-01 4.352839568430316025e-02
-1.575580562372449756e-01 5.174090336556739222e-01 -6.677869030549871132e-01
1.735850090037058258e-01 -3.762903375748656298e-01 -5.342880633077534691e-01
2.604878920612503368e-01 3.843701293214483727e-01 8.534835150287347627e-01
1.045731920883590377e-01 -4.039810031238652566e-01 7.613825919617186466e-01
-1.287576136831209417e-01 -3.483734989767562490e-02 -9.863206960617688646e-01
-1.040344695416378085e-01 -3.799127063302417534e-02 7.369440389843057160e-01
-4.617551099864496966e-01 -4.807202974039824772e-01 9.023066701733239992e-02
-7.473212342818257026e-02 -1.044696720239485371e-01 7.575092575502894165e-01
1.040126276374812586e-01 -2.167506914706150145e-01 -7.157719329597274083e-01
2.281323436113211200e-01 -5.468514506641964923e-01 -2.342681440582166097e-01
-7.807266408009347902e-01 4.594670820362352637e-01 -1.435567433495902878e-01
1.800850323241565965e-01 3.199009301391235738e-01 8.511451280217723347e-01
-5.878398512876571447e-01 -1.000057998938520404e-01 2.751555733743253906e-01
7.261252143528880154e-01 4.940985629396409395e-01 2.021326144602310915e-01
-1.134455270860039791e-02 1.808109698448080727e-01 7.748009201448280425e-01
-4.213771456408073601e-01 6.175951559636033705e-01 -2.188328454726096717e-01
7.775566333400486807e-02 -3.277619390750433070e-01 -6.640537698859650950e-01
4.864092379655909903e-02 2.845300705180457412e-01 7.643776216893083397e-01
-2.799092946763947487e-01 -5.076255944352590088e-01 -7.352287960906550568e-01
2.682228282435835873e-02 4.408349990139836527e-01 -6.055122634485931021e-01
-4.484997769971578174e-01 -1.591138784180311794e-01 3.899776930845872402e-01
-6.317441505311427452e-01 -3.625288403735010268e-01 7.924498715835821827e-02
-2.361513250349822346e-01 -5.244594186775062283e-01 2.383179344796301502e-01
-3.919182519665508901e-01 -5.429388197724270837e-01 3.062343118273221088e-02
2.087246302701128153e-01 -6.268346759144736158e-01 1.877923787949643819e-02
5.548438719222286153e-01 2.124379605717358899e-01 -2.942704235187516559e-01
-3.558879120965988130e-01 5.939509418222539416e-01 -6.826690704127745812e-01
-2.944347696995425201e-01 -6.055073617619068926e-01 -4.193857682199142456e-01
-6.172086311915451207e-01 -5.956060133232208287e-01 -4.676780790879714877e-01
1.894795254093585568e-01 5.335182475698502236e-01 5.341497241066798241e-01
-5.961482536928765230e-02 1.179566135705541891e-01 7.557845289153487522e-01
-2.067047536386480977e-01 -4.344485340226270087e-01 4.171640208647519610e-01
4.007962826628612141e-01 -5.513140649541802274e-01 -8.308724724687038821e-02
6.039041969562478629e-01 -2.672506128603947539e-01 -2.364571931838774510e-01
-3.042742324680428045e-01 -3.857992422513196185e-01 3.775365679583048695e-01
-2.537029019564115973e-01 2.006878546815761208e-02 5.963508940099239153e-01
-1.147707677076759275e-01 1.389494813070998869e-01 -9.612081663958392808e-01
-1.351542996931111573e-01 -2.081304898994055796e-01 6.689438646748330219e-01
-3.298360891774852754e-02 1.466388817455429316e-01 -8.816908974162921409e-01
2.606679989106456818e-01 5.352866390315542677e-01 -1.893744360273683369e-01
9.150227905072727541e-02 -6.297722557467981819e-01 2.170630046603468088e-01
-5.672315610045534223e-02 5.917691488802879762e-01 -3.528010698700738690e-01
1.000964935716191911e-01 -4.390550488732949397e-01 7.170542461660348588e-01
2.462850379318956284e-01 5.753407030313263393e-01 4.402429636959578896e-01
-7.554944413722117780e-01 4.782183000508645199e-01 -1.477600379135191322e-01
1.689175950951861682e-01 -5.631549203957638694e-01 5.749043568966683004e-01
5.213924025552851838e-01 4.877604869272009203e-01 -2.481720222678706830e-02
2.165517028443295355e-01 1.789056613348961877e-01 -6.334848121012716105e-01
-2.475210126669880328e-01 3.498915269430203923e-01 4.453966683981770425e-01
4.907953986715365424e-01 3.961076384763696501e-01 -2.004712803539275279e-01
3.636097691569884632e-02 -2.519985373200430145e-01 8.118484447611252763e-01
-6.267815363092537062e-01 3.669858393362106508e-01 9.443047842353614885e-02
-2.041251049678537710e-01 -6.033172367732483332e-01 -3.791209476164397740e-01
4.359733026479136186e-01 -4.204998426829104630e-01 -2.568443315670976279e-01
3.193335586254383851e-01 -6.466231012921173082e-01 2.582456272923864815e-01
-7.774466194146829601e-01 -2.986071628851478810e-01 -4.769646022568787766e-03
2.072016284326936020e-01 -5.014530352008854663e-01 -3.399527208071502216e-01
-4.398375272097747590e-01 8.831928739866680422e-02 4.145867098755058877e-01
8.353869924490552323e-01 -4.635911807390576400e-01 1.421744452483908461e-01
-7.439094984512736874e-02 5.991707040196301293e-01 -3.392141843798293088e-01
2.842515006588131402e-02 6.367068585101498535e-02 -8.405905802642760216e-01
2.464816360590872668e-01 5.443592695652460511e-01 -1.798843354828661700e-01
-8.231755585856810331e-01 -1.788316595964180022e-01 2.538506078821148662e-02
6.429175319055453475e-01 -2.687638487808049342e-02 -2.709290750864928876e-01
2.799520672771131993e-02 6.046357232254362390e-01 -1.809892925261500363e-01
4.511016586199613210e-01 5.937215315877975019e-01 3.958494928075311781e-01
6.865641573627575545e-01 -5.514642391519165576e-01 1.531459343228650238e-01
1.179696908067330158e-01 3.434868297844414498e-01 7.737560368936713395e-01
3.264627891306021712e-01 -5.885275855141900436e-01 6.762314909955057241e-01
-1.843205416604989100e-01 -6.164234739709193445e-01 -2.717276629859524673e-01
-8.418482972226005723e-01 -2.099015382500081517e-01 -7.811929277525263629e-03
1.181519978763795470e-01 5.924531573874891599e-01 2.697314385074450760e-01
-7.263151709733099981e-01 -4.092829336215670910e-01 -6.888006739813330725e-02
-2.426365016381351047e-01 -4.714735504381064590e-01 3.283182400697228220e-01
-8.769698050406386780e-02 -3.924170663181979490e-01 -7.459003219043079946e-01
2.136268405823527894e-01 -4.425021887660364195e-01 8.257340703134422588e-01
1.575356948229058585e-01 -1.961047769756815197e-03 9.794637303039077647e-01
-6.201610526970476878e-01 -4.471989912255667776e-01 -1.583192885235504277e-02
-4.628425511035013096e-01 4.673503337709482564e-01 1.187164692171749497e-01
4.820190278611334311e-01 4.947292071591438689e-01 -5.130666000901726309e-02
-4.284532785903029106e-01 -4.485189279823711406e-01 1.755204796773649767e-01
-6.314934828243005949e-02 -6.307032323756014969e-02 7.737195849249339785e-01
2.432161974159360029e-01 -6.418749077879800646e-01 3.057518324190817705e-01
-4.989702090570090620e-01 3.595471041418994984e-01 2.142866285399345205e-01
1.817592329828052189e-01 6.073703008642661327e-01 1.539517782767344523e-01
7.947650949015316879e-01 -2.160220201191833944e-01 -8.958235364508793097e-02
2.172682562963519914e-01 4.564555808928632552e-01 -3.911383785984260397e-01
-5.832656033156837783e-01 -3.351022937389396272e-01 1.534052144910768301e-01
3.800794642187822064e-02 -6.317431821045278451e-01 1.067549548007275251e-01
-2.929324505524198985e-01 -4.712457243498220372e-01 2.777475736910363646e-01
-2.447187125345588465e-01 -3.965526838876128890e-01 -8.778970404076935630e-01
-7.618656509911718444e-02 1.777076811808541920e-02 -9.408143457883541005e-01
6.262974901812581319e-01 4.042369686277770824e-01 -5.487039612871403432e-02
-3.453749092586543834e-01 -3.985565205710705494e-01 3.228976849911907032e-01
-3.129570468701587393e-01 -3.312522224063780829e-01 4.206866767878962854e-01
6.673847205910704572e-01 -3.440036753108091649e-01 -1.265161322050229742e-01
4.519747513869071809e-01 3.263229262020280741e-01 -3.127433443626199128e-01
-2.429707875212758217e-01 -3.276809873660904149e-01 4.917997613152739200e-01
1.014923187500029467e-01 4.507302436713337968e-01 -5.165543841065779462e-01
5.687151799114515960e-01 2.332429958169981166e-01 -2.690030138989609187e-01
-3.645261841736038844e-01 -5.893790997586445535e-01 -9.887198267360916559e-02
-3.879449205881422280e-01 -5.590587235171943226e-01 -1.078705423971101571e-02
-5.611697914732184378e-01 -4.335815786996164573e-02 3.093151680215299182e-01
-6.240630409574242643e-01 -5.251233194768502033e-01 -1.705912944235679352e-01
-6.344207041910363554e-01 -5.787876538795271308e-01 -3.668212763661806708e-01
4.895534940245513389e-01 4.872299676004460123e-01 -5.884115134564769922e-02
-8.409788647131853923e-01 -1.215009648307690399e-01 3.014221512442324599e-02
-1.881213363393512139e-01 -5.409443316219695319e-01 2.515530254754737571e-01
-6.837336737532569986e-01 -6.029851838880034148e-02 1.923334361922698632e-01
2.618544441188112581e-01 -5.345183753692026585e-01 -2.326267735195983732e-01
-9.289877500270256050e-01 -3.186562274123381361e-02 -3.405808057654077792e-02
-3.363826242932971833e-01 6.203593142158064788e-01 -1.802320264302317843e-01
-5.215540143225892988e-01 4.422179842540585049e-01 1.029770042123190205e-01
1.384476105702888982e-01 -5.248390995457532515e-01 6.252221760613887458e-01
-9.345513653058717951e-01 2.922230566904499560e-01 -1.209137679682535799e-01
-3.356718122107491941e-03 1.908854689199309673e-01 -8.380486714168039475e-01
-2.903413676316883296e-01 5.170397711257941342e-01 1.799301585594738628e-01
-7.786400019695937334e-03 2.840370862775900007e-01 7.144380315158950223e-01
7.460044510852755772e-01 -1.766372972387104112e-01 -1.491853702833044748e-01
-6.597907855224837137e-01 -5.396475916639822401e-01 -2.478296666886001531e-01
-7.790249407886101762e-02 -2.117073740413915051e-01 7.219967038883519095e-01
2.998682054528064786e-02 -2.196915581714970755e-01 8.214223923843329001e-01
-6.917966892540406976e-01 4.499070415830164760e-01 -5.419981377040970077e-02
-4.631956890984583741e-01 -6.026223564788127929e-01 -3.138266524942935343e-01
7.294821366134940366e-01 -1.119043348216928468e-01 -1.816780391283721041e-01
-3.019276859616161213e-01 1.765910687841883708e-01 5.128246034397730968e-01
-1.333108548725977149e-03 5.317200323790400862e-01 3.852700072770719464e-01
5.022668527744988953e-01 -3.632089013995127291e-01 -2.567579290181613572e-01
2.428460690388283549e-01 4.757121356131587819e-01 -3.336402019375725447e-01
5.604528115397646726e-01 5.187725508928281437e-01 8.703609187551408777e-02
1.801057795598689781e-01 -1.614348977071667635e-01 -6.713120740086035987e-01
-2.767377223300241385e-01 2.883704012458536692e-01 4.710646990300028092e-01
-4.977966865405883956e-01 -6.047583450579560038e-01 -4.981817611906656507e-01
3.049328345353927161e-01 -5.437859022773132711e-01 7.600156183607653659e-01
-8.328548182819975887e-01 -4.533891399267117595e-01 -2.413450550945011319e-01
-4.690735145638802450e-01 3.520719258717366351e-01 2.476314455221185207e-01
-1.736400509882945475e-01 -3.715854623562091508e-01 5.204972428506916549e-01
9.403278175015243601e-02 -9.673317777600942691e-02 -7.697884853844358943e-01
-6.926498513903402154e-03 -4.394283377526322365e-01 6.100330519221227599e-01
-6.557177499986946781e-03 -4.602896376314306176e-02 8.276333221963229070e-01
4.809468029332384931e-01 5.710243757194256586e-01 6.222684926573157638e-01
8.336111431622907908e-01 4.476685757104237329e-01 2.207449329574152908e-01
-3.008180634505071560e-01 -5.528244344555668377e-01 -6.440026939285883323e-01
-3.651467397911275503e-01 2.395524501817822838e-01 4.238133131283178812e-01
8.982990949387701374e-01 3.256282307191489256e-01 1.240847779911267573e-01
7.014121481466459862e-01 -2.879012935874706303e-01 -1.361395428554095788e-01
-1.912881479775385141e-01 -2.953957675216080658e-01 5.662237573741732977e-01
2.938412370234324555e-01 1.280334509920519059e-01 -5.777929744182411786e-01
-1.749589606402394693e-01 -4.720305234375470338e-01 3.959077821575187062e-01
-7.829440207765955284e-01 -3.786316369155411365e-01 -8.764429543232786501e-02
5.305962490982488178e-03 -5.746298596491868915e-01 -3.411362827612885451e-01
4.962129944047717900e-01 -6.443497085809840597e-01 3.039987101860909813e-01
-6.938927824011548173e-02 6.173641887076116719e-01 -2.007610815545581295e-01
-3.639879034175640404e-01 4.468651730162715441e-01 2.326793755108411133e-01
2.385451787870773721e-01 -2.165913235742044085e-01 -5.940836027524808438e-01
-6.662333637927535523e-01 6.184794471385095527e-01 -3.935837498229793896e-01
-2.348759418717736858e-01 -6.049666913560231007e-01 -3.884065128420828850e-01
3.201521845545140521e-01 4.801743460179480616e-01 7.591293307043299743e-01
-3.093130656907537301e-01 5.810624683150261705e-01 6.972429624294705815e-03
5.199677127430170076e-01 5.804884837529377117e-01 2.858382327378753973e-01
-5.572180780555038293e-01 5.896203824980268404e-01 -2.108813467818498044e-01
-7.738042158018967887e-02 -4.654710375668417721e-01 -6.398668332848024276e-01
-6.417755648712725192e-01 5.957118201970508231e-01 -2.949746331526725274e-01
-5.192315417026892588e-01 -5.974631070779322650e-01 -6.002503119813962229e-01
6.287082358215535516e-01 2.310445475028984896e-01 -2.125831588031617536e-01
-1.763623193052782714e-02 7.169241236522551353e-02 -8.828313214637674156e-01
5.201031207271862300e-01 1.166609348761568771e-01 -3.669628708258328431e-01
-5.720434457721270544e-02 -5.502623220679323524e-01 -4.574385644944113927e-01
8.733205633762803899e-01 -1.911357579099757786e-01 -2.781451527604818230e-02
2.793496437416278511e-01 9.946419431566042024e-02 -5.987877740687992389e-01
-2.414733039768579559e-01 2.547924737911012594e-01 5.257815060229881210e-01
1.124420462555133088e-01 -4.649312626520370473e-01 -4.786834130398007203e-01
5.729981954711050873e-01 3.967569886697278614e-01 -1.177868483699793106e-01
2.827955413515780836e-01 -6.130530672827244620e-01 5.462227467544871207e-01
5.717126185456973264e-01 -1.422124718660228160e-01 -3.194562551740615097e-01
-3.778271928575207550e-01 -6.118191254206347685e-01 -3.299272579188206045e-01
-2.190104873441069688e-01 -4.799110415275665287e-01 -7.362620725543783662e-01
5.356200246158735467e-01 3.886577225048223339e-01 -1.650186210924887986e-01
-6.731342945437183145e-01 1.807856622252243528e-02 2.069192026527356676e-01
-7.925074251146835280e-01 4.349805462387598132e-01 -1.230089403013962385e-01
-1.295736836352458510e-01 6.045153949003303495e-01 -3.777582429214159099e-01
-5.031682610794404598e-01 -5.715657091295702763e-01 -1.817820218368479124e-01
8.658432039003988168e-01 -3.459190914643411330e-01 5.177776479050680974e-02
-7.747388251987997743e-01 1.641756917120254511e-01 8.657715390885002693e-02
8.048776564939944533e-01 -1.898043292295925610e-01 -9.077145665115361750e-02
5.327326474099625293e-03 -5.809065485661180084e-01 3.505518868884920369e-01
5.093857969055189117e-02 -5.750619851471273636e-01 4.175486515571159574e-01
1.303567830571510933e-01 5.763022064153346946e-01 -2.025031679178305177e-01
-6.197455543789179844e-01 4.066246059886068354e-01 6.022415488531304012e-02
4.461862966663615593e-01 -6.966567602008025273e-02 -4.501180671719905990e-01
1.017918412848348997e-01 -1.231792671528928185e-01 9.201286711047886868e-01
-1.918508314205977505e-01 -5.902438856937525236e-01 -4.340049284727128254e-01
-5.675957929952687442e-01 3.763093900970853611e-01 1.376375519289545768e-01
7.015409697971324299e-01 2.160672139426367544e-01 -1.513828568121398377e-01
5.632560973191418352e-01 -5.321206954023915969e-01 1.360109387054628596e-02
-1.632634993450315375e-01 -4.976653198691933788e-01 -6.576756626762942926e-01
-8.916290551939114184e-02 -3.169902702523620941e-01 6.495762418309366515e-01
-2.624274523218959043e-01 -3.412610721981778616e-01 4.614337002811499944e-01
2.046409370122515281e-01 -4.030493454316809443e-02 -6.770679378747819221e-01
-1.731837613590808400e-01 6.032906299492718505e-02 6.656985196265097215e-01
2.313670926301030772e-01 5.949266315827701490e-01 1.392120444907615252e-02
4.323447011719519506e-01 -4.967874011683891533e-01 -1.571118942116755957e-01
-7.951156068288389722e-02 4.549859017260406147e-02 7.546014127429275797e-01
-1.170191377564704927e-01 -6.105166291429318104e-01 -2.818652588277100191e-01
1.216223309051783497e-01 -4.268603807691972452e-01 -5.226453538724877834e-01
-8.289187348968103386e-01 -3.684879335311802562e-01 -1.216789352086675158e-01
-1.933722758795754504e-01 4.302417743829075047e-01 4.021940537638123425e-01
7.412603222522319291e-01 -5.923471047572719250e-01 2.887682868922623047e-01
-1.527708562771619150e-01 5.649372171203368431e-01 1.773641983277659262e-01
4.673657563694009337e-02 -4.963099892946750136e-01 5.818611674700515657e-01
4.879363058658110486e-01 -3.637368776426557759e-01 -2.689662728571078909e-01
1.212973738148890035e-01 -1.541236204901309248e-01 9.313210469351757004e-01
-6.027695750334565172e-01 1.543116501283871012e-01 2.471012932780803084e-01
4.175896568854369217e-01 -4.211845078907513473e-01 -2.720961774678388179e-01
1.129470056393671457e-01 5.973770656726197226e-01 -1.210933690730178341e-01
-7.081006065967799801e-01 -5.288606977490515337e-01 -2.697084231766205820e-01
2.159236710204116005e-01 3.413298343388004308e-01 8.621011140555149277e-01
2.500919812321740765e-01 5.760655948597143139e-01 4.397468898538600124e-01
5.670191178126289255e-01 5.879848118435222482e-01 4.840628589412640514e-01
2.353154117919233068e-01 2.038244119772701368e-01 -6.046255773196961281e-01
3.062976145146452667e-01 5.746007169921265589e-01 4.856892574804098084e-01
-9.550412295021600828e-01 1.260151086855545999e-01 -6.775954421640091596e-02
-4.659647725250442019e-01 4.536429596318816149e-01 1.355860990313669523e-01
2.994765476510783953e-01 -5.977369204851117335e-01 6.192012639670234631e-01
1.997774742533493242e-01 -1.873082780790432667e-01 -6.429550623971201917e-01
-2.200256689826021739e-01 -6.071657858692650622e-01 -3.652595428138279976e-01
-2.976478147906144733e-01 4.994763064973339328e-01 2.067789492968567233e-01
-2.329582013942387564e-01 -5.804310901472611306e-01 -5.027077033990495769e-01
-1.454645313136059548e-01 3.332573065585766048e-01 5.510210267278921048e-01
6.687721726998622218e-01 4.824573638535090692e-01 1.171227846961427205e-01
-1.046624340197838121e-01 6.213623250715963886e-01 -9.234139380187803003e-02
-6.290638469689889822e-01 5.705924772988395510e-01 -2.154028464127045184e-01
6.815952993723670694e-01 -3.453234383743881697e-01 -1.128064071433702298e-01
-4.973675510053873761e-01 5.223651663861974548e-01 -2.554097632529349175e-03
-1.524468478226378987e-01 5.543001084737538831e-01 2.072996434545931466e-01
-2.035832467210295926e-01 4.259983486629602134e-01 -8.544029910582657816e-01
3.998823515327680767e-01 5.520383713610723664e-01 6.427601490691204900e-01
8.570349715310819905e-01 -3.087467459862812680e-01 1.712199749505423710e-02
-4.855956792054548221e-01 -1.709279232859094513e-02 3.815789236750769531e-01
-2.028007533791958139e-01 4.709290882387246469e-01 3.349971492368920556e-01
3.347019703113364719e-01 5.001666938296813747e-01 7.305632184326718015e-01
4.081073942162055657e-02 -6.288323901374720526e-01 -5.318651615176100966e-02
-2.420424924517728185e-02 1.236041168450594252e-01 7.863158246197912149e-01
2.850323901115874303e-01 4.678668402647532254e-01 -3.040088405144861228e-01
3.214516884859266316e-02 -1.698392944615318215e-02 8.638126441003686207e-01
