5.123471955071219330e-01 -1.376592635859183456e-01 8.737739066028531454e-01
-4.229586101109010232e-01 -8.776387132940663971e-01 1.204897017083459698e-01
-5.644281465755037752e-01 -7.501061574956711109e-01 -1.903206053762502847e-01
-1.252190628249205961e-01 -3.396951188320729287e-01 1.116788572935341062e-01
1.518223471431118243e-01 7.447611319129388008e-01 -3.765852982645063740e-01
-3.052804152133885562e-01 -4.539568879334176521e-01 -5.652210450310991841e-02
-1.695697671967627551e-02 -5.715358420841059051e-01 4.599019445082174196e-01
-2.293354818745681756e-01 -9.063386277232335919e-01 4.259717084347253713e-01
5.686993456054767471e-01 7.809192805965666784e-01 2.005971442943905447e-01
-6.932793620811686930e-01 -4.875748845532516529e-01 -5.937508575485198614e-01
5.912935119809029638e-01 6.087328343261055874e-01 3.750553728082203220e-01
-5.110366629713580799e-01 -6.947684408162683178e-01 -1.580870064441962930e-01
3.305511810198434874e-01 9.531831046518061124e-01 -2.877388796133248938e-01
-4.068528956104818239e-01 9.640245851837374313e-02 -6.568788752675539522e-01
-2.605252001527236239e-01 4.663756812175753330e-01 -7.480243450417363160e-01
4.917944066903844336e-01 5.353236697885234152e-01 2.905536078859345950e-01
3.697950823490145922e-01 2.896256789409142329e-01 3.149436060057682063e-01
-3.770096131531185946e-01 -9.562949210558154833e-01 2.520523827771714021e-01
-2.107853052969965724e-01 5.165163399041866610e-01 -7.168341051568608568e-01
3.800198450622279123e-01 9.903599138750558417e-01 -2.462851740108775445e-01
2.342456762517813595e-01 6.719803808801280143e-01 -1.967520350479189106e-01
-2.462544459048879031e-01 -8.500514765636153491e-01 3.550632924813554858e-01
8.768261566709398269e-02 8.929564531688685136e-01 -5.918031130635205139e-01
-4.252433702813356864e-01 -8.325509703290571162e-01 8.009417085132190806e-02
-5.289193608253570100e-02 4.537214245880737962e-01 -4.353377605773044445e-01
5.962807390431120735e-01 8.315827484439921591e-01 1.990981092538333941e-01
-3.418530864484305987e-01 -7.365615328764836267e-01 1.225793565479266767e-01
2.337035905477466147e-01 -5.228586029548545344e-01 7.848056056732334307e-01
-3.374937881788018790e-01 2.207752789466216059e-01 -6.581566056348367999e-01
3.030155956829432284e-01 5.542051785204615832e-01 1.964820648221344700e-04
1.145506771920080796e-01 -5.616047358580434912e-01 6.431923537211493569e-01
5.060187862982901130e-01 -1.519781328788755992e-01 8.763330730899627774e-01
-6.545822680401621740e-01 -4.683327070491079547e-01 -5.532338296024176261e-01
-2.032390921520789429e-01 -8.170312607465269883e-01 3.905393275189558144e-01
4.817811103847773058e-02 -5.460627410909668633e-01 5.337859064391412556e-01
3.513443054895168394e-01 -3.759312254125904973e-01 8.352752117860189340e-01
-7.656893092598889006e-02 3.282000066318142006e-01 -3.666094208079145322e-01
-2.968588956393140577e-01 7.124874456504688702e-02 -4.760638306663670383e-01
3.392556322374191136e-01 4.129148303502682138e-01 1.691195589977351477e-01
4.889734062612348109e-01 4.214675020753555490e-01 3.800544537306929094e-01
3.387488763466746655e-01 -4.263598014844229844e-01 8.583984370866828417e-01
3.028746048302447674e-02 -4.261460977283280660e-01 4.091493434466250689e-01
-5.793785919439203846e-01 -1.809371600557862503e-01 -6.800332419632471037e-01
6.390488091862616127e-01 8.983706947258399134e-02 8.711943787817418849e-01
-1.956621225347468171e-02 4.611963301920605773e-01 -3.929660784851636834e-01
1.122689781192629382e-01 -2.958255116616479927e-02 2.024640668994501236e-01
-3.352358041390000598e-01 4.733518367386660985e-01 -8.625272442814129192e-01
-1.396823693938401834e-01 -5.837412520538870497e-01 2.912670236401483925e-01
1.211103351245818166e-01 6.824286111515721620e-01 -3.700501635148203405e-01
-1.628875613792554189e-01 -2.638293714661251177e-01 -5.534464100646193860e-03
4.379995985351490262e-01 3.282246617988783255e-01 3.825046405021704787e-01
-3.035891317610039386e-01 -6.648396046919541336e-01 1.193191340659477961e-01
-2.469954504436989717e-01 2.136269050326672636e-01 -5.205275514629734701e-01
-1.993275910151005859e-01 -8.935720628695918988e-01 4.591625433001536583e-01
-4.210027294938619158e-01 -6.479843756573906433e-01 -6.547505957278916544e-02
-4.435376750090489623e-02 -1.973420839404102234e-01 1.123698214319045346e-01
2.708630663692638274e-01 4.724243436586486045e-01 2.062403408655819406e-02
-1.588146340829535430e-01 -7.139766413813676271e-01 3.704874373709527990e-01
-2.145008639592944077e-01 -5.547991326382343269e-01 1.585475515362644860e-01
1.313120154863979885e-02 5.318274733483996375e-01 -4.034335486738720444e-01
2.381877789701178916e-01 -2.970986006610531471e-01 6.057234403060871575e-01
-3.528716487376298925e-03 1.518077889252199275e-01 -1.152515288286219686e-01
1.128541888985334363e-01 7.472526008905118200e-01 -4.353654536142781972e-01
-3.988090750313070254e-01 -4.215400059629666463e-01 -2.193375661836386714e-01
-2.683212307559094123e-01 4.751043025009527576e-01 -7.665505010158800703e-01
-5.712242404478747870e-01 1.054249228326493704e-01 -9.035967082898065383e-01
6.206451969734204654e-01 3.774088493396490218e-01 6.079719520442116165e-01
-3.338640934388845127e-02 -5.802067299276179035e-01 4.431120061415552147e-01
6.328747309086803219e-02 -3.038025644442054682e-02 1.318102077773165015e-01
2.334108109570922351e-01 6.171519935163639614e-01 -1.528898573040988473e-01
1.588103311930476325e-01 6.391600722731584083e-01 -2.795910533103910800e-01
-4.085378946556861290e-01 -4.311468328532263583e-01 -2.256029304309863925e-01
-1.613011138971842673e-01 6.907466566452516998e-01 -7.880374783369624714e-01
4.524600531216174670e-01 -1.727817633369924388e-01 8.154634969401721722e-01
-4.132719604356033805e-01 -2.456681936116630605e-01 -3.849878278940648269e-01
-5.115017271917253749e-01 -5.870681755786922862e-01 -2.473107412741368250e-01
1.156322155924555117e-01 5.389717046030496617e-01 -2.600811888504008795e-01
1.399555298580475692e-03 -6.965101309550124631e-01 5.893749462283580653e-01
1.293832427661000817e-01 -2.942466399042636405e-01 4.449756483196379842e-01
-1.466386234935874999e-01 -5.312583533408854475e-01 2.379905117470844933e-01
7.043967028791610074e-01 4.741230694850028793e-01 6.503871365759343881e-01
2.084970912583183553e-02 -5.029765247310762355e-01 4.585761742877790814e-01
6.316065108987083399e-01 6.087120770804270720e-01 4.337620975108035237e-01
4.068489437739677417e-01 5.785445462656851889e-01 1.313513948539949960e-01
-2.223072321851122801e-01 -5.810381864276829011e-01 1.687553112427260249e-01
2.805717598023201309e-01 -4.348966388597661492e-01 7.807199436190966901e-01
-4.549009618467405036e-01 -6.607802065073917763e-01 -1.043055848386796186e-01
7.516555597605628636e-02 -7.181897307906698336e-01 7.145912045964833981e-01
-4.211717425912800961e-01 3.141414920468499905e-01 -8.567409237898983010e-01
-1.194318827365639518e-01 -4.613246921492361041e-01 2.201028886142882002e-01
4.108690649700123543e-01 9.713677003473953908e-01 -1.857587461535510909e-01
-5.720482897893279794e-01 -1.377449010527527571e-04 -8.180071723989252863e-01
3.699792834947900344e-01 1.676599643082008406e-03 5.519515122866508472e-01
-5.215898192126380284e-01 -7.516858577701673871e-01 -1.266556845287703237e-01
6.609429988208521678e-01 5.086561019232033187e-01 5.587334629993236934e-01
-6.345214533982868055e-02 -8.205365403675577429e-01 5.969299777761422066e-01
8.588898939325685655e-02 -5.553131999827171095e-01 5.962926114313378267e-01
9.152973171978642797e-02 -5.896924158820801010e-01 6.327698423627878821e-01
-2.737144664140827577e-01 5.812241581707082716e-01 -8.616495648183636336e-01
-2.263330555802949284e-01 -6.010854509395198164e-01 1.793763440208302751e-01
-2.233538432615533309e-01 -7.023550613970025447e-01 2.669732836191143210e-01
2.349077530282593085e-01 7.598073243373072438e-01 -2.679958049792665609e-01
-2.842924504085100890e-01 1.465773049805153272e-01 -5.197009819829573329e-01
-1.575629828205102057e-01 -8.318207111057706049e-01 4.691961380073936261e-01
-1.185392670337226950e-01 -1.838210955690971482e-01 -6.749493670330201575e-03
-3.335680323792707958e-01 -2.363000222644420223e-01 -2.766530249999563651e-01
-5.885774016445519119e-02 -1.877723041061590270e-01 8.338634590458514351e-02
5.047362367779412162e-01 2.023797770520767147e-01 5.831275629099628155e-01
1.489249913117877411e-01 7.651868284072925741e-01 -3.975965690071147085e-01
2.269338483720399757e-02 3.858500322056294674e-01 -2.694958782629263694e-01
-1.807184294892934251e-01 8.106740894587013968e-02 -3.150532889353014343e-01
5.598919846934334865e-01 9.120423618001028965e-01 7.997101757056868099e-02
-8.241212495146338357e-03 1.652701822386963282e-01 -1.331804326869762967e-01
1.603678332551634056e-01 9.448520464434158328e-02 1.704854204661343797e-01
-3.820389850970708490e-01 -6.449475882735467014e-02 -4.884705670964487045e-01
-4.459751570212894811e-01 -3.606722149754120199e-01 -3.380472446649780971e-01
-3.316493948999315600e-01 -3.318734999155374399e-01 -1.952832458363367718e-01
3.804756297964012601e-01 2.913729032446014666e-01 3.290563805381946927e-01
-1.127251194775779203e-01 2.772883296092309435e-01 -3.773899296269441761e-01
3.417318373756164096e-01 2.911812579225387942e-01 2.728088128583349148e-01
3.716356645735958281e-02 4.905360145362498980e-01 -3.344979252041367368e-01
3.544644596295790651e-01 -1.679865557731414494e-01 6.688542421307264174e-01
4.709265882792085245e-01 7.141906829277194779e-01 1.131161984080539251e-01
-6.825262109304940372e-01 -4.601591423603215159e-01 -6.006359690182913047e-01
1.111861610458868624e-02 -6.843099999963954128e-01 5.934939965361216707e-01
-9.416066817389256993e-02 -1.398828665698767237e-01 -7.382104357342559632e-03
-5.242498963753052799e-01 -3.796837539492071145e-01 -4.363729887910012817e-01
-4.057970252801564870e-01 9.978911220878095012e-02 -6.581260525618584101e-01
-2.383924462958889740e-02 7.634751012957602390e-01 -6.477079832646284174e-01
-2.660549495018852961e-01 2.713728639855835789e-01 -5.957516352415891392e-01
1.364644528872864526e-01 3.718778300668443837e-01 -9.237496421701509031e-02
-5.088329692428360529e-01 -4.155059105581935253e-01 -3.844767784457226445e-01
-2.026873631184322733e-01 6.460640180454246817e-01 -8.115534242119686326e-01
2.037974953737361206e-01 6.613134383672488736e-01 -2.323100879318498180e-01
4.541353297011228030e-01 9.333886141793733549e-01 -9.154475421084161402e-02
2.146362439980725456e-01 4.272935327750981283e-01 -2.412908407572134095e-02
4.340974750099517165e-01 7.021588814305234072e-01 6.939059854685733497e-02
2.918256316036054732e-01 7.107968611988595420e-01 -1.448375793868710848e-01
-1.396226057124368425e-01 -8.293413413654784350e-01 4.932761923798908987e-01
-2.271316920886990720e-01 -8.433880450380686067e-02 -2.466339157408617144e-01
-9.332501675960599985e-02 7.348942501574600161e-01 -7.253708241228219444e-01
5.132460015832111810e-02 -6.808187783412562588e-01 6.491575209589137696e-01
-1.887032820741215700e-01 -3.448835534895285937e-01 2.352110383247452488e-02
-2.813189102228251803e-01 -1.492251932375674925e-02 -3.825935275023895077e-01
1.788364110422182018e-01 -1.873458609024756388e-02 2.904574852825341780e-01
2.317797478382997017e-02 -6.355986397691196776e-01 5.710021566525791403e-01
8.527369617593563711e-02 -1.470578227872910149e-01 2.597462737661177523e-01
4.431376172938422120e-01 9.741044117233733646e-01 -1.410306007566401176e-01
2.575890364248064612e-01 1.006806797219926136e-01 3.069311981191064076e-01
-5.700099538099295815e-01 -6.570554917518323101e-01 -2.749492575130436656e-01
-4.366006489939142643e-01 1.275993894318342980e-01 -7.258359438360881821e-01
3.960470380694293135e-01 -2.288859297376905355e-01 7.794611460178991758e-01
2.511137117339773406e-01 4.942340828926153340e-01 -2.605911282087252506e-02
5.872295669704504784e-01 8.534189742325242189e-01 1.679681298443445603e-01
5.075667133913230877e-02 5.450557293768443223e-01 -3.595322486481837831e-01
5.771133265034662507e-01 1.423736891837644736e-01 7.378322177672850257e-01
5.266214675956493174e-01 9.505258864970285160e-01 -1.053986105434192981e-04
5.103101078879448416e-01 -1.277152454457439468e-01 8.626326561787228675e-01
-3.182789836949720952e-01 -9.040021762006203998e-01 2.945624234651351148e-01
-1.845425750571935142e-01 1.021231199753098312e-01 -3.379317977488305869e-01
4.171273845792112384e-02 -7.729283366560612580e-03 8.177795490826590685e-02
2.686064461125547420e-01 -5.180649699901271887e-01 8.316777848633674086e-01
-1.931313610865428854e-01 5.882291390435583356e-01 -7.500918953830610914e-01
-2.348861439972333154e-01 -6.835596927570903869e-01 2.347312203746775849e-01
-1.504101084797122567e-01 2.088596280084558943e-01 -3.759943739491048431e-01
5.817855005236365340e-01 -3.633980222026721857e-02 8.915649874252044027e-01
-4.977769918467450094e-01 -7.282162179816417114e-01 -1.112835520228531161e-01
3.546736570433873248e-01 -1.825400938132601680e-01 6.811241147602310475e-01
1.566819155149117293e-01 -1.740149654994598283e-01 3.858689332648210790e-01
6.574563337379984995e-01 1.719992289567434107e-01 8.304426593532806544e-01
-9.059717145070317335e-02 -5.681727837295188488e-01 3.499279380079661217e-01
4.780449965701994985e-01 2.440628539928020868e-01 5.099990450785653051e-01
4.840197259509301797e-01 6.645216678087684237e-01 1.730136312608460403e-01
3.610575352741607902e-01 -1.671018221541935023e-01 6.777253768290000258e-01
4.231886804191025142e-01 -3.167439107841742985e-01 8.912084641031516874e-01
1.694665269566449362e-01 -4.945657267643028265e-01 6.680248852010836069e-01
1.180854274065299275e-01 6.387172073009126372e-01 -3.385162786332470142e-01
-2.314214418638997628e-01 5.366755159758002103e-01 -7.634512488179897582e-01
-2.261836264191474377e-01 3.642039433956679728e-01 -6.140268360007011816e-01
5.995909798523196832e-01 3.783250976266776949e-02 8.565057005262681766e-01
2.148159878181837290e-01 -2.259476615287488444e-01 5.132002920207252572e-01
-1.636842919679478980e-01 -8.770113142153207475e-02 -1.514996854439668306e-01
-1.993631400076035232e-01 4.489622948236934308e-01 -6.446650300465278649e-01
4.721207318096763417e-01 7.841260256086122205e-01 5.735676638991427795e-02
2.633713722283919090e-01 -7.304491919808620004e-02 4.581793588380924653e-01
-3.119436336333639703e-01 3.470799004430327184e-01 -7.248018241280250740e-01
-4.839473735539451260e-01 -8.716991710546780903e-01 2.681599729598985876e-02
2.591763535403142638e-01 -1.297892264483667402e-01 4.987248484881830479e-01
-1.423728462463349220e-01 7.353739034546153963e-01 -7.971714326802425976e-01
5.176318670497986885e-01 5.431823062673244440e-01 3.217080178772600552e-01
1.657394271806146846e-01 -6.659015394081917449e-01 8.034639562520791145e-01
-4.644120973559798804e-01 -4.559069320445638396e-01 -2.865906379411474192e-01
5.602092627481222720e-03 9.618420276887300335e-02 -5.622704974746958045e-02
9.639548520429788714e-02 -2.118366554179500760e-01 3.291963821878519658e-01
-2.108208344260980860e-01 5.284832373994394761e-01 -7.267245148050411885e-01
-2.955927211765210783e-01 1.295643382491096056e-02 -4.262949617666320079e-01
1.661380606589550057e-01 -5.566135470167133947e-01 7.141922721555241660e-01
-2.444747386651726084e-01 4.730320790212018678e-01 -7.301299018237168426e-01
6.803456023721680124e-01 3.693348577960678392e-01 7.015248563508653667e-01
5.677738095434130550e-01 4.878009240762816168e-01 4.402394046079100565e-01
-4.683493043223140306e-01 -2.718557161899075036e-01 -4.436418608632429761e-01
-2.492799014005216418e-01 -8.828754401456040402e-01 3.776451800594264330e-01
-3.859119548627487073e-01 -3.041735979191202421e-01 -2.970550715977832712e-01
-5.356332550377649326e-01 -3.947073992935589692e-01 -4.405936303848599356e-01
3.262756931657034287e-01 6.970173257956514823e-02 4.323982321498846537e-01
5.428682263659275614e-02 -6.113427747356812159e-01 5.963497952290047754e-01
5.121732687816004104e-01 5.538761398411259362e-01 3.049690959034294102e-01
-7.248284671519758526e-02 3.355735852775172945e-01 -3.667229463706508930e-01
-1.987929063263291218e-01 4.195367226916825176e-01 -6.196423760843599027e-01
-4.977312980875845949e-01 -6.742319681326911507e-01 -1.556006300468836812e-01
3.318643837644166261e-01 7.181201683795115365e-01 -9.256810050596502026e-02
-1.948388247300637532e-01 -3.158267458361362912e-01 -9.300619576662439575e-03
2.936393696877822590e-01 9.733457498844642064e-01 -3.580538082985975645e-01
-6.394846940439489341e-03 -1.169990215381864346e-01 1.015775777711893368e-01
1.814801328597073493e-01 4.871017170352238690e-01 -1.215711891137253725e-01
-1.389199154184872220e-01 3.531484737609753843e-02 -2.165850934095446545e-01
-1.636478722661397212e-01 -6.295716432363278603e-01 2.940566968305913798e-01
-7.422962446966406558e-03 -3.551455191667100553e-01 2.958749255810988465e-01
-2.081820656732326635e-01 1.437873709946990708e-01 -4.066019496018875579e-01
5.664215233686650808e-02 1.468576663779811442e-01 -2.358201553282855689e-02
-5.424716024825178007e-01 -8.999986978315948072e-01 -3.511977964056391815e-02
-2.366823730485640709e-01 3.927849095989047190e-01 -6.528095106773421641e-01
-4.718407672919498475e-01 3.140629251345552347e-02 -6.980542952131071344e-01
-2.629664504677648451e-01 -5.905219756085171579e-01 1.173587853696750061e-01
1.853977079966296904e-01 9.145580379735758214e-01 -4.673045687326680131e-01
5.684664868408084715e-01 4.550221171678647814e-01 4.681972079848223944e-01
3.718631735603364907e-01 1.553919957661049345e-01 4.283157777194331328e-01
-4.426625850829033482e-01 -3.001034205309538461e-01 -3.830217780107439962e-01
9.269359200105993860e-03 4.798665339107300448e-02 -1.126204436924608393e-02
-5.362233028485930975e-01 -7.763166977875796126e-01 -1.277093836836820373e-01
3.647310421383775370e-01 -2.063391709864517420e-01 7.153327635229693726e-01
-4.636681496151111026e-01 -1.247955265776605344e-01 -5.577335655858954855e-01
-5.632323714503495449e-01 -6.986513417201385412e-01 -2.308837427090660865e-01
-3.594997244916532941e-01 -7.238984179693920273e-01 8.647742199727015411e-02
-3.121842318608092359e-01 -1.388742159077078764e-01 -3.256208691570528502e-01
-1.736665055603601460e-01 -6.129592300429524687e-02 -1.877415483512303584e-01
-4.498067274294958451e-01 -7.454764486274887414e-01 -2.725542440061499982e-02
-1.624718683051817880e-01 -1.813821045642035820e-02 -2.069263147210513021e-01
-5.865751485088713940e-02 -3.774013062989498013e-02 -3.967235891666937714e-02
4.433416848308263658e-01 2.653967379621790523e-01 4.419364157055249431e-01
4.182166155851282929e-01 -8.651851226908165160e-02 6.946881544986360790e-01
-7.089679735476658862e-02 -7.888700677458969635e-01 5.600568303537510895e-01
3.702569196722840239e-01 -7.963503129346043152e-02 6.192067443151039186e-01
4.172658040341213626e-02 -9.265740014609795405e-02 1.516224662368198250e-01
-4.222183100249932153e-01 2.036661520435357753e-01 -7.674363462706031980e-01
4.916573003987135815e-01 7.074175224223524516e-01 1.488656054976646437e-01
1.730330310646914782e-01 3.273000393568183952e-01 -2.486615860569531614e-03
-4.844603371083978094e-01 -1.870133817088688179e-05 -6.905901687184148319e-01
-1.338047213940962432e-01 -5.193088872840149195e-01 2.468503884064786880e-01
-4.514348966836361776e-01 1.281283779737798778e-01 -7.478672881279898599e-01
1.503037598399098174e-01 4.176452965431920461e-01 -1.098551205121519742e-01
-4.795227991742423423e-01 -6.449957426156819329e-01 -1.531286028186010229e-01
6.154694885179020636e-01 3.979359996585482007e-01 5.835603316850737077e-01
-2.352890194641860805e-02 7.432702370448014406e-01 -6.306445733679973964e-01
1.831625526017909011e-02 -3.790177828464215692e-01 3.529741332687760247e-01
1.588394998752054588e-01 -6.762709524715672105e-01 8.019440000301824023e-01
-1.121423914582862259e-02 -6.266175836805538968e-02 4.988743397516612332e-02
5.586154801138075721e-01 3.793233365642044164e-01 5.160920086808190588e-01
-9.093854801317242942e-02 1.221160818061092918e-01 -2.180958029273941112e-01
-2.616941594203349708e-01 5.693866612270349625e-01 -8.344175101575012077e-01
-2.078860523260691456e-02 -1.380013592526057598e-01 9.788967920470785511e-02
-4.478711613789316259e-01 -6.169878091946302545e-01 -1.300755380989171428e-01
-2.796264478399007047e-01 -5.631727328916732445e-01 7.061892867192069712e-02
-6.676624728621181892e-02 6.007895987002532801e-01 -5.764499954269799442e-01
1.136204662471417409e-01 -4.074669523402425497e-01 5.151124423104984640e-01
-1.225747948308723995e-01 -5.067483595181854206e-01 2.528727286171523203e-01
-4.225983346860683887e-01 -7.273875094542298081e-02 -5.407410086781394565e-01
-3.437665794853510259e-02 -6.864614111466919022e-01 5.290285255783151452e-01
7.551563820488844947e-02 6.685042521203672650e-02 6.967355987554081642e-02
-3.090126384823346228e-01 4.933717351084656033e-01 -8.408097883220472246e-01
2.130514527552909154e-01 8.809117007839977198e-01 -3.993822617561241239e-01
-5.773008256886488776e-02 1.601350426808563765e-01 -2.010068811835396263e-01
-3.183707551019885479e-02 4.683125211394197833e-04 -3.203922615881259206e-02
-1.128056808277878437e-01 1.516286296063401040e-01 -2.741950444262606923e-01
1.515341577134692030e-01 -1.679454896131865327e-01 3.733845024678297264e-01
5.812916652667913242e-01 2.738910396209782716e-01 6.357871635688534528e-01
-1.036790282038361211e-01 -7.661997336300788719e-01 4.936922319829170624e-01
2.545091454657846808e-01 -5.653348194943844662e-01 8.500175379069428994e-01
-2.979762726916863544e-02 -3.317345917751652884e-01 2.440532919758212904e-01
-4.267241425956488921e-01 -2.201444837090211215e-01 -4.255567114189454103e-01
1.815713360730495871e-02 -2.650385583042554893e-01 2.590335060091380481e-01
-4.843835825233362424e-01 -4.548094968060407139e-01 -3.165683799932427767e-01
-2.995956899615850877e-01 -9.353930903510511152e-01 3.475707890188156068e-01
6.077128368678618581e-02 -1.958704909494434487e-01 2.642061912561529669e-01
3.743266631089266494e-01 1.341981743207746880e-01 4.493269247899749352e-01
-4.945473885169738848e-01 -3.893747000435643923e-01 -3.851631156833076330e-01
4.087265951979655032e-01 4.957356416934578514e-01 2.021670042721939176e-01
-1.701302110502334319e-01 3.033148017955309417e-01 -4.823609841580426827e-01
-1.540539621568463857e-01 -5.472739358847272806e-01 2.403622394914573523e-01
2.956541640990026365e-01 -6.994159336406424732e-02 5.026268197375698410e-01
-8.950930857208473646e-03 3.335178025997076467e-02 -2.575586137272654896e-02
2.131392518997961630e-02 -4.168594980096078650e-01 3.884501712446167265e-01
-1.180062139585927317e-02 4.039385065871627378e-01 -3.345855497606678997e-01
4.608019317076564314e-01 7.075211896571896864e-01 1.038596018087910022e-01
-5.584535386278462188e-02 2.040041495529526794e-01 -2.343303519538455504e-01
6.241463118312248759e-02 7.741415687954301683e-01 -5.309048472725075296e-01
-3.273316996010246505e-01 -4.214609437772365852e-01 -1.153422671724171622e-01
-5.914187655130718202e-01 -4.609449199911715422e-01 -4.673512073374270215e-01
2.207730743735645540e-01 -6.083132283248480210e-01 8.362379532493142698e-01
-1.162095116194874767e-01 6.557054428642342669e-01 -6.935814659417530725e-01
3.634832912177463626e-01 7.371157166949530160e-01 -6.215307865710841678e-02
-5.097303376469597413e-01 -2.103436192961516127e-01 -5.544591006635696262e-01
-1.613953634755475042e-01 2.812010621003058208e-01 -4.514633652350131254e-01
4.677961330591499656e-01 2.751715620858666278e-01 4.695019585357014247e-01
4.731093435617264031e-01 1.687567843211377691e-02 6.895973083622520816e-01
5.425403467629580367e-01 3.260964993471660578e-01 5.364499221199811041e-01
1.533894101713677849e-01 2.648028401699091261e-01 2.029782221727594732e-02
-4.056580849165073999e-01 -2.046935563439929440e-01 -4.075908108659760387e-01
-5.619979922357375424e-01 -8.042876454310131373e-02 -7.373635203672224137e-01
6.722317977153082769e-01 6.597048076388812854e-01 4.509823019241754882e-01
-5.089440725891442030e-01 -4.238201220438969075e-01 -3.778029298796254931e-01
-4.712211730596712056e-01 -6.998028119122355895e-01 -9.598259553276258793e-02
2.829691069252285307e-01 7.533275836601521780e-01 -1.926983345249914659e-01
4.613868586586797327e-01 3.721477218496938022e-01 3.804412610978362141e-01
6.676842541908017958e-01 7.753859707810972779e-01 3.492535299011411132e-01
8.181680551986258987e-02 -1.960452720447192210e-01 2.949890012423632690e-01
-1.867483682780245180e-01 -3.538278334978019468e-01 3.372077849479669653e-02
4.503630239329357576e-01 -3.013791938186543007e-01 9.181379880791391557e-01
-8.348727370665560976e-02 -6.010801095237833236e-01 3.873339113804193379e-01
3.018789557188735206e-01 -1.874523141105610413e-01 6.083015985902019418e-01
-4.477345107269259383e-02 7.791632859501110842e-01 -6.910832089200721340e-01
-1.593601658068346250e-01 -6.090122962242172644e-01 2.833959134795825396e-01
1.878036028409919289e-01 3.921997061113595140e-01 -3.434068876373924661e-02
-2.280883579780850542e-03 4.877142072832658104e-01 -3.896031353502765748e-01
6.720505347531459117e-01 2.097384665915871249e-01 8.206619904950790412e-01
3.040625968512099542e-01 1.882763404132781204e-01 3.025722044018172574e-01
4.697216140414184893e-01 -6.077890501013012703e-02 7.485096475063596211e-01
-5.093026362145113284e-01 -6.127286919391671249e-01 -2.230121882509665532e-01
3.144091717076752945e-01 -4.311237404053132605e-01 8.268802025906909492e-01
5.147004873521211499e-01 3.211022201140332766e-01 5.000253652894013356e-01
-4.525280289593818783e-01 -3.218272171868543641e-01 -3.795239788535745840e-01
-5.256116900893654797e-01 -1.791874876013210549e-01 -6.031952330605967472e-01
-2.230299542127856249e-01 3.332540654110818235e-01 -5.839898636065334880e-01
8.068641176692835371e-02 4.960897910652126153e-01 -2.757012967018391825e-01
-1.614104208966329057e-01 -8.587139781774652536e-02 -1.496936021448687648e-01
3.482937756587736189e-01 -8.866077990354017530e-03 5.290484270847459758e-01
-3.141071462379204648e-01 -8.777834664297966549e-01 2.790800599931010373e-01
1.587780069379505499e-01 6.474539253263753569e-01 -2.864569730219415078e-01
-3.163082359822884659e-01 -7.187438827268539665e-01 1.451198844240522978e-01
-6.535603056382156550e-01 -5.858083010603276630e-01 -4.551624667574510341e-01
2.719441591918407841e-01 2.682176363316617906e-01 1.900881901034205956e-01
-5.181095154164628257e-03 -2.497175059204981840e-01 2.124602265431399517e-01
-3.462659348844532997e-02 8.914547859661936524e-02 -1.090070161741487492e-01
-3.872492338144037927e-01 -7.794375451170666436e-01 9.174026957036582330e-02
-1.872659322347609567e-01 -6.484944655534465863e-01 2.752299124347801218e-01
5.168445354644721768e-01 4.150560719740036819e-01 4.259018337294114831e-01
4.862561758539850620e-01 -1.920685273133362903e-01 8.805223388830767384e-01
-3.760763983805545108e-01 -4.656935499461299921e-01 -1.499410060087784657e-01
4.289419090098992582e-01 8.728167919852599654e-01 -7.842295409749189261e-02
-3.299903077964593846e-03 -7.394997252510133734e-01 6.178774956404167185e-01
-8.803186954083282167e-02 4.696732590408194685e-01 -4.996111485594559865e-01
-1.342317098855554947e-01 7.025779948587084212e-01 -7.583557336712856145e-01
-4.972824074364722846e-01 1.494207140569208114e-01 -8.321200350225054221e-01
5.270658696953107736e-01 2.407603403415306542e-01 5.840812474143805000e-01
4.272673112046746491e-01 2.260822080226226327e-01 4.508573157280143517e-01
-7.359650289384779553e-02 2.456541637401124245e-01 -2.944162597765290768e-01
-5.085650081595001204e-01 -4.253518382161967093e-01 -3.759917558965448214e-01
-4.263213449426198065e-01 1.494396440894086298e-01 -7.288269717857328578e-01
-6.073556906407342471e-01 -4.443462906573806825e-01 -5.041996732194274911e-01
-4.291119816813602772e-01 -2.692386595816267242e-02 -5.878909881453292519e-01
-2.840231386872637542e-01 -3.341706516175677599e-01 -1.240579625344310627e-01
-5.303431195355714500e-01 -4.425875236075019759e-01 -3.935269457650543701e-01
1.409667810728145176e-01 -6.403624340916126700e-02 2.725701391585021449e-01
-3.707263495099098749e-02 -2.770214396295135328e-01 1.884791013817870009e-01
2.717844190598104892e-01 4.210589744022416037e-01 6.419585167078070698e-02
6.472279106681410044e-01 5.338032990168862790e-01 5.180913810649375728e-01
2.293675715478636079e-01 -1.018929711084937961e-01 4.323926094018317734e-01
8.977245744445116679e-03 -1.127906605639119458e-01 1.204970920097560849e-01
-4.413044555528638363e-02 6.190212776942803918e-01 -5.584850019392174625e-01
2.673999400644915814e-01 9.739489259846889624e-01 -3.967503748243814132e-01
3.827919091400280860e-01 2.821879391567503337e-01 3.399800294724065752e-01
-9.157563362647382077e-02 -1.374118227780992130e-01 -5.650272389703839965e-03
-4.018114821351983501e-01 -2.163331532835121029e-01 -3.924211444623091349e-01
3.536987152353931324e-02 1.032797943040662525e-01 -1.872334375020187278e-02
9.642976147158979772e-02 7.436724185882821470e-01 -4.563334711859995951e-01
4.085018901342434283e-01 7.952449907974283860e-01 -4.440424185466095713e-02
-3.638640360192310075e-01 -9.017209380737906121e-01 2.263219092840130509e-01
-1.504337886106970612e-01 5.983375830795142347e-01 -6.962413977941005472e-01
-1.516322679284322350e-01 4.982928326871258196e-01 -6.157335773570897786e-01
5.186938729186819641e-01 3.746796895734144650e-01 4.617899702642344062e-01
-4.093163599276286035e-01 -1.172975437614719313e-01 -4.847700693360424973e-01
-4.501397842702801189e-01 -9.128341085618932871e-01 1.098541909012615003e-01
7.989631934776096622e-02 -6.795193374267393116e-01 6.896852976155823933e-01
-3.072103456310155689e-01 -3.277274977168060377e-01 -1.631123386815133136e-01
2.406051853739193114e-01 4.033523821729806946e-01 3.336120265592834588e-02
3.916428199330453386e-01 5.755417675879893613e-01 1.116823267323596436e-01
-2.684798968176628844e-02 -3.259889510975058080e-01 2.436236939527167966e-01
-3.588642456569882122e-01 -6.903713314209754259e-02 -4.509970835480230367e-01
-1.859462639131352624e-01 2.394725640120976551e-01 -4.528983484106833268e-01
-4.294889905499726934e-01 -2.144652237825735511e-02 -5.929431000219461678e-01
-2.050022543458754065e-01 4.633314153505093680e-01 -6.646884240706599778e-01
3.330525358330894692e-01 7.076400070724387925e-01 -8.222197789474927632e-02
-3.035348310857615209e-02 1.899043671883822795e-02 -4.510745780574536984e-02
-5.602148286269291733e-01 -5.014279837017057151e-01 -3.886394832289239432e-01
-6.470607072089137879e-02 -5.477938606406982380e-01 3.708667822454241314e-01
6.136171851068527028e-01 3.522593158830853444e-01 6.184171232315496258e-01
2.181086631126098047e-02 8.223713601921746053e-01 -6.296703429481389502e-01
1.908219174632967419e-01 -2.023482405583293398e-01 4.588660761268034682e-01
-3.275249289781329565e-01 -9.959664755019236038e-02 -3.802469956619192182e-01
-6.425162419768830624e-01 -1.302303394240756362e-01 -8.136411931283598076e-01
-2.987596763133525957e-01 -9.062980102665844084e-01 3.248671363089989939e-01
1.644067505926407047e-01 -1.599466777027629683e-01 3.855487703354134599e-01
-1.416970777214550392e-01 -3.493772788384028605e-01 9.564961629344374827e-02
4.786717871808611746e-01 -6.953688773733299189e-02 7.687402010605158820e-01
3.988704320345595189e-01 8.392684761195401411e-01 -9.462047085600619467e-02
-1.376251821147780607e-01 3.768434429509799899e-01 -4.954907399030483162e-01
-5.589993767839406269e-01 3.740821897318812733e-02 -8.298786463855192252e-01
5.170860005883467503e-01 4.117681310628203417e-01 4.289565786497855915e-01
1.524347974253882076e-01 -1.418726758889912037e-02 2.482820937017350404e-01
5.154786792062485690e-01 2.638707872077136751e-01 5.482115953974873168e-01
-1.922479184617916226e-01 1.362417157692392689e-01 -3.772005061158069661e-01
2.798989209483004337e-01 5.244136401127268421e-01 -8.964555310612801892e-03
2.992010064094156596e-01 9.729817197870106460e-01 -3.496576119268699490e-01
-3.064694299336070404e-01 3.296256714466494486e-02 -4.585780220423667508e-01
2.009811476407521169e-01 8.106654605457009888e-01 -3.592012770256614584e-01
4.785675279234438140e-01 -1.502085094298314660e-01 8.349132618765106040e-01
-3.704127464232878086e-01 -6.683189327103623567e-01 2.489456721429471331e-02
6.877308555598627970e-01 6.987867061644542632e-01 4.414150885710458883e-01
3.476508260237934356e-02 -6.926090638170114833e-01 6.347428372907615302e-01
4.423373823149836515e-01 -8.624753995093747613e-03 6.657633574426614631e-01
1.400278593114239745e-01 7.475995973009750273e-01 -3.960899653647927399e-01
-1.396405303687443811e-01 -9.055234193032386525e-01 5.558838275387197880e-01
1.129961838627208254e-01 -4.528412989733040517e-01 5.515084786404553796e-01
5.249189645939056348e-01 7.764121607674360215e-01 1.405650650361535969e-01
2.734088250273132292e-01 5.871766626786975030e-01 -7.001430062174517077e-02
-1.064659611351638918e-01 4.264943724289996241e-01 -4.909485296719912073e-01
-5.548182535053102216e-01 -5.708942812671411460e-01 -3.236705861687085295e-01
3.746604204638698810e-01 9.730871171184072299e-01 -2.398867156706894488e-01
-3.578585272069213785e-02 -2.083331543207012082e-01 1.338798159869863946e-01
-4.321455941848723059e-01 -5.120980390974777530e-01 -1.934174784031153227e-01
-5.720861875349794179e-01 -6.463678261367964417e-01 -2.867588947492144547e-01
1.240771136737432861e-01 5.505627439023687009e-01 -2.573163579093026287e-01
-3.980140947789134742e-01 -6.653548441365266797e-01 -1.772579188588398191e-02
-2.183001142967435082e-01 -8.128796955312749262e-01 3.651995021267646635e-01
-5.355063372713038117e-01 -1.055826982472511388e-01 -6.781151415812745054e-01
-5.366370502721762303e-01 -8.192583459762342590e-01 -9.300690345371682988e-02
-6.499758679616888246e-01 -6.753988157492368805e-01 -3.762864761237292299e-01
-5.788246321936817845e-02 -8.250704115431577168e-02 -1.738511534642109323e-03
-7.097730831166043641e-02 -7.648345289051938778e-01 5.401785997957940788e-01
-1.878987473945058773e-01 5.068003167115027185e-01 -6.755266119783228662e-01
-3.190148998343061426e-01 2.739481091202103924e-01 -6.749706112485177600e-01
-1.741693267053963656e-01 -3.037519193215673305e-02 -2.138953171995738034e-01
5.412640118589360227e-01 3.382035837360297670e-01 5.246378301920185949e-01
9.414721211585331748e-03 -7.420829050283404005e-01 6.385118577406286855e-01
-1.045809892007900505e-01 6.959165387067964836e-01 -7.097119753170174627e-01
1.008859599253859179e-01 -1.670519532638546911e-01 2.989137211300106345e-01
1.010489172328448426e-01 -4.136713043366007092e-01 5.019111188156507586e-01
1.372634658831776433e-01 -5.261739517179223613e-01 6.471290408936434257e-01
5.371932502504971341e-01 6.990692626157075651e-01 2.220226863442751053e-01
-2.307714838317366512e-01 -9.338182008941284806e-01 4.464736659874387059e-01
-6.137204544471541040e-02 6.819474779431132783e-01 -6.353214767244804717e-01
1.623352896844604820e-01 7.430097284894531251e-01 -3.598401052836211478e-01
2.925395265165415398e-02 -6.088011901378743290e-02 1.073382407554150375e-01
-1.665446402408953808e-01 -2.037636671545338396e-01 -6.024214026822307527e-02
-1.329079492890417324e-01 -5.035926502929960469e-01 2.352347182984211027e-01
5.805072215837679961e-01 2.950485981831695859e-01 6.172502683990782613e-01
-2.445117738492625648e-01 -8.714848376470155644e-01 3.752219772828556676e-01
-2.935842549650470312e-01 4.685300691939731643e-01 -7.979246012102116925e-01
5.000246740588119021e-01 2.908326643404686718e-01 5.035459577120710017e-01
-5.836879542298820667e-01 -5.369409646557753435e-01 -3.936155277113790873e-01
1.522426935392391933e-01 -5.325489840604817893e-01 6.741778278644022793e-01
-3.722016204769660885e-01 4.207010298261807391e-01 -8.730566091573253029e-01
-2.154350368353664946e-01 -8.360000169338184239e-01 3.883791887632543904e-01
1.104630731867354554e-01 -2.486301437176462181e-01 3.799267462689600583e-01
-1.954949246388705264e-01 7.358306009496501376e-02 -3.304123220495708835e-01
-3.744652560224160376e-01 -7.444744671910656919e-01 8.160663101264502284e-02
2.452354727160289127e-01 -5.986190340400069365e-01 8.638813607436045539e-01
7.191322738536107817e-01 6.186678922659677449e-01 5.530011784787823848e-01
-3.560452810144370539e-01 -2.554591082932142765e-01 -2.936247136154412907e-01
-4.438123350508153542e-01 -8.258621089494050382e-01 4.756124977046069513e-02
-3.416852108007426003e-01 3.277555308055080108e-01 -7.522133924429885710e-01
-6.573157174799691971e-01 -1.559718712989021372e-01 -8.140233868844488629e-01
1.736765870022332348e-01 -2.839081213406001447e-02 2.908845048577458070e-01
5.921170710786301250e-02 -7.717903395130704114e-01 7.354329893485143099e-01
-4.430844966382422867e-01 -5.285443924049838538e-01 -1.958213674333783849e-01
3.180074471113016332e-01 -4.349595554466090253e-01 8.352723973341472652e-01
-8.676465771511608638e-02 2.024652303172585766e-01 -2.780789694482560526e-01
-4.709219805960934702e-01 2.454684039961693987e-01 -8.727096303747661210e-01
-3.297014421994027278e-01 2.405547483650754756e-02 -4.850772950478851042e-01
-4.166428047549326774e-02 3.361835041669483659e-02 -7.360073764490580872e-02
1.645512367086306160e-01 4.107935723739641887e-01 -8.347973639170311322e-02
-1.991237207288812094e-01 -8.311190483445171084e-01 4.081130809817375416e-01
-4.861120396538211041e-01 -9.082260689045732471e-01 5.369546296990673068e-02
2.200867104444238498e-01 7.983906110854434024e-01 -3.212945832803043023e-01
-6.000889786873751103e-02 -4.935133544822478124e-01 3.330779880961417527e-01
5.206110850884544394e-01 -9.840476586545643389e-02 8.535314733479461013e-01
-3.860699428072850714e-01 -7.486449238405739059e-01 6.814072937970930277e-02
6.956242396254783134e-02 -4.582672349460540362e-01 4.927364399065694012e-01
4.968853051733707615e-01 3.906094872312675381e-01 4.169431620059558807e-01
-1.391432086554085512e-01 6.033376097839151520e-01 -6.839148263686888329e-01
2.078155941251845218e-01 -5.059584612983026863e-01 7.332219868396030460e-01
-6.737723514103788336e-01 -4.981808258802468692e-01 -5.566318228711232274e-01
-4.344822957753884940e-01 -3.444683814849670567e-01 -3.346374853182151887e-01
-6.444616145006709651e-01 -7.363618353833106811e-01 -3.181372979844410698e-01
7.815034078600872902e-02 7.185013079352844390e-01 -4.622509179301730331e-01
1.264277131353560950e-02 3.030213297236720726e-01 -2.160297502821017790e-01
-1.044507058632355712e-01 4.856643371620985583e-01 -5.366617013125358771e-01
-2.295369334512542825e-01 1.696146888497881422e-01 -4.589255677724603522e-01
6.073541311294909928e-01 6.288084438446511770e-01 3.819318872197475234e-01
5.797129967632500547e-01 1.256104288520082657e-01 7.553990006850287431e-01
2.703957994494455286e-01 5.611686392929241540e-01 -5.301809903376401845e-02
1.782656407156114550e-02 1.383322509429889824e-01 -7.308242855161710405e-02
-1.499248355797385690e-01 -7.951438052006591928e-01 4.501619066933801316e-01
-7.095037598240211060e-03 -4.304267254379695595e-01 3.582454064116490922e-01
-9.695022617471581172e-02 1.860381034061764360e-01 -2.794019247092212055e-01
2.033341909059853958e-01 8.468946697055957928e-01 -3.855617466599473020e-01
-1.702576860812592997e-03 4.283174006849777560e-01 -3.399276278736997892e-01
-3.826801944710648273e-01 -7.752768383349692982e-01 9.497134339067336839e-02
2.779323043236672230e-01 1.003534330186492927e-02 4.110727536876334076e-01
-4.453546324624837460e-01 1.265772484047615332e-01 -7.377400644436535870e-01
-3.099656771089817631e-01 -5.333963414728183812e-03 -4.321822197081534589e-01
3.097094061070586046e-01 7.986188668737753682e-01 -1.910050898073439307e-01
-2.985785864960452951e-01 -3.795650588720226454e-02 -3.887834342573132651e-01
-2.126236370146159238e-01 -5.835591759309107784e-01 1.849258208898616473e-01
-4.932024863800176795e-01 -5.228493867727765920e-01 -2.734678136735725351e-01
-2.948564655225530129e-01 -7.637329834294654951e-01 2.133385978982680342e-01
-5.914847453111282682e-02 8.713956315836378363e-02 -1.430580041038027328e-01
3.938784555191958692e-01 8.078336207997814933e-01 -7.604360884720269553e-02
1.374820827849120297e-01 -2.512807089380738046e-01 4.214415419455536660e-01
-3.127827497939721368e-01 3.707575786506147053e-01 -7.454902515815707842e-01
3.861584818161388766e-01 -1.284254013712215758e-01 6.824704351576859063e-01
-1.423900335842556431e-01 -4.161644008150117702e-01 1.495503662132687261e-01
-4.184490571942578452e-01 2.991374529755710943e-01 -8.404414077790023363e-01
-2.631732471369691573e-01 -3.414065106664251337e-01 -8.775463666456215228e-02
4.213533708842290282e-01 2.943611500053324170e-01 3.861114071016464311e-01
5.449858370794411488e-01 -8.334862991388455877e-02 8.766389158843459484e-01
5.538964493277026557e-01 6.218377227499654047e-01 3.098365848584138105e-01
-8.999086971735610618e-02 -5.571995041007641314e-01 3.417888487103128980e-01
-5.951310148424268087e-01 -2.048177164382861126e-01 -6.833328002221966679e-01
4.082499457970072965e-01 3.202652838734790230e-02 5.827153894784055099e-01
3.503353410637712884e-01 -1.399037604498706011e-01 6.397543625729771311e-01
-4.985343381948613706e-01 -6.069637201377198199e-01 -2.120748867072093646e-01
-4.827383571096642290e-01 -5.879475554292373785e-01 -2.047126140988818899e-01
2.876295945456764369e-01 -1.895312557480536286e-01 5.892658925837813699e-01
5.477697076119032449e-01 8.514580000593930942e-01 1.121327449492385553e-01
-5.257182900751863341e-01 -7.749418411547561759e-03 -7.442996650310351736e-01
5.993971168156970730e-01 2.881853486369247985e-01 6.503937906160006666e-01
-1.717654762297103621e-01 4.403083685120199320e-01 -5.973720875856490808e-01
-6.760614776661020286e-01 -5.164667649043640507e-01 -5.449305088860845192e-01
-1.212610795746049824e-01 -8.200992063172374280e-01 5.124093124513874331e-01
3.524140622113978716e-01 -1.222292086830617241e-01 6.282493875511581116e-01
7.034349531021893975e-02 -7.064575541311773899e-01 6.979253031390968420e-01
-1.923157666004763622e-01 2.529048738796718654e-02 -2.860798050098909417e-01
4.737547959455339908e-01 1.715561202099754323e-01 5.633651745923637932e-01
-2.152084936630927758e-01 -4.698200637996335916e-01 8.765109899251871672e-02
-7.098036887338398104e-01 -5.185331765701828299e-01 -5.923551721126267822e-01
5.808547784226169020e-01 -4.738333259529708963e-02 8.992895267326384001e-01
1.016291733514383157e-02 6.119170073918462904e-01 -4.736012021229598079e-01
-2.199329112745388448e-01 -9.010207383270625314e-01 4.352882889379370290e-01
-2.751577008777073563e-01 -4.567816592347559435e-01 -1.034555688148182905e-02
7.041824310846810098e-02 -9.519825280549928936e-02 1.954821919907935579e-01
-6.275850239140541575e-02 6.045156915592957425e-01 -5.736787603822703918e-01
-5.895251918244401867e-01 -5.374258154721188729e-01 -4.017150429504759424e-01
-9.589656699539973739e-02 6.002120694186878769e-01 -6.183845360360781251e-01
-2.451049941038003499e-01 2.512857397140066951e-01 -5.487368565831173273e-01
3.574193567349212130e-03 -1.999823685621885949e-01 1.843164511860978794e-01
5.016709537434402844e-01 6.140430781401611249e-01 2.402125557645808651e-01
-1.369731528640690810e-01 -7.224405724904052750e-01 4.092440382420459710e-01
5.224082728200158954e-01 7.034573732476265828e-01 1.968902627215727841e-01
-4.770736795539524122e-01 -4.672820852924006729e-01 -2.956718188255145208e-01
-1.143489254845082154e-01 -5.989373488955644920e-01 3.406423028227407723e-01
-1.744930913103863723e-01 1.008207883825955192e-01 -3.222305391692110166e-01
2.900220419215454037e-01 1.777051553073590584e-01 2.908224576545094253e-01
1.416672452418676897e-01 -6.739458544900064352e-01 7.750321831632528413e-01
6.690387552850928779e-04 -7.279881111311522490e-01 6.141913080292662475e-01
1.823071153068002714e-01 -2.073631255664482587e-01 4.505928352755446120e-01
2.180290106197215472e-01 -5.596911350067700353e-01 7.922679498836746603e-01
-1.874208694183029655e-01 -6.783992717852469490e-01 2.995908330745465920e-01
2.515187126790263683e-01 3.954435284343883056e-02 3.483574614235505074e-01
-6.065958062705597564e-01 -1.711863650738567333e-01 -7.276741070096253150e-01
-5.446682468850875258e-01 -5.009507614464393521e-01 -3.663983523688006394e-01
2.200438034025112011e-01 2.384367587311878034e-01 1.390136804404137338e-01
6.306967292665875968e-01 1.986591793314565479e-01 7.695660022475671047e-01
2.168116411820406042e-01 5.096938646981822307e-01 -8.870815332941087150e-02
3.298009765856827480e-01 7.445255712532760084e-01 -1.172815329996693412e-01
4.034949336395254882e-01 9.911849328457158492e-01 -2.127872744793324888e-01
-2.052555078791024057e-01 3.248448761659294276e-02 -3.108327280539144866e-01
5.804722482911550685e-02 -2.040360724520029478e-01 2.669537724904534892e-01
1.871742328170527270e-01 -1.116359629827729238e-01 3.789757407112688825e-01
-5.235373657610312703e-01 -1.962987384468645735e-01 -5.861071714465473370e-01
1.316880827910833079e-02 5.340073714233305457e-01 -4.051710203178419678e-01
-2.237020297805643321e-01 -1.273744653858254194e-01 -2.062587160888703086e-01
3.404862894477674318e-01 -2.669189896437304532e-01 7.298422558211367095e-01
2.588647619671007871e-01 8.172824510852976232e-01 -2.803716605246262539e-01
3.537636324674972577e-01 -2.497356414931476143e-01 7.350446359029247922e-01
3.567838368472157073e-01 4.478978753048475370e-01 1.658763845793919389e-01
-2.471251388815460526e-01 5.129206004093311844e-01 -7.667831661728706782e-01
-3.779847739078775470e-01 1.893226676841747724e-01 -6.912463599286364779e-01
2.695630096789330410e-01 2.831905566557844922e-02 3.838562137259647344e-01
-4.038401392734617401e-01 -2.091764437166553359e-01 -4.012585123844504276e-01
-4.392108977557355742e-01 -6.223834180460473542e-01 -1.130314528917609196e-01
1.858405347207627567e-01 6.161369945135919401e-01 -2.213105298595394455e-01
1.974644376697032022e-01 -6.463908748448841113e-01 8.336099410321257119e-01
1.116399324115195935e-01 1.441112547160931789e-01 5.874445985528802677e-02
3.649970002231165550e-02 4.956902221614520321e-02 2.708027573271143060e-02
5.949716465148263689e-01 6.585127783550531744e-02 8.267447825805742667e-01
5.864029156165707218e-02 3.097585763486459531e-01 -1.546033673398028996e-01
1.772542793610172931e-02 2.784165177965562676e-02 1.761110008780383124e-02
-7.876660369359109182e-02 6.046327968461358005e-01 -5.970804256050951109e-01
2.928074908536099433e-02 -2.340171151960983298e-02 7.656406702597318148e-02
-2.445288586827142341e-01 4.862904790113876663e-01 -7.411091965551448446e-01
-3.775622625750609807e-01 -7.579772211587361419e-02 -4.726603073527465004e-01
5.531992306431114947e-01 1.368024664594924000e-01 7.075973207070664905e-01
-1.711086441394567004e-01 -1.241290445626494626e-01 -1.323589121647642253e-01
4.099767627186449159e-01 9.481330694492580424e-02 5.336087013611364727e-01
2.267820959581993978e-02 8.340618007912001808e-01 -6.380190149093709628e-01
-2.875699021523166893e-02 -6.230004394259298639e-01 4.850349488020990196e-01
6.675354754979876404e-01 6.067307191474178296e-01 4.876982522888725913e-01
-4.856565488518304607e-01 -2.112912972275302059e-01 -5.186321461816648659e-01
-5.972474287074460708e-01 -4.925391220070204357e-01 -4.498614269892908801e-01
-7.833702757299698671e-02 5.323408115798270446e-01 -5.370195688024498315e-01
8.077544892282715466e-03 -8.099227014599551522e-01 6.923401847195281844e-01
4.302995028881502204e-01 3.041787478185335458e-01 3.910640089028497024e-01
-5.815144935464678921e-01 -7.748539757436644360e-01 -1.948491297413072199e-01
-1.798741097624862173e-01 -4.148975634950033964e-01 9.393765211567182971e-02
-4.604570939027177179e-01 -8.922621030023367705e-01 7.792029497496004431e-02
-3.283486823417848810e-01 2.038177381230618923e-01 -6.309009243361322072e-01
2.796710160414745960e-01 -1.988074536580222151e-01 5.853059035966969859e-01
-3.891760863088405409e-01 1.660540955324663615e-01 -6.884087757303032351e-01
6.017706778141652668e-01 7.715465635851485038e-01 2.564498839235416217e-01
-4.221818468159738713e-01 -8.093951067267342037e-01 6.551350184210173733e-02
2.423729033069187133e-01 7.221109050390711603e-01 -2.261352442181452371e-01
-3.363433563298798834e-01 3.413837321811484804e-01 -7.556409957547067791e-01
3.521582127079304642e-03 6.388876477427828382e-01 -5.054441235146668321e-01
-4.610857338778621695e-01 -1.113098080299614462e-01 -5.650613529283698977e-01
4.580694411153333756e-01 -3.808652286574151086e-02 7.128891062394183686e-01
4.563482522008725784e-02 -5.503619535273129859e-01 5.336178984360844257e-01
