4.131611834798393224e-01 7.109072386439894975e-02 1.457888381661846984e-02
-3.577023133707870617e-01 4.002945408722115572e-01 7.535701733010965464e-01
1.259842463810586233e-01 8.186325523766614376e-01 4.805892732866786643e-01
2.504377958306510110e-01 4.995339323292043443e-01 2.801188835000860688e-01
-1.321859079800711545e-01 -2.186238160468524094e-01 3.778879997870088769e-01
1.599207826236696273e-01 7.746143480338278930e-01 4.390453455316239428e-01
3.398819749367195109e-01 8.708433591809723318e-01 3.193463024935412342e-01
-2.530772002659341657e-01 -2.371412081191104082e-01 4.723740445675309041e-01
7.018000159898862833e-01 -2.564222684788557416e-01 -3.244580453754667415e-01
1.609591842342836601e-02 7.458324948550152378e-01 5.493953148573894607e-01
-4.500081045244127415e-02 -8.391468047287333754e-01 1.162992933523954303e-01
6.590334968495803469e-01 5.352044044210009233e-01 -4.744490632182476325e-02
6.227099526042157995e-01 -4.966715270355501199e-01 -3.322650919091866273e-01
1.033231005340724679e-01 5.150947621292328860e-01 4.067263977417415743e-01
1.580720717283330690e-01 -7.369442120092027926e-01 -2.072070408689881404e-02
7.643017299372699414e-02 8.708876698341949316e-03 2.744636356745457362e-01
1.122636518786284260e-01 -5.696493926128720631e-01 6.827854454735221568e-02
8.343448634174593925e-01 -2.694901110663616706e-01 -4.382361924436762868e-01
-4.599058529652231275e-01 -6.689958340540704818e-01 5.119018431200931252e-01
7.586197723750410793e-01 3.056321130927848184e-01 -1.999954901198227608e-01
4.466969222244235871e-01 6.257836565095917791e-01 1.560815874321071772e-01
5.788696023938635360e-01 1.444708366411140144e-01 -1.002872681414955225e-01
1.353799215432883174e-01 -7.563470000922882797e-01 -7.845589265340763285e-03
-2.495164670974932553e-01 4.707519476854891138e-01 6.854594084420235767e-01
7.340790922125970397e-01 6.322737542966593294e-01 -7.998336795792763965e-02
7.573078628278749891e-01 -3.937065521655964961e-02 -3.041967348949769501e-01
6.198031122377138935e-01 6.274581110413184060e-02 -1.591343245880181279e-01
8.979899001229285638e-01 1.257047814775797689e-01 -3.703493542432458319e-01
5.560445228677594054e-01 4.393804431773952468e-02 -1.120612962166260274e-01
1.324657568550713649e-01 -5.696540927407690580e-01 5.154321792159109045e-02
-5.926491419478987360e-02 -9.845898147312417414e-01 8.372830349040434605e-02
1.115191408161302355e-01 -4.305226093483862093e-01 1.113539472844863598e-01
-1.114002240354280970e-01 5.572570170664386396e-02 4.443966899477470589e-01
-2.725278826613234950e-01 1.006507493375055073e-01 5.915728515249554231e-01
7.059337714205946579e-01 -2.128222899131531343e-01 -3.145762952599183149e-01
3.401953647411967152e-01 -7.441698853457339169e-01 -1.737829639550628746e-01
-5.293195210324065647e-02 -9.427951271911846343e-01 9.123745888615904243e-02
4.769758443584105612e-01 -3.869957689170554910e-02 -7.178614310843732527e-02
6.191838982595859742e-01 6.421911718374244682e-01 1.821369760100869511e-02
-1.214014534074193408e-01 3.131151814271513900e-01 5.312310614079426285e-01
7.333878522761996255e-01 2.222766706191905972e-01 -2.045336909792697944e-01
6.587866856396702442e-01 -5.034069143749857478e-01 -3.642038278205126378e-01
-3.280342572074822494e-01 -2.175690893130576287e-01 5.404358064866292555e-01
5.242031264228469434e-01 5.415709422789962701e-01 6.618129082106875838e-02
2.888437490982209699e-01 7.970067108941524259e-01 3.390890341662607388e-01
5.537593125805646554e-01 3.735641319133941041e-01 -9.573124880413556859e-03
2.928865960334056662e-01 -7.860552140659519127e-01 -1.473785293975820032e-01
2.107131871889674490e-01 -3.894366252112211324e-01 4.172773818391659756e-02
3.591086864365323206e-01 8.874091587006013859e-02 6.473835954575755947e-02
2.728834981140125238e-01 3.535853787705503515e-01 2.169859915343054502e-01
8.165350593113501754e-02 -5.234013507617882865e-01 1.077476444781586135e-01
-1.729778704426807867e-01 2.592721759174881901e-01 5.575212489797921611e-01
-4.183354955918732188e-01 -6.135896004395855474e-01 4.943769827039978249e-01
-1.255376396084031954e-01 2.108342384913765299e-01 5.034430703725228939e-01
-5.823358553392865566e-01 -1.110975108760614560e-02 8.140872244493702059e-01
1.724410519416911536e-01 -8.385483854397571823e-01 -6.363043561246344015e-02
7.732147353592898620e-01 5.773258118167359232e-01 -1.291693787804494564e-01
2.324771511308139083e-01 -8.016012020290571582e-01 -1.020842488720214852e-01
3.000108100759844021e-01 -2.422181451537747110e-01 1.268848695866750358e-02
-1.006053938687967719e-01 4.694217340200683708e-01 5.617068097739662536e-01
-3.258780601959419543e-01 5.126083225752849915e-01 7.614852900259316826e-01
-1.064025845458848457e-01 2.501763949679534638e-01 4.995994791448316041e-01
-4.904539244683012167e-01 2.483522556342462606e-01 8.171618034349238391e-01
-1.000687719676001536e-01 5.161107320983401303e-01 5.755108594593492111e-01
4.997364393776704272e-01 -8.496607839733346865e-03 -8.142195364090665244e-02
3.604257787941132496e-01 1.669605396847976750e-02 4.166073197967964242e-02
4.197744527103253742e-01 6.363572753813054872e-01 1.816089767742781469e-01
-3.412364040708597557e-01 -6.223455231534498200e-01 4.278418080225563913e-01
4.085877097230287691e-01 -4.073663059934135022e-01 -1.276482946878393643e-01
3.984617709768727978e-01 2.013747183436039867e-01 6.651482705419471675e-02
-7.768780487596230189e-02 -7.820467947053804103e-01 1.608005003324906035e-01
6.907859868300485207e-02 2.578206498687533599e-01 3.565770435947509531e-01
-2.824297754165441265e-01 -8.153623453335296922e-01 3.202259888165022716e-01
3.096981836046996950e-01 7.493048447759071973e-01 3.072571479803554717e-01
6.216711999617240414e-01 4.620686965189227391e-01 -3.881636446075530100e-02
6.585227151644645893e-01 6.105878557292238051e-01 -2.401629480732363556e-02
8.314392087992323876e-01 -8.604472134085634771e-02 -3.798455116542469034e-01
-4.209878043461529606e-01 2.300236053853581819e-01 7.540277989941961412e-01
2.171223771864577157e-01 7.750471341069513631e-01 3.917959586853498877e-01
7.037179084580358346e-01 -4.826596837496343606e-01 -3.950898075455490654e-01
-8.511687123184817627e-02 -6.473198222830180149e-02 3.858642818069291658e-01
3.566087357261808477e-01 3.677297906543274819e-01 1.519509429659088307e-01
2.419386965918558438e-02 -6.589710858802270976e-02 2.949639776836380234e-01
7.213954619505012766e-02 3.562393332979464367e-01 3.840769966427723947e-01
7.785063442886457352e-01 5.957377712932250269e-01 -1.279335853957949132e-01
1.401447561006399778e-01 -7.311745717018303115e-01 -4.110296289887125851e-03
-2.257142529619610982e-01 -2.490673614227764676e-01 4.460690304123968719e-01
5.638873227370613250e-01 6.661392631068512038e-02 -1.116374522959000387e-01
5.812757862658619601e-01 -5.943627237635292770e-01 -3.277575651924920508e-01
3.033767176510772101e-01 3.407029018642330764e-01 1.877962463679793692e-01
2.646942904174521827e-01 -4.256965344190050682e-01 -1.405191308113878761e-02
3.188940913923114795e-02 -4.336432666934205149e-01 1.763608181905653438e-01
-3.650013814934015000e-01 -7.164785853450746922e-01 4.187993894996808741e-01
-2.602970332579062490e-02 3.115279115059083059e-01 4.517479308008651162e-01
7.030725737150738119e-01 -5.156418791768426768e-01 -4.046207662633716229e-01
-3.892813452521416417e-01 -4.805127341912902028e-01 5.109231199362999076e-01
-5.989891644080307387e-01 -2.879519266288439461e-01 7.433948790116939875e-01
3.551638729393873373e-01 -8.770266061841117677e-01 -2.267269501949620292e-01
-3.429557004641011209e-01 1.021129748610307836e-01 6.503561585873781636e-01
-9.571511272968168116e-02 -9.155200421763877161e-01 1.349995951238294467e-01
-2.557311588323749607e-01 -6.968015953104927940e-01 3.342932438633712255e-01
-1.011179448113514456e-01 -2.446264830492175801e-01 3.442181614729115657e-01
-5.614039520735056854e-01 -4.939709450350851516e-01 6.493892625593145063e-01
7.150711508683222917e-01 6.044361802498876557e-01 -7.273410008700399720e-02
-2.268487482596616700e-01 -5.724263727019732739e-01 3.483260700372333152e-01
2.834407002903150397e-01 -7.904145973185927598e-01 -1.408846618659900796e-01
-1.616918427828754612e-01 -4.882702262934680015e-01 3.200377985179048701e-01
-2.100930494974991569e-01 -8.245787986082425691e-01 2.574950520664508469e-01
-3.919049151279051756e-03 3.281393342952734771e-01 4.385026144412784155e-01
-3.728960807601940930e-01 -3.070421602893649848e-01 5.502905518808832719e-01
4.546042293767771358e-01 -4.303429804162851868e-02 -5.457806327887470416e-02
1.706049362685405357e-01 3.167816972479604032e-01 2.904740523578448474e-01
5.625788070123247664e-01 -2.649885919716729946e-02 -1.389697332668825558e-01
3.876151906327129359e-01 -4.477570834027272406e-01 -1.226027056524484904e-01
2.330150695885458423e-01 -4.626410934498149663e-01 9.140127879037061084e-04
-4.272484470868730400e-01 1.768594989545915208e-01 7.429890209233258602e-01
-3.729023865750267785e-01 1.677652528425127298e-01 6.951974827013204239e-01
3.130022410373722308e-01 -9.231298379278587984e-02 4.767542164619123501e-02
-4.029858337592988060e-01 -4.372264803651849663e-01 5.354849765090877733e-01
8.235622016265301548e-01 1.372673079846929989e-01 -3.051704397904657640e-01
-3.529617609469429818e-01 -2.702636190178487885e-01 5.450025463390532066e-01
-2.129401280970720858e-02 6.682449561584423714e-01 5.566881373693298718e-01
1.462776785913802446e-01 4.838690345347655963e-01 3.616166153532761607e-01
4.435233763091161463e-01 5.530067140228956957e-01 1.365002478519919404e-01
1.388314348115401164e-01 -3.306802869802727418e-01 1.192003894753316251e-01
1.003241426061852321e-01 -4.719287922115272260e-01 1.079906978601909845e-01
-2.905112939584237330e-01 1.931232871979016164e-01 6.346897115681183754e-01
-5.280462299954798988e-01 -7.235199892385450748e-02 7.504279077384329311e-01
2.446572335316179667e-02 -5.981153627870414713e-01 1.323164489249687159e-01
-1.752253638297205096e-01 4.952921036751492534e-01 6.314114543378965827e-01
-5.365256479278993629e-01 1.015495651861181708e-01 8.105228871864446072e-01
7.043996947114557206e-02 8.238698896777556235e-02 3.019105495438227371e-01
2.454209961679231500e-01 -3.543724971181437811e-01 2.367928964943143491e-02
-1.798830105870900531e-01 -6.146710161724110444e-01 2.965309947982495142e-01
-3.575926269145441871e-01 -1.011027682160158848e-02 6.282319913233379571e-01
1.206239645712754160e-01 -6.845052208628925605e-01 2.630179818514606638e-02
-5.118256435984404051e-01 -1.157874404034808652e-01 7.237363773368451492e-01
6.278282048414440819e-01 3.248164066084358037e-01 -8.580300894728262739e-02
1.223952873782560846e-01 -4.197425058079045090e-01 1.056348435652305767e-01
3.517114364235285340e-01 -5.073485792087694124e-01 -1.110488878624614068e-01
8.356384162994069387e-01 -2.253373024173092043e-01 -4.258331211895155510e-01
6.521079179323135966e-01 -6.018768429483216664e-01 -3.887226918767482942e-01
2.672008306025139834e-01 -6.104035777762262249e-01 -7.249702913642917801e-02
5.595980204649533274e-01 -1.621228723218261780e-01 -1.778904066260692807e-01
-2.792350558765502311e-01 2.604122952517610168e-01 6.458845876093689542e-01
8.412149943146752795e-01 4.411290867754178446e-01 -2.270601493611660027e-01
8.281168213832630354e-01 1.232400588190575158e-01 -3.132239768568277904e-01
-3.850783019626640158e-01 -7.949037462622573491e-01 4.114958008780089660e-01
-1.830837280499069408e-01 -5.852064449249467781e-01 3.081742231860671311e-01
-1.681171797389997280e-01 5.339322733672141608e-01 6.373157789670244044e-01
-6.192785292168444082e-03 7.731569513984747344e-01 5.761964638760511681e-01
6.220621161812054378e-01 3.661581910500447679e-01 -6.841013408745198754e-02
7.314071151918306590e-01 -3.077070729962400608e-01 -3.646334164545368406e-01
8.657970924626805231e-02 8.292588383388549422e-01 5.164719341208795500e-01
-1.160277082396885678e-01 -7.617000263750465239e-01 1.987677956853023398e-01
3.920781635639620788e-01 3.079360995671177603e-01 1.043229216011807708e-01
2.166138759038746531e-01 -7.744115267129241670e-03 1.533249600729138795e-01
3.288248909692384481e-01 -4.860499968771817003e-01 -8.559150812351047632e-02
1.961873560105014125e-01 1.957306471729337860e-01 2.323411605723742224e-01
7.729618903650108397e-01 -1.279989074260665383e-01 -3.442109110790662063e-01
9.434201154150771707e-02 -8.652292810089562414e-01 -7.081585887779687921e-03
2.619039822821849217e-01 2.117839232799920701e-01 1.828056275137844300e-01
-1.465007494679843314e-01 -7.193549622160861912e-01 2.369322178829103287e-01
1.053339855636670208e-01 -6.487171489501586397e-01 4.988866003269582655e-02
5.318881457254245188e-02 7.690202046312124562e-01 5.257467960523561912e-01
-3.851919883265880057e-02 2.665735444570037638e-01 4.483741100920167755e-01
3.808523221796321079e-01 -6.764362421083837118e-01 -1.867891547287530984e-01
3.907792024575370560e-01 6.191340232843982327e-02 3.031768549413063271e-02
7.300448639382098870e-01 -4.879257924674575975e-01 -4.185041724690776732e-01
-4.302870617700841338e-01 1.515287210648327554e-01 7.377755331749280554e-01
3.020026508660423881e-01 -1.073548728193131872e-02 8.168246542407656130e-02
8.782286207173654047e-01 1.023397113761537053e-01 -3.611111596557509684e-01
6.837459676368092820e-01 -2.571004073210731988e-01 -3.097103947822242298e-01
1.288046808981999913e-01 7.312419754818610951e-01 4.515831863492646980e-01
4.447141055765739259e-01 -6.357117582202777284e-02 -5.265327804187874133e-02
-2.171130778600642575e-03 -2.786886466505428261e-02 3.284082032920641048e-01
6.955839641407336460e-01 4.037179206374471585e-01 -1.178475824558246760e-01
-6.133382140450337194e-02 -2.966203779900474652e-02 3.768668505769092181e-01
9.671584856332605951e-02 3.392279270995377516e-01 3.585283106195169545e-01
6.148007836821951511e-01 -3.796732352532012356e-01 -2.900082019092945496e-01
-1.346644370137693447e-01 -8.586957168410542796e-01 1.846039079710073416e-01
5.489106881147315375e-01 1.127390371872212527e-01 -8.515548404032279028e-02
9.328069998749885516e-02 1.421554677083357310e-01 3.012311619181129441e-01
1.795582831085557884e-01 3.767559201100749433e-02 1.978801884309237813e-01
-5.328407148081019118e-01 -2.897994148008012916e-01 6.880387017097977509e-01
2.134408214535580828e-01 -6.761835838188636760e-01 -4.804105274627016448e-02
-4.543574513199825637e-01 -8.174729442746049568e-02 6.865224539197147813e-01
6.287589099726318409e-01 -1.093391238408903260e-01 -2.190695021333528558e-01
-1.083104255277469730e-01 8.740211220504234824e-02 4.515043408047413886e-01
1.513321808929521117e-01 6.855497852648313462e-01 4.189787723600202907e-01
4.748069226921816655e-01 -6.031900652381224637e-01 -2.422607577346631846e-01
7.668754143405914769e-01 1.062180019130433278e-01 -2.676910286270947625e-01
5.680268084117351401e-01 2.750352957556926881e-01 -5.146026313000196667e-02
7.874687465901459849e-01 -2.031367869244866675e-01 -3.791578661049109233e-01
-1.013650364849409680e-01 -1.625581259754092789e-01 3.694684514493646876e-01
4.319007018506386131e-01 3.919111336610999197e-01 9.696444741478976725e-02
-3.940793862948402948e-01 -6.888023005299224177e-01 4.513316517789823235e-01
-3.931406929235471415e-01 -3.444424203460603184e-01 5.556458439680023176e-01
-4.101795939520959666e-01 3.128312780338987631e-01 7.703463391381136782e-01
1.596960742534929770e-02 -9.484809501092928974e-01 3.242943118659401963e-02
3.455505212861943454e-01 3.272638135862380726e-01 1.487613242035070726e-01
-4.998404361557897690e-01 -4.279350222588051422e-01 6.185475534044115875e-01
2.502398425857904618e-01 3.260080829234588418e-01 2.273262411024049301e-01
-5.257871478742658367e-01 2.122172003333128443e-01 8.354014723451361757e-01
-4.957104507605039623e-01 -2.695014629074936607e-01 6.634773339741074638e-01
-1.749318957713306699e-01 -5.154338321862931283e-01 3.227150665130480434e-01
-4.198187613679378316e-01 -7.450476232464326998e-01 4.554872534253391891e-01
-1.039400371816750906e-01 7.316288121031309100e-01 6.444893212144328087e-01
7.438307370109323857e-01 5.290475211929945853e-01 -1.195634689727724936e-01
-3.079334092048567895e-01 -2.034085588802700684e-01 5.281072979639777065e-01
-3.678698964840433627e-02 1.126844729165120268e-01 3.999754185559748487e-01
-3.996281621221493552e-01 -6.846615877248748983e-02 6.452419962295514733e-01
-1.443963422660363236e-03 6.916461041484978089e-02 3.574185450682775822e-01
3.619644116380741350e-01 -2.382220616154316073e-01 -3.740965525666824915e-02
-2.725949552658852304e-01 4.544841029284683587e-01 6.996112582409688141e-01
-1.644171490260170065e-01 -5.952127735222770832e-01 2.896585132704307952e-01
2.928457636084366156e-01 -4.631682685355018037e-01 -4.880608164508585395e-02
7.372543679800931393e-01 5.839661054002025509e-01 -9.735605206577294113e-02
1.559718168947875072e-01 -2.329942171024424469e-01 1.348144273118672964e-01
3.099376558871321241e-01 -3.142793824801843883e-01 -1.752580511444122580e-02
-1.419628679760438772e-01 6.878472452355471889e-01 6.626232948885650842e-01
4.646211808908968788e-01 -5.903140531208638242e-01 -2.298941605388477305e-01
3.903606393121076823e-01 -2.079756300574651107e-01 -5.170033275718257521e-02
4.227885701233978777e-01 -2.409290767505264594e-02 -2.244385033552960887e-02
-8.136774310889481610e-02 -2.618056845800246224e-01 3.226158436016262621e-01
4.807184012463426859e-01 8.060081723019086875e-01 1.829016839804770977e-01
-2.202737791443839799e-01 -3.508011091147851812e-01 4.105154532470448592e-01
-2.966737697904229254e-01 -1.907496900283490171e-01 5.226438993619048068e-01
3.524126585223392172e-01 -3.831133285725117910e-01 -7.371561821366401368e-02
5.464221975060596509e-02 -3.423042750346532576e-02 2.794069092383157926e-01
-4.181579354708611640e-01 -1.281896029767373019e-02 6.775730655592724361e-01
-2.184640338787926794e-01 -1.672248677962511268e-02 5.109704982176175303e-01
4.313488594906270124e-01 1.499842961770249394e-01 2.359032909520563867e-02
1.228775195320540164e-01 7.509155666740727764e-01 4.624967832688495206e-01
-6.225275982710080924e-02 -5.958496885327450032e-01 2.048389046426458693e-01
2.046951688406475345e-01 7.257236107236298972e-01 3.870371650569287558e-01
-3.523526580904062788e-01 -6.181720152085491415e-01 4.383233411187033024e-01
2.218820009418803474e-01 2.096435243563390394e-01 2.153035959308340075e-01
4.706401350008530549e-01 6.791518642801550598e-01 1.525357526398300190e-01
3.890095763323192513e-01 8.439365351797768477e-01 2.704412983763182510e-01
2.253280774125468889e-03 7.978584653857060394e-01 5.767387901047036358e-01
4.359935160358668904e-01 -1.881343773278675302e-01 -8.344399568346048957e-02
5.813586631404197291e-01 -1.569540510897750318e-01 -1.943378526849373900e-01
7.519180733902433023e-01 3.495752745902286907e-01 -1.810337384487274992e-01
-5.596000345299386725e-01 -1.119090239461670716e-01 7.644926759889976164e-01
4.460634073491195895e-01 -1.561832511568548298e-01 -8.203428682766514268e-02
-6.397878582967102268e-02 5.029251786495568810e-01 5.415926842444973577e-01
8.557922059132992976e-01 1.012974622671468372e-01 -3.428446080785265138e-01
-4.670538380918798360e-01 -1.900319802442113071e-01 6.639928620734633080e-01
-2.073611477862064012e-01 6.644355053555777157e-01 7.096494781890780867e-01
-4.614235449997935445e-01 1.681545677639938452e-01 7.686405106637544948e-01
3.096652122665105034e-01 3.376367737850747286e-01 1.816516133133931066e-01
3.627639086920912970e-01 8.700907818631723467e-01 3.001629717338970549e-01
7.099992290529161254e-01 -3.488561336471086571e-01 -3.594586152109311428e-01
9.423704436637876658e-03 6.853209278634549984e-01 5.364551534821889733e-01
-1.773670468959739621e-01 -3.575089226974361711e-01 3.729276787279490746e-01
3.073355515426357543e-01 4.561405680210742219e-02 9.446184642578896173e-02
4.345025597930614047e-01 -8.261845061401120738e-01 -2.769291136380498397e-01
-5.837602497593351591e-01 -2.322028034776225658e-01 7.477939158192008495e-01
6.700352310916937171e-01 2.514612462425994677e-01 -1.431506347176768057e-01
1.740243318208032630e-01 -6.482043267040447088e-01 -6.852712318807257022e-03
-1.142706625293613415e-01 5.835804861689917189e-01 6.078650458343212160e-01
2.000429394897047797e-01 -4.104164404390000520e-01 4.416354328502722359e-02
5.412370957246589454e-01 -6.000343211819764155e-01 -2.963234071571289596e-01
-2.752838351877169298e-01 -1.871338746460342872e-01 5.060295735033297770e-01
5.588584903518003522e-01 7.806346748435132321e-01 1.104328750147793164e-01
3.272729142965538629e-01 3.441207784244472156e-01 1.690455160709971039e-01
4.177530038379594357e-01 -1.174265806171021220e-01 -4.675633558816048863e-02
-1.586832250785385201e-01 6.590549989881704374e-01 6.676863545709340597e-01
2.975056110814654903e-02 -4.511624534916477969e-01 1.727859730192291277e-01
4.649172702506184501e-02 -8.809527109597913297e-01 2.775548654504339172e-02
7.812575050718665315e-01 1.675280916354221772e-01 -2.608934515258619635e-01
4.865809854439825388e-01 -6.946403028003257651e-02 -8.913100848633259687e-02
4.716598530716710758e-01 -7.908007923607819345e-01 -2.969089981238733911e-01
6.770923129460356682e-01 5.593576070482136897e-01 -5.503238711474750522e-02
5.941885101562136562e-01 2.334370886615703133e-01 -8.582557273235034978e-02
-3.990205290483196388e-01 -6.229991024871055494e-01 4.755063372241969955e-01
1.343324859317649167e-01 -7.084806564595426126e-01 7.629875845931722612e-03
-2.897379602905187368e-01 9.272532527853247220e-02 6.034096945361272502e-01
-5.305506037293447053e-01 -5.753560499350020008e-01 5.989955846886718671e-01
5.102593569810620622e-02 5.413263877160225945e-01 4.580507709029559837e-01
-3.516788756927309856e-01 2.323348677906228454e-01 6.973228877769843681e-01
4.585393884482980575e-01 -3.329393197421757211e-01 -1.463108537864621084e-01
5.527046217765182456e-01 -1.602080324821923973e-01 -1.715960669945917616e-01
-5.234259215025018064e-02 2.076555239180225346e-02 3.848086878678464440e-01
-4.553900354355726321e-02 4.766673553197280089e-02 3.873828128529163695e-01
3.913421781071491079e-01 8.345632187076085229e-01 2.656485995503168329e-01
-2.288253990989661535e-01 -6.658046627625729963e-01 3.214661948749289455e-01
3.701943129778520469e-01 -6.886212512433826927e-01 -1.816794884955867939e-01
7.978870437042913100e-01 -7.615194775390322912e-02 -3.490343654272015650e-01
-1.526869235781342926e-01 5.058108555691239600e-02 4.770254281511385752e-01
-3.674293334500497443e-01 -6.720177667523119514e-01 4.343790716972941168e-01
5.453109674964661258e-01 5.230467645443164226e-01 4.304394763264693391e-02
4.683720713760382570e-01 4.658998167576656746e-01 8.933419317569568641e-02
7.462909464567651918e-02 -3.321478163407060036e-01 1.719328803371739656e-01
4.657686232104281676e-01 7.226968578055816828e-01 1.698600030996441357e-01
-7.342710186101468472e-02 -8.294636755672888384e-01 1.428005751326502648e-01
1.401601709844056132e-01 6.816849944104300674e-01 4.270533616980956571e-01
1.608224737102580404e-01 -7.409309529347088974e-01 -2.421560201872711635e-02
3.119549180082242246e-01 -3.555862714864083812e-02 6.586323696206662637e-02
-3.054606673529609850e-02 -3.950843100222442561e-01 2.398450540435687617e-01
4.051095482935113123e-01 -3.015957652687942248e-01 -9.248820000381323403e-02
-3.774997185548295553e-02 -4.833545221887640131e-01 2.188739230590991403e-01
7.712020233598148033e-01 2.058322615647460718e-01 -2.408745877175195449e-01
-2.712338600253509924e-01 -7.372173413254758112e-02 5.372859936640210776e-01
4.835544267042975464e-01 -3.304952723276649018e-01 -1.662855407943912012e-01
-6.337242105532533976e-02 3.734573344627387659e-01 5.015794260653209102e-01
-5.172698682813559046e-01 -6.208765860048752749e-01 5.741028748585900177e-01
4.862163049745835686e-01 -1.086206512336081870e-01 -1.007787508659195863e-01
1.436266612413791277e-01 -6.363726937697535835e-01 2.193719081275261398e-02
2.797677461657874232e-01 -2.674519594756091245e-01 2.175545201844033064e-02
4.239846896992632286e-01 -4.212671489531145119e-01 -1.446442443597847627e-01
6.533400790521571855e-01 -1.037675824602610070e-01 -2.377303563222218363e-01
1.244534219944206169e-02 -5.838827626218419109e-01 1.466167257631518228e-01
-3.340524285125700543e-01 -6.682945301615088596e-01 4.078684311457667078e-01
5.808083108942455608e-01 1.613401268674119760e-01 -9.674497796562181451e-02
4.468900387626706383e-01 -1.926356502161429788e-03 -3.564289261369554818e-02
-2.861111475731735812e-02 -7.257284340826859470e-01 1.373363258095671169e-01
-3.194384508861567440e-01 -7.324857696320403733e-01 3.761734400427600433e-01
-9.348981524605705362e-02 5.214386041519208925e-01 5.716873102445294563e-01
6.595638472203884106e-01 -1.975399012704327217e-01 -2.715030865948180883e-01
2.369259769033152385e-01 5.698998676439457345e-01 3.127853233249609510e-01
-3.794571350270462551e-01 -7.966991554145602672e-02 6.251146845018661358e-01
-2.847222397184405729e-01 2.589435677952116599e-01 6.499815285334831216e-01
1.697387508278034307e-01 -1.568810990725967580e-02 1.897284121126200651e-01
2.744006923560096678e-01 -5.579464083555135678e-01 -6.245197190231897150e-02
4.412981054978515338e-01 5.652755190131862895e-01 1.420876869159833911e-01
3.091817512934637024e-01 -6.191831799400122627e-01 -1.099501999043523831e-01
7.619687707720345093e-01 1.666900869836283050e-01 -2.451718685373125428e-01
6.525062519623156532e-02 -1.900128418963241694e-01 2.230780393269830575e-01
5.602916217199653826e-01 2.346473286672932368e-01 -5.737861907777772053e-02
-3.893704926029912250e-01 3.645619171320350071e-01 7.688968115125590641e-01
4.559328320050427541e-01 -2.293168061697550275e-01 -1.125282654380377750e-01
7.202469978875866707e-02 2.369192734857929195e-02 2.826853225034958172e-01
1.000151931786203707e-01 -7.128743519225828607e-01 3.471485176104261577e-02
-1.391362494033963892e-01 2.551147404594857337e-01 5.282206496554746611e-01
-2.221286581914800051e-01 -6.624425329312779720e-01 3.169451770360389720e-01
3.688943256686705308e-01 3.133566962404511769e-02 3.911374707611608992e-02
7.269589392386957005e-01 2.661069256177579501e-01 -1.858323513078719846e-01
5.137617084655831112e-01 3.492977985185365397e-01 1.615225948435019404e-02
-9.908478542664460320e-02 -2.548584755471436925e-01 3.394114473065795168e-01
2.293081617568101804e-01 -3.466862304381178594e-01 3.937163472305426487e-02
5.431184218176544620e-01 1.292672941903182937e-01 -7.531351693299895289e-02
-2.967597353235940649e-01 1.447365085333167933e-01 6.250987715014744150e-01
3.737553615422136155e-01 7.806941777300550056e-01 2.637764333410847484e-01
-8.987461611436869946e-02 -3.037289037442907347e-01 3.168681659267884587e-01
-8.075510979345713880e-02 7.171875875125531541e-02 4.238933610321627965e-01
3.164515846830181500e-01 -8.931170801220668087e-01 -1.995711155819669402e-01
4.764848518673190508e-02 3.076683304100485405e-01 3.895406381743395929e-01
-2.264523985154170971e-01 2.317962357543675855e-01 5.934303877989580700e-01
8.870411515709258898e-01 2.621328540250272288e-01 -3.196451271829407470e-01
4.507032320195076824e-01 7.878744207993403359e-01 2.022299171516368788e-01
7.137129848475268767e-01 3.119041488059351996e-01 -1.608840121046866967e-01
1.971960010309523059e-02 7.345064287061142672e-01 5.429372432458718922e-01
7.453167096322930174e-01 -4.648993301597357797e-01 -4.241269968270412472e-01
4.527656828197364480e-01 -2.162300560239173441e-01 -1.059110252625683340e-01
1.428611512793405147e-01 -7.407634954415314166e-01 -9.286699493655870344e-03
-5.862061135576698279e-01 -3.513149314689307245e-01 7.134692494591744483e-01
-5.308355585258888176e-01 -2.865952006451871203e-01 6.873556442057965343e-01
-3.872409405843766916e-01 2.362025707152773379e-01 7.279601517986817871e-01
7.433940105896121864e-01 -9.202533871957936651e-02 -3.087407087389489324e-01
8.094655302874721736e-02 -6.153454260286117528e-01 8.027374141475569769e-02
-1.809504579329787310e-01 -7.889412387771497226e-01 2.442314076140829904e-01
-3.199840905233884009e-02 -5.951317484209907027e-01 1.799975949780640849e-01
-7.968905000259099425e-02 6.377769228464647000e-01 5.957599260509974792e-01
-4.117819873773691519e-01 -3.087953202788093487e-01 5.819656596857436526e-01
-3.929166639113627069e-01 -8.173285267744659910e-01 4.111449120602544971e-01
8.078898831409303538e-01 3.380959506922563973e-01 -2.308998020365113923e-01
-1.547775817151133826e-01 -7.812105970391504117e-01 2.249110180608027143e-01
3.604485383241465835e-01 -6.024803175802783128e-01 -1.473183408711030429e-01
7.002240729714201972e-01 -3.554675376963389866e-01 -3.533792849938687253e-01
2.048000289927383033e-01 -1.054870944039202757e-01 1.332814567390316618e-01
3.385632074683554982e-01 2.998084229247883203e-01 1.461702502257165304e-01
-2.579574970856361726e-02 -5.654586146911581845e-02 3.392254018807744353e-01
6.697014761480907241e-01 7.279488754217925406e-01 2.540298403984207060e-03
7.566814009182045719e-01 -2.065938857948824703e-01 -3.547110002354801339e-01
4.337687702917826238e-01 -1.243411777554646047e-01 -6.213277884448017291e-02
-7.708472970109978527e-03 2.995637333068297270e-01 4.329207850770602217e-01
6.395263264307619877e-02 -5.014230090360769498e-01 1.291170554654232083e-01
1.872768999994880723e-01 3.103453098627380613e-01 2.747000050570213570e-01
-6.744575393926040274e-02 2.785436145942301045e-01 4.759877009512706869e-01
1.740915726755947260e-02 3.765308373583012291e-01 4.356040621261761947e-01
3.156248783918984002e-01 -6.143091732136925220e-02 5.492761550823360012e-02
2.133745231938924403e-01 -9.164090578364587902e-02 1.304045750707311380e-01
2.767512163625902022e-01 7.078467945614216328e-01 3.218957518093098491e-01
2.364463805369232396e-01 -1.806962779056853763e-01 8.411568258309835844e-02
2.843601176532851299e-02 -2.813574888311530797e-01 2.256959184383239003e-01
1.840631938095367848e-01 5.012588570617606543e-01 3.356249844174881147e-01
5.536041876700391606e-01 4.595958773215539361e-01 1.681053349664740279e-02
7.572792837057936710e-01 -2.933584519898080889e-01 -3.816850478911488764e-01
-7.021990324903548686e-02 -7.424460029634617486e-01 1.667000248239945415e-01
1.350716789798249162e-01 6.451661209273340525e-01 4.201234543508237662e-01
4.742528852676017315e-01 6.990849361828987973e-01 1.556263982963997927e-01
-2.088987531089493144e-01 -2.483151182479797214e-01 4.323699146595328391e-01
2.696818314559479846e-01 -9.266789169903934253e-02 8.345045404241659137e-02
4.684066987626352846e-03 1.705082367108018068e-02 3.364384658649584581e-01
1.987303375689703777e-01 -2.855691173483081990e-01 8.335170433105509868e-02
-3.270491438222816738e-01 -2.847779822547418793e-01 5.191090059498691955e-01
3.702967151474376162e-03 6.661586870585850528e-01 5.353458466691425333e-01
-2.388713386075856648e-01 -4.799407304734567559e-01 3.865094370864771145e-01
7.588224594276361534e-01 -3.436218155573156907e-01 -3.983026689766433481e-01
-2.226023793259270245e-01 6.348315574660052807e-01 7.132396273126899722e-01
6.294024093914017959e-01 -2.898363406991066871e-01 -2.746866617704946112e-01
-5.800289494925607858e-01 -2.596301094381852081e-01 7.363329253997519253e-01
5.314819215485528936e-01 7.060050731294987246e-03 -1.029699239988179776e-01
2.836984865575337134e-01 9.346805622617150588e-02 1.286450807852234368e-01
1.276307747697928707e-01 7.635619816178143004e-01 4.624189793865635112e-01
-4.456938316562188418e-01 -5.967169858103387181e-01 5.221877381295162435e-01
6.194507214015050334e-01 -1.625667533309562152e-01 -2.276033102374869777e-01
-2.042095729140364913e-01 4.000324027337996413e-01 6.263484240846010076e-01
3.842472059068962054e-01 -5.972016737695472477e-01 -1.654204166102788975e-01
-6.669049424097868439e-02 -4.102257439908107983e-02 3.778369041549653473e-01
5.439470291222433529e-01 -3.691068207122065181e-01 -2.280936650832033896e-01
8.093524917883271330e-01 -3.065622679511265658e-01 -4.288480858297153420e-01
2.954622192137126291e-01 4.285271390653671020e-01 2.211542141110587056e-01
-1.442859521649467180e-01 -2.894142227552772839e-01 3.663069455658211626e-01
7.344498169541932020e-01 4.382408657026526377e-01 -1.395053974965541621e-01
4.783347742459410634e-01 -5.230228764551793086e-01 -2.207175430131184946e-01
2.281838627996764235e-01 6.625778737080588732e-01 3.483100981340812030e-01
5.145225294698523300e-01 8.267388697704842748e-01 1.612275002846517702e-01
-2.481907822127173979e-01 -2.385124903203595659e-01 4.679080184436522072e-01
2.335343118197181211e-01 1.738525429087210417e-01 1.947290146586260207e-01
2.968396660093247652e-01 4.859028366116100450e-01 2.375231547178311420e-01
4.552052997237331367e-01 -7.663535875510915640e-02 -6.533031476680517535e-02
-2.595230497525813362e-01 -5.625555086101772240e-01 3.784033742683378665e-01
4.554142105338479518e-01 -4.557938587841221523e-01 -1.812149366879267365e-01
1.513812030162797750e-01 -7.275071959496527407e-01 -1.229850749275827014e-02
5.122618967206329366e-01 -5.035678820619434726e-01 -2.428829248365086679e-01
2.456389582477922495e-01 -1.947509256613180750e-01 7.221205125050884910e-02
-3.921208263133354466e-01 -5.744393386746157737e-02 6.423872505372534292e-01
3.524725253891625165e-01 -1.816450811886264616e-01 -1.228113561886758770e-02
-9.519802234400064067e-02 -2.464145594629462421e-01 3.387688614010526678e-01
2.185173877414842425e-01 9.722817941078262804e-02 1.837836759101356410e-01
2.604048910905436554e-01 3.282865772123152448e-01 2.196016363303515129e-01
8.346220809941281571e-01 5.791422163392712097e-02 -3.385485771633328644e-01
8.117703736629899858e-01 -2.609135173628917004e-01 -4.169197919759026205e-01
7.200781912154254893e-01 1.534767698050646112e-01 -2.145053277714182582e-01
2.942428952113642637e-01 1.860931968999731678e-01 1.481782287956138200e-01
2.827656228915120806e-01 6.733815785198832282e-01 3.063957801244122647e-01
3.247140957191914645e-01 1.508296265462905350e-01 1.121764613107262692e-01
4.078914266256590815e-01 -9.415924803260464215e-02 -3.148702899371580433e-02
-4.287494983090579109e-02 6.174182840542928874e-01 5.590528677642589983e-01
-6.620568651841440833e-01 3.090963595927986862e-01 6.543191084920545464e-01
-4.620223703847572416e-01 -8.518210601880473742e-01 -1.080306133377683091e-03
4.432911570646332761e-02 -8.034182503889486515e-01 -5.483838371559511815e-01
2.085061300210035995e-01 -7.324132485732627318e-01 -5.876596189168267204e-01
-1.767401254434708413e-01 -9.606472041359170877e-01 1.672312099451053191e-01
-7.157547902529400874e-01 -6.593048126061785696e-01 1.584925226647830310e-01
-8.026714766761062769e-01 -7.681160465882528980e-03 5.660426288127817784e-01
-5.084438407160793982e-01 -7.649506679642755769e-01 3.265322630615342114e-01
8.702613954685859410e-01 3.183463639866263017e-02 -4.328510366007518040e-01
-5.822619189204306656e-01 -6.010525304395725188e-01 5.249756029381308364e-01
-3.148532309989605649e-01 6.377298465093141910e-01 6.971362248924589666e-01
5.968327105719311021e-01 2.215253330667130982e-01 -7.451720382901406703e-01
-1.366814666767466602e-01 -9.345006819901048312e-01 -1.643403259779741277e-01
-1.344505216522557944e-01 -9.536905808613564961e-01 -5.180326575665099992e-02
2.355301987025472943e-01 8.994512995555019597e-01 3.411237260562118845e-01
5.488106942173777147e-01 -5.558589900109532911e-01 -5.420746513641047093e-01
-8.158676721511652907e-01 -4.105432275326451746e-02 5.470657678197884399e-01
-4.887696074556147074e-01 3.779980394530101928e-01 7.875006829988006052e-01
-4.456607525958004024e-01 -8.194355218777584771e-01 2.870624871544008028e-01
-4.799783594457928682e-01 3.780254647201800600e-01 7.959259758071277613e-01
1.834427435640157422e-01 -6.770684743449421061e-01 -6.872629085972388197e-01
-7.814595172077808405e-01 -1.695958258045630884e-01 5.641800435102176658e-01
-9.249774449791393904e-02 -9.476005171374590752e-01 -1.273362181425192474e-01
-5.123367477284106464e-01 3.162383638963217058e-01 8.024929071383813950e-01
-8.018605564453473722e-01 -2.842832544807998296e-01 4.854016936337032240e-01
7.238259449073143337e-01 -4.002015124259152290e-01 -4.941760703624508144e-01
7.181447529952214026e-01 6.606482858723629059e-01 -1.105530473990631590e-01
-1.976904220369552975e-02 9.370296745504397284e-01 2.628800687077204046e-01
7.874609983332522267e-01 -6.143522967078460240e-02 -5.358550783634351555e-01
-7.926561915055339025e-01 -5.565530665826913248e-01 2.189207725471734867e-01
7.472891305253128724e-01 3.312329100754152766e-01 -4.892267824049275071e-01
4.193741840651379893e-01 -7.980923275820576146e-01 -3.517375222444043548e-01
-2.634610602446054717e-01 -9.273340070084206133e-01 1.982362354292278861e-02
6.196810577482042559e-01 4.040536019263316625e-01 -6.258651665691444821e-01
-4.521490967684855811e-01 4.273511680523823242e-01 7.868453312024623614e-01
-6.159709550764486119e-01 5.665926811981544242e-01 5.241936160370818110e-01
-7.237533312923092321e-01 4.595633303768821287e-01 5.071406569902771055e-01
6.815977317026712390e-01 -6.367777794105217160e-03 -6.645990375584985843e-01
-1.403761378909015312e-01 8.106309922040153548e-01 5.432843315126658634e-01
7.306451706799617085e-01 1.364079250906771179e-01 -5.924612087795411153e-01
-5.495584019900846551e-01 -5.895169878336661284e-01 5.974108431393783114e-01
-4.268451061503367727e-01 -7.905432717869090853e-01 4.388242034990595397e-01
-6.598443115554116778e-01 -5.487912697865670042e-01 4.643912049614880577e-01
-5.854163310437836554e-01 5.782861806972712237e-01 5.403263529085492456e-01
6.919040718058104833e-01 -2.799189393897725253e-01 -5.873780446804521826e-01
-2.945382039080616243e-01 -9.085799751882355224e-01 -1.270274908637750721e-01
-4.064591047284800140e-01 -8.743590469774638052e-01 2.918037526701551879e-02
4.613691781696380168e-01 8.192487598056366060e-01 -2.100205390403531436e-01
8.804458806613386646e-01 9.053576542618628487e-02 -4.095382276473642502e-01
-9.178904621559607069e-01 2.457735940074718198e-02 4.263618965823877671e-01
9.163821702231277067e-02 9.379861639469347923e-01 2.362813674697357147e-01
2.967761583493511157e-01 9.060768467729966025e-01 2.257244093791156980e-01
5.378122521119375055e-01 -6.698562462211581359e-01 -4.352272434194272011e-01
-8.502756411413434634e-01 2.649290406268140288e-02 5.091691155230793076e-01
-1.989725330900500300e-01 -9.289562374447584148e-01 -1.363441089685104579e-01
-3.609162910582573436e-01 -8.914587452547571012e-01 -9.710476091702566204e-02
5.898917739033404661e-01 7.915332316103089738e-01 5.078953913247358232e-02
6.232421150317933867e-01 5.650152102983684310e-01 -4.616085879836565042e-01
5.340415667101527930e-01 -5.713939066319478899e-01 -5.403640554463056134e-01
4.897124161892755789e-01 -4.756681706967040291e-01 -6.640202118950387922e-01
-6.438772779031841642e-01 -6.204899368485087274e-01 3.827396581350051563e-01
-7.855183326727001036e-01 -5.474010087464686869e-01 2.469873485751452880e-01
8.024575444348305275e-01 -9.956188390449606518e-02 -5.146676816027863088e-01
1.371647069687932652e-01 -8.111568982536614403e-01 -4.898213412227712116e-01
-4.124638669825357318e-01 -8.689819488808087078e-01 7.444750688013021533e-02
-3.690112844385569080e-01 8.214690310472754220e-01 3.985644896208896393e-01
4.874329234518311460e-01 6.682485663117377905e-01 -5.464891416490064158e-01
7.451185333496878060e-01 8.836522592825316047e-02 -5.825554297657326019e-01
-4.519275770053173269e-01 4.974836382934096357e-01 7.298511474261657472e-01
-5.844851648541955491e-01 9.636602257937185168e-02 8.128075811407980966e-01
-6.133228564621959755e-01 -6.304325861710797785e-01 4.219445503250883189e-01
8.866839330909065398e-01 2.498214634973086601e-01 -3.390408988348520003e-01
-5.771354714365437566e-01 -7.318472228801015111e-01 2.673126141888567675e-01
-6.249581415051937983e-01 -7.683421534312772083e-01 -3.044782763063629428e-03
-2.080330314201355446e-01 9.050163003382062366e-01 3.149397753335777539e-01
4.713153337692543299e-01 -6.134642655915382159e-01 -5.504693199615633414e-01
6.755890119423152429e-01 6.347895475207222526e-01 -2.542998904619181433e-01
4.196775357234577841e-01 -6.248793820977220914e-01 -5.794812506295383692e-01
-7.931235097308075854e-01 -5.207592169767020218e-01 2.742122374033326149e-01
5.553533639857546333e-01 6.691333810212952704e-01 -4.186572530622258426e-01
-7.880917298865768306e-01 -1.845307115608143256e-01 5.503836974938673965e-01
-1.866821839853747000e-01 -9.564523108439625387e-01 1.352241533229208426e-01
1.905462665774825259e-01 -9.228922863288580025e-01 -2.219930582142622955e-01
6.471107486134097808e-01 7.193182654148201349e-01 -1.044967956115695068e-01
5.391459616682945377e-01 -5.254832946527649984e-01 -5.776545825337413564e-01
-4.384186232726008381e-01 -8.632763690370092169e-01 -2.572703460988591886e-02
-2.118842034841995625e-01 7.012091592849957200e-01 6.854653100334066052e-01
-4.669159428634295783e-01 4.303895803224463412e-01 7.708416308583152521e-01
7.812812810129723395e-01 3.750603147379469315e-01 -4.077308058218819808e-01
-4.991980895587738165e-01 7.199212624556330375e-01 4.569020548801022152e-01
-2.781537314796315163e-01 6.704322848620076769e-01 6.825215059721067012e-01
3.236537355557202456e-01 8.767219436244302333e-01 -3.442220741921390714e-01
8.086074715896830467e-01 2.860169236345352917e-01 -4.290346887690729694e-01
3.909940294523467363e-01 -6.617774764360022655e-01 -5.584630775623065091e-01
2.550824786126787078e-02 -9.538251965440358582e-01 -1.447569083008937441e-01
2.561730054570243165e-01 8.989392638462981866e-01 3.281239056173723134e-01
4.221758921192064196e-01 -6.834629554810660590e-01 -5.082475341419440129e-01
4.360638665193795060e-01 8.135757915576478094e-01 -3.021881384895890310e-01
-4.925645957059691105e-01 4.840706288414925451e-01 7.048738480740931456e-01
-1.110224063016854862e-01 -9.584659640376693712e-01 -4.940080460479204238e-02
3.176100931024446461e-01 -6.013704201212525247e-01 -6.866575891988898617e-01
-6.262319897600643337e-01 -6.662854156047894882e-01 3.272921708615912362e-01
3.269222128838326080e-01 8.831076436364676541e-01 -2.994157210785147738e-01
7.835333263368667867e-01 4.054078959193166964e-01 -3.785288707300053512e-01
5.811441515699362625e-01 6.817897118097918652e-01 -3.433883729633056547e-01
1.426270008952746915e-01 -8.446309377593160805e-01 -4.192130698612171469e-01
-1.452161921229121709e-02 -9.000580956716636161e-01 -3.241397925790369672e-01
-5.155371904277498141e-01 -7.357825540838848211e-01 3.932899145763615323e-01
-6.522800497727246349e-02 9.197843633333443458e-01 3.138776942843022888e-01
7.283221934438960377e-01 -2.928549343823697582e-01 -5.436181464442259026e-01
2.601154583266824805e-01 9.271381106298094421e-01 1.021822222401773533e-01
7.779860445626329835e-01 3.089092447669393171e-01 -4.590649587725962877e-01
7.314439087919807347e-01 6.309952653531479827e-01 -1.521490304205138089e-01
-5.713150057333459264e-01 1.082046756408415189e-01 8.247709384806580779e-01
-3.274149600606860444e-01 9.181137647200576790e-01 2.392479728660591998e-01
7.804186617734919507e-01 -1.136499344123087646e-01 -5.382857041961247591e-01
5.526803395805192087e-01 -1.762807963560645286e-01 -7.759893566610396309e-01
-6.293880799559525840e-01 -4.818094753066777813e-01 5.907645045614762225e-01
2.792830754190064879e-01 -5.794487411870504756e-01 -7.418567130653100916e-01
1.891761029700286534e-01 -8.906021627650593242e-01 -2.997062182073476078e-01
-6.895755132081506922e-01 -1.680023325596649575e-01 6.851298767122687705e-01
-6.120109118756356104e-01 6.496482558054449408e-01 4.481035138578358668e-01
-3.644989092181656898e-01 7.099498897105434025e-01 5.679793631500590356e-01
2.184766948275026766e-01 9.414344084191177409e-01 6.489013590551970245e-02
-7.056573667558664331e-01 6.152087553325869679e-02 6.798379898793901477e-01
-3.959670038961474181e-01 5.489759160614245959e-01 7.302519174863175699e-01
-1.951987813817249173e-01 -9.543201815994490911e-01 1.797231308322171650e-01
-8.096392523583955114e-01 -4.481290133455103630e-01 3.389152312861164473e-01
1.362220355556095774e-01 9.676990464468515629e-01 8.989174188420063355e-03
-3.287391710130530553e-01 8.544173431563403254e-01 3.640712725031952091e-01
-7.973080996074074500e-01 1.266534520048207511e-02 5.732192726186532417e-01
7.312767041600062856e-02 -9.572860420268288761e-01 -1.376686304554234630e-01
-6.305304676187620250e-02 -8.261980874307343070e-01 -5.362968237388390236e-01
-8.922086306816382484e-01 -3.604280273957406466e-01 2.965025641337687978e-01
-5.551123710032320746e-01 -8.049029919768524444e-01 1.238519899361050815e-02
8.330647347086549415e-01 4.235516479674666379e-01 -2.835793133789853426e-01
7.419505098716154545e-02 8.979654637105681791e-01 3.911319848757427997e-01
4.000822606727068576e-01 8.338854098536728765e-01 -3.180634748004921852e-01
-1.534556976973830422e-01 8.447761958337027810e-01 4.686915122615834539e-01
-1.530160602091406863e-01 7.681750657219355016e-01 6.146359090206219289e-01
-5.100981356988362192e-01 3.519759654188425735e-01 7.835337880590486082e-01
-7.852254366850863754e-01 -6.004880235089596896e-01 1.506460592212273963e-01
-6.640091398145924195e-01 -5.582989592503048160e-01 4.443380979096011596e-01
-9.223378092365330794e-01 -8.248702244335083533e-02 4.040656410480896188e-01
8.644810189746320317e-01 6.097769138658276113e-03 -4.426250534541662507e-01
-6.671265094893686909e-01 -2.209448810543112318e-01 6.992094744221489799e-01
-4.209034885427143102e-01 -8.706198536434466284e-01 -3.331618990209345849e-02
2.481718445929851358e-01 -6.670354019750514007e-01 -6.564281832444875953e-01
-1.533485093523223874e-01 -9.497970527178969391e-01 -5.246474566759824765e-02
7.210399498166201182e-01 -9.913776980536923022e-02 -6.088227833353799801e-01
4.084060699858594878e-01 8.638389010745316510e-01 -1.295706708225136672e-01
-8.329008383564027174e-01 1.773369552471507071e-01 5.151925756521359423e-01
-3.942542165607412774e-01 8.813120710886575004e-01 2.799212523811812625e-01
-3.602127830894429339e-01 5.834961884286573586e-01 7.239919427076179081e-01
2.166720914537289822e-01 -8.276491541731866297e-01 -4.185438921657094746e-01
-8.431473580708059856e-01 -3.354345955898153653e-01 3.912825812803606418e-01
7.331972086789626530e-01 6.168931319787909207e-01 -1.781112848926098557e-01
2.708544380221403203e-01 -8.651469479090559966e-01 -3.190972070407013805e-01
7.121818502670236306e-01 -4.580193145410692557e-01 -4.694742782195328035e-01
2.506670929790187907e-01 9.204941311632709455e-01 1.919082808252002004e-01
3.493909835583199897e-01 8.895694040024842986e-01 -1.673713227009901161e-01
5.846605138644743738e-01 3.166735824868666116e-01 -7.264466759893701830e-01
7.120081535552682528e-01 3.495733190464198059e-01 -5.283613287587929364e-01
2.709484972266092417e-01 8.947749592278886333e-01 3.387444870119034612e-01
-7.437528491182703316e-01 2.444917023826690960e-01 5.948978252651014875e-01
8.302686818977719208e-01 4.699266222223391076e-01 -2.357356169660431433e-01
5.251775040055046695e-01 -5.756082886884006378e-01 -5.439158271496326025e-01
6.819095640610575160e-01 -1.601116843467751405e-01 -6.398766461051148546e-01
5.950047109676939172e-01 -3.014337763263131853e-01 -6.775855898596961913e-01
-5.808425142591913115e-01 6.121379989845572300e-01 5.119560195449170958e-01
6.627349729113422017e-01 -3.222160453357998944e-01 -5.979234775910099442e-01
-7.029656397451149452e-01 -2.297238270203624255e-01 6.481181628334229394e-01
5.868299107266293779e-01 2.153526224473244211e-01 -7.599134462477951102e-01
2.576071150812263566e-01 -6.015959798297618732e-01 -7.328511737334102438e-01
-6.017607669110975888e-01 -7.065701061106840486e-01 2.825629051916869194e-01
-2.273613414045381753e-01 -9.398826053249699219e-01 4.694161197199649832e-02
-1.841481553546400751e-01 8.367498282485134053e-01 4.708650636101099907e-01
-3.595316717463625245e-01 6.890625762152974287e-01 5.991976614541201229e-01
-5.986095737562515673e-01 -5.913290627973468716e-01 5.106255370513990144e-01
-6.094283373053850372e-01 -1.500537273095594315e-01 7.917388662136486399e-01
6.482475184211138330e-01 -4.604607421906301012e-01 -5.287749313254991312e-01
-5.436217058873105135e-01 3.181165831979559933e-01 7.701243827658228458e-01
7.695832670226691041e-01 4.489717252015373861e-01 -3.581086664158742994e-01
1.050516099421692634e-01 -8.670130157406461535e-01 -3.841786642726169876e-01
6.899814403360066128e-01 6.361144464045228597e-01 -2.235857065752699935e-01
-6.740999325075097692e-01 -2.776422489522703194e-02 7.220135397552686074e-01
