-3.489727498363726643e-01 -3.730009455148739494e-01 -9.893763322465069787e-02
-6.433015797532247448e-02 -3.313060232084953372e-01 6.014599782483717183e-01
4.350729891179156983e-01 -4.727381595144278248e-01 -7.383352189064973370e-02
5.296151756010083478e-01 -7.995145963859210392e-01 2.010205241365944639e-01
-1.139920160548077988e-01 1.425006563472630550e-01 4.063496132970737529e-01
4.964182243399659633e-01 -6.665968110434982163e-01 8.772876923209442512e-02
4.138457621858769309e-01 5.498698097946330687e-01 -2.419427582027219026e-01
9.134962669228890997e-02 -4.545369010021931833e-01 -3.039163488913754763e-01
3.825514161047095518e-01 -2.307942844729600207e-01 -2.137827367826394265e-01
4.369973329619681879e-01 1.663253752551877296e-01 -1.823365274113685486e-01
-3.085252796626410943e-01 5.515426402023834163e-01 -6.357612239653818165e-01
1.380522312912385308e-01 4.649225619935119791e-02 4.513709538691789702e-01
-3.323795360196222237e-01 1.175004435083933235e-01 2.650289441778078126e-01
-4.325546557527499836e-01 5.994881307272659915e-02 7.350871137020520418e-02
3.321949324921408264e-02 -4.266737654927160173e-01 6.584313144075326640e-01
4.464251836062937961e-01 -5.494576770710978275e-01 -3.636071363054765859e-02
-1.006559521412360297e-01 7.615779979111721998e-01 1.693478281114473016e-01
-6.687314492780658919e-03 -3.226856337494262150e-01 6.118999332540832059e-01
-2.038800814006350853e-02 5.668033446645074358e-01 2.529747510193708915e-01
-5.209331360214450313e-02 -2.105713281045709651e-01 -4.008321998038866241e-01
2.745306030018709875e-01 2.895092734445023352e-01 -4.886602250427609095e-01
-2.765200577203183463e-01 5.056476114373278374e-01 -6.357592266399706427e-01
-4.315778381756816828e-01 3.920818404351283926e-01 3.717326286576144723e-02
-3.633371768379943245e-01 -4.435804904934126935e-01 3.439658678514349588e-01
-2.332955165134665831e-01 5.603190064548728699e-01 -6.845672113004500625e-01
3.591536097653527659e-01 9.071871190786776618e-01 -2.145757878368340366e-01
-2.129662157026619707e-01 3.781861629371392752e-02 -4.541257928988982617e-01
3.693090821741923380e-02 -3.297227842570346068e-01 6.197485660862261936e-01
-1.238711055495292229e-01 4.460984102410086583e-01 2.878016318603382473e-01
2.281147168778228651e-01 -1.375694837673034077e-01 -3.785224835005325250e-01
3.658649016300462575e-01 7.687797028559346657e-01 -4.681998294943837124e-01
-1.688726822386013571e-01 -7.397241444607026706e-01 -1.144271100161913801e-01
-3.923110612365668382e-01 5.628524278685927973e-01 6.240534089201850432e-02
4.310361630847991954e-01 -8.049043819587856086e-02 2.606500357387844247e-01
-1.578336146038459287e-01 -3.835050902984598609e-01 -2.885649852173995389e-01
-3.346597404403368614e-01 -3.583887391077060780e-01 -1.333102027548876689e-01
4.475084476000615319e-01 -6.519213080117927106e-01 5.653802766685150916e-01
4.027869025930815305e-01 5.370675701811600256e-01 -8.915621647795790583e-02
-4.590402427597433666e-01 6.499533339735574788e-01 -7.266163595056047975e-02
-2.859935805113383855e-01 2.694570730854891627e-01 -5.159306494302213775e-01
-3.119881690434788690e-01 4.074173782132475274e-01 -5.626930868090592730e-01
2.485645019705414738e-01 -4.180478302493773612e-01 -2.676188294906909348e-01
1.956390406624317901e-01 1.963682996717715235e-02 -4.520802057717365763e-01
-2.227400776560370301e-03 4.962840009260393592e-01 2.816286917619411079e-01
-4.943877715177829035e-01 6.895710328712432169e-01 -4.271443791251013922e-01
-2.278942792253318417e-01 -2.655753462867381232e-01 -3.002771281177416540e-01
-3.053380274787895199e-01 -3.656156264986427651e-01 4.359311631007249943e-01
-3.934823918728865833e-01 -4.058399957792140911e-01 2.277647330833558748e-01
3.730962995813709160e-01 4.651390249273256727e-01 -4.012649662464799483e-01
-3.293326429538809830e-01 -6.165794016636847452e-01 1.009874111027117202e-02
4.499497246426658048e-01 1.949378633146981177e-01 -5.684572848219847374e-02
-3.305418386223997751e-01 1.107445580549930447e-01 2.692073291972371107e-01
1.646849302165345197e-01 3.301955543635777257e-01 3.157474925053732617e-01
-4.273070771117504774e-01 7.192448602779308864e-01 -2.974463957959589192e-02
2.206328017516813733e-01 4.533986525808132995e-01 2.279852315809578756e-01
-3.662613942868480632e-01 -7.466665651356453326e-01 2.813992091530119755e-01
1.791292615215818451e-01 -2.664020656943307669e-02 -4.432590639658383624e-01
4.262367319596178095e-01 -2.080080886302162757e-01 3.469564874211619188e-01
-4.290332111247459612e-01 -1.109365528993353084e-01 2.922733560549397973e-03
-3.283257558356706962e-01 3.988434019380931450e-01 1.849013136056268380e-01
4.332120259705273257e-01 3.031209446722598622e-01 -3.050289828067603501e-02
-1.767971752960501020e-01 1.103644032167576672e-01 3.925095210253933264e-01
-4.047389407633781300e-01 -3.584801591430705203e-01 1.348410361365774968e-01
-2.842229772892346795e-01 -3.901805095607789875e-01 -1.853505164790775483e-01
1.548480844390632827e-01 -8.658280033362950601e-01 -1.320333916912947436e-01
-5.122839422011865596e-01 7.472822489622406028e-01 -3.788047750554450199e-01
-7.861408829433562048e-03 -2.601206024935733829e-01 -3.853043721430660096e-01
3.168323325819853431e-01 5.129532779797986164e-01 1.080343391405825804e-01
-1.438988472914513039e-01 9.721798720237201374e-01 7.939982307605500389e-02
-1.504704922005524748e-01 -3.168458851280524513e-01 -3.228510004389627541e-01
-1.928003789318000760e-01 6.976823495635510186e-01 1.703960342134262507e-01
4.643642179263493541e-02 6.978058857268190640e-02 4.562444832355934676e-01
-5.801394858689482882e-03 4.742446858625812278e-01 -6.853137977964166572e-01
3.335144650998098786e-02 1.733991986051635348e-01 -5.608826426970933143e-01
3.118871066685772186e-01 -3.279455014200484686e-01 5.388504338438112606e-01
1.738348851249267024e-01 2.999415502444065518e-01 -5.638666991689876840e-01
-3.781288652645020676e-01 -4.922564518604042871e-01 2.980578496751847273e-01
4.874512053140652168e-01 -2.832510121522643365e-01 2.790744845635626317e-02
2.144070670437731863e-01 2.355030092684919918e-01 -5.173626595849087906e-01
1.644714514710960973e-01 3.320190445439900051e-01 -5.802454789287820880e-01
-4.503647415739120419e-01 2.711979105291127956e-01 -1.988826766164143158e-04
-3.124810259428444925e-01 -7.256365820480434881e-01 4.284248228185903035e-02
4.162129430109234307e-01 5.323103370664206135e-01 -2.211969571007444957e-01
-3.251154263721796611e-01 4.830230324534315334e-01 1.615967081087059110e-01
1.542123529244058544e-01 -3.701902599693022156e-01 6.283493306554196467e-01
4.143167447389626834e-01 -2.077364585464354096e-01 -1.734508449106409167e-01
2.167019920436255020e-01 -4.282707004976545884e-01 6.360316511128101258e-01
-1.922854074487253540e-01 -3.093842858340889457e-01 5.304529321590764068e-01
-2.234989874801511511e-01 -1.890148357115644662e-01 -3.403158334468011637e-01
9.937454925378744197e-02 2.988976220945203655e-01 -5.949530136763511168e-01
-6.815876644056607925e-02 -1.035404784402042117e-02 4.776136878693216237e-01
5.276230684333327314e-01 -6.245333693885567472e-01 3.336212102739968821e-01
3.457641213927311608e-01 7.900402534596486781e-01 -9.896871132514940828e-02
-2.638699281521929008e-01 4.300628701356929429e-01 2.285364944712506285e-01
-3.762085848596312676e-01 -2.200410612908934305e-01 -1.363310863920922100e-01
2.267353719226684328e-01 -5.831608337722831159e-01 7.014474924029685532e-01
7.879956751696436112e-02 -2.275662291347514132e-01 5.780207152876654098e-01
5.247406496293078870e-01 -5.573259480971057833e-01 2.386786898673828039e-01
4.675395084571008497e-01 1.818798364231249270e-02 4.907676104631386160e-04
-3.931860414736476073e-01 -4.276686280325662226e-01 2.240170821340708995e-01
4.627506399766198597e-01 -5.757432587514402789e-01 -1.745088441824142918e-03
-3.153379855345967986e-01 -1.577982464762082149e-01 3.650075737354856464e-01
7.933003772087439398e-02 -5.171087066321925496e-01 6.974591668017048329e-01
-6.775332696601250870e-02 -8.080008729266073553e-02 -4.535664094466994034e-01
-2.862291034175484250e-01 -5.801568706221738037e-01 -8.161343498867885959e-02
2.354194840888396700e-01 5.673673211817600315e-01 1.622581830634819700e-01
3.463549146881021723e-02 5.682376100877054581e-01 2.481711679564547468e-01
-4.104557919248889852e-02 -7.003852175571905203e-01 -1.917689764319161216e-01
-1.107927981521045907e-01 3.693217140744480820e-01 3.207051146949861375e-01
-1.477947737992992561e-01 -2.259117449543367184e-01 -3.654744038866216127e-01
5.417967934313231426e-01 -7.289416547771796484e-01 3.170209473601043881e-01
-4.809732342909642799e-01 4.939018603254515249e-01 -1.300566932642935880e-01
2.401480865646074270e-01 4.486066707443936430e-01 2.163997832245369013e-01
-7.669167975309729157e-02 -4.179035208898445042e-01 -3.055040963991860758e-01
4.238808424831275179e-01 -3.602016782527951433e-01 -1.199991859860090465e-01
2.424140705961856657e-01 -6.430576577796790483e-01 -1.895613923870037021e-01
3.546501498933051222e-01 -1.752405153851164243e-01 4.255777945656762373e-01
-1.580584486003990263e-01 7.536204287188037476e-01 1.607085391037454403e-01
2.426991082332720651e-01 3.865749498416673480e-02 -4.308619506363929874e-01
-1.099919730722714595e-01 -4.060430111041502532e-01 -2.997099764776923192e-01
3.938738112605222885e-01 6.813744885989051481e-01 -1.749674723462039949e-01
-1.294016059617860426e-01 4.602852124195219718e-01 2.808608079841766192e-01
3.236767837424588401e-01 4.094520329015780558e-01 -4.701108300210405933e-01
-4.124762468375588464e-01 -2.761812962959502848e-01 6.736610622707148166e-02
3.713007618178111313e-01 5.035256287092393368e-01 -4.126408517501432560e-01
5.133805735198330167e-01 -8.477357631015074446e-01 1.594835819128466170e-01
-1.572120512036537798e-01 5.042273857235729517e-01 2.556226464001594700e-01
-4.662230343262574461e-01 2.614809293054270456e-01 -1.441326856753310792e-01
2.277412249549699841e-01 7.217200307923146152e-01 9.280219959942773156e-02
2.495558903858415278e-01 3.340089617817001977e-01 -5.248563755336163039e-01
2.867335436536949667e-01 -3.762326080717089127e-02 4.170775983029482714e-01
4.946535797558994640e-01 -2.580040489271195892e-01 1.006532006370298854e-01
-7.542876747770574375e-02 -9.226169677724394003e-01 -8.113897540164308197e-02
-9.173482565469651129e-02 6.110310992343374048e-01 -7.427248670596556801e-01
2.303924490827691240e-01 4.468823507384606097e-01 -5.775616525062030604e-01
-3.765148943227424327e-01 2.373056321503266286e-01 -4.042971687286231464e-01
5.703060107261118117e-02 7.585124972432584212e-01 1.620851752470130469e-01
-1.409922149869905772e-01 -4.140312256658994494e-01 -2.829143853891015192e-01
-1.695586632413657591e-01 -5.325750727701974441e-01 6.223611768832761904e-01
4.427518550121092855e-01 2.629887341833961334e-01 -1.164381187355629094e-01
-3.500169500674391587e-01 -6.702857637696755244e-01 4.098211602890372007e-01
4.505282283648655017e-01 -6.766823106537709354e-01 5.747251810570087605e-01
-4.519093455280546734e-01 1.638934079381507147e-01 -1.602292745814023200e-01
-4.090001669198422563e-01 8.826237073566327584e-01 -4.945631962508446888e-02
-1.884888693809593785e-01 1.025953252932453319e-01 -4.965610742102483099e-01
2.046840663368497959e-01 -3.703802769950391705e-01 6.145083958466430740e-01
-1.399991413719116895e-01 7.096890181880580739e-01 1.822744898656034063e-01
-4.668687275254904123e-01 2.697088403787754607e-01 -1.128606896272234122e-01
9.910054381058785999e-02 4.473202507438506226e-01 -6.509080918982618202e-01
-3.332751206346666883e-01 -4.243134661982526645e-01 4.063108421521948177e-01
-1.346011569431789512e-01 5.606082344648030125e-01 -7.160213023836780044e-01
3.847374557317366772e-01 3.434943625157338420e-01 -3.523299919402121394e-01
-4.383179537536573411e-01 2.592832462277246397e-01 4.117031951318793348e-02
5.031400660405133118e-01 -4.145151750134655200e-01 2.721900738396690889e-01
-5.089070666659841619e-02 1.864493803191539789e-01 -5.685250812340133519e-01
-3.197481235480191253e-01 -8.813807355735263638e-01 1.573785519331158123e-01
3.580819642898859512e-02 9.647993620272355964e-01 7.767349455274234760e-02
1.482859451028661346e-01 -8.827727083686957021e-01 -1.264022479904511609e-01
-3.355249591914967744e-01 1.420973574582735377e-01 2.540905964770012737e-01
-3.918141855488782022e-01 8.090737600996380507e-01 -7.644946747873774748e-03
-2.750272797978429162e-01 4.572704040799441261e-02 3.470332484054943767e-01
2.153384170161035949e-01 -1.000975809632234093e-01 4.886857816508381469e-01
-1.002665346842922939e-01 5.623394387046917187e-01 -7.216380833643105674e-01
3.891064017958195120e-01 6.171150927656020579e-01 -9.960353532463356308e-02
3.366616680369015069e-01 5.155276339568912736e-01 7.907696482100190494e-02
-4.039529258607192364e-01 -7.681527857581818552e-02 1.818528499532788834e-01
-4.288529316030920691e-01 8.194871645175057229e-02 -1.974701799591223050e-01
-1.203553425106757974e-01 2.661774888190950872e-01 3.574800624056970189e-01
2.665647911348811849e-01 -5.617461225558548765e-01 6.754992629109130009e-01
4.478279950309554946e-02 -3.718868160246671106e-01 6.372596809934920614e-01
-2.650265741951043363e-01 -6.172015683523335294e-01 -8.835468121181513923e-02
-4.353374351858808611e-01 9.533856298703539608e-03 -1.054063031212981866e-01
-3.861297057485923445e-01 -1.724602700644681241e-01 2.436284038686999665e-01
-4.829336908009412843e-01 4.802695816342058555e-01 -2.928752818972411576e-01
1.758620242343514328e-01 4.000188546306872144e-03 4.580012756550764230e-01
-3.851817711706645997e-01 -5.178095439055256932e-01 2.535461366928474236e-01
1.311085909655206605e-01 -8.637580402411656477e-01 -1.362109305244078306e-01
3.969361661342224457e-01 4.227271562680566808e-01 1.580793089549348274e-02
2.701512507505260952e-01 -6.121561605521165239e-01 -1.867643074506080414e-01
4.014195006114230635e-01 -6.324108733833443408e-01 -7.451982689518947545e-02
4.727553172260037101e-02 9.835458968767541998e-01 6.646966993546150893e-02
-1.202153770668819982e-02 -5.956952693590645831e-01 7.171507666407807013e-01
-3.819982905058217360e-01 1.425851217562187079e-01 -3.427458000111550662e-01
3.697560062474455206e-02 4.849787092944726208e-01 -6.828598093869557850e-01
-3.117740392810530725e-01 5.439396984643095623e-01 -6.296277912389742770e-01
5.318868633156191850e-01 -6.326683812335578416e-01 2.545513269875693818e-01
9.181434001828524261e-02 5.445197965942055740e-01 -6.899093207874845701e-01
-3.860736226676069749e-01 -6.086596854116600903e-03 2.130562705725277672e-01
5.113808599316319731e-02 6.207090124538078291e-01 -7.317820465637973060e-01
2.735749549430787075e-01 4.948444012340202924e-01 1.652251613552577214e-01
2.483226377314588784e-01 -4.700032263966015256e-01 6.420694828272720533e-01
9.530549818453613875e-02 2.946402425269244452e-01 3.541624739756389917e-01
-4.233367759847433964e-01 3.977283760105913002e-01 -4.192540319608118460e-01
-5.352473206414309209e-02 4.671071445132315980e-01 -6.846423095372644596e-01
2.712991106516870476e-01 8.978163594873209696e-01 -4.065456147800255299e-02
4.493109327202870484e-01 3.513199591573164249e-02 -1.313897027740013046e-01
-1.004709637529828566e-02 -9.572250240890115003e-02 5.215911318317113521e-01
-5.534767289690865205e-02 7.246469047890587156e-02 4.481854858450314283e-01
2.197409827922557762e-02 9.523136847244497716e-01 8.620993376147632892e-02
-4.131519967823219508e-01 -2.196462825301333521e-01 1.437249383008482595e-01
3.732537240998126671e-01 -2.711244849366676868e-01 4.551537388651438754e-01
-1.620043698046733649e-01 1.369222579758171410e-01 3.899539222695298513e-01
-2.919398182385308793e-01 -4.778675337055068167e-02 3.598682108016160730e-01
-1.738485791064003638e-01 -3.817950684590257215e-01 -2.805871475624899802e-01
-9.922997945558333088e-02 1.884031596983799794e-01 -5.630913881510282160e-01
-3.790583771386129008e-01 -4.029476135473878395e-01 2.919506481427296962e-01
-3.618864013501265631e-01 -4.353056491399101557e-01 -3.114916593362078087e-02
4.255134069481341652e-01 -5.209908503045769246e-01 5.241950205215071268e-01
-6.027315885803807838e-02 -2.797554157153540055e-01 -3.696137445682708966e-01
1.274631069999970501e-01 5.444836070771186254e-01 2.343725219014169692e-01
3.491374832647920479e-01 1.777398985694332856e-01 2.467731450153959061e-01
4.248444122950731372e-01 -9.221947325426528910e-03 -1.965943016165838941e-01
2.494903495162207607e-01 -1.430032326501815276e-01 4.911697418184888808e-01
3.025905801838871811e-01 -4.168166738187645826e-01 5.878127253182517942e-01
4.636147009111596939e-01 4.859807119021476024e-02 -3.694972233284483237e-02
1.518778408789084045e-01 -4.978836258079770705e-01 6.835712974356288330e-01
-3.039191638156102382e-01 6.292032949508953310e-01 -6.764437162110294999e-01
2.924102862049683949e-01 1.134793668247956189e-01 -4.161148545536811350e-01
3.438112808059860526e-01 3.438834491297392826e-01 1.637694784009464943e-01
-4.010438338716081352e-01 2.321144716127697127e-01 -3.621357071740289313e-01
-1.115833734707575992e-01 -4.530253807789739184e-01 6.280678063262170596e-01
4.307046929781078171e-01 1.633682901755637573e-01 -2.050957410367870437e-01
2.097712723211936914e-01 4.189064503261659689e-01 2.513181970397483922e-01
1.742657409306272720e-01 8.931818688348334978e-02 4.204099720576275345e-01
3.979285790172500392e-01 6.498869476356896602e-01 -3.370506950221334175e-01
-3.217883720090188304e-01 -7.256360850294077958e-01 6.174494462685871377e-02
3.115668923484161690e-01 -4.145168968893970241e-01 5.806838153929635427e-01
-1.519787855948490432e-02 7.712958354626765489e-01 1.680799220291461782e-01
-4.629309377266634384e-01 4.091747304675444341e-01 -3.260650316712938590e-01
-3.422209970422169789e-01 6.054789902088621167e-02 2.686323483062046935e-01
-8.782099478955823768e-02 -2.357425488014714410e-01 -3.821396563339104491e-01
1.828782474174497075e-01 3.297002074758408341e-01 -5.694594975391937819e-01
-4.730460584712559702e-01 5.196486393649258906e-01 -9.458078029192895642e-02
-8.136970587058397000e-03 -2.942961095827718032e-01 -3.710018532484781750e-01
4.001258834633709682e-01 -8.620229651820442152e-02 -2.267744736182986665e-01
-3.654321650860105630e-01 -6.993545233763365232e-01 1.887597968229611511e-01
-9.214820900906200984e-02 -9.565421736165806710e-01 -5.800722737273023705e-02
-1.782839619944332488e-01 -4.856679344405497312e-01 6.002649488739010275e-01
4.330323594186106795e-01 -2.045630592267854708e-01 3.324423562526678255e-01
-3.686164944589369608e-01 -7.228034399936700272e-01 2.790172296238336846e-01
4.674289950359277745e-01 -2.813686483668520477e-01 3.030446281850387447e-01
2.258012511152153734e-01 -3.590359329158619994e-01 6.014752244494037114e-01
2.207183645346987369e-02 -3.955341620410396386e-01 -3.306719302362763901e-01
-3.458914266704124496e-01 -4.623303407322442160e-01 -5.059019454168007385e-02
5.980869191016991056e-03 3.430459351481781605e-01 3.446669482918361394e-01
-3.514453149950062527e-01 5.127794970736215124e-02 -3.372021137850306771e-01
5.047005456212206864e-01 -3.654366691440953385e-01 1.966163128260624837e-01
-1.474058152362647551e-03 -2.181513284863917657e-01 5.713455138264850186e-01
3.770344027746901916e-01 5.300389420473407276e-02 -2.984322903142603289e-01
2.917610644854034541e-01 1.408075074668760085e-01 3.257231177079472628e-01
5.480825081597710813e-02 2.107438679387236280e-01 3.966777797766696811e-01
-5.217206061759206009e-02 -8.535855907936727993e-01 -1.209705065261062890e-01
-4.609698230674099673e-01 5.514320644338186472e-01 -4.331050680965502497e-01
-3.197011893596949927e-01 3.913247078178949678e-01 1.956966529546073641e-01
-1.327237712990560203e-01 1.151418964044684801e-01 -5.231926595766089871e-01
4.066926644586290607e-01 3.802674696481599392e-01 -3.020199386492593563e-01
3.527709120996369019e-01 -6.053891752422211475e-02 3.683130476080154203e-01
-3.357985592915732620e-01 -7.576204406869354591e-01 4.625212539955924074e-01
-7.546277541631387850e-03 2.343724503752737665e-01 3.890216138213880015e-01
-7.889793552542276323e-02 -3.245936241076608497e-01 -3.457304064887918305e-01
-3.398112566662501166e-01 4.675373922298552420e-01 1.520041748555708006e-01
-1.037355489121228186e-01 5.684687950422128155e-01 -7.238558704409453481e-01
-4.945394374991484709e-01 5.506847426954015745e-01 -2.224214474057027990e-01
4.844172420407953372e-01 -1.579223857718557444e-01 5.290852815627316436e-02
3.787162540858972082e-01 -6.015841097980050289e-01 -1.081430471483037087e-01
3.479982597051829440e-01 3.606790275838020476e-01 1.485625463222458309e-01
5.444295061794098695e-02 3.043414599532148768e-01 -6.088864961705534595e-01
4.932460669391979247e-01 -2.453929524070337931e-01 1.385173250190736838e-01
-1.210945537984452480e-01 6.809936456830564810e-02 4.319544146909896076e-01
5.273084256475585319e-01 -7.708448425669561788e-01 1.912400297840876617e-01
1.867807818504541584e-01 -3.267656755630874987e-01 -3.294635607922231091e-01
4.126423861727006592e-01 2.772532840908528140e-01 7.197851066448972268e-02
1.255645101356643034e-01 -7.002949090191575854e-01 -2.018932192181883967e-01
3.410161199156258038e-01 8.564299552516800862e-01 -1.302885293473182438e-01
-2.605571439720758553e-01 3.754917437336954822e-01 -5.842788759360290074e-01
-3.360195666337759124e-01 4.811905192938160103e-01 -5.783797980649445503e-01
-3.608445490360918106e-01 -2.445135329254816414e-01 3.139595080181497022e-01
3.063598137062055748e-01 4.406239454447467008e-01 -5.009940696486235856e-01
-1.866763186464114876e-01 -4.523352627251907010e-01 -2.395061633106269072e-01
-5.125832964111372014e-01 7.292527732050597677e-01 -3.395618278440690196e-01
1.780085770613990537e-01 -5.220001312979400954e-01 -2.592546305362620762e-01
4.183613724464152472e-01 3.749845048544102055e-01 -2.592071134177535430e-01
-3.571856096012345771e-01 -5.069908576148733914e-01 4.486489992825387629e-03
1.170809866174405411e-01 5.137140117582193223e-03 -4.779955696870645254e-01
-4.282782081467314539e-01 -6.125867806400984300e-03 9.031553289624984215e-02
5.144156807522450858e-01 -4.620757500022470987e-01 2.343446391640157112e-01
-3.375010432347786415e-01 1.267575855173873611e-01 -3.951110761544397998e-01
1.419860247693917610e-01 6.967710615900281068e-01 1.592057455446197756e-01
3.613493214480426041e-01 7.644367996942751375e-01 -4.806370023967633243e-01
4.818822188560072939e-01 -1.263944976716487312e-01 5.821447590502190628e-02
-1.799490128140959211e-01 -8.699143660490030738e-01 -4.308881580485526136e-02
-2.366026495223706727e-01 2.863435580571586092e-01 2.961346457815943745e-01
4.856371573210104264e-01 -6.596999130271272715e-01 5.043924025832554614e-01
-1.340637119106168340e-01 -5.730454377359095464e-01 6.590692627363398115e-01
4.969624912304550501e-01 -3.120533726558806786e-01 8.241981614642046594e-02
-5.021649945897027623e-01 7.239716093082757542e-01 -4.216874144508440114e-01
-1.804397618832103214e-02 -3.794105363343331372e-01 6.319744588417762765e-01
2.228702039289680581e-01 6.286771306744994847e-01 1.420965455207034711e-01
-2.923009567061203851e-01 6.689659469991620089e-01 1.272833976470538475e-01
-2.566524268312844193e-01 -3.053853888852147702e-01 4.753827043356526616e-01
-4.516340237504991584e-01 1.614881595468103670e-01 -1.595071483406031998e-01
4.615489283365040718e-01 -2.017691844847789295e-01 -7.242678159501883539e-02
-5.150934547408534542e-02 5.516028971456403696e-01 -7.192744123174543702e-01
-4.238571525872337764e-01 -8.959638083176121870e-02 -7.467883210713119335e-02
3.827109955683789533e-01 6.590800679659897764e-03 2.944398988632700442e-01
1.970657654179137352e-01 6.495537091316857525e-01 -6.707312787064173554e-01
5.166440449082406600e-02 4.403742542921723624e-01 2.999607608050052221e-01
4.589891036763250054e-01 -6.122047058174148043e-02 1.693543760480870630e-01
4.569800006057895825e-01 -8.019860375694077836e-01 4.472720122942611815e-02
-7.108022144735386127e-02 3.269229022679336905e-01 -6.256400341269171550e-01
1.552998462924519429e-01 -3.186319122060494169e-01 6.058571611647743937e-01
-7.926615706346523682e-02 -8.897696536227819308e-01 -9.436272747558274721e-02
-1.487506369628739389e-01 4.385484253244327779e-01 -6.602244130624900231e-01
-4.115480547299507630e-01 -2.863764838972185367e-01 1.170020561204178772e-01
4.465670684637057519e-01 -9.079765864421393551e-02 -1.292489004549859100e-01
2.045628796274898964e-01 -3.097004619708581541e-01 5.875398385514448707e-01
6.843962163773466278e-02 5.831335371295383041e-01 2.354474930332205451e-01
-2.144650727113971145e-01 5.307070364916761651e-01 2.221799381417619290e-01
-3.551595455854700822e-01 3.655965558616892652e-01 1.655436841527045955e-01
-3.113178143749014137e-01 2.576418305654524232e-01 2.457606252185299545e-01
4.830385128158252717e-01 -2.552067495041999701e-01 8.491770260529848610e-03
-3.486666403790911750e-01 -2.707141117766330707e-01 3.430848961294452604e-01
1.904286678002574396e-02 -9.257029638063210553e-02 5.228290073026036211e-01
3.444596972166416027e-01 7.048066082277552047e-01 -5.095799871714574714e-01
-3.957809282963142272e-01 -1.069245852794577928e-01 -1.625680065080331305e-01
-3.402565390549406876e-01 9.254760549545989479e-01 5.153594790036686302e-03
5.040971960538347396e-01 -6.093430180008161390e-01 1.009294237339272288e-01
-3.269001135731715024e-01 -1.753316332762842600e-01 3.541668773132285453e-01
3.698824253399343176e-01 -2.556864509881704994e-01 4.508426938200745804e-01
-1.562691669369132078e-02 5.079082093813165333e-01 -6.997415163817319872e-01
2.554211143103617965e-01 8.670811693298431377e-01 -6.416566237384548933e-03
-4.956876439757985642e-01 5.956986928507720380e-01 -3.305814958431079753e-01
-3.809262425407412000e-01 7.477578415770327336e-01 2.290612879954045944e-02
1.829863055288216966e-01 7.757837945065719776e-01 9.949391115739247837e-02
-5.049886974951584007e-01 6.879434418306986654e-01 -3.672983428980152731e-01
3.326172356841023414e-01 -3.793325801517903328e-01 5.479755661949169410e-01
5.251679390077039766e-01 -5.949915506177083646e-01 1.992801608251602852e-01
4.269287380011537181e-01 3.745471830500635146e-01 -6.525428539532567018e-02
-1.965956487241503348e-01 9.387740856512644116e-01 7.869288673908818310e-02
2.944742506878065824e-01 -4.356002658382810422e-01 6.018425653878012316e-01
-3.857576501512295364e-01 1.546908564949586173e-01 1.778876366317150015e-01
1.058665945122589241e-01 4.011800908011305955e-01 -6.311992353730274674e-01
-5.217557854583576918e-03 -9.506639754682554011e-02 5.218856102972835309e-01
2.788867530068719902e-01 5.397906529833040867e-01 -5.619489799328606372e-01
-2.310873937480270313e-01 6.587681340899964599e-01 1.677253196649084177e-01
-3.364929373567683291e-01 -6.388274536154767702e-01 3.975498313270791478e-02
2.086044855686922366e-03 -7.609772771776177613e-01 -1.750425814132582636e-01
4.761240327179812604e-01 -1.225048890081251451e-01 -1.082724347556682579e-02
-4.527460779389223533e-01 6.032234104948334119e-01 -4.982854787010518316e-02
-4.259214195984270535e-01 1.171034090586003523e-01 -2.325857662025997974e-01
2.529384361279596316e-01 6.100715123900274373e-01 1.264587624133282351e-01
1.951473817649491960e-01 -8.109436295471189604e-02 -4.159914799741774027e-01
3.601083741069051603e-01 -3.497715056676004020e-01 -2.048179258269661462e-01
5.118613802574920740e-02 -7.683720043249033793e-01 -1.774332655822282168e-01
-3.032418158351549708e-01 7.568127484437690011e-01 8.968178767998684353e-02
3.767196737259320433e-03 2.011529889935123050e-01 4.028671792396398832e-01
-1.373802426485636052e-01 -4.565089852929491432e-01 6.159973086478099935e-01
7.857840839348098627e-02 9.739427671016800403e-01 6.059686657506632712e-02
-3.900152929322989181e-02 3.707448095916628383e-01 3.320522806086508849e-01
1.085809426855497695e-01 2.885656026376716143e-01 3.535580184006001381e-01
-4.239373122588642739e-01 -1.465388788325315550e-01 8.323968579751177266e-02
-1.032736696252974963e-02 -7.193229971365483477e-01 -1.906182568954176426e-01
2.312565861977183557e-01 1.668423694613816177e-01 3.568466830677173851e-01
4.176989665063116641e-01 -7.716676353390826693e-01 -1.462889453105906817e-02
4.960566190837650269e-01 -3.545297994922802509e-01 2.539089244212220375e-01
-2.882075020799504395e-01 -5.483664295260429755e-01 5.094371498594800762e-01
-3.654611071278657808e-01 -7.543972055267804677e-01 2.807864195168051635e-01
-1.686840764516815139e-01 -8.508154480007801279e-01 -6.108230917197533805e-02
5.111321659083488678e-01 -4.993567314399028900e-01 3.094926771949597644e-01
-3.161499515949999645e-02 -8.274460281656894622e-01 -1.387991755905391422e-01
-2.143277390152600326e-01 -4.780916950866584414e-01 -2.073663624106231174e-01
-7.366118123011924923e-02 2.267305076951356413e-01 3.843486771137208380e-01
-2.525236081189715653e-01 8.030903056522762373e-01 1.048910189886324007e-01
4.301073424623879649e-01 -5.053233178826421756e-01 -7.308595096012560077e-02
1.166940374083677567e-02 3.808853765661329716e-01 -6.460990221676198297e-01
-9.535380564077783339e-02 -5.129410873218545053e-01 -2.573673031427589075e-01
-4.151876492935207413e-02 4.676857383250740963e-01 -6.848364757491940402e-01
-1.540348913667749231e-01 -3.081587181334202036e-02 4.546929375212865887e-01
2.286750535074404123e-02 3.940024514538587735e-02 -5.082577403776709080e-01
-4.704436744177060703e-01 4.385415239952100142e-01 -3.200414514776228070e-01
3.386273548066936478e-01 2.530753586697377377e-01 -4.067655918610733612e-01
3.931145294363445619e-01 3.792590112265411539e-01 5.450240367343301556e-02
4.420365306000776928e-01 -4.516463757770221576e-01 -6.754867374605723340e-02
2.295280504926384690e-01 6.602984182102431543e-01 -6.480808589285009802e-01
3.713150481173984607e-01 6.767674580907077075e-01 -8.732056134841550965e-02
-3.906505895198087996e-01 5.971216264160961185e-01 5.503805652276874683e-02
-2.731088582015679944e-01 6.128063494128442867e-01 1.596134933963447855e-01
4.475666895836539760e-01 -8.083237304167238679e-02 2.206409182600616581e-01
-4.509357329458317243e-01 1.061036200724495282e-01 -5.801206208836778150e-02
-3.249531343232013314e-01 -4.363263688015672770e-01 4.238519445210930936e-01
4.775284068041157348e-01 -3.776970527665489130e-01 3.410703341619881201e-01
3.217002024885859957e-01 3.814332275263880856e-01 1.721938789857397623e-01
-3.517695349870392785e-01 3.062952853637586070e-01 -4.728363331174642026e-01
3.329761314342253864e-01 -6.165473330316013634e-01 6.626022187922976370e-01
-4.360069820917251288e-02 -4.515647098767467948e-01 6.534197879811252108e-01
1.298760271123673704e-02 -1.033517602788581458e-01 5.268247855751306830e-01
-1.766962958000536932e-01 3.293641461529482339e-01 3.130147029022742888e-01
-7.465671469398540983e-02 -3.463495721445220554e-01 6.037509572534183189e-01
-3.400836871571445708e-02 -4.746335297799522679e-01 6.649288020138585109e-01
4.513837659548904369e-01 9.323205692526405353e-02 7.130421612247184182e-02
-3.990608880123051871e-02 -3.974783032762558288e-01 6.337658858647123861e-01
2.052928677210245079e-01 -4.037661397192968127e-01 -2.935155595658183181e-01
-3.562417430938663032e-01 -2.153101524190675214e-02 -2.901891120861039841e-01
1.542398507934694130e-01 -6.829582105265775971e-02 -4.380484944323874141e-01
-9.516768998865280521e-03 -3.459108600993804905e-01 6.205344400378924874e-01
-1.335524046439790502e-01 4.612294299068687153e-01 -6.735377539273023073e-01
-4.777339113867867249e-01 3.812992698892397891e-01 -1.534445102234895664e-01
2.471343809205285014e-01 4.699331117022423343e-01 2.006033448972412703e-01
-3.580779873774602717e-01 9.091194971820365511e-01 -4.567179787106628343e-03
2.317285925312666806e-01 2.694316592867738308e-02 -4.340144927193561597e-01
-4.233961436201734152e-01 2.816652404478692251e-02 -1.758109038748785768e-01
4.923524596344655002e-01 -2.589789209755750665e-01 1.744161405505712525e-01
-1.447018431691554641e-01 3.928625464698900505e-01 -6.413659757327834221e-01
-4.564782221752521352e-01 3.495677996461584724e-01 -3.035426330633049230e-01
-3.364582448542349224e-01 -1.075765843680645539e-01 -2.709765007441517493e-01
-2.091790692871251522e-01 5.739338292842432326e-02 -4.653417445208207215e-01
3.986502256223643514e-01 1.348564537053429102e-01 -2.807289894685148224e-01
-3.092598136622239438e-02 3.257657407131049343e-01 -6.266877826323180578e-01
1.323427717853652985e-01 6.406270146423072021e-01 1.890943205812264105e-01
5.005150341379819290e-01 -3.277942908910649877e-01 1.877268379495527495e-01
-4.788483978843241506e-01 6.370696975089427117e-01 -1.229103140506534325e-01
-3.990712204847521871e-01 6.144889965204938242e-01 -5.791306783298496574e-01
-4.110615427178823111e-01 4.172045506124830716e-01 -4.524412658454597946e-01
2.128609083221051287e-02 -8.439721526446808397e-01 -1.427387149370295261e-01
3.870413895267120763e-01 7.104232305051441099e-01 -1.668205949784612729e-01
5.134789163844358795e-01 -4.671614455345856065e-01 2.553136264448699899e-01
-4.954961240084358454e-01 5.565540343345460883e-01 -2.665924191090615625e-01
3.164169990503364893e-01 2.274648900767005377e-01 2.585802227722742708e-01
-3.486834123058746848e-01 -5.215291206369395693e-01 3.936338196237839093e-01
-2.652093377884601755e-01 -3.801520005958247683e-01 4.894448166022923319e-01
3.984589513363977487e-01 6.420883242104168387e-01 -1.628238456153192071e-01
4.075479887886158115e-01 -2.435660020211372345e-01 3.970449831110283712e-01
-1.512191982663385892e-01 -6.658606340527468692e-01 6.805164001459227396e-01
2.350206289043925978e-01 -9.215888316746261300e-01 -8.959341985957074150e-02
2.347362608671562656e-01 -4.372631520820654538e-01 -2.678897793351065482e-01
1.363639603647122667e-01 -4.368340831587578799e-01 -3.031455178556666241e-01
-3.889028607968504359e-01 -5.122485304394244210e-01 2.141047902614395260e-01
2.599536944419648665e-01 -1.806266973677314036e-01 -3.439744556862002201e-01
-2.512548822127763093e-01 -4.885437420772543171e-01 -1.697053121479723259e-01
-1.272436524272028135e-01 4.348280265638029829e-01 2.911966535423614610e-01
-4.345107705038503410e-02 5.206620089674162122e-01 -7.064877576201977760e-01
3.688378363834607376e-01 6.974465499590227768e-01 -4.508610752569123803e-01
-2.953613561909457230e-01 4.954041150816896888e-01 -6.182586578118788312e-01
3.814847557279391066e-01 1.603658307123248805e-01 -3.180813322195047976e-01
-3.482652297926548957e-01 -7.639700555452788588e-01 4.213767728506485621e-01
4.925037332164992065e-01 -4.630596859438347868e-01 3.566033636136626828e-01
-1.912708522803042710e-01 -6.738667624574981030e-01 -1.298726748160752287e-01
-3.672057223326270492e-01 -5.498283640952288387e-01 3.424607415730757665e-01
3.416615294515481516e-01 1.568200575863092638e-01 2.671286021348605599e-01
4.391921707418848242e-01 -2.813704510030017869e-01 -1.116414116877546270e-01
-3.817216242573504559e-01 -1.206119832872603881e-01 -1.867355257758100129e-01
4.508985883122688110e-01 1.190041943977447475e-01 -1.179539616098650712e-01
9.237147177748607219e-02 -9.359107527918869573e-01 -1.093303216233030423e-01
2.978450121357434921e-01 6.948474746375645772e-01 -5.837482080826423836e-01
2.698736937341654207e-01 -5.419312178779815969e-01 -2.118053362543991236e-01
-3.244318054811918817e-01 2.786347159445410893e-01 -4.872739410617558109e-01
1.974995898129125182e-01 6.793337595844791688e-01 1.357964640899131936e-01
-5.842514553656805859e-02 -1.154353666604077677e-01 -4.403634349161411055e-01
-3.253146472583650639e-01 1.799375218005081489e-01 -4.360989646882616477e-01
-3.156783463551811053e-01 -2.531907883608845444e-01 -2.196943664449917399e-01
-3.081147982943621688e-01 -5.792845849876043784e-01 -5.021578773110203092e-02
4.616771612051695506e-01 -1.382076473277122630e-01 -7.802039226702368879e-02
-2.252231263715065712e-01 4.321697557359387432e-01 -6.298379798185740341e-01
5.010938370112905105e-01 -3.820482406699745037e-01 9.014531818445042921e-02
3.031610627567559724e-01 6.733701279623592884e-01 3.931604062408849964e-02
7.913031500474081159e-02 4.621412354932187272e-01 -6.631614689096934079e-01
-2.871903245504716651e-01 -9.148153154394274011e-01 1.083550041333589953e-01
5.398825340250568150e-01 -7.444600241799315121e-01 3.799030652060412794e-01
3.818524974320257614e-01 -1.184532272204893572e-01 -2.458433156888877869e-01
3.905400752855555102e-01 -5.760743282455100811e-01 5.939929687427938365e-01
2.277551066547069403e-01 7.272133591441573008e-01 9.008796283758870038e-02
4.253119177785692762e-02 1.092727723418055186e-01 4.400490811779221301e-01
-2.507124903800289073e-01 3.785573473347593754e-01 -5.916186647942051069e-01
-2.769652242284814103e-01 -2.772561277663014301e-01 4.455760701631324983e-01
3.978868184579267275e-01 -3.167428355643300830e-01 4.500263339664810625e-01
3.481969526822124017e-01 1.309251861466747269e-01 -3.600557393030922038e-01
4.792732215710487909e-01 -1.632638533373806100e-01 1.625076102541602452e-01
1.322608220171554716e-01 3.529057714464146622e-01 3.181062846932015686e-01
-3.158331890379574847e-01 7.011544421455260245e-01 9.884177054749064550e-02
4.323570477196198580e-01 -7.255112465938988731e-01 -1.006796765077818887e-02
-4.789318211906422595e-01 4.876233101485125676e-01 -3.235319036236817269e-01
1.058811152277754353e-01 8.445473821468718612e-01 1.080650765125234780e-01
-4.720825794981242662e-01 3.263042180600823072e-01 -1.847202243426253332e-01
-4.807049728844184910e-01 4.145698408467621277e-01 -1.608530402974114870e-01
3.300898596605334467e-01 7.577914526802256301e-01 -4.874542483505821255e-02
-3.982260030744461110e-01 3.069180645807986219e-01 -4.102943743709431268e-01
-2.793079029518513168e-01 4.604405998157803381e-01 -6.125316328102690111e-01
-3.110429680270626052e-01 7.789562596967150032e-01 7.652052795097220861e-02
4.456916425895643963e-01 8.440620401594041422e-02 1.050495699351659679e-01
2.865137184853828178e-01 5.161687059915213149e-01 1.414729052489326622e-01
-1.061852412992729533e-01 4.006803580396448572e-01 3.097306745855677446e-01
3.980509325332843296e-01 6.874222581950716338e-01 -2.110805348231196144e-01
2.690732069293841691e-02 6.497096724534485723e-01 2.147095036800714396e-01
-4.484461732059890071e-01 2.669792192782545204e-01 -2.690519109720049817e-01
-1.970991398830638508e-01 -9.063444929829060914e-01 -1.037232095206140105e-02
-5.781100611684945184e-02 7.941616517271886666e-01 1.596364491787423401e-01
-3.187188391213216510e-01 5.204527736559079187e-01 -6.127224158034378920e-01
3.373736913337035404e-01 2.538429703409201751e-02 3.405171909591918067e-01
-4.163621108537940985e-01 8.666822148275206139e-01 -5.411655700698869004e-02
-3.596589523551797507e-01 -6.844198851087603952e-01 1.438385671077998251e-01
-4.176303327042024116e-01 6.700904556789799571e-01 -5.844429269148903039e-01
-2.970848625315245517e-01 -1.025951369328036156e-01 3.708922210395639851e-01
-2.767454761673913688e-01 -2.911560988480765139e-02 -3.767830455200668616e-01
-2.118083293550854784e-01 -6.007362232468784757e-01 -1.492972074530672377e-01
-4.268248746390931880e-01 -1.041736547696321125e-01 7.921847281602363566e-02
1.408833567756145322e-01 -9.750806941519900573e-01 -9.070487644811851824e-02
-8.229443156674967619e-02 -1.563189904089362092e-01 -4.180762005224387678e-01
1.979997293842711559e-01 -2.697527868970919784e-01 -3.459036214399411335e-01
4.282206842231706112e-01 -5.099561584388736524e-01 5.144847088281228054e-01
1.860815969579183160e-01 -3.138570874945459388e-01 -3.345304210130263800e-01
-4.324991592200750912e-01 1.849762022648804016e-01 -2.609123456887718628e-01
2.008801494816406519e-01 -4.125268069183380404e-01 6.344557937422492522e-01
-2.757629610582046364e-01 -3.329521741501678123e-01 4.636005270779288145e-01
4.531063439899880585e-01 1.300540277736159933e-01 -9.827560983082830881e-02
4.685131932474270733e-01 8.302022292598916497e-03 1.830167558158008606e-02
-1.342690145282774208e-02 3.058974006320167582e-01 3.597355693679835653e-01
-1.643580990884477844e-01 2.665937778159659932e-01 -5.800149558165142993e-01
1.783997625964052203e-01 3.334403646151878342e-01 -5.733075963374903994e-01
3.526964743531800228e-01 5.734887621879036779e-01 -4.652263150409668424e-01
-3.903862340757273675e-01 6.073498000106969386e-01 -5.861002556507122208e-01
-1.069107676775747084e-01 6.439423606142195000e-01 2.147974125609767859e-01
-3.033847975055778967e-01 4.550223425156103563e-01 -5.928261395715820337e-01
-3.860407396137426894e-01 -2.901674554927419769e-01 -6.382482148039506087e-02
3.021951096779579848e-01 6.837697299230717229e-01 -5.747461502719328763e-01
1.877156306459009105e-01 1.965442838909194079e-01 -5.195277692768346389e-01
5.180626742998335477e-01 -4.927824872587214800e-01 2.338285324248871311e-01
-4.252077650222014782e-01 3.565026065047689485e-01 -3.905768701100149065e-01
-3.259605446733219170e-01 -4.102627321080050404e-02 -3.202325253379424419e-01
4.978397771861431398e-01 -3.614335203697849330e-01 7.425391907548452297e-02
2.249687670900539505e-02 8.753204238514094015e-01 1.191946474661534361e-01
4.476334068843290104e-01 -6.582976296285841800e-01 -6.857328910664738271e-03
9.659119876286509365e-03 -1.634841195615445442e-01 5.507470899062384406e-01
3.921278876114232120e-02 -4.304589487733930242e-01 -3.166030638060392532e-01
1.386839410088714676e-02 -5.033136025587209295e-01 6.863970139367978618e-01
-2.717835953348096689e-01 4.566962323557133274e-01 2.139220397399435591e-01
-4.067788394839964017e-01 5.001721939414867368e-02 1.560417071937904021e-01
2.197609500274292360e-01 8.922520287010653472e-01 1.528839819652293500e-02
-1.054592993828937057e-02 4.403658944971419187e-01 3.048421306459705993e-01
4.268416058255343759e-01 1.890802320428022487e-01 9.195615332666996766e-02
-3.661666517309744573e-01 -5.410748436365154790e-01 5.529272904021720336e-02
-1.207177114241864309e-02 -5.597407496742874411e-01 -2.585215334954465982e-01
1.590380967053447725e-01 1.419365624523511171e-01 4.025740746843234907e-01
-2.952938167545131054e-01 -7.856248682206850020e-01 4.708399790468643931e-02
-3.464686092414942520e-01 2.366986512588354075e-01 -4.424544157716199244e-01
-3.803191354007082192e-01 4.266165801387936107e-01 1.161880901701553143e-01
-1.175115626187405587e-01 1.065860877829797049e-01 4.187479066118094395e-01
1.996276046572194873e-01 1.959343715261363181e-02 -4.499941227222368223e-01
-2.771086327181920828e-01 8.963169659313223736e-01 5.823532370784411522e-02
-2.336234885194493349e-01 -7.355055211127151660e-01 -6.147077465406874941e-02
-4.658762715355244666e-01 4.580797156987546637e-01 -6.555746570461283562e-02
2.135831293819208943e-01 1.059009346550944114e-01 -4.727382659445311663e-01
4.191200410969697643e-01 -3.028107297754299432e-01 4.129049397664181775e-01
9.343601583096482199e-02 -6.142522163126352686e-01 7.373087711904530162e-01
-1.848107472295904830e-01 2.303479068699279264e-01 3.452553489648366170e-01
-1.695687127976492070e-01 -4.218960627428249843e-01 -2.643131793590203782e-01
-1.140157958807768018e-01 2.867178092177990467e-01 3.515144496880677205e-01
-1.592430490345696781e-01 -3.253591407981318295e-01 5.571668714262298927e-01
2.773047973377749664e-01 4.894405084901259223e-02 -4.084325489119228214e-01
-3.027120706697364882e-01 3.409960514406954468e-01 2.274385806620299877e-01
6.464382766133346114e-02 4.175002249805303545e-01 -6.502562668644410460e-01
1.237615182525914348e-01 -4.520507381663358415e-01 -2.998874341842431845e-01
-2.536783455098791107e-01 8.943747034401077212e-01 7.152132615562625806e-02
-2.666251261750123280e-01 6.296732178293515947e-01 -6.996925683413282027e-01
1.607159651146901694e-02 3.974155356564617048e-01 3.217729751198965538e-01
-3.128423169186279607e-01 1.328251983770547817e-01 2.826778487945029172e-01
7.826359904334892958e-04 -6.408662182638706108e-03 -4.904843463863816089e-01
4.599887176259785937e-01 -9.450539301467511533e-02 1.915602622535116373e-01
4.302789811740591608e-01 1.713108797182172627e-01 -2.071361594281059260e-01
-3.642266440631297120e-01 -5.824204198870981397e-01 7.987387720488417497e-02
-4.483151610540639376e-01 8.529469791783214072e-01 -9.689377244440967873e-02
4.086478943622225413e-01 -1.492744486845520302e-01 -1.971922515383328078e-01
4.737566724084825154e-01 -3.578723448093632520e-01 3.379079901522739626e-01
3.720858052046882025e-01 3.002035071235705788e-01 -3.675541427307292275e-01
4.580815649414297225e-02 2.939977257551555367e-01 3.626145263894888782e-01
-3.010142881373614743e-01 -7.580985354919791419e-01 4.098431401049310030e-02
4.018894107423692241e-01 -4.043066312698730402e-01 4.918073703691141496e-01
-1.052411915965488359e-01 3.514588476711699716e-01 3.289703499787731689e-01
-3.151841589843391578e-01 -4.007745961699633597e-01 -1.396620858131338849e-01
-4.326425340009271703e-01 3.150059331486058656e-01 4.852346745199794670e-02
1.455652274120920187e-01 -1.429165164247583053e-01 -4.130378134885519525e-01
1.047160294611453463e-01 -8.405844697009358102e-01 -1.477555916158971860e-01
-3.933230890248632372e-01 3.183852416662597551e-01 -4.245520744396609758e-01
1.286990435690942847e-01 -4.853772405944450363e-01 6.816067505757009704e-01
4.279632148844220718e-01 -3.826840765867599889e-04 -1.909461064793678831e-01
-8.359377878522897959e-03 3.032273688972592640e-01 3.609686318233690239e-01
4.189618115746294169e-01 1.526778731078460294e-01 -2.382523902135593452e-01
1.582349634998976018e-01 6.538372225279527605e-02 -4.860849256733726920e-01
-1.024788165458614675e-01 -4.069598169026710649e-02 -4.633605992185726996e-01
-3.917414355717136476e-01 5.885074234221980838e-01 5.602797468110653351e-02
4.867955939368587281e-01 -2.472034933244743049e-01 2.923022733053808747e-02
4.297335098389724051e-01 -5.112691181081528702e-02 -1.777623842067780346e-01
1.793798774386315409e-02 2.570395475267895913e-01 3.798525166465891445e-01
3.399401608375772765e-01 -8.353743643687181475e-01 -6.519386865385393137e-02
3.975907917248701073e-01 7.201257608460935877e-01 -2.970361214411220141e-01
1.842900655533931953e-01 -6.754233701172633886e-01 -1.990377645816058527e-01
-4.358823334065538013e-01 6.611128337397690485e-03 -9.859100480198813854e-02
-1.028403018333964164e-01 4.239206146560861033e-01 -6.629214121225538436e-01
-3.743899662102493364e-01 -4.495640354331549293e-01 1.483460251120268490e-02
2.796196452969960666e-01 -7.179547449624694710e-01 -1.439514522417504883e-01
2.081919279692346636e-01 5.551843013880081168e-01 -6.307394879215506567e-01
1.481639979942287466e-01 -6.305139712626852688e-01 7.404997916064719465e-01
2.067343713842409794e-02 -3.547333195176101406e-02 4.997268059226973036e-01
4.747493444674928953e-01 -6.448626860495538793e-01 3.632917134244013219e-02
-2.485940961651604275e-01 -2.566154368983499801e-01 4.677223758592994884e-01
-2.818444767242230253e-01 -5.822010923302508578e-01 -8.626593641765252507e-02
-1.384220759444331483e-01 1.901462463715251072e-01 3.800103654794430574e-01
2.642452834865085531e-01 3.479072164314679361e-01 2.466123756886754170e-01
-3.790455222404015556e-01 -5.672934251201019462e-01 1.380299334207396589e-01
-6.821968712269070589e-02 5.831510851219147140e-01 -7.321823271397581712e-01
-3.885710191187745632e-01 -3.924893362323264023e-01 2.372474552293895797e-02
-2.103676361644208070e-01 -2.411434513272394109e-01 -3.243310307371297663e-01
-2.294112090460293796e-01 -2.902157979433242496e-01 -2.871770566250609891e-01
-3.404866441668788490e-01 -7.917157046329321712e-01 1.554409611164506988e-01
4.857242035094653798e-01 -7.616694520432022442e-01 8.300591916976830797e-02
4.352296467077577113e-01 -2.232585494384170532e-01 -1.318943524718058369e-01
-3.527273602826784815e-01 -7.811434735168513166e-01 1.959988517849119427e-01
-3.336461778546164769e-01 -3.696377980521119433e-01 3.929297394729507897e-01
5.298914178040616679e-02 -4.283494028832551814e-01 -3.172684811641114377e-01
-1.083101059013699408e-01 -6.881281411029780415e-01 -1.730558310215258855e-01
-3.840485377512394827e-01 -4.803757385857470030e-01 2.701666030727413736e-01
2.607056424717696386e-01 3.055022849861621093e-01 2.702135642244299363e-01
4.081798591782819230e-01 -5.849444558098499947e-01 -8.052980843503795838e-02
4.527789252112354723e-01 -5.110187269638227781e-01 -3.472578815350069875e-02
-1.070868727228441036e-01 1.165367072291037531e-01 4.183535789480042344e-01
-4.207005039543843528e-01 -6.893129854652202751e-03 -1.586653125579187973e-01
3.600533494755021047e-01 7.661778358586337490e-01 -1.176314886835539003e-01
5.207808303053499399e-01 -6.116593734821792472e-01 1.661936426362186081e-01
