6.435301108411322080e-01 6.398971867636875643e-01 -1.448038642114557739e-01
3.560650116690211586e-02 -9.835301759840952007e-01 -1.913741150057772511e-01
-2.606739851371995820e-01 -9.269177698520851827e-01 1.364243708380072917e-01
8.256312369051409528e-01 -5.359204030595924317e-01 7.129745505702825281e-02
8.484050815176047422e-01 -4.749246977306694761e-01 5.764430594556719904e-03
3.356883629330228991e-01 8.547902241165337145e-01 -3.436100442475205352e-02
5.706252582676019092e-01 6.658537590518176508e-01 -2.565411032374477762e-01
-8.252857156099161484e-01 5.093871539551142469e-01 -1.115082660238098378e-01
5.914064028960104302e-01 -7.245975020557589019e-01 -2.414590394832580589e-01
5.159104414612781797e-01 -8.402331393471720311e-01 2.726167387377104734e-01
-6.137865217133223750e-01 6.605205510742924169e-01 2.223621519885508602e-01
7.282739218456830699e-01 -4.764855717431102922e-01 -4.699907335869587532e-01
8.957585771035697642e-01 4.176857505798688142e-02 -2.525460455605048060e-01
-9.312404748240171726e-01 3.146064610599056954e-01 -7.194034092860748797e-02
-8.374904955521681460e-01 -5.500666186077385333e-01 7.663704511229925929e-03
-9.140316775424048856e-01 -2.066582142631760016e-02 2.536446039525265816e-01
-9.269621865183761411e-01 -1.754562090848936218e-01 1.751996235353005804e-01
-8.650649165399746376e-01 1.653055042459441182e-01 3.522247809007453268e-01
-9.570151878859382011e-01 1.350433032457116767e-01 4.549847986306339298e-02
8.353550292975151503e-01 4.415517766694189716e-01 -5.176793761776545683e-02
6.547165183451911785e-01 5.773274999251928330e-01 -2.777501668723237893e-01
-8.766634914163876635e-01 1.745974993416624654e-01 3.032530218434139058e-01
-8.450906738423831221e-01 -1.852616530415953922e-01 4.330663909062962835e-01
-8.074644298413085064e-01 -5.383551428357996604e-01 1.149548304190299991e-01
5.820017420056318169e-01 5.520926734039217632e-01 -5.343732085808299281e-01
9.695148719810119387e-01 1.710393794808214574e-01 4.472266526426680461e-02
8.326415275543487260e-01 2.749283649813855646e-01 -2.924051894976354982e-01
7.275041594234563647e-01 4.304926385784768605e-01 -3.819743486601527294e-01
3.509669831493427705e-01 -9.035671635935589308e-01 7.620128454913407956e-02
8.058328590766004051e-01 5.005883762498980483e-01 -2.910879041774959777e-02
1.791646789007358964e-02 -9.764719034728600588e-01 -3.893036782537938334e-02
-6.253969601574229653e-01 -5.683310401482127849e-01 5.640813917081550777e-01
5.992702149108052323e-01 6.036958837277490719e-01 -3.580127817665398338e-01
4.648781293813773474e-01 7.516578006634097031e-01 -2.229190914222206055e-01
-5.811505600797284288e-01 7.452990099286651571e-01 -2.043192653242315859e-01
8.038165650781392557e-01 2.673693221293166333e-01 -3.889417723624052914e-01
-8.300816751058947007e-01 2.023712765709212436e-01 4.478199002833073705e-01
2.447528028443699544e-01 9.019872602111879134e-01 1.011348499071276913e-01
-8.379069208962904858e-01 1.259087570757711771e-01 4.743177248706937910e-01
6.752567137738355041e-02 -9.544555985450179358e-01 2.415649984950009876e-01
8.274108479070687583e-01 3.893355755030837306e-01 -1.584181176851182093e-01
9.012147366988867425e-01 -9.666474365375252176e-02 -2.349144679539592329e-01
9.337714722814569601e-01 -1.306004209848712905e-01 -1.101965744147619525e-01
8.937329961519581145e-01 -3.812211768479199514e-01 -3.037142013768920085e-03
2.815952661315888061e-01 8.028657287576828061e-01 -4.026066866576837322e-01
9.372144239369203378e-01 -4.814981694108814297e-02 -1.206568284731566743e-01
4.173466586084914609e-01 7.500670097135547776e-01 -3.379017350849018997e-01
-7.067831249753279144e-01 6.445914815089096583e-01 -1.467620318674809077e-01
9.825919023815092856e-01 -6.817238541815091868e-02 3.802421504870178576e-02
8.630249823153033351e-01 -3.407027109552865363e-01 -1.817881451952059746e-01
-6.200365999273893536e-01 -7.275720096989662933e-01 1.715485832676476585e-01
-1.939824481262979738e-01 -9.536390432834048747e-01 6.115228743783213128e-02
7.592350320810812292e-01 -6.347154412575835014e-01 1.257314952205450254e-01
-3.758483272119830798e-01 8.394865261752650909e-01 -1.121876849375359614e-01
2.911957706493637204e-03 9.046045218526342913e-01 -1.024664190792001911e-01
9.011271271582554920e-01 -2.949664446629087777e-01 -9.791801547306373810e-02
7.318218386879234982e-01 -6.099015758652343022e-01 -9.192056708572839130e-02
-8.031940993131544970e-02 -9.642961716306016617e-01 9.345643309529637344e-02
9.917583274934634041e-02 8.531538512559270204e-01 -4.429982087923027279e-01
-7.892675862553107935e-01 3.498210274915852236e-01 4.147506533839118159e-01
-4.151147157419884937e-01 -7.872095588589054227e-01 4.727645372628587750e-01
-5.491790294225698532e-02 -9.703592625994101883e-01 4.733915912996943670e-02
-8.289955811434402966e-01 -1.683458909674599713e-01 4.945728163915514286e-01
-8.718232338022731120e-01 3.145983552522761961e-01 1.558843834387807770e-01
2.011640796271236264e-01 -9.437029128495668662e-01 1.954830350289661622e-01
-7.212477554480138942e-01 5.747086569226080854e-01 1.100950424488212065e-01
7.367120886203459840e-01 -4.857157512664194710e-01 -4.171406780126463154e-01
-9.349124188896122956e-01 2.967548065147033176e-01 -5.670002710158314474e-02
8.536286696804088470e-01 3.885693938837458256e-02 -3.920866619997697144e-01
8.888959091699903947e-01 5.782340467391378774e-02 -2.704230689169492829e-01
9.242410897285208149e-01 3.976519315861116316e-02 -1.589693766005327857e-01
-7.836512131410853232e-01 -2.757835322602349426e-01 5.552286244248645364e-01
3.948210056447228333e-01 -8.850892447422147313e-01 5.499707109065971739e-02
7.547064157433981402e-01 4.611608061699399297e-01 -2.488194078520032937e-01
-7.861292392121501660e-01 4.222637011638382121e-01 2.872029669153365328e-01
1.759188683529912811e-01 -9.478795874859194948e-01 1.919673284052695328e-01
-7.491288851588533415e-01 -4.389385496255430175e-01 4.535676199033936706e-01
-1.850240115447995826e-01 8.967957261690916448e-01 2.724299998190443106e-01
-8.374997045938163964e-01 -5.312067186931727081e-01 4.237389891200776110e-02
-8.172809190249827882e-01 -9.631547551844062138e-02 5.648089864969069174e-01
-9.453134959445448349e-01 -2.116422526317315589e-01 9.635034371514564211e-02
9.562361245965745882e-01 -5.132543903851403966e-02 -5.544910883840806215e-02
-1.517162967933923523e-01 9.051006352905989205e-01 2.242496066497122187e-01
1.413036718943398162e-01 -9.437580748309343237e-01 3.448821352902137205e-01
-9.531850548355996766e-01 -1.440659810681354236e-01 1.034225711713293444e-01
7.042096709981138236e-01 -5.053192788757120413e-01 -5.037848414210933656e-01
9.226579630693526601e-01 -2.461677878557508303e-01 -7.064991757890050350e-02
-8.583507122914399989e-01 -6.531409263691723144e-02 4.371792151190971865e-01
9.598657850775693667e-01 -2.695545941511893751e-01 8.990754814841921128e-02
-8.162412059491022109e-01 1.118462101047235091e-01 5.574617596413261600e-01
-3.363556898073167267e-01 8.462909377981105985e-01 1.504488782214059295e-01
-1.345601841795918685e-01 8.822162121729825168e-01 -3.613472718985287768e-01
8.015693299131664284e-01 -1.191464223551848695e-01 -5.722147743141386966e-01
9.599785409422048055e-01 -2.489384592086158476e-01 6.823086782153198193e-02
-8.178398661998519392e-01 4.664347748611517019e-01 4.924192828164222074e-02
7.882173155758114280e-01 -2.433006063433283961e-01 -5.584930952247071367e-01
2.961263494983010780e-01 8.753426537732676982e-01 1.053007003470672956e-02
-2.781040859289003464e-01 -9.631002242031709848e-01 -1.221717645128743285e-01
6.297247107885211026e-01 -6.599391376403228593e-01 -3.565139634005480840e-01
-3.239903651086804004e-01 8.529463771612203482e-01 1.030702351901410102e-01
-6.550731725017422402e-01 6.850784944729669812e-01 -1.310519377962617027e-01
-2.740066723752920819e-01 -9.508727163783722292e-01 -3.473505729483500337e-02
6.714983276715387195e-01 4.287710234528087638e-01 -5.456433782552047029e-01
5.805883168982771680e-01 7.267500952005662151e-01 -3.809939306966763500e-02
6.273906299162875788e-01 6.424282184983168831e-01 -1.795481431498871516e-01
-5.041484482521275678e-01 -7.486124726180914957e-01 3.950425234517097040e-01
-5.405241236535641702e-01 -6.761589962454187530e-01 5.230062079537434183e-01
6.504555209213018774e-01 -6.996126977187289153e-01 -8.510485633011105611e-02
8.188930919134326247e-01 -3.629627620915998887e-01 -3.167593958121263653e-01
3.434581964043387781e-01 -8.962414292867220134e-01 -1.859071783755293084e-01
-4.012673619340358794e-02 9.272475222389355842e-01 2.781644249335967212e-01
-8.540759757544629238e-01 -5.119647876088129212e-01 2.862658045032496698e-02
-8.053962025640175604e-01 1.352328262965091787e-01 5.838248104076462219e-01
2.501447773638095784e-01 8.501871231014186403e-01 -2.152058347704219332e-01
-5.785417584613166131e-01 7.004596932842764856e-01 1.676674676426632427e-01
6.939946115258980308e-01 4.352051827361231306e-01 -4.696434211287686677e-01
5.854777909628097049e-02 -9.682465908521116216e-01 4.740404961532679318e-02
4.589414962520811381e-01 -8.146306347260067193e-01 -3.530260082981612202e-01
-3.370392387798215039e-01 8.537426534727675653e-01 -3.128011808851173803e-01
4.089391100705532800e-01 7.483600976615099043e-01 -3.636671168719493030e-01
-7.585574239113436201e-01 5.766281279292557738e-01 -6.558503713787981748e-02
5.546517107137008962e-01 6.746236789942167134e-01 -2.699406787101075733e-01
1.073787682799888232e-01 9.290970358250892902e-01 1.952967413237865490e-01
-5.476155925302276239e-01 -8.417036903047289131e-01 -3.884852833069594308e-02
7.468179220104936844e-01 3.347180132119890739e-01 -4.764393272179419103e-01
-4.410165686588679024e-01 -7.609728722294903935e-01 5.060937370711865446e-01
6.948001248139101804e-01 -5.823589770798034415e-01 -3.414196895934988873e-01
4.016524370195023175e-01 8.306964103896711249e-01 -2.665471371016237684e-02
-6.119663638107116777e-01 -7.467861092801482137e-01 1.339238745119553931e-01
-6.032530614264794977e-01 -7.806648384954568698e-01 4.744895897168834031e-02
-8.276453502219679459e-01 4.132225802315591112e-01 1.413148388640002862e-01
8.559059506075935575e-01 4.435807260592214418e-01 1.117728753489519340e-02
7.277954248094659073e-01 6.311236845889912628e-01 5.217902473847443184e-02
1.476608414635706135e-01 8.406159927001972676e-01 -4.471408668847045020e-01
2.736031355344699656e-01 8.244635507383293316e-01 -3.108655453393279200e-01
-5.618726727135323618e-01 -6.858582716364356457e-01 4.407011762387270659e-01
3.664413308097417832e-01 -8.708258547393668003e-01 -3.816125472972824451e-01
-8.130063064701106290e-01 2.540969749198681571e-01 4.582107078675908274e-01
-3.107804563103718776e-01 8.569660024488836569e-01 1.378712979023802021e-01
6.123335040040793487e-02 -9.411799306144196242e-01 4.004940667693174805e-01
8.706033307746602334e-01 -4.721578743952156154e-01 8.880041041061088880e-02
9.226248577200444334e-01 2.990155867183721394e-01 9.503413567744308649e-03
8.235778072234809510e-01 -1.568058979989753465e-01 -4.837276557798260712e-01
7.169468725589722702e-01 -6.215122404384342270e-01 -1.151777474269197882e-01
-7.894780137027672673e-01 -5.427587501548549742e-01 1.577421271442755735e-01
-9.468212833451359334e-01 2.846733266506398241e-01 -8.325547855575606004e-02
-2.321098773934958948e-01 -9.238847174435628196e-01 2.022278730962644988e-01
9.054180404429446050e-01 1.098707965186875996e-01 -1.954995537461828858e-01
-4.085993549743485165e-01 -9.102325402917157415e-01 -4.249372916338159389e-02
-9.408743393466668936e-02 8.923587434800125395e-01 -2.425410915791485766e-01
3.669359591687516020e-01 -8.980554856215567927e-01 9.523935898981260306e-02
-3.567610398927345550e-01 8.450852070976742070e-01 -5.613273077288219448e-02
6.413757828340368450e-01 6.884206169831638134e-01 -1.014352393031241195e-02
-8.943175268069650796e-01 -4.840985428409795288e-01 -4.248237038824653061e-02
-5.208753889438901830e-01 7.165129482658540994e-01 3.633795413951357856e-01
2.602477355499594469e-01 -9.309199671659377229e-01 2.432336317213985022e-01
3.436682018706134767e-01 -8.840495047550740448e-01 -3.743969362618959074e-01
-4.854188387100936697e-01 7.636342689916513216e-01 2.017951379492393948e-01
-8.489425318348284843e-01 3.549559480974228687e-01 1.753108841173414978e-01
7.954753243316170508e-01 -4.123484908306979668e-01 -3.284309457538165389e-01
9.144012105219693209e-01 2.226963511895010406e-01 -9.092317292236262727e-02
9.475538008776511756e-01 1.099141989224436400e-01 -5.898805980759511819e-02
-1.652544899558563152e-01 8.972931766840628320e-01 6.565169824302231113e-04
-7.950934188789681167e-01 4.319072683306313665e-01 2.293433084914155429e-01
-3.642897352809892908e-01 -8.303262677690005367e-01 4.164220994232933348e-01
-6.647745021361891604e-01 -7.244287760562374556e-01 6.663528758876424707e-02
4.432805360634138880e-01 7.854354053888858989e-01 -1.382219442081621397e-01
-8.647948977480373056e-01 -1.702831817414590665e-01 3.783878919070947644e-01
5.847129565666594475e-01 6.774685322988499570e-01 -1.858875991405626871e-01
-2.641070950375973836e-01 8.728300480065522837e-01 -1.910629469706506267e-01
-1.589792327358373059e-01 -9.825441713207824224e-01 -1.352225266232716383e-01
-5.341755079652250604e-01 6.997076772932223632e-01 3.982950732925387149e-01
3.751430395412171381e-01 8.114070823561748691e-01 -1.711702865045718891e-01
-1.169909578329078326e-01 -9.370982901001569942e-01 2.826443059669247471e-01
-9.005629584488080708e-01 1.182988063526245887e-01 2.574091544289516253e-01
-2.742360497040173817e-01 -9.479751816107020446e-01 -1.637419071367250331e-02
1.224737722670191375e-01 -9.689757081833691998e-01 -1.826331289334235386e-01
1.989099269018707317e-01 8.451313031593591374e-01 -3.336982852827827806e-01
7.803240636030340793e-01 -5.214171680792677455e-01 -1.564525687026879219e-01
-1.693579527194942758e-01 8.970790077375265792e-01 1.931045713249171861e-02
-6.132027874731130757e-01 6.499676295741663168e-01 2.786705777477890278e-01
8.431165730074378084e-01 2.045391525171406932e-02 -4.316140179388979758e-01
-1.523621677208452652e-01 8.942505995359993909e-01 -1.304721447371640364e-01
2.938460921151873212e-02 -9.668021425236339450e-01 9.171658667564158707e-02
4.676904068572689810e-01 8.134058505832850727e-01 3.325329006968194556e-02
-6.329819796981380753e-01 5.825639327964523551e-01 4.713659163126681095e-01
-9.167949676177492568e-01 -3.625010694010019074e-01 5.473829239472473990e-02
6.584524044222448413e-01 6.224119693500614892e-01 -1.531440347284345194e-01
7.574438127486287087e-01 5.875242188911775632e-01 2.351866476502346981e-02
8.562479293050039297e-01 -4.712149224503904277e-01 2.871573988986841908e-02
5.231004728842254536e-01 6.061873518120102222e-01 -5.500923250761846628e-01
-7.047871549333716290e-01 6.548699257597925261e-01 -1.960956473714336179e-01
7.214249762854191284e-01 4.446620658618242183e-01 -3.740479895915871378e-01
4.033912217376549036e-01 7.687987008284943302e-01 -2.947997703016752569e-01
-2.760893778635609697e-01 8.671783498107867860e-01 -3.334136233381881365e-01
-2.662167411389674276e-01 -9.583125252059420118e-01 -7.235474042246403670e-02
2.026132635254015157e-01 9.137357336638822769e-01 1.337458514526689013e-01
9.389038785212838745e-01 -1.118361215554232041e-01 -9.981987161868118019e-02
-8.899436153571188904e-03 -9.884061878583842997e-01 -1.987532209826963214e-01
2.616343776236203511e-01 8.567788861330658534e-01 -1.573149657916303457e-01
5.947828223280012816e-01 -7.856666807942838116e-01 1.817397978792475166e-01
-3.479033291464705413e-01 -8.655355812978278163e-01 2.952015976426596300e-01
-8.938383427427900596e-01 3.660364007088998672e-01 -2.138142743561214851e-02
8.502645095335671366e-01 4.770783762886713353e-01 5.318350558170428094e-02
2.155255885808426697e-01 -9.453703674265799828e-01 -1.377214193077505588e-01
-7.314187665232660951e-01 5.849672331466617692e-01 2.305133895825613177e-02
7.607950179102493937e-01 2.574716729509251567e-01 -5.314739125016167964e-01
7.209584326266104126e-01 5.573973345488308917e-01 -1.453768860615708980e-01
-4.868844197246582906e-01 -7.501617655313221888e-01 4.320904459848830537e-01
8.485180311614997084e-01 2.616093671972576917e-01 -2.581223131842821372e-01
-8.399976694103353791e-01 -7.128777219473673987e-02 4.968348483138942395e-01
5.650599833417230267e-01 5.656828834254072902e-01 -5.462699326788504894e-01
8.536816142253066397e-01 2.506597379276392923e-01 -2.534971367337083836e-01
-8.599734638332051651e-01 3.987947904952784950e-01 4.411652123415141930e-02
-6.198456754650556455e-01 6.823015220247219403e-01 6.921440649294684222e-02
-2.011847277837355008e-01 8.919876948171862052e-01 2.820021941523309650e-01
-7.146902153319865114e-01 4.613932109644844348e-01 4.843102421168158367e-01
8.646443776947630999e-01 7.321510543196144138e-02 -3.441198686356314873e-01
6.385781237959918810e-01 -6.913181469428862913e-01 -1.814324773665541291e-01
7.402672785788088072e-01 -4.720435030115073261e-01 -4.317355389770054508e-01
-5.603430722683567788e-01 -8.330591740516520849e-01 -3.514064773116364060e-02
2.881849243881537403e-01 -9.240158231217343587e-01 2.762379746064974606e-01
9.494653696268730014e-01 1.197668667150374455e-01 -4.823532163741094114e-02
-9.442752444562051151e-02 8.971246191436130779e-01 -1.739709126121954941e-01
-4.707114174489034908e-01 -8.180961551648545660e-01 2.278066615631156033e-01
7.864823127506648248e-01 3.089340307493313453e-01 -3.920339861266355364e-01
-3.585038608231652657e-01 -9.498142200409879221e-01 -1.653916908542371056e-01
8.331019984194955041e-01 -3.643218261181728757e-01 -2.610715664247714729e-01
-1.778471126428415039e-01 8.987627869780202561e-01 3.232934373802676120e-01
7.005614414536460721e-01 -7.008869473885469548e-01 1.644369600159414080e-01
8.348073962940583126e-01 -5.344371281243056604e-01 1.054457272948864238e-01
4.016158305816461827e-01 7.836519368482032233e-01 -2.370744274001959084e-01
5.430889318536394894e-01 -7.928808941277545319e-01 -5.372233861961996787e-02
-1.344815020556929530e-01 -9.228320662846134503e-01 3.604343933485495977e-01
1.049714694815089867e-02 9.194014950926633345e-01 7.704400218270006373e-02
-4.912964257814408930e-01 7.905254819940508160e-01 -1.446684244840362732e-01
-7.252112088990619876e-01 6.167983018084503000e-01 -9.113950994239258807e-02
2.054976591705399980e-01 8.279239141793764967e-01 -4.198422965693600628e-01
-7.886575102622029876e-01 -2.096321793583010851e-01 5.961311181282318294e-01
-7.260694096673168119e-01 4.180635309019664625e-01 5.346178510401555783e-01
-1.869611056534341564e-01 8.929306072256903981e-01 -8.873175543414582936e-03
-7.372837156051925689e-01 5.182228660221546157e-01 2.362060619194862876e-01
3.568700675968139446e-01 7.485043294482461862e-01 -4.806560025713834672e-01
-7.244409476028591532e-01 -4.107861935508633766e-01 5.690585532301335459e-01
-5.057499554830553468e-01 7.834858611142757612e-01 -1.504438336449707148e-01
-6.306057871436799855e-01 -7.709354235601528771e-01 1.186323444560152644e-02
6.735939496679744787e-01 -6.189709323547467612e-01 -3.139701243763802219e-01
-9.764741968624899293e-01 -6.365540681106111875e-02 4.302539742636753151e-02
5.969215701762213833e-01 6.078067476303812278e-01 -3.532762765542931671e-01
5.078861579517134350e-01 -8.237771957064684569e-01 1.701947435549521284e-02
-6.129234168597665899e-01 -7.796910133132299858e-01 2.702348204094194919e-02
3.525144600242051673e-01 8.182472182150417606e-01 -1.856246365417522082e-01
-7.927600759257985574e-01 5.363635832416895344e-01 -6.311485923596071856e-02
5.454843230534418830e-03 9.322379955485762260e-01 2.750947403506050493e-01
4.487202398841604323e-01 7.086014588056656072e-01 -4.173612760801370669e-01
3.212236463576628176e-01 -9.155996431128586854e-01 2.652983238184363768e-01
-8.914339141232573427e-01 -3.087556410609224034e-01 1.893838786657427165e-01
2.987178273599707112e-01 -9.219370981197935189e-01 1.939621256449325093e-01
-3.900771049227121923e-01 8.335759917167919753e-01 -9.671100720252094607e-02
-6.421876052449488892e-01 -6.366049311681203360e-01 3.597072063793683716e-01
6.136023583158814465e-02 8.909310916143549086e-01 -2.017528111119336054e-01
-8.319207717131158475e-01 -5.479890471330812751e-01 2.739092852105258838e-02
-6.316542036567959206e-01 -7.452248231153321134e-01 8.930521268859373252e-02
5.925072713045452799e-01 7.573475278230206165e-01 9.625399453715591247e-02
9.696241438527126721e-01 6.803756617756680225e-02 -2.076176313714774967e-03
5.436207310293388328e-01 -7.446248677053413090e-01 -3.674119232251025213e-01
-7.701815606939944603e-01 -4.196884324543271316e-01 4.207727254979778952e-01
6.381072764971109645e-01 -6.915046645202889142e-01 -1.827681310675855486e-01
-8.265312416628464165e-01 2.773446232627029689e-02 5.465404818739103554e-01
-8.559275591546751105e-01 5.291615627388844556e-02 4.408467652966775452e-01
6.034833794743040825e-01 -7.780694498122950886e-01 1.677972588770940410e-01
-8.044488269653526924e-01 -3.941957549023019647e-01 3.548257531695563349e-01
2.071369437506679623e-01 9.140328527323777763e-01 1.413317759323905187e-01
6.424757693128783087e-01 -6.664639487088368508e-01 -2.727202963861430351e-01
7.936724335378300688e-02 -9.558567183048978233e-01 2.165275024369853474e-01
6.653782986201998151e-01 5.875278286267250349e-01 -2.241284333700036824e-01
6.326533781926754196e-01 6.746430125642560727e-01 -7.340969531951307969e-02
-8.502080946927742522e-01 1.224290623742162604e-01 4.328569039539877372e-01
-8.943297577367312901e-01 3.023153433714006466e-01 8.931965266990864183e-02
-5.274846037228750895e-01 7.341318537533058075e-01 2.058649315949548364e-01
8.497915188598298419e-01 3.235759427726833670e-01 -1.826776690215399512e-01
-8.630774905999606395e-01 1.275500229111205530e-01 3.845436481412877749e-01
-9.921626463865552692e-01 -1.436277309369017319e-01 -2.406433527789934163e-02
7.603462628640449417e-01 2.239668479392522005e-01 -5.685088350336695573e-01
-1.238503857281236520e-01 -9.123185346118467542e-01 4.466684649216804970e-01
6.903355751567039622e-01 4.163240759266814139e-01 -5.137345293078678932e-01
-3.469226027015535896e-02 9.063636613687882093e-01 -7.920364638121210610e-02
7.917050411611452621e-01 2.436854284063234566e-01 -4.516343906504310390e-01
-2.564144627176569852e-02 9.032654909752332317e-01 -1.202047887629173334e-01
8.608404624644115932e-01 -3.140559844003290024e-01 -2.244775036197327045e-01
-8.063904419212597485e-01 3.500356572522783094e-01 3.485397496105939741e-01
2.307685314425281242e-01 8.649359182117358769e-01 -1.615834845714602674e-01
-6.080352621932446633e-01 6.960628171187147606e-01 4.271778965898885561e-02
2.840872078175943338e-01 8.682171895093286906e-01 -5.201505731979644276e-02
3.910054761110998700e-01 -8.765506184148856850e-01 -1.318735042184498718e-01
4.951979847118986866e-01 7.441050972141641795e-01 -1.806043710490046472e-01
3.598558074698148812e-01 -8.756546076722333538e-01 -3.684895685477448390e-01
9.365749017963423961e-01 2.872295084049173997e-01 3.954945807037343886e-02
5.422863224413553701e-02 -9.752243343114614937e-01 -6.776342067826743309e-02
-5.817837183772635312e-02 9.166798033330556539e-01 1.038317936861084534e-01
7.663717123231849060e-01 -6.220237677218980465e-01 1.065336897703559466e-01
6.495249406630865252e-01 -6.446207718167497047e-01 -3.271998812724971062e-01
9.311543556140247091e-01 1.369556138305516313e-01 -9.841268337384853626e-02
6.691431183908380653e-02 8.815499872343041110e-01 -2.751454540738817456e-01
7.284911515887979583e-01 -4.471615758358452042e-01 -5.260191594722107844e-01
-2.795699309387034148e-01 8.644436480000841083e-01 2.844058871166316171e-01
4.345051039984100805e-01 8.355991809868077436e-01 6.354228301884798369e-02
-5.510640855726782750e-01 7.506633296803877364e-01 -7.173165324391857223e-02
-7.367118856991786702e-01 5.521030672409110718e-01 1.260492998817159260e-01
6.753952870187862612e-01 -6.879211372856860462e-01 -2.400716060238175173e-02
-6.881052977959425387e-01 5.279685552552904060e-01 4.146017724434593599e-01
8.659432516319608419e-01 -2.046217010664197200e-01 -3.084405450925084002e-01
-9.372968226349981391e-01 1.337200199980762838e-01 1.169259927622126327e-01
-5.611949806074512104e-01 -7.557762379782027029e-01 2.317054309309825311e-01
-8.397321503678656374e-01 -3.884887602846843757e-01 2.565850381862768703e-01
-1.948819476224795399e-01 -9.866842259215283795e-01 -2.026858375909610654e-01
5.093374355449070690e-01 8.108302872156002428e-01 1.126147396662173505e-01
1.091071983695919012e-01 -9.596566918305592386e-01 1.190161261561896860e-01
-7.262618225458360444e-01 6.314261502632416700e-01 -1.706049935892268721e-01
-9.718600817791980262e-01 1.239520078969719025e-01 4.300404317953405542e-04
-8.778275817404153081e-01 -2.808978934530605431e-01 2.577493835719554260e-01
-9.748458961825030578e-01 9.019636373110448413e-02 1.110305856707778475e-02
2.591500789784760284e-01 -9.311731325369124734e-01 2.425205666337129362e-01
-5.185054754666059695e-01 -7.338883006168149814e-01 4.070249028224641741e-01
1.506217540588302983e-01 -9.634871800256888941e-01 -2.572202928933688404e-01
-7.969220427936243301e-01 -3.929937756954810513e-01 3.789554948962298719e-01
6.444964201696320449e-01 5.637425689888327929e-01 -3.380723719099105740e-01
-3.830290496142911838e-01 8.185085754347554143e-01 2.573361656407341380e-01
8.772521806536176525e-01 2.003488047136969541e-01 -2.261115956338258237e-01
-4.148985830576393807e-01 -7.750439729069530381e-01 5.179926801513893286e-01
6.240955013496557457e-01 6.280222735524442212e-01 -2.278525321004100379e-01
-5.941305402825403092e-01 7.030461416483991810e-01 6.908136602939768389e-02
7.636838204200456781e-01 3.414513849151420422e-01 -4.168138253038151664e-01
-2.904507619426804355e-01 8.669327353466412811e-01 -1.461059124829545142e-01
5.018750508787287457e-01 -8.408738969066171798e-01 1.781420340822953974e-01
-2.891269164484036591e-01 8.595857699777555982e-01 3.101859492317919353e-01
-8.849961416119821456e-01 -4.612029717483727698e-01 2.013747762084889398e-02
-8.288885706690427568e-01 -1.795001727971441419e-01 4.884048668348117128e-01
3.238385831996211661e-01 7.822416379342792547e-01 -4.104832350801776442e-01
6.772092563526947995e-01 -5.854453390465580442e-01 -4.063607617686865736e-01
-9.061750565107803412e-01 3.659020407593959745e-01 -6.970686585368249255e-02
-8.933238624817306794e-01 -8.384073445191138341e-02 3.176042305217127715e-01
1.096215597007978021e-01 9.038976614968556866e-01 -4.463734913770125989e-02
-3.178591997681755599e-01 -9.261507826404936639e-01 4.234587629280506249e-02
9.669116232141494738e-01 1.074583019140309612e-02 -2.135487755725266890e-02
8.796788164837288093e-01 -3.403594860735106309e-01 -1.196039778143507676e-01
6.677682196264482783e-01 4.631212732710882629e-01 -4.916817099071911223e-01
-2.785623799711798299e-01 -9.646411784489081764e-01 -1.333564727870477085e-01
8.874039099170868417e-01 1.529313520057433706e-01 -2.288345523210268961e-01
-8.908604056464884957e-01 2.269647421468152793e-01 2.015392089388254870e-01
-2.435898222598688323e-01 8.791623373120696083e-01 2.184748126644210919e-01
-8.894267166543423642e-01 6.728868551738023673e-02 3.205226261443926972e-01
9.794459653925939868e-01 -1.288034098154456075e-01 4.885936545402661674e-02
-8.044331123708183817e-01 -5.301254498440127749e-01 1.388262455213495061e-01
6.785659342666094940e-01 -5.530155744962294007e-01 -4.918692829054540083e-01
-5.408785555802311240e-01 7.692803386812149258e-01 -2.116894029600815685e-01
-5.230664999726236664e-01 -8.044858288510177147e-01 1.571915083557272608e-01
-1.645022255139857725e-01 8.997703519853336163e-01 8.817636840790045449e-02
1.225931849225247033e-01 8.992325707799904144e-01 -7.122220710612378602e-02
4.814104272555025932e-01 6.968202811890157333e-01 -3.790299810543050762e-01
6.681087644450371954e-01 -5.984999859313648862e-01 -4.048681389056404956e-01
1.066130914095392568e-01 -9.656393133867355871e-01 1.192867719150251735e-03
-6.290477486286214504e-01 6.951255174727958286e-01 -6.177300987517400643e-02
5.416582436657728650e-01 6.607297526671905841e-01 -3.450045526354607595e-01
-8.323093562451719940e-01 9.621871080348778915e-02 5.081229174349586319e-01
8.019397175965539137e-01 2.741103928626539288e-01 -3.870890287431349441e-01
-8.966321362959266406e-01 -2.360997698003937384e-01 2.350752297639853161e-01
7.903621641215374805e-01 2.803491305291819780e-01 -4.151561728271577767e-01
7.591573109236955386e-01 3.160901170051405584e-01 -4.648917878649136970e-01
-2.418963362406445772e-01 -9.706327613071604743e-01 -1.259108572523646163e-01
-8.238997296892394129e-01 -2.057283062204728202e-02 5.573540997898812632e-01
7.908348679922050373e-01 4.403976464586257800e-01 -1.823617952578553414e-01
1.985637215470537759e-02 -9.615514771662166948e-01 1.609544345296157475e-01
-4.025197811381082125e-01 8.071095503390455228e-01 2.695220019924821075e-01
-1.213409154201339907e-01 9.082254094795090271e-01 1.040638382853583122e-01
-4.758897847393455116e-01 7.710232021642857703e-01 1.898054375119203052e-01
5.280169788417397037e-01 -8.062989706657408551e-01 -2.752316442714741740e-02
6.030202722843790442e-01 -7.224434086498973118e-01 -1.964040112931072224e-01
5.965353169173548409e-01 7.274776138200244047e-01 3.023086288395772890e-03
-9.042636340335624690e-01 1.891911208581432136e-01 1.907473220120079749e-01
-1.468475056459455086e-01 -9.080537719210252101e-01 4.385587901349666251e-01
5.421068770915580259e-01 7.216215150335291151e-01 -1.484589224181209755e-01
-7.365285154686114222e-01 5.474719479168582703e-01 1.432434462103895911e-01
-8.564181711215512749e-01 3.668079261725277207e-01 1.239629216819865820e-01
-9.441703085401094153e-01 -3.422243563303853375e-01 -7.136683805616542663e-03
-1.501177760616238810e-01 -9.176637457996346114e-01 3.716648853391326668e-01
5.364679890816952401e-01 6.985704359707390898e-01 -2.389821556537668201e-01
-9.912478812994580668e-01 -1.201171304290011149e-01 -1.444406775900894391e-02
-8.942853794087612940e-01 -7.361258195135574056e-02 3.163654976884648362e-01
1.430230581779279586e-01 -9.609318360762967304e-01 -2.728572782641618816e-02
-7.716260773883834023e-01 5.629687581814822872e-01 -6.937984066829863683e-02
-9.304191629136088215e-01 2.403173435868713181e-01 3.958737183716572183e-02
-5.722297994448732883e-01 7.392695559928887938e-01 -9.186166301521175859e-02
-8.590529678969665017e-01 -3.588262159734931234e-01 2.348317779025553831e-01
1.789661920237831938e-01 9.237804085739943494e-01 1.919964978626327590e-01
7.515281030151362840e-01 -4.386186824771675097e-01 -4.520914409803543088e-01
5.283337264809616629e-01 7.401184396150722877e-01 -1.169984900527109989e-01
8.545707175399247513e-02 -9.566197358204298062e-01 2.009084100198594569e-01
-8.498952727579525135e-01 -4.854542014835195873e-01 8.505226451548483779e-02
-8.138882735242886080e-01 -4.053217516954469857e-01 3.114626841014864200e-01
-5.943201587009110387e-01 7.142941377530930280e-01 -1.197396197624397453e-02
-8.240208247633045158e-01 -2.087127696987399195e-01 4.848054594327256828e-01
-3.569993994880104604e-01 -9.137379653555178782e-01 3.867549604978717109e-02
-7.015103143573395705e-01 5.584286964188658331e-01 2.574854044677397646e-01
5.370099397136967462e-02 -9.832231333612152513e-01 -2.428924835759916079e-01
-2.191901609409821223e-03 9.108473439403902416e-01 -2.926421979410753077e-02
6.880010273948492516e-01 -6.383082441857603762e-01 -1.802720728022879637e-01
-6.400563852673083476e-01 -7.820231151193621777e-01 -4.709914463661486056e-02
8.025279594536043337e-01 -3.434346392252841662e-01 -4.048212255358176748e-01
8.260309792944708907e-01 -2.881732445694808464e-01 -3.818042541637113318e-01
3.067726084459356795e-01 8.327616795554217966e-01 -2.044662744250753117e-01
4.985455930366087252e-01 7.561008360332923672e-01 -1.284273774827495163e-01
8.425362181842112053e-01 3.625057421172777072e-01 -1.526561808710686918e-01
1.421430456217029868e-02 8.809343422120383682e-01 -3.316304987684450811e-01
-6.111868074823368913e-01 6.593241861027445694e-01 2.411656477909703833e-01
-6.520573467103228937e-01 -7.097457734007700525e-01 1.410266387622554352e-01
-7.317893629136590361e-01 -6.971285792067974940e-01 -3.223168300347663967e-02
7.152995869556100228e-01 -5.698029618076387859e-01 -2.925191698199532953e-01
8.790758709825279293e-01 -2.646730383868607372e-01 -2.115618268281788950e-01
-8.788775903712742199e-01 -3.237840956529544623e-01 2.129957869596315057e-01
-7.378297179964730113e-01 -3.778902505620945207e-01 5.760439736265137167e-01
9.186980775556043977e-01 -2.794783874353475306e-01 -5.075646913895563717e-02
-8.639730457432140964e-01 3.283000759689408410e-01 1.636819541542311185e-01
1.920469484284976769e-01 -9.520063426240111815e-01 -1.624623323408499465e-01
-9.121087662675243513e-01 -1.066688260778362110e-02 2.595589322012835654e-01
-8.111758447932491123e-01 -5.164871866442273252e-01 1.441921633389706137e-01
-6.555203080487734812e-01 6.046652532220635479e-01 2.859357723024790743e-01
3.253521106140529473e-01 -9.140833420776124374e-01 1.757772028933414221e-01
3.486184073686670049e-01 8.799646526467097551e-01 1.282245931282788853e-01
2.075168247340251071e-01 -9.450589102526653074e-01 1.012754862797025646e-01
8.118851038115941776e-01 -4.240594337624883914e-01 -2.441476968240903211e-01
6.369906210569418192e-01 -6.178261377035438873e-01 -4.759244506055442803e-01
7.785824518995617671e-01 -3.090440961190519809e-01 -5.339248582773055141e-01
6.807462466849715232e-01 6.685732813737983449e-01 3.166141711685447474e-02
-9.470851709054011192e-01 5.242128065887303318e-02 1.256545331882668315e-01
-1.999898686824458025e-02 -9.693305249985759708e-01 6.755413403909878156e-02
1.301012793229128217e-01 9.291153945941313941e-01 2.056647624539223451e-01
-9.475564063093767642e-01 2.412488655698351650e-02 1.327276220928120809e-01
-5.673075002252515597e-01 -8.300178652638015020e-01 -3.989179111541081568e-02
8.397229448090133275e-01 -1.075604704638465636e-01 -4.437954484285393519e-01
9.651457633746409748e-01 -1.589239469134333949e-01 1.470952625230150489e-02
-8.573303001042621441e-01 -1.308297625518765883e-01 4.212307733984025360e-01
1.639442225511242579e-01 -9.436428802555530959e-01 3.141992923873276888e-01
-2.445925389079921242e-01 8.776026721647410822e-01 2.845703355151462666e-01
8.229065461147836436e-01 2.583662383724142503e-02 -4.968901905463847801e-01
-9.899496596111085900e-01 -2.223232067833857267e-02 -3.854146906591293924e-03
-8.904560595175762261e-01 -1.581325039305138749e-02 3.331873218577230955e-01
9.081490648326566717e-01 2.086175763813239437e-01 -1.223210431380014757e-01
-6.676818657188231532e-01 -6.221677012017519104e-01 3.260514162285155226e-01
4.487902079065723693e-01 7.767378729241042334e-01 -1.614753389387205418e-01
8.467708340314473725e-01 -2.925138480117099871e-01 -3.011751030580535060e-01
5.545466901588904651e-01 -8.041948572652199978e-01 1.109758652231631199e-01
7.396738552776805919e-01 -5.998711528913588387e-01 -9.283011477339332684e-02
9.335788662644387559e-01 -2.001430153690120228e-01 -7.010555531661864792e-02
7.892762626335226850e-01 8.246890915929194765e-02 -5.843585022762907144e-01
7.687682071295214026e-02 -9.523591523420352756e-01 2.659301243910769386e-01
-1.005127151709913763e-01 8.907398904492893621e-01 -2.615464838999924657e-01
9.460844709173713563e-01 1.594365983556637334e-01 -3.738329515786553009e-02
-2.671177050869284475e-01 8.736521289814287439e-01 -9.042432704069177513e-03
-7.512805417787878914e-01 -4.449803355181374265e-01 4.377814669993887464e-01
2.141064861428609578e-01 -9.444612835723363853e-01 5.697027173993913368e-02
6.500432305551423484e-01 -6.867477918856422781e-01 -1.490196944722842476e-01
-8.568709818136033274e-01 5.364386739067775883e-02 4.374033153551714070e-01
4.611519011949081204e-01 8.371421020412087577e-01 1.256030630498074785e-01
-7.480026552766362302e-01 -6.108504049012367654e-01 1.332447382409913395e-01
5.320110298598836884e-01 -8.029222576887873331e-01 -3.368670212592757979e-02
-7.733013035850405670e-01 -2.919712930493560954e-01 5.710094132185836724e-01
-9.093874346658294971e-01 2.593439636941791693e-01 9.382076008317097315e-02
3.681615150093289213e-01 -8.903170448838881867e-01 -8.255232673431434076e-02
1.945571795967627193e-01 8.536064003869238137e-01 -2.904643419298944540e-01
6.023290911977300377e-01 7.372792366147664644e-01 5.005574600553217707e-02
-4.120884161181776473e-01 -8.880080032313678595e-01 5.836621857237666439e-02
-7.753190360297043116e-01 5.185756987613151514e-01 7.296079782045367113e-02
-3.950325896998395092e-01 8.359758527393371663e-01 -2.622970965632676621e-01
-1.342461386969071302e-01 -9.617532404229299781e-01 6.866328467089323484e-02
-8.145318266394843132e-01 4.473569064218880231e-01 1.130550113682157742e-01
-7.118574202355250069e-01 5.303022341338085033e-01 3.065928454670182601e-01
-6.950906774207704641e-01 -7.218740793826013968e-01 -4.023713037280376645e-03
-8.904409542391985566e-01 -9.881117488224887280e-02 3.235752813157149466e-01
-4.880061363108924022e-01 -7.921993706191423623e-01 2.840561310584107657e-01
-2.768312022123027849e-01 -8.570260048185339707e-01 4.803417166961581053e-01
2.322814496715762140e-03 9.245039621475035219e-01 1.536786377636843448e-01
-6.070940215038582721e-01 -7.803570554421721539e-01 3.908656571637350585e-02
6.309096447910766958e-01 4.828164491833848437e-01 -5.555551562853620062e-01
-9.564109583524861291e-01 4.892503428761633272e-02 9.453198022784116417e-02
-7.740740892984575294e-02 -9.434848870257236397e-01 2.788247155151279411e-01
-4.812798090758579894e-02 9.224282273359729611e-01 1.951722205112791098e-01
-8.505365102116746456e-01 -2.861221063524511665e-01 3.378867427527978418e-01
8.190481988816464831e-01 -2.460272028564151198e-02 -5.192344954599901197e-01
7.765148689346557109e-01 1.866120578839942090e-01 -5.533238226018951655e-01
7.807874577433682184e-01 4.700349441319912058e-01 -1.580896678970599156e-01
-3.696661796234468333e-01 -9.244009941797320939e-01 -4.183480604293779437e-02
2.491169882593402274e-01 -9.351639451385768131e-01 -1.210563998737999303e-01
7.266813774217629751e-01 3.174719972423604708e-01 -5.602536568997805722e-01
6.826399967692616810e-01 -5.970526838592464802e-01 -3.475284587405371162e-01
9.025703605344361780e-01 -3.785339126048574698e-01 2.642280689655706130e-02
-3.000286544554545687e-01 -8.830112123591955520e-01 3.064377530902834268e-01
-9.804090623722250264e-01 1.479157831317621519e-01 -4.858308054969810025e-02
-8.987263569179929634e-01 -3.523244855704086298e-01 1.213629871721028930e-01
-6.090023987649539894e-01 -6.405468116706196646e-01 4.383597580673846972e-01
6.230736913799352905e-01 -7.236504485857119251e-01 -9.173124532834384115e-02
-6.031829464740707802e-01 -6.416219997646072093e-01 4.510920852367209521e-01
-6.345632786861573615e-01 6.943158546383313423e-01 -8.551610206297315109e-02
-2.087670521874545326e-01 8.898197025557101902e-01 2.606057941908248576e-01
1.154489582195241809e-01 -9.509148470348679494e-01 2.598274151699450085e-01
1.374422464832104895e-01 -9.667350932791658469e-01 -2.496285781817797478e-01
4.046493968054606927e-01 8.638981878739546705e-01 1.437233602110859487e-01
-9.060550631801888022e-01 9.312678497721985083e-02 2.515827789121747871e-01
1.891895533040665878e-01 8.339363554607952533e-01 -4.153583135274718785e-01
-8.793817098327674220e-01 3.501129379148281151e-01 6.583921325323709162e-02
-2.827891775750003903e-02 9.222937172127845251e-01 1.538254650042905070e-01
7.908259162399156050e-01 6.366618985048884405e-02 -5.882266599080221425e-01
3.231155309679589194e-01 8.569748829108683186e-01 -4.585880085049576227e-02
7.066034861194496475e-02 -9.762720405298852544e-01 -1.315478354255577575e-01
-3.661720832332811537e-01 -8.638022067487639566e-01 2.653649443272710906e-01
-6.282043428166300680e-01 6.594931735432058018e-01 1.577102525158019797e-01
-9.275287465736670178e-01 -7.299520052931078584e-02 2.058417630239265106e-01
4.954696045288312645e-01 -7.818657072767737359e-01 -3.893030477171493531e-01
-4.348887691355163287e-01 -8.910999355113180531e-01 -2.862726567722666520e-03
1.664746054388136776e-01 -9.591356528941946680e-01 -2.250711436995691817e-01
-9.660579865493063023e-01 -4.793852135932868269e-02 7.850077808578530270e-02
2.130718613864642230e-01 -9.455994490370339678e-01 -2.181234221781488403e-01
-2.401341122103455572e-01 -9.221004083223467429e-01 1.997937229849161833e-01
4.873134262769371894e-01 6.466602311357712018e-01 -5.244029408757617805e-01
2.633714891878596864e-01 -9.290524335272575263e-01 3.010284130014359572e-01
6.940509893046468148e-01 -6.780555762847058077e-01 1.676478557384233209e-02
-7.326845150832647091e-01 6.205767843692544528e-01 -1.454763371774763780e-01
-7.318138289902411664e-01 5.257261947468107044e-01 2.359994044554570014e-01
-6.877900835658008472e-01 4.980389065664959647e-01 5.013665230433766995e-01
6.829804503351027956e-01 6.769147624884298553e-01 6.135490139230926482e-02
-8.891310632469346942e-01 3.192209736867276937e-01 8.216440060907088949e-02
6.645504627471372494e-01 4.289203781420506956e-01 -5.652355166591646052e-01
3.318371288660613705e-01 7.593683381992974990e-01 -4.916586989662857787e-01
7.008159244794215370e-01 3.886633744631451948e-01 -5.301386288724497797e-01
-1.856042867387713846e-01 8.953584150188417246e-01 9.740373315351921746e-02
-7.178597980984899318e-02 -9.288371526253771382e-01 4.011913782197548128e-01
-7.544060744032490273e-01 5.611752042876548829e-01 1.444855334447496184e-02
4.956847043010387255e-01 -8.493746694034198796e-01 2.579867140800502501e-01
8.271192073953035351e-01 -5.581463470100841429e-01 1.453330320579782897e-01
7.260786888054600041e-01 -4.731656433226935632e-01 -4.854201602989874909e-01
-8.975006308856355863e-01 -1.592052812838157944e-02 3.093668456454586879e-01
-1.081504896692665474e-01 8.816755729353119575e-01 -3.777306380409197750e-01
6.623255069571256648e-01 5.321761570159337928e-01 -3.625978757500227800e-01
4.398115053995443890e-01 7.144922617440208068e-01 -4.177780956543464264e-01
2.442284233591299758e-01 -9.373152450415674908e-01 7.647817313345031242e-04
5.553188051460232755e-01 6.169067988972725125e-01 -4.369652415958786285e-01
8.119331345710422143e-01 1.965858819329210361e-01 -4.339403605640703709e-01
-4.977622894097457062e-01 7.665143808060868036e-01 9.985893168880656534e-02
3.336971109991653250e-01 -9.083349348226620323e-01 1.427796423085416454e-02
7.158583074930182644e-01 -4.952122021369265714e-01 -4.796041331603185798e-01
6.132445787628849621e-01 -6.479909091459399306e-01 -4.748691158475386587e-01
-5.801950057130343952e-01 -7.686343638046319038e-01 1.433341695024105411e-01
-7.821016730996398492e-01 3.597752561602141630e-01 4.254692921446203702e-01
8.857370283463120164e-02 -9.508395620182941155e-01 2.813672722492155942e-01
2.916306759480121191e-01 7.814212913950392414e-01 -4.820584034741768886e-01
4.309937725805534359e-01 7.501030303309744740e-01 -3.066248799226012345e-01
5.871138020327978380e-01 7.659759557549472575e-01 1.145079999106613650e-01
-7.106529001303264481e-01 5.425947612072909987e-01 2.719787725282613033e-01
-5.409516658879791606e-01 7.148616531783357209e-01 2.696188959243203120e-01
8.739844024592734462e-01 -3.926655838911472518e-01 -5.955052578142415454e-02
-9.359694695809003262e-01 -2.546626852452679168e-01 9.693076459386780475e-02
6.037832741542996651e-01 6.470022845941033607e-01 -2.274114728275748176e-01
-7.224491729366407933e-01 -5.349068041686458885e-01 3.624537419092348500e-01
-5.989027342628259198e-01 6.627261039147436250e-01 2.828936299971692159e-01
7.248672176204641326e-01 5.584930900029629885e-01 -1.322148349495770592e-01
-2.602384581500023497e-01 -9.154143361561402070e-01 2.050149112187224787e-01
2.922994333458296401e-01 9.042717872450238836e-01 1.857064340489191778e-01
-6.149131130349622110e-01 -6.995834785630821173e-01 2.653656955957717223e-01
-8.321339613058947871e-01 1.305599872056034672e-01 4.921119786011937114e-01
-8.255227413309516038e-01 -4.651719765750910729e-01 1.886822315364288516e-01
3.648595255669608295e-01 -8.958258922514674705e-01 8.030744404241917100e-03
-2.236903038558065715e-01 8.850134248758317890e-01 -3.202212851948181994e-03
9.004469814534281635e-01 -2.236395243217587370e-01 -1.708184871762736812e-01
-6.435712011057979076e-01 6.910248570531485335e-01 -1.106916985376978357e-01
2.041043874144699358e-02 -9.418447180472621083e-01 3.755994704222225256e-01
8.679695447107232953e-01 -3.864370116735218463e-01 -9.333513298145101889e-02
5.628007849685963127e-01 7.077387739004892264e-01 -1.445154942221681393e-01
4.367358602955118130e-01 8.445885980174587804e-01 1.106710196729144280e-01
-6.565934326346313243e-01 -7.404626953522297494e-01 4.066095167203632316e-02
8.091772756536141920e-01 -2.794281668924672446e-01 -4.519862087644844206e-01
2.224538327879491129e-01 8.501517692150618588e-01 -2.637973931533321714e-01
-4.970695979152667809e-01 7.690520834240882619e-01 7.864288094042147514e-02
6.839653096315932990e-01 5.632757385680818851e-01 -2.324715753820665587e-01
-4.687660281449749222e-01 7.469933363748041399e-01 4.312170294288884542e-01
-9.825471956913626181e-01 -1.791354479484665307e-01 -6.485053101890326209e-03
2.571838569659652338e-02 -9.551463317550963339e-01 2.365651747643351677e-01
3.914061359310809229e-01 8.124398851810034072e-01 -1.326096528785696560e-01
-3.907546254556559795e-01 8.321791678239299772e-01 -6.464562910110470406e-02
-6.079444443831780731e-01 -5.922759968511521755e-01 5.579652786144153609e-01
5.427508881592432166e-01 -8.056755264393453686e-01 5.400387827491914816e-02
-9.800278293829919329e-01 -1.414382253958420266e-01 1.644272042175141599e-02
7.272774776361439208e-01 4.966218918764799262e-01 -2.579641056785476061e-01
8.145125447950991582e-01 1.614787103610849095e-01 -4.542016747015882872e-01
-2.819339636062910825e-01 -9.106807033949475549e-01 1.935072879696417003e-01
-1.342402361957284462e-01 -9.196296914109716170e-01 3.824605898240643898e-01
8.770836678258098207e-01 1.573294574142845847e-01 -2.587811926659872030e-01
8.084945284888794825e-01 4.597331818203034826e-02 -5.377484056986379102e-01
3.744122030667239587e-01 8.355602616209846234e-01 -5.802678775673753009e-02
-8.567103266527582583e-01 3.941157187657314265e-01 6.726610683670541935e-02
-6.220946837866798695e-01 -6.963873742124370159e-01 2.557712808407120453e-01
-9.633029036669351619e-01 -2.156700313940731750e-01 3.633354404271008087e-02
5.200549891473117414e-01 7.620415335605430496e-01 -5.638339217545398213e-02
5.447073460459042060e-01 -7.411907742996934889e-01 -3.806938822570096193e-01
-1.228927962267325064e-01 -9.398291563739324950e-01 2.547705301375831066e-01
1.138402180526717489e-01 -9.565263453110054437e-01 1.679417178972141822e-01
6.921635588067885925e-01 -5.890641739069231164e-01 -3.320532652949908514e-01
9.359876364965692419e-01 -1.117345975703032401e-01 -1.099850948854334959e-01
3.891035718950500155e-01 -8.796487403983522801e-01 -9.762358229750084382e-02
-8.604782688325471329e-02 8.873751878033504514e-01 -3.098268590383262966e-01
-1.767866531550313092e-01 8.949195011386638088e-01 -8.079948569386190965e-03
1.700787618345161456e-01 8.956221091451365135e-01 -4.447500148698278061e-02
-1.995447873061626520e-01 8.926911724608359577e-01 2.318774995715323917e-01
7.179219422068705558e-01 -5.671434655989638918e-01 -2.893014586533702581e-01
8.201705680344945071e-01 -7.004318077106891360e-02 -5.162060108097211719e-01
-2.701052895510273610e-01 -9.220706679576214926e-01 1.492007468787506508e-01
-8.996685709792606733e-01 -6.562926986649136873e-02 2.996908299389179908e-01
6.949297660700086698e-01 -5.212826581022544925e-01 -5.043531675559902450e-01
-7.790043200869887219e-01 4.536630097353429592e-01 2.421280618143834551e-01
-2.491606464620948480e-01 8.786530107636891795e-01 8.370729043514216206e-02
4.048956614562065348e-01 -8.892806571381687286e-01 2.942968476101044950e-01
-9.299722630540119273e-01 1.016426628202342780e-01 1.630398383417067665e-01
-9.771148227417549847e-01 -2.496499688641961312e-01 -2.970749524986777620e-02
8.222318677856007563e-01 -2.592861317713652802e-01 -4.230419730811376677e-01
-8.551283519920936937e-01 -5.269811679384720504e-01 -6.002610232729287685e-04
-1.072240219066289413e-01 8.969673249983410868e-01 -1.635337254849671129e-01
7.427076990504347664e-01 5.118926261471535843e-01 -1.837278867099266799e-01
-3.226349712383044244e-01 8.576269246037283578e-01 -2.886892411929951607e-01
