3.688901144089837963e-02 -3.660010659274998135e-01 4.052480316509104452e-01
2.507406850146403632e-01 4.890046679504279070e-01 6.598815763907859289e-01
7.435543740517748523e-02 -6.344499245300787571e-01 3.622492535139313352e-01
-3.774423086559429708e-01 9.146991790787030452e-02 3.547290972086311056e-01
-9.806107529457785965e-02 6.673115012436569016e-01 5.740314946802096419e-01
4.526523616936530825e-01 3.739792548186688936e-01 7.071042649370975486e-01
-3.732847700700961391e-01 -2.975104727707643115e-01 2.747174143263221291e-01
-7.864292486087413048e-01 -5.750328271981589717e-02 1.790652948898839580e-01
-6.989477724877937725e-02 -8.426300988911872292e-01 2.676909179923969151e-01
-2.210827705088934565e-03 7.360094648869135447e-01 6.222769871685595033e-01
4.394517064825515518e-01 -3.350801621494184923e-01 5.539141780045876429e-01
-6.344488532804408720e-01 4.291001070648797211e-01 3.346756351326770074e-01
2.380231548052142987e-01 2.009408062932516170e-01 5.950485535141765148e-01
2.093248699079647002e-01 -5.673997736026447497e-02 5.309353486953620749e-01
3.104193994845306781e-01 -1.122138961403025964e-01 5.550227472844481147e-01
3.663679226810520051e-01 4.785931075321092076e-01 6.985413342776641832e-01
-9.311086317493759701e-01 6.442584211586063758e-02 1.535037445607916884e-01
-3.351517543745088923e-01 -3.261499732118728345e-01 2.821872222502183059e-01
-2.915636534222909929e-02 -7.041011400108648788e-01 3.110979455229035406e-01
1.696590914793809912e-01 -5.202794309821606733e-01 4.198268665354299989e-01
-5.249462497809999351e-02 -4.616391514131892859e-01 3.536434318524387388e-01
-8.053318273046461417e-01 -1.759964821034383231e-01 1.475678121568037293e-01
-4.591092478971240398e-01 -3.196317186597489868e-01 2.397696007134567375e-01
-3.101124842192626296e-01 -7.081773556833360628e-01 2.110076272203921799e-01
-6.012611073913917137e-01 -1.640136490400612435e-01 2.221576583542421990e-01
3.401293507577061170e-01 -7.039382466887317280e-01 4.415674195575437500e-01
-1.338023320121078663e-01 6.330138727353419315e-01 5.542229673423492153e-01
-1.394012769823127496e-01 6.284533533956894458e-02 4.328115104386357492e-01
-6.626076531004608527e-02 -8.644766433235461234e-01 2.643982662055442967e-01
6.020699432060411249e-01 1.712720053261705400e-01 7.174187076230366111e-01
6.027874526392144050e-01 -2.310682473348408261e-01 6.333934670178992254e-01
-1.229605122632069225e-01 -8.064727878041233478e-01 2.565214908877156974e-01
1.131406113370890809e-01 -1.366142802568165449e-01 4.802307596967884673e-01
2.705595316471228751e-01 5.741310166481311539e-01 6.847133016826425500e-01
4.918780574914266568e-02 4.532119541404454610e-01 5.811935734127142705e-01
-3.908832988097669103e-01 -4.435197791268036815e-01 2.379167045456317964e-01
-7.127390761516452233e-01 3.537891572880804691e-01 2.912472865960234469e-01
-1.319109406602576584e-01 -4.010552192303059593e-01 3.382833922933176085e-01
5.331421316202187288e-01 1.644009843546527239e-01 6.916334449895052972e-01
-3.012508547560789340e-01 -1.262867735813344161e-01 3.360269265117541981e-01
-9.571990847950957448e-01 -2.363969991342943291e-02 1.258411499228481167e-01
-1.031573908821948188e-01 1.165692456799466703e-01 4.568668168564615217e-01
4.665175306783695963e-01 3.440784613417069981e-01 7.057382258596817115e-01
1.367677896739276922e-01 -4.431529882471219040e-01 4.243650987423363552e-01
6.060665650333293408e-01 5.008151622875776920e-02 6.934444437285240959e-01
5.147241841702935305e-01 3.249073220405139240e-01 7.187494903001721003e-01
-3.177681308828031459e-01 -2.240660055685150809e-01 3.097109345385528623e-01
3.941042992787018862e-01 -7.438122640810253261e-02 5.925059307475023518e-01
-8.956705929446999725e-01 -3.223333919819854620e-01 8.500591068958320007e-02
-1.003622473190585035e-01 -1.778974943786473806e-01 3.961718049165293132e-01
2.716662948541630485e-01 5.999874311048813968e-01 6.905203940014648101e-01
2.146521995017627860e-01 -6.861442862195338277e-01 4.009749749298502919e-01
6.122092554145958099e-01 -2.382243411923802012e-01 6.352223454186928242e-01
-1.967417027760579029e-01 -5.604177524251624520e-01 2.820026767529873468e-01
-8.380153173550537460e-01 -2.377089244129756695e-01 1.230967057848467994e-01
1.849865800301538354e-01 -4.690119253221686768e-01 4.359797494089016068e-01
-2.165598049941513115e-01 6.768064763696609587e-01 5.341654993540333463e-01
2.256877702896712412e-01 -8.643822633661607524e-01 3.675371347029898761e-01
-5.985472855988229618e-02 -2.578881742355215168e-01 3.937237205419120700e-01
1.975374921863383704e-01 2.470869403013868926e-01 5.904149020396447511e-01
5.985377097081571139e-03 -5.622782736704010631e-01 3.532181528231916889e-01
-1.041125152615379884e-01 7.540730081247695171e-01 5.900680983604963403e-01
6.208944001136665891e-01 -2.629932344022866131e-01 6.331016557447429749e-01
-6.256313497006278368e-01 -5.629725142599512067e-01 1.299794797933883639e-01
-2.521827348495878085e-01 -1.646367503059443377e-02 3.763630396282508506e-01
-1.933537790401913814e-01 8.408874795872649244e-02 4.182048371424854083e-01
5.181012846735036370e-02 -5.972060816109037162e-01 3.620875386048828526e-01
2.613671671476355263e-01 -3.351016770058616312e-01 4.910084577438311171e-01
4.955825717350471615e-01 -3.937822771791680831e-01 5.614437534852521061e-01
7.758074887830575771e-03 1.110913465529110404e-02 4.739524021006787380e-01
4.376954087840240204e-01 -5.371177062844474381e-01 5.109728013569359018e-01
-6.096237989655742817e-01 3.749002457441229508e-01 3.320907820353519169e-01
-1.142670346055811997e-01 -5.185945067133872904e-02 4.176618299679336066e-01
3.501116953326534609e-01 5.286965225155468850e-01 7.032946941765280124e-01
-3.061105353620831027e-01 2.447212710119212598e-01 4.120259180657601661e-01
8.368967292445120276e-02 -5.209661471296990198e-01 3.893177738426356060e-01
-2.821572771326275597e-01 -3.576578235510551318e-01 2.943054082580259800e-01
-9.965129186514240511e-02 3.513575011159435491e-01 5.072865694481180077e-01
8.541922142634596204e-02 -9.055193713236844300e-01 3.093758645629421378e-01
1.658553010829283691e-01 -7.513370055727701669e-01 3.700834363914872194e-01
-5.454446655599484162e-01 6.679798874937249442e-01 4.161512112662235086e-01
-3.418100834941845134e-01 2.159650354407155748e-01 3.933928845152776521e-01
-7.455016742567189825e-01 -3.710778529384126806e-02 1.977935854368028656e-01
3.477750284176520656e-01 -4.012254340889165327e-01 5.076775466293096395e-01
-7.305866268840498223e-02 -2.527467051501215978e-01 3.901369503404547023e-01
-5.566362221228785545e-01 -2.995764194676892034e-01 2.095231191403744697e-01
-1.131173271692523102e-01 -3.728417150809487102e-01 3.508313966257670113e-01
-5.444459332158378961e-01 -4.896152690760562365e-01 1.740211945022654139e-01
2.108585369958758393e-01 2.854021386643043057e-01 6.031459546243387315e-01
4.734497902592817442e-01 -6.270088991216965502e-01 5.047719903170997391e-01
-9.028722293082958039e-01 3.421292380108557074e-01 2.216479673887590540e-01
-3.074574134779051726e-01 -7.471636352140791082e-02 3.446372214973086323e-01
-9.953548606086121131e-02 -1.803198848030257428e-01 3.959564042495524183e-01
3.221375542647905710e-01 2.231863367500334580e-02 5.873423975749368919e-01
4.696943491474530052e-01 8.648813960723431005e-02 6.529025706977902299e-01
-2.714732301607616916e-01 -1.216143486017193936e-01 3.475234150381936726e-01
-5.553613437632822780e-01 2.438067221181080824e-01 3.237965056864873792e-01
-6.672940245024031602e-01 -4.699711202721524872e-01 1.347449208158757739e-01
5.290662015379083566e-02 -6.383563214858867241e-01 3.538550425490732954e-01
-2.379342002774788647e-02 -4.902897268394054708e-01 3.577795114230617468e-01
-1.917226215761386743e-01 3.632355381114658610e-01 4.772541748117827276e-01
-2.794193293949365220e-01 2.723270646082692203e-01 4.272361320329579604e-01
9.925148078364370852e-02 6.486361928956949630e-01 6.398122949613082033e-01
4.379936984211468820e-02 -3.291547168727501638e-01 4.154070851062572345e-01
4.047539054126800262e-01 -1.503212805790442863e-01 5.803602267038707740e-01
1.817728025496868349e-01 -1.159305444551434611e-01 5.088049714454586647e-01
3.764721830274351810e-01 -7.577750473249824648e-01 4.431268098260555677e-01
-6.620864873475508228e-01 -1.123842485350132619e-01 2.114884044516696926e-01
-7.166695615860322333e-01 3.671638002138000734e-01 2.926606021443420302e-01
1.490965729097800951e-01 -5.393133339596349884e-01 4.085769290407603727e-01
4.017745950014197098e-01 4.067287388373835300e-01 6.959938083703374190e-01
3.169401539607983320e-01 5.596495735244085834e-01 6.980619499352925805e-01
4.629592180793509204e-01 1.411724491844908447e-01 6.619784408104022466e-01
-2.835620864672217523e-01 -5.589464261721508453e-01 2.516450623967161904e-01
-3.444780215950667968e-01 7.078058576238561717e-01 4.954770009668210129e-01
1.011091892665822722e-01 -7.077741949342922778e-01 3.563396235870985307e-01
4.162662731244249348e-01 -9.117222713519912425e-02 5.968165281272928002e-01
-2.319405231565020015e-02 6.924683378130223055e-01 6.057448959490581153e-01
-2.561427156360977508e-01 -5.979565971292101212e-01 2.531583492281471726e-01
-7.760112478645421197e-01 1.623616325176272523e-01 2.288003901507279780e-01
-1.189580930498736339e-01 7.889321764215392885e-02 4.433938126045765538e-01
-4.923699403272196462e-01 -7.772666518286440451e-02 2.786937242033987738e-01
-5.124804278277347303e-01 -3.088869978236012392e-01 2.231690831667203778e-01
2.009602361044157126e-01 5.292903378945127413e-01 6.507373167422895177e-01
2.555770147665312186e-01 -3.048995117083517226e-01 4.952898009280644054e-01
4.198300765771514897e-01 3.728070909561302382e-01 6.952655760148882536e-01
4.140293811719285566e-01 -3.930631783288619507e-01 5.327889936936934800e-01
-2.968960501387741258e-01 4.374213895633000115e-01 4.556456788183488316e-01
-9.689116123852141438e-02 -8.675538052859269600e-01 2.529347320092348306e-01
-5.609638573001396455e-01 -6.172990445249310065e-01 1.414408348084775502e-01
-5.230748102883886475e-01 2.010004373814651968e-01 3.262337460210494866e-01
2.208488207491441924e-01 -8.281422832268547918e-01 3.734192000675659595e-01
-9.617231671829786777e-01 8.665055886571741001e-03 1.310101135328490540e-01
-5.275557820862182279e-01 -3.689518050591886755e-01 2.052624758055953125e-01
-7.432843047565701466e-01 3.569931137834349566e-01 2.811295473907056697e-01
3.417316866229263561e-01 -4.635616548909847756e-01 4.924853394478069801e-01
-2.399194233910883212e-01 -4.306245473934878776e-01 2.939398113282253311e-01
-6.406179545808274867e-01 1.693991258391663590e-01 2.780967867930040915e-01
-6.802758767458964018e-01 1.519894220730713119e-01 2.604423875115385867e-01
-8.469595128350806412e-01 -3.547133296121857682e-01 9.542848151621173558e-02
-8.462843426859306684e-01 -3.579401047855596540e-01 9.499104198467310523e-02
-4.518585682744556964e-01 -6.744375583241275507e-01 1.680090279263412312e-01
-8.003196287579262824e-01 -9.249101064401996086e-02 1.668301564861495168e-01
-5.075352463910087764e-01 -2.593751514873825492e-01 2.352870729336667410e-01
-5.720152342338811341e-02 4.396857447519631618e-02 4.578911364598573508e-01
3.006537203056912078e-01 2.200532852824073349e-01 6.211737989840234730e-01
-2.792187049953256950e-01 -5.424788329134366816e-01 2.566286730751832224e-01
-8.219752473501907852e-01 -3.831165066666272767e-01 9.830352427317620712e-02
2.407672177585005735e-01 1.827484140533272017e-01 5.922070024102406016e-01
1.160350605209277963e-01 4.977098668916830615e-01 6.141257108579392110e-01
4.519550542168995766e-01 -2.445471878956120282e-01 5.772945290511357630e-01
-7.841951210076886225e-02 -8.050208406865545507e-01 2.725579519174494703e-01
-5.857433973800071358e-01 -6.517376045726759326e-01 1.254745726752574675e-01
-1.904445928287565037e-01 4.599958929055455448e-01 4.979740891273113923e-01
-7.840795319417045439e-01 -3.444308897814618020e-01 1.197921845775106187e-01
-4.199821741191962082e-02 5.759882858423192031e-01 5.747038701554291196e-01
-1.003306868267008350e-01 1.231330583408690379e-02 4.360266258435153142e-01
-9.192586808988225666e-01 -8.193877151623446542e-02 1.270301012336333413e-01
-7.122683978261009630e-01 4.331360523501960325e-01 3.080344195018481224e-01
5.751583022490418529e-01 1.073155612685289528e-01 6.945162215988619492e-01
3.952634438981441067e-01 -2.459972583846314065e-01 5.569667459238316631e-01
-7.855639437474723485e-02 6.366045483919858805e-01 5.744885196459585952e-01
3.969651864126855223e-01 -1.460122969464172360e-01 5.785117821504269786e-01
-3.806090254797072636e-01 -4.224526242232361506e-01 2.459586400790420013e-01
-8.484358283466874040e-01 -3.887561278247306795e-01 8.777604853287672426e-02
-2.189496081298323571e-01 -4.397428417339156459e-01 2.994365371179663615e-01
-1.737968576173386792e-01 3.456274382035141590e-01 4.798973424324730064e-01
2.015665650102687056e-01 -4.150203084842113421e-01 4.531456490370423529e-01
1.483656386749208356e-01 -8.544399228204191399e-01 3.423088295766126277e-01
-2.610697566599635283e-02 -6.373817647385493501e-01 3.261508036945013900e-01
-6.610155315586022651e-01 -1.040587670167282403e-01 2.136106247031503425e-01
-7.722990161939142784e-01 -3.409416207025614542e-01 1.246840799609211098e-01
2.415700810271985410e-01 -7.793093761885484527e-01 3.909672380941640601e-01
1.120104264731950766e-01 -8.586631875669867853e-01 3.285831584216437617e-01
-1.628127754942386082e-02 -2.017521052089992287e-02 4.589082985238133183e-01
3.270822994511645709e-01 -3.343939874708231619e-01 5.143679303367082456e-01
-6.664391087028558314e-01 -6.344465741370065581e-01 1.005940244243776482e-01
5.195387358062549810e-01 -3.738936840451122928e-02 6.445593360470271982e-01
-9.117308209335545088e-01 -2.783215415266348386e-02 1.410227904297264578e-01
3.955147031254709900e-01 -1.856337907229475004e-01 5.696998976352218857e-01
-5.416128968942273136e-01 1.439735211388254998e-01 3.077404179792179173e-01
3.367270576344175703e-01 -7.294576382082120780e-01 4.350201200395176770e-01
-8.512016035136613645e-01 -1.442325048592369430e-01 1.380197919310154064e-01
-2.757260447123748293e-01 -5.735589533620086972e-02 3.594815706040164205e-01
5.374065799884768929e-02 5.885946326351261249e-01 6.111604498817537756e-01
-4.268984460429396943e-01 4.921453785057094965e-01 4.211906484255590888e-01
-3.216860448149855833e-01 -2.872556659053784323e-01 2.950906784611072031e-01
-6.873356136990961263e-01 1.130730606985041742e-01 2.497969642365791554e-01
-6.407693595850614265e-01 4.649734382228573049e-01 3.399575976734074412e-01
-2.010467719458253755e-01 4.930233231673540328e-01 5.011475885445857426e-01
-3.558282684763691139e-01 3.618046066899648916e-01 4.189907049616187762e-01
-1.335552176526065282e-01 3.011157452404704671e-01 4.847871709332742252e-01
-7.040000943335603667e-01 -7.011851585697883582e-01 7.334730683956688924e-02
3.009207438086153874e-01 2.289412752414344415e-02 5.799689604786213426e-01
7.793864436038212655e-03 4.354857882350507414e-01 5.628597053818960028e-01
-1.570898402194375806e-02 1.068962477489682483e-01 4.857282416536471970e-01
1.764662516856556895e-01 -1.499952536047021168e-01 4.997950718968320327e-01
-5.092109176358237121e-01 4.550699195723210133e-01 3.843508339327363910e-01
-1.449076100970222158e-01 1.125379682622945771e-01 4.412757918857617145e-01
-2.952090676790928292e-01 2.427073903868533777e-01 4.154545739631472223e-01
8.875754371391487985e-02 -8.348100782391475183e-02 4.827483072555473487e-01
-9.753789945813049964e-03 -2.760507674773968745e-01 4.076153264415682265e-01
-5.419529193755027174e-01 -4.296220429729557394e-02 2.684626788912577999e-01
4.758223435790537303e-01 3.787243101417037128e-01 7.162820829305929227e-01
8.371223710707906274e-02 -2.632569821050506076e-01 4.433083767123640606e-01
-6.029420040193151920e-01 -7.571934791308788659e-01 9.730989297114743530e-02
7.010893872106459257e-02 3.826421861337942487e-01 5.738007938013004461e-01
-3.716137889149718765e-01 -8.644604340411781163e-01 1.565479657577120987e-01
-4.680443814798578295e-01 7.152315882741235864e-01 4.533876217379916862e-01
-2.651794254673567885e-01 -4.176602886362996703e-01 2.877333678514596982e-01
3.548748593844759380e-01 -6.637565417068774787e-01 4.551925860663253998e-01
-3.331939035231077928e-01 -4.835007307962671530e-01 2.499183116463826182e-01
-5.240950014998720791e-02 6.973524925423834064e-01 5.964488014530092697e-01
8.733537480375166973e-02 6.616388277032814180e-01 6.383270857052425473e-01
6.126709585090991395e-01 -3.538930510342975233e-01 6.111561668108329570e-01
-6.742485156577661398e-02 -4.150574873659419461e-01 3.581274430930357910e-01
-3.825442988836645353e-01 7.368035516355970760e-01 4.881057969218077219e-01
1.799823121676359661e-01 -4.754586157541585978e-01 4.328617971013750121e-01
-8.053965417101255353e-01 -5.210962664672524891e-01 7.525650862195382151e-02
-4.116442275691803987e-01 -1.511679514331703833e-01 2.918230110745255179e-01
-4.155508064701323723e-01 -8.946952206274436659e-01 1.346956630946886391e-01
-2.731163835445140076e-01 7.567562707731079197e-01 5.309363333961452103e-01
-4.892099768913773516e-01 -4.405376496938239739e-01 2.038114233343411297e-01
-1.183786263057362981e-01 4.042133735177184106e-01 5.117436703777246132e-01
5.393351813126563421e-01 1.648994106492243095e-01 6.939252970705501733e-01
-4.352961884166329232e-01 -2.080490727663413530e-01 2.715539521023266345e-01
-7.529321217670141841e-01 2.500576244721646746e-01 2.553219443714125347e-01
4.565357119546312181e-01 -6.994287102279521384e-02 6.154870280558398798e-01
2.948187494307490941e-01 -4.499624433022304526e-01 4.787638702897737408e-01
-2.446128883888385452e-01 1.572994837799117085e-01 4.154351511954897935e-01
-8.588019331077497709e-01 4.351397030253584819e-01 2.566970384023198881e-01
-7.602404511686949862e-01 -3.418895941670337391e-01 1.287447108272845864e-01
-4.032713904271241212e-01 5.279266905176996927e-01 4.370311094802296070e-01
2.692055489892308806e-01 -8.034158903746019265e-01 3.956787385575627480e-01
-1.492894332580861350e-01 -4.464248552288428984e-01 3.226415080774877042e-01
-2.780667630143975888e-01 6.169980153097947007e-01 4.999124892946540943e-01
-6.133778097373059068e-02 3.892157239557451076e-01 5.287494840573563337e-01
4.960606028127500511e-01 1.395186399439903979e-03 6.443908731699661274e-01
-8.444146389918786300e-01 2.959585701669013025e-01 2.326243416283824417e-01
-9.658989203444362515e-01 2.178430387555360323e-02 1.322833002350132514e-01
3.435935411702971676e-01 -7.672289044755946641e-01 4.295334394011299795e-01
-6.106403863478410132e-01 1.240199125390435697e-01 2.791795235763616101e-01
-4.180169264952531827e-01 3.873683989921268833e-01 4.023799351135882718e-01
-1.278191209100538843e-02 4.464246930550589409e-01 5.578835233099900259e-01
-8.645923303632603307e-01 4.321900843179133367e-01 2.540339530555227876e-01
-8.210039822990423675e-01 -4.220858183213181958e-01 9.048363846011357736e-02
-5.355216556834333508e-01 2.544185610276449294e-01 3.330269529576427856e-01
4.521274765095972814e-01 -4.450657104937364578e-02 6.192581666647274385e-01
3.825786731475731006e-01 4.608002518667046465e-01 7.005400412396827203e-01
-5.096095033034812039e-01 3.560213427749842063e-01 3.634622311008662288e-01
-4.200740125085062338e-01 1.256391677871856460e-01 3.468286312403995875e-01
-1.471010792691141988e-01 3.711029184620152077e-01 4.946629322430314279e-01
-7.715472943011554285e-01 -2.777478075193577922e-01 1.381868757228534861e-01
-1.876363717244623752e-02 -1.250291326261170066e-01 4.360676338960761678e-01
1.118641078778802173e-01 1.917334249572321958e-01 5.485592547277782227e-01
1.086815767305439051e-01 -1.358003377262403111e-01 4.788262822209392588e-01
-1.317731040657568464e-01 4.386207883539982033e-01 5.142199693527980120e-01
-1.271512834234280465e-01 2.235617273996261811e-01 4.708037749384642034e-01
-3.462974786650088732e-01 -3.959274044477526511e-01 2.636340844661952398e-01
4.046379274744554277e-01 -4.095980221502912300e-02 6.032273358649885564e-01
1.492217740396192260e-01 -6.640641388853977256e-01 3.824894577996443279e-01
-5.681207533539875953e-01 4.797451131338311553e-02 2.782685597883119977e-01
4.822255867350462299e-01 -5.667231540424397807e-01 5.204998119177386418e-01
1.798209525179038926e-01 -6.783245971157477738e-01 3.903102345920079763e-01
-6.581907143850453945e-01 3.762619579031999950e-01 3.152217084999874297e-01
3.554643241379789043e-01 3.824512305253985334e-01 6.745511271415115528e-01
2.000888719675767424e-01 6.340987366688625171e-01 6.723838772780228457e-01
-3.759336898440204244e-01 2.501823174889976549e-04 3.361540540903212859e-01
-9.934051948249051911e-01 4.154004713700332890e-02 1.267060712298527514e-01
-7.673001662215853669e-01 -6.023137758339351944e-01 7.169979931525062578e-02
-7.605460897257852737e-02 -6.144886104436891872e-01 3.133042627633912947e-01
-5.414281930992341785e-01 -6.253276840665685787e-01 1.466592555511289642e-01
-6.008103737890618801e-01 2.315409782665828198e-01 3.051741412184121871e-01
-1.282875056708027844e-02 -6.226673201973947913e-01 3.339230550918050322e-01
1.823865504611127120e-01 4.639229934471153505e-01 6.304843357529310577e-01
-2.164754370055370705e-02 3.415348961455218491e-01 5.327807094018217615e-01
-2.388739794545381365e-02 -2.684828198017555900e-01 4.042084635112308533e-01
3.641239473754118161e-01 -5.784418177927865834e-01 4.763304276599319431e-01
-6.143403051538721682e-01 4.868464487877376401e-01 3.538743645300807539e-01
1.028857929644386333e-02 1.024841662304338541e-01 4.939866333551658495e-01
-1.993734285014518992e-01 -5.294445772273690398e-01 2.875611116681133228e-01
2.766143188315569046e-01 -2.753962152433623300e-01 5.089004731414674687e-01
-2.642758827903187724e-01 -3.245981500576319845e-01 3.075463404258245159e-01
5.249882302079843521e-01 -5.939328898707505466e-01 5.299043444024064131e-01
6.100153902360834213e-01 -4.137653051399697857e-01 5.976766845251085813e-01
-3.976533308266404221e-02 6.214214379186471238e-01 5.850094811239328063e-01
-4.349201427888508276e-01 1.104082616675757800e-01 3.383943964919362002e-01
-1.620773163242433257e-01 7.378939875994000586e-01 5.662053217433112851e-01
-4.011812216812024601e-01 3.902658379871835059e-01 4.089334017482165740e-01
2.599810940969559114e-01 -3.954478615554093968e-02 5.524295223996198434e-01
1.177699373981921649e-01 3.474223070077874786e-01 5.832575797351403635e-01
-2.159274720646029710e-01 -6.539026207991458506e-01 2.556436919571365984e-01
3.466883027181111854e-01 1.037841979817191312e-01 6.130786485163859378e-01
-1.283237272028958098e-01 5.266621238647251069e-01 5.338804422894035673e-01
3.799993798728336092e-01 3.061164253116968048e-01 6.672272117243281953e-01
2.630643734005405077e-01 -5.350098659476767438e-01 4.497329311736770197e-01
-2.953242541920792497e-01 2.431066539205657684e-01 4.154975231402873725e-01
4.182981105632591623e-01 -3.400299799668145551e-01 5.454056755633466258e-01
-2.264436001551045907e-01 5.639711284467474606e-01 5.070386964092777893e-01
-4.675906745052997304e-01 3.576777533911638107e-01 3.786506655624870543e-01
-1.073881974617084956e-01 -5.458524158621992362e-01 3.166142326853951805e-01
4.011946276565306890e-01 5.268230076889869953e-03 6.116945671454493416e-01
-9.443074726126904350e-01 -3.058441205608412594e-01 7.128091219950989654e-02
-9.022049281471667959e-01 -4.135873831621592750e-02 1.415540005712990768e-01
-6.028322446351763730e-01 -4.239947522076403796e-01 1.671441787487912833e-01
-8.550870713803786216e-02 8.226504258505314138e-02 4.559147652224321834e-01
2.200199460417270603e-01 4.780696398804125669e-01 6.467401359577686915e-01
-7.278064911219104260e-01 -1.893152965780173225e-01 1.721606172900753129e-01
2.400337708770579337e-01 -1.955592697813529623e-01 5.127033993678355994e-01
-5.604255120985298655e-01 -5.823953805692722030e-01 1.489422939687284064e-01
-2.731129598919316073e-02 6.459682529564292341e-01 5.945502190708157331e-01
-7.701795404899860475e-01 -2.477077842604751279e-01 1.449624978054086799e-01
3.572329906500955055e-01 -1.330994850090496534e-02 5.922752916355191743e-01
-1.528284237766743270e-01 -7.723830946773948547e-01 2.531126572599224356e-01
-6.936192041216441284e-01 -5.833221748962533759e-01 1.017028332528042145e-01
4.154223196232915138e-01 -3.626104404085128130e-01 5.396599630505068967e-01
-1.469888503173776839e-01 -4.664379212630438976e-01 3.192619368465739460e-01
-4.664534705892495192e-01 -2.266646310623119664e-01 2.566494708770767352e-01
-2.489725629000629631e-02 6.092285282986249495e-01 5.877069696088856876e-01
-4.005339193646136331e-01 -3.041447813627781716e-01 2.637030501831124085e-01
4.346404837630227780e-01 -5.430653832571106232e-01 5.086479050620419384e-01
-7.404052869655511904e-01 -4.882001886746707986e-01 1.051028389624655002e-01
1.298053699653475002e-01 -3.480963025262408250e-02 5.074420528494345550e-01
-5.170160472770146676e-01 1.349170767700824496e-02 2.890960931423019464e-01
6.140911993571477323e-01 1.373662044024298312e-01 7.145624468876039526e-01
-8.068452802259606926e-01 -1.838217483415290066e-01 1.453940782250910946e-01
-6.882098192571397544e-01 -2.620248662118868643e-01 1.709159952899878265e-01
-5.454821566182548320e-01 -5.355871451713978271e-02 2.649964544403892175e-01
-4.560378843256672199e-01 5.628361839570453773e-01 4.257059954982830297e-01
-2.409346571711939999e-01 -1.937831875833481432e-01 3.431926507553395567e-01
-4.651397558552299305e-01 -5.194840863109929652e-01 1.957762623113921963e-01
6.054266893284092621e-01 -4.644045351403509880e-02 6.729998661425498074e-01
-2.066459454833039500e-01 -6.707692894390793192e-01 2.553889382398922825e-01
-8.548455788400378674e-01 -4.009764527312728033e-01 8.295225611128899390e-02
-4.847830603969766582e-03 -3.390200542751969914e-01 3.961579112210772413e-01
5.857334352170860958e-01 2.297262247480638120e-01 7.238929641471917309e-01
-7.562009609026447421e-02 4.052073147014827181e-02 4.506632915512617243e-01
-4.383153537050343274e-01 2.834008230333396883e-01 3.734321238556722045e-01
-7.566632770853751744e-01 -5.836996954553709260e-01 7.935596600236036191e-02
2.734134340785998041e-01 -1.034293502590059172e-01 5.437919846284022807e-01
-5.600731053658929426e-01 3.734506012865546620e-01 3.492889164357563803e-01
4.530575594637080150e-01 -3.836105133228988051e-01 5.485541912435935030e-01
-2.722954502173240837e-02 7.326570752002095066e-01 6.127379008703346397e-01
1.162882946117365923e-01 -4.956237173934875673e-02 4.995774150844672357e-01
6.224709595957174380e-02 -8.646400863735991260e-01 3.097542720735464439e-01
-2.352611082976879819e-01 -3.601747846750479320e-01 3.103423663225817197e-01
-1.877152111701160531e-01 1.273097041283536256e-02 4.052490397381027232e-01
-7.971681112772461830e-01 -2.871171726449723849e-01 1.271747391802216520e-01
-4.519641045863573847e-01 1.402473460662947979e-01 3.386247283640361760e-01
4.222656409659338306e-01 -6.846764620567498127e-01 4.746135543592266970e-01
-1.534387986370173151e-01 -6.976166668528175352e-01 2.685584758306037712e-01
-3.000601935934907871e-01 1.558980328253776505e-02 3.661665282737946447e-01
5.287333773254106889e-02 5.449562466714854558e-01 6.017131212981938759e-01
6.146968307358785522e-01 -9.764258122717661692e-02 6.655488032630439976e-01
-2.691513775166672895e-01 1.904340320096322703e-01 4.137086467600158413e-01
-5.395974725191128307e-01 6.813140609815530047e-01 4.210096219879004842e-01
4.649889331464635567e-01 -1.119156805634784202e-01 6.096806967221244378e-01
3.521566297033360549e-01 -6.518033131269087566e-01 4.567363370024670188e-01
-2.910498813806736834e-02 -5.417049345695442719e-01 3.451334109899897307e-01
-6.389879471227891683e-01 -3.191602918095264863e-01 1.763334225678701295e-01
-1.631458981466241132e-01 -7.119884184899523127e-01 2.621193654427007580e-01
5.357643179724245197e-01 -1.970374274355100319e-01 6.168487103317670250e-01
5.370119023010444526e-02 6.298805763298164218e-01 6.197947232315569321e-01
-4.809781310181929226e-01 -1.598072931434889599e-01 2.655239006309657590e-01
6.450514093382621050e-01 -3.102722447569188358e-01 6.317305610931109872e-01
-1.020964410325803096e-01 -8.856633591411735562e-01 2.473027469927410182e-01
4.309830796376528106e-01 7.699972862451065492e-02 6.372418207008462288e-01
-3.512554735000559258e-01 5.793435065444781928e-01 4.661739828694446142e-01
-2.731911182157545914e-01 1.611484212162797580e-01 4.061472802285079342e-01
4.545766779229422627e-01 -4.479935567622153614e-01 5.356043692436742720e-01
-1.598132116588536766e-01 -1.912270934868295080e-01 3.723809723473210931e-01
1.039950301571650748e-01 2.432367087221100621e-01 5.565682706045911310e-01
3.154298632182336859e-01 -9.711362422254898874e-02 5.599555636267783409e-01
-1.946435787113786064e-01 -3.993872408652625605e-01 3.164749999164290228e-01
-3.691351278878353126e-01 -4.195154887143722200e-01 2.506265788602446976e-01
-7.280148032866164964e-01 -4.715379927536080262e-01 1.129695290504615646e-01
2.155480766983130791e-01 -7.082593296936910976e-01 3.966589441792122694e-01
-1.821054081087814802e-01 -6.752109610722050181e-01 2.631264957504866886e-01
4.416038834473061114e-01 -7.186906907934823563e-01 4.743190127740372630e-01
-3.407285136594032648e-01 -3.203436676346669287e-01 2.814337093940669221e-01
-2.797399192852941807e-01 1.228484175391025973e-01 3.958114336911013886e-01
2.331279472618294490e-01 6.391397647973894314e-01 6.851095540406972884e-01
5.769163000599754065e-01 1.986874627111118174e-01 7.142769402410129587e-01
-4.114552809192795202e-01 2.387190456752961154e-01 3.735598232410273223e-01
-4.064730433746676502e-02 1.102284586770932717e-01 4.776177832895714959e-01
-7.158306724281784938e-02 -3.224783046332809766e-01 3.760513874433976667e-01
2.474563363281619688e-01 5.859889055763592980e-01 6.790369110472191938e-01
-3.254452865919696403e-01 -5.612714012598675195e-01 2.363644883555323928e-01
-1.062379839756575316e-02 2.961369832135994917e-01 5.271648521879868099e-01
5.276807903977727421e-02 -3.862613854588121064e-04 4.874424252084042508e-01
2.429112765194220702e-01 -8.127821945894665445e-01 3.844293720731285502e-01
3.973242888681119966e-01 9.523843185590419314e-02 6.291736862300439936e-01
-6.825410341505526723e-01 -6.593287789214626882e-01 8.969456190407823493e-02
-1.940984303538889899e-01 1.733263354315419946e-01 4.366345182777984779e-01
5.353937044325673966e-01 2.636311482731871769e-01 7.132145783953385276e-01
-6.333850854012202936e-01 -5.969214478830032755e-01 1.201294620861315526e-01
2.942501483623686798e-01 4.440753787266519814e-01 6.658381579348054968e-01
-4.137538530611761800e-02 -3.199519060271491244e-01 3.872502458649160761e-01
3.510604545958016520e-01 5.726903239725387312e-02 6.048793507945559034e-01
6.235568072369028769e-01 4.922352060792821449e-02 6.994424442407711773e-01
-5.223761675515647962e-01 5.101665623204024724e-01 3.912418946282985588e-01
5.076755935937646846e-01 -6.823387929757290804e-02 6.339081224529732328e-01
5.351530753723654499e-02 4.775513784987021060e-01 5.878204966767214268e-01
-2.757082240910096460e-01 2.190818817491179960e-01 4.173936017486342132e-01
-1.017085780119830613e-01 -4.956430803367878890e-01 3.291377370497914345e-01
5.655574315387357220e-01 5.501384197470758630e-02 6.801693986463777097e-01
-1.415613876786259717e-01 2.315038035955238604e-01 4.673776199352447369e-01
-1.834870139708807690e-01 4.297943595009307560e-01 4.941052248377629796e-01
1.334041671349680547e-01 3.334272289596218464e-01 5.858481787091076587e-01
-6.779497196834920469e-01 -5.054938084285841293e-02 2.188379748507358336e-01
1.589227666039260134e-01 -5.496884318599815078e-01 4.098743538461163127e-01
-4.756282419425610919e-01 -2.150265287694886618e-01 2.558466978311934037e-01
2.097478641569869573e-01 -5.381903393512318390e-01 4.302347975188509088e-01
-2.772283765635017994e-01 5.544011183220067807e-01 4.870963721799478896e-01
-2.958122075620994718e-01 1.622595004930657558e-01 3.983900276862119005e-01
5.668251597442921508e-01 2.374821027128047879e-01 7.188390076045420019e-01
-1.658522342950966011e-01 1.797293737679596382e-01 4.479526047151440871e-01
2.580036252509710915e-01 6.086468889683902539e-01 6.875085110367779029e-01
3.095921079714121227e-01 -7.773539855385384056e-01 4.154028859750832914e-01
-7.704291586175233686e-01 -1.143191497333239243e-01 1.728153997642324080e-01
1.373864127376858979e-01 -2.279986090866660542e-01 4.696522359082155318e-01
-7.681809306524852721e-01 1.440062943266316384e-02 2.005725751059480866e-01
2.683446042813764087e-01 3.879834136127656152e-01 6.449384166196352464e-01
-6.703393891819061645e-01 3.488407789797911412e-02 2.394218626761799307e-01
-2.575397595175312748e-01 4.602504155317893586e-01 4.743287304753122102e-01
3.178189365500670022e-02 1.151634384664358413e-01 5.042342253359625159e-01
-1.472708422728684630e-01 -1.813540153092253748e-01 3.788791857195580870e-01
1.520188615292978052e-01 6.118767731001570898e-01 6.507502160008286074e-01
-1.486558354699302475e-01 -9.348932453788242336e-01 2.205452697758582825e-01
5.845997348343153627e-02 -6.050816059916456213e-01 3.627866342869132121e-01
4.414834773097758291e-01 -1.773045887991724773e-02 6.211074240800075197e-01
-6.554298760560228754e-01 -1.565693132810959121e-01 2.045840891804059369e-01
-6.212361532003297659e-01 -1.552587468993698872e-01 2.169361747551621644e-01
-6.648064756568522471e-01 3.255226615992971584e-01 3.022565381333120471e-01
-7.499523561171306252e-01 1.308232056920806130e-01 2.313982571407403876e-01
-6.650112584911054281e-01 -6.390427370239666338e-01 1.001355916976932187e-01
1.031140786095658020e-02 5.439180946024831931e-01 5.864623655112490841e-01
-6.150020592764866567e-01 3.771979995423663246e-01 3.306724406259048954e-01
-4.889831322883823606e-01 1.132125259060165895e-01 3.198862284830496505e-01
3.079855962655538293e-01 -8.285548375467387539e-01 4.041103492985820278e-01
5.210170208869440156e-01 2.639390935930307491e-01 7.082010978068240536e-01
-8.553693660699462908e-02 2.047110053088176118e-01 4.815536898823150058e-01
-3.104350633499013482e-02 -8.186000911889063092e-02 4.407729487242358357e-01
-7.102211851928583730e-01 -1.860041751332919546e-01 1.790655049574456092e-01
-1.619485959943870457e-01 -6.991702574547767890e-01 2.652272991811643332e-01
-3.606831880808379354e-01 -5.316844076530863328e-01 2.301157357628397515e-01
4.011222719235479385e-03 6.249956297397158966e-01 6.012204818959757668e-01
4.865859063546157381e-01 -3.056635785888064949e-01 5.767243670340848061e-01
-1.233193558472277240e-01 -3.149275886954351900e-01 3.593592777655412740e-01
-7.382026949996464693e-02 2.101514000702084384e-01 4.868317378208286694e-01
-5.349962930663644256e-01 -6.098515080470989780e-01 1.521728782575069716e-01
-2.920937648176932244e-01 -8.894234461696964855e-01 1.794061909364549068e-01
-7.796553453518469123e-02 -4.477751692962902985e-01 3.475509598551112522e-01
-2.625103974991902511e-01 4.937429721756458889e-01 4.795887762494465134e-01
1.593804222361653589e-01 7.404140133412789870e-02 5.406894024834888457e-01
-1.538110187425981989e-01 -7.214404197721664413e-01 2.634366153034173874e-01
4.044089350789263904e-01 8.497267020971009666e-02 6.295256722485734757e-01
-1.299602371735925632e-01 4.849517334472004670e-02 4.331402338841967570e-01
-3.227251518845870026e-01 4.166394266271754021e-01 4.421693641522485008e-01
-5.316417587224621100e-01 -7.688286178915793023e-01 1.200566161568521056e-01
-2.106557753664598243e-01 -1.788407261750327992e-01 3.570174645199744035e-01
7.727328906350482141e-02 -1.505211918511475400e-01 4.646489715111230545e-01
-9.179887810169595763e-01 1.565561417135239719e-01 1.774364441022936167e-01
-8.639085656583248563e-01 -3.792940987358145999e-01 8.429294733418858654e-02
-5.416277733995911864e-02 1.007274198858643249e-01 4.708537916493579778e-01
4.995545093628371847e-01 -1.375068247116190412e-01 6.165289925532629889e-01
4.926105657139423499e-01 -8.937604358205869515e-02 6.241583329204960506e-01
6.111418173749376681e-01 -3.167295950481719413e-01 6.184007306476867472e-01
-8.498855006719910898e-01 1.946817168243102358e-01 2.094774013127747581e-01
1.974000381594673628e-02 -9.261477082305008546e-01 2.818562766486520377e-01
4.291613852612755770e-02 -5.656984247660225007e-01 3.655460385931282308e-01
-5.120303561413639404e-01 4.776985188596625242e-01 3.880950190033737313e-01
3.855446433784774918e-01 -1.716940129095193557e-01 5.690983554933944921e-01
-1.860862217492526283e-01 -8.088183273850858834e-02 3.862152341108525677e-01
-9.337085724087690330e-01 2.781396582682750251e-01 1.973522969373854297e-01
-4.307862541734598927e-01 -3.330254865479508886e-01 2.469679532441898528e-01
-8.183463666284203075e-01 2.907265986843466377e-01 2.407359651744561402e-01
-8.285429048698385035e-01 1.397240055490149013e-01 2.055037618696372304e-01
-8.297855708192570789e-01 2.792449008042332537e-01 2.342904412105435430e-01
-3.767610712884868485e-01 -3.628008720592274527e-01 2.598130960232751252e-01
-9.296549101839076679e-01 -1.088301609060297742e-01 1.177250806092614982e-01
-9.204136026038022278e-01 -1.998509326607356418e-01 1.019229765166947410e-01
4.159469440469810292e-02 -4.573353565155422462e-01 3.877782271176754558e-01
1.901162817109411374e-01 -6.038045686399956535e-01 4.095564417083801811e-01
-1.173232528075267150e-01 -8.481944196431122629e-01 2.497731486099896703e-01
7.759672938003858711e-02 -3.817661510275789927e-01 4.163240682472988952e-01
-9.484962818843561960e-01 2.441606740883709159e-01 1.850115156800219707e-01
-6.232298756504237591e-01 4.587836288952570341e-01 3.448561297465883024e-01
-1.305231693362832457e-01 -8.767628586109289524e-01 2.391265445438676140e-01
-6.375370801212636440e-01 5.485651579601403816e-01 3.586093235747471186e-01
-5.689822933072375966e-01 8.217486476698718234e-02 2.851282424685542272e-01
2.920528434515293204e-01 7.309521379621916615e-02 5.873524095660379585e-01
2.401411017888455124e-01 -7.041084812797371306e-01 4.062149258509375471e-01
2.978863426033462325e-01 -1.567319657413590583e-01 5.412706972791815341e-01
-6.540808699866974829e-02 -7.597103656373072056e-01 2.866449523643010977e-01
-2.571892134748619829e-02 -7.607658788610287548e-01 3.004424570715359954e-01
1.597974879090602318e-01 -4.747754350482803476e-01 -5.033247968554436236e-01
7.448122127034498829e-01 4.548863962840185571e-01 -1.019545083184143774e-01
8.801751975758218549e-01 5.998910215222637982e-02 -1.368625556504566576e-01
4.223599651113672526e-01 4.777874193618869558e-01 -2.110507150455953052e-01
-9.540153362938129378e-02 -5.140487607973230622e-02 -5.047796908334902799e-01
1.131121175294965975e-01 6.548568051102334753e-01 -2.831891747038833285e-01
2.427269625563902022e-01 -2.255331462544677562e-02 -3.793058057251310067e-01
8.098607325111227828e-01 2.754285238049349327e-01 -1.165699757634399009e-01
-2.929512955637305627e-01 2.308008906878360744e-01 -5.154422486088491295e-01
5.252119982678331994e-02 8.717538314187175397e-01 -2.591568159954396044e-01
1.024054756381413689e-01 3.985267335803202027e-01 -3.406646187754974742e-01
1.184683296501408967e-01 4.849190596386501739e-01 -3.168943613528226178e-01
-3.008346517103546724e-02 4.696263855278032806e-01 -3.725676924996717543e-01
4.074769270089808604e-01 5.316729299978789625e-01 -2.050200912847231771e-01
3.783451123068746202e-01 -1.550018598174891238e-01 -3.591482872775296764e-01
3.999149274430303103e-01 6.716599520015570368e-01 -1.783678227238334468e-01
1.126268016146305118e-01 3.703024225231037192e-02 -4.127774284495194235e-01
5.822508471825567078e-01 -7.623738101401365819e-02 -2.706278878547166422e-01
8.588377769866271938e-02 8.362515791246333263e-02 -4.124630377570423501e-01
3.615046035534971725e-01 6.514368921877903285e-01 -1.961708749076933600e-01
3.510820329980970378e-01 -7.102401410893777189e-01 -4.850842720392419261e-01
5.301404818787222584e-02 -6.848304850873629945e-01 -5.850422307518133858e-01
2.425584188673286512e-01 1.953313139154414790e-01 -3.337247951559967896e-01
4.044414512857344435e-02 -2.548477560801296615e-01 -4.994130712530056027e-01
-1.294598952490380872e-01 2.349573328382272563e-01 -4.568248208597395776e-01
2.846881342198514728e-02 -3.445943245641917563e-01 -5.224421925230270380e-01
-1.836817924757664089e-01 -3.292088507195816693e-01 -5.941530635517899839e-01
4.048221349726571217e-01 3.907809846839131046e-02 -3.091421916509083934e-01
3.038855382532106297e-01 5.573987624438661026e-01 -2.362207707337378726e-01
-2.259494021681228426e-01 -5.179490621967938191e-01 -6.486180272023169824e-01
5.066678052909229235e-01 -5.065691131003213776e-01 -3.874666419363095859e-01
8.922581401263403045e-01 2.268571742577027706e-01 -9.764069577093686947e-02
-4.158485966853913696e-01 1.462137199103824559e-01 -5.765693571886916224e-01
-1.080872163030251326e-01 -4.829300930055520635e-01 -5.996524786990293787e-01
-2.370651242206552045e-01 -4.452881130392574160e-01 -6.373238377629306672e-01
7.253144360596875950e-01 -3.668361339965629797e-02 -2.118110461582820014e-01
-1.790361824736727558e-01 3.143825051664616566e-01 -4.576983723468115439e-01
-1.015983577003655020e-01 -1.749427784206852299e-01 -5.328460955618076200e-01
1.757889020935741176e-01 3.577465716890916303e-01 -3.232871367489650871e-01
-5.229861595507713234e-01 5.469854679017758237e-01 -5.304612842127840455e-01
8.233189146258537150e-01 -2.099253393835757708e-01 -2.134840410341229677e-01
-3.656997427128930722e-01 -4.778685682440259042e-01 -6.895835172758745246e-01
5.429451314367998993e-01 5.967854529111456252e-02 -2.560405896040066076e-01
1.465902401462911842e-01 9.176364999644346376e-01 -2.163196093688947164e-01
-3.188485073597204789e-01 -1.073688865959087219e-01 -5.954262081918655358e-01
-2.976839506620229821e-04 6.814272506972456345e-01 -3.176808921648732742e-01
6.903715940062523648e-01 3.658320802066140076e-01 -1.398377803570273470e-01
4.364719360956396121e-01 2.533981022307812622e-02 -3.008409450484195169e-01
7.822582159256477596e-02 6.603515644189537903e-02 -4.188525009759979656e-01
3.497749282947129612e-02 -3.822032580269970059e-01 -5.280212490662404834e-01
-6.912242147496052702e-01 1.939538527843428783e-01 -6.638345579537801022e-01
1.074831263968867023e-01 1.072345407183369626e-01 -3.998884506649608706e-01
3.183347058060141954e-01 1.065007437464424445e-01 -3.255673051083466940e-01
-1.161476684929231423e-01 -5.725645304304288752e-01 -6.212753377391714293e-01
3.365417263708507245e-01 -5.727838923560037154e-02 -3.534434080392233057e-01
-5.058573216386995641e-01 4.619041042299265043e-01 -5.422333003047138389e-01
4.318529901585809183e-01 1.575673469814825155e-03 -3.074503031053978930e-01
-3.909442094982381044e-01 2.380167349444444747e-01 -5.485427999586508507e-01
2.218908023391860662e-01 -5.791999836408707331e-02 -3.940736423755027973e-01
4.203780254323698506e-01 6.723302035799717524e-01 -1.709996565785129596e-01
7.277108881402530871e-01 -2.160967235302550249e-01 -2.485464646600184513e-01
-3.760655723936141559e-01 -5.146894373290557267e-02 -6.039264143374644123e-01
1.091277499164127890e-01 5.487271215456273055e-01 -3.068275985584836274e-01
4.037735332205486527e-01 -7.965057722708122900e-02 -3.343827993482461070e-01
-2.329406178919993520e-01 3.171533438591661591e-01 -4.761575391795969669e-01
1.822540774404270425e-01 -5.901307626807222873e-01 -5.195565203834833223e-01
1.071786493639935722e-01 3.498885316943790152e-02 -4.151293815930797715e-01
-3.576110059028197452e-01 3.269797872650413995e-01 -5.181339919764147428e-01
-1.736846389459346662e-01 2.604880836452928006e-01 -4.670974804549606341e-01
4.533996842109376257e-01 1.221541614881329618e-01 -2.745820849917849915e-01
6.155734883189270534e-02 -6.567845822833019431e-01 -5.761498455329969737e-01
-5.548624485615110125e-01 4.560257604661042130e-01 -5.607737372385173114e-01
-5.231321576143921348e-01 -2.642497892162882778e-01 -7.004432275176730727e-01
2.725043349499003398e-01 3.335537438261055448e-02 -3.570768875655413455e-01
5.658063594383918593e-01 -1.482274159212308151e-01 -2.915160777029423556e-01
-2.714891660297193421e-01 2.938806524939355236e-01 -4.946482233318017507e-01
-4.962829465394495987e-01 1.435856540113341351e-01 -6.055300658415485593e-01
3.415827087071144907e-01 3.668531890106281335e-01 -2.628195575713637711e-01
4.658431222812314254e-01 -4.707633307173795800e-01 -3.943860440110647514e-01
6.483755116109879424e-01 -9.545092422627408923e-02 -2.512966878453015696e-01
-3.303766413486758369e-01 1.619750389808765900e-01 -5.430782791225957640e-01
-1.405447827463341959e-01 6.475738327093753799e-02 -4.963920900384298784e-01
-3.343026831606535909e-01 -1.825346004678524703e-01 -6.166298232044954419e-01
5.544061874358261477e-01 7.263925368443203689e-01 -1.123350908490172578e-01
2.745471437915975033e-01 3.352766917386424544e-02 -3.563192565733131478e-01
3.529977968863541316e-01 -1.984479227823209846e-01 -3.772019051722498295e-01
1.547190882469594297e-01 4.236017672924554112e-01 -3.169344395501776934e-01
3.586848247494139885e-02 4.041459645432931569e-01 -3.629890734607394420e-01
-1.447296318401432025e-01 2.543582549620699296e-01 -4.581543089347902553e-01
-1.523961160747445420e-01 8.233606053894336751e-01 -3.416726148131499774e-01
-2.555482050706970321e-01 -4.763663763083913483e-01 -6.503622432706848144e-01
-2.968880411822557575e-01 9.777953090784248513e-02 -5.446968820201218975e-01
7.852881760872881811e-02 7.744710453805406791e-01 -2.703486054479462553e-01
7.249948850092318153e-01 -7.467340688719860398e-02 -2.198816801450337588e-01
2.254267328287445638e-01 4.753186387968154070e-01 -2.811266108665861352e-01
2.751929720983651850e-01 4.878503582294377861e-01 -2.609236513582215422e-01
-2.600192410101991869e-01 3.369162261069477693e-01 -4.815822220993974945e-01
-3.907211981583216254e-01 4.036074811357584502e-01 -5.137775475265932146e-01
4.269059886496175404e-01 -2.301441637040424482e-02 -3.143485469578599090e-01
6.335835865798620237e-01 -3.466070372163430058e-01 -3.091312991625407292e-01
3.908439480400133226e-01 4.175220533204691553e-01 -2.348063377433781407e-01
4.933370095100121366e-01 -2.079126864496216864e-01 -3.296153077083320837e-01
3.125792575571557236e-02 -4.864684850816142908e-02 -4.594645949327973433e-01
-7.354297775704510265e-02 -3.174458238423059908e-02 -4.929407694181038302e-01
6.295631922198022257e-02 -2.270731416081397946e-01 -4.856435694077355647e-01
2.184094288917707849e-01 -1.193493224917680368e-01 -4.081709684183776887e-01
3.200881806043486821e-01 4.661031051460360897e-01 -2.496216434008827478e-01
1.854886416499971491e-01 1.943696604255469862e-01 -3.540838412906753274e-01
5.399307443575437349e-01 -3.726639556592113711e-02 -2.774124682397098307e-01
-3.019433935903849675e-01 4.431575262103584767e-01 -4.741357593562688377e-01
-1.202064041077652995e-01 7.876527241620566722e-01 -3.377826621028626741e-01
7.166350875344082993e-01 -3.268479465108903304e-02 -2.140390404255481382e-01
5.011591183020118745e-01 -5.088103434639816847e-01 -3.898818375269370029e-01
-3.858661508710400923e-01 3.691872166094219664e-03 -5.958334761229328036e-01
-6.180273139119013548e-01 1.054059589122999657e-01 -6.565289199586983315e-01
-5.848762211729954114e-02 2.403272607581813658e-01 -4.306318699442125975e-01
7.314729217594585498e-01 -5.276417943443860725e-01 -3.124773789464096452e-01
5.446656373237355186e-01 4.869165440631328945e-01 -1.659388586729027559e-01
7.891743047050460147e-01 -1.185072782947431819e-01 -2.063948079885495335e-01
3.497942232375488847e-01 1.022847018219423948e-01 -3.153386327734057915e-01
-3.645443775207952708e-01 2.648602972684407919e-01 -5.335951676095256335e-01
4.826771994245375175e-01 -4.655674857645153430e-02 -2.995810451377466377e-01
3.753254455832383263e-01 1.217219549893536479e-01 -3.022492099359642692e-01
1.297932050598790965e-01 -4.024948533629209013e-01 -4.987819091602596622e-01
-6.735609813134334212e-02 -1.537550089641010198e-01 -5.163131659234546644e-01
7.521424925474401446e-01 -3.298012647116471130e-01 -2.637348013566770399e-01
2.361675378573581049e-02 3.525573438498706413e-01 -3.781228319858697118e-01
2.997433440387805015e-01 -6.805310987450451377e-01 -4.969944156793228984e-01
-4.894496976414539624e-01 3.289899425025966662e-01 -5.642796470665236708e-01
5.989756701557850116e-01 -1.205243552764474896e-01 -2.739973586855595777e-01
-3.581674955342408762e-01 -4.090949163898194296e-01 -6.725169580153154136e-01
-6.835290078014126802e-01 1.985730857895950940e-01 -6.601489390472915497e-01
7.316209121650126823e-01 1.447281360472910394e-01 -1.715830104337968953e-01
