-3.429204643374365591e-01 1.521617528978719269e-01 4.303330734150948023e-01
-4.879674667343165961e-02 1.959601562208505288e-01 5.337536689529872591e-01
3.867267547984397646e-01 1.959739971092890609e-01 6.069560917311723758e-01
-4.238211695177939164e-01 -6.354336995022005219e-01 -5.542339880500106730e-01
-2.237061834692028461e-01 1.804396286744682290e-02 2.850211978060558926e-01
1.087880851744513211e-01 -3.242698050235245377e-01 -8.112168000926456291e-02
8.162985212621856612e-02 -6.964705416626395529e-01 -5.445461535317832613e-01
7.942934953253916186e-01 1.102918406925830486e-01 5.698119333231650430e-01
1.716837393283945079e-01 -1.704483065507398087e-01 1.190832980250259021e-01
1.807691077240593802e-01 -5.368502658102630720e-02 2.645594565430191558e-01
-9.968182620770300872e-02 -3.677688466411875301e-01 -1.697799493351452860e-01
5.079283800156272344e-01 1.733043920320236631e-01 5.993750061043423560e-01
4.944461840242486139e-01 -5.331618514995308811e-01 -2.738444036842808682e-01
6.876507468127812661e-01 -4.573252570793212013e-01 -1.478845684009401085e-01
-3.091899164638390873e-01 3.458252711026713055e-01 6.747556459083600133e-01
4.871276042415244034e-01 -5.005996924117989133e-01 -2.349305611655070070e-01
-1.448069650363616734e-01 -6.076846438872851586e-02 2.011169751818511209e-01
3.682029246299927672e-01 -2.448585059450719970e-01 6.037113728435163779e-02
-4.634164269779987855e-01 -1.146774472120473285e-03 2.210813478020306477e-01
-5.231460743663871593e-01 1.491232414210788559e-02 2.308425423715115554e-01
3.807293384763320299e-02 4.221927871052461589e-01 8.272579691958237280e-01
-4.888060892426938087e-01 -8.763752283947605359e-02 1.101863476495359428e-01
-1.201032607230894389e-01 -3.255956018921265984e-03 2.761714189419098853e-01
-3.090388297443405485e-01 -1.550883886444250903e-01 5.723887957362860240e-02
8.664508596679540431e-02 -6.135532567427622874e-01 -4.414803502882143071e-01
5.877678747146398708e-01 -4.364704881753404542e-01 -1.389584672455191905e-01
-7.741381063001193663e-01 -1.476555056661051253e-02 1.520780272593887927e-01
-3.961408045780681619e-02 -5.418180951424288461e-01 -3.742595685152547147e-01
-5.640544412956757236e-01 -4.155451462494554327e-01 -3.067132417036710357e-01
5.586654638179959498e-02 -1.144257998669341442e-01 1.686876923390301097e-01
-6.426045384331831034e-01 3.450632797059972612e-01 6.177892533845615874e-01
-1.405420027216214285e-01 3.152570169852500492e-01 6.654097299243600938e-01
5.163660658158161221e-01 -3.473440953804341480e-01 -4.107899814921887882e-02
-7.507687124395520106e-01 -2.363817430597883462e-01 -1.172104106105279347e-01
-5.171305518948544622e-01 3.253196263518310372e-01 6.145333008047604295e-01
-7.747111083444462309e-01 -1.074785389000772334e-01 3.768224449178256275e-02
-1.600163170400474011e-01 6.084436244830531554e-02 3.484893237335853211e-01
-8.022669099494708078e-01 2.530629773887744238e-01 4.775387183783874057e-01
4.336270072740293635e-01 9.625704855461708620e-02 4.919030105596053359e-01
-4.650625306204159495e-03 3.072835578827358138e-01 6.784149820914670004e-01
-7.036459187034482810e-01 -1.352454732998926157e-01 1.539208504769503001e-02
6.546162866614347875e-01 -3.949742472259577530e-01 -7.656738728560094631e-02
-1.435240086134985382e-01 2.073179958433124803e-01 5.318380048392874482e-01
3.345603424508267754e-01 -7.061328646614877247e-01 -5.139557361559419224e-01
8.821036961962679390e-01 -1.273468738331788863e-01 2.915990568028344887e-01
7.359894661840473695e-01 -1.226893665736876471e-01 2.727879467242650957e-01
-3.298519439654412078e-01 -7.005216571623786026e-02 1.585767813882816846e-01
1.465104830887575815e-01 -1.552409394098828166e-01 1.336013063603536666e-01
1.468479797553446653e-01 6.527542180232870361e-02 4.055175428920257397e-01
-2.895507991897629529e-01 -2.675118671887793953e-01 -7.808556159055808632e-02
4.207640782554974979e-01 -4.666866345481876510e-01 -2.042731994570208542e-01
4.807653809712126303e-01 -1.682917203187629107e-01 1.736800775759089754e-01
-5.423618508864965770e-01 3.940054518379068615e-02 2.578033748037809048e-01
6.133533521809899636e-01 1.990624993889729411e-01 6.488460230070453028e-01
-5.363336492347015039e-01 -2.254455062527361831e-01 -6.769420987460790518e-02
-1.755921361883616139e-01 -8.614993406200384396e-02 1.646527595588724024e-01
-6.362315171570942507e-02 3.663325984815637981e-01 7.413027593246559466e-01
3.912263702993751813e-01 6.915787710093095064e-02 4.513692954048042494e-01
9.209420763448161740e-01 -3.980800018023230025e-01 -3.564287981162297947e-02
-6.873431664648546047e-01 -2.713029024057165284e-01 -1.496042897090390511e-01
-6.313167435871089861e-01 -4.629800430877688971e-02 1.372035225257930702e-01
-2.995927678085555934e-01 -1.527512916720746572e-01 6.170744244946374524e-02
6.021826573925684323e-02 1.732153758808908928e-01 5.240320667529708709e-01
5.446592002375288954e-01 1.586997631692492194e-01 5.875422053133083633e-01
-2.762205680140856212e-01 -1.917951135119375095e-01 1.750045164704217351e-02
3.984648447291434525e-01 -1.073453400488516840e-01 2.349869167416596405e-01
-3.078949507848972589e-01 4.100796078217904816e-01 7.541880243377510062e-01
-5.767527804394555480e-01 -1.387160160762666294e-01 3.243661054859045545e-02
-3.981129287688884300e-01 -4.800766704775139559e-01 -3.583849316356420012e-01
-2.421684657494967974e-01 1.665132894449966594e-01 4.649564637685904001e-01
-8.856167778596847340e-01 -1.940052334875255052e-02 1.276310132232739425e-01
7.053347816842806539e-01 -3.989913056042982548e-02 3.697031478018726336e-01
-6.566985096002888600e-01 6.590996524281901581e-02 2.712718942355183405e-01
7.636399693779928610e-02 -1.139853444041046410e-01 1.726750908482312941e-01
2.357830854675212195e-01 3.647240015868633001e-01 7.896318476446123613e-01
-2.691287570629100623e-01 -5.642411915570904046e-01 -4.404711098814645398e-01
-5.013104630308418130e-01 2.009076834455254812e-02 2.408959473079335945e-01
-1.900803534846455534e-01 1.931577940304315955e-01 5.065575343990095236e-01
1.122270976213204097e-01 -6.814493912500568795e-01 -5.208860452063197588e-01
-4.184876831038403938e-02 5.743005849414255237e-02 3.641369343607218645e-01
-3.530801637955569006e-01 2.781659227149799740e-01 5.839677515630342652e-01
4.855183259063670098e-01 -3.711938428084706199e-01 -7.566537234136501422e-02
-7.687445853095717374e-02 3.021948856777543213e-01 6.600050152425785965e-01
8.810037440236757889e-02 -7.162746061430315114e-01 -5.678739222843960377e-01
-4.641781253547033748e-01 -4.530241148858815681e-01 -3.361352821932238055e-01
7.364900117041703886e-01 -5.011310680485565605e-01 -1.936828045204706250e-01
4.794597684385555336e-01 -1.059050275856911749e-01 2.503729645036615326e-01
2.774009649236148234e-01 5.661428797884940356e-02 4.167779446668715693e-01
6.134697917214561036e-01 2.563643247777833145e-01 7.195090867307822879e-01
-5.129447111708068663e-01 -2.161453838363305846e-01 -5.229844907983510760e-02
5.312180818151499562e-01 -1.515243401102666088e-01 2.028295033230843314e-01
-6.234091702338501184e-02 2.993093315732069937e-01 6.588898291377134342e-01
-4.771274860826454356e-01 -1.699532505499143920e-01 1.066739509292991168e-02
3.866228431358230688e-01 -2.868766185371504629e-01 1.166516581964740541e-02
-4.628666695817746368e-01 -2.042499037770362236e-01 -2.921821319390543320e-02
-1.513302435174435634e-01 -7.245331632527034493e-01 -6.182892475011939615e-01
8.416296097308429980e-01 -8.064868898838919997e-02 3.423687870334640726e-01
9.121053253725033838e-02 3.988840469530816613e-01 8.074514602233151539e-01
6.031005075663469217e-01 -2.584564642417593316e-01 8.307933001553119423e-02
-4.122921087242891192e-01 2.074452943142086891e-01 4.868311569706982866e-01
-6.869015197600413236e-01 2.649024195617898439e-02 2.175987032125329401e-01
-3.618945150333421346e-01 -2.363866578866078393e-03 2.366406180516432978e-01
-7.598588849443732585e-02 4.217301101199164015e-01 8.075211245032800633e-01
-9.443629768326324003e-02 -3.112780433046463680e-01 -9.925484717487717545e-02
-7.033026112939120278e-01 -3.352141282262991462e-01 -2.310778889467523800e-01
-2.739163455366405153e-01 -4.607282897773779529e-01 -3.136616467747661008e-01
1.610555958811757393e-01 -3.444228397518890594e-02 2.849698583226525916e-01
-4.963278007135467629e-01 -3.337906484092489356e-01 -1.945429356734765802e-01
4.307935801062475201e-01 -2.364048057074038256e-01 8.131085783063171646e-02
-2.196207364448798105e-01 4.177730331739968883e-01 7.785063186797104295e-01
-1.108603996075073067e-01 -7.440055350249177302e-01 -6.354948497889156833e-01
-1.604981212269839808e-01 -5.339283536087890969e-01 -3.848461978319742682e-01
4.774097711350654416e-01 -4.435101345546136331e-01 -1.661817385003512282e-01
4.776039141712572385e-03 -3.688616547241910237e-01 -1.535741002785948606e-01
5.309513010600656058e-01 -6.465580041914680276e-01 -4.075084373829748197e-01
-6.998263344948857378e-01 -1.040274268507406299e-02 1.699439828334403380e-01
2.585765658978601000e-01 5.190910057627333429e-02 4.078139896845748846e-01
-4.182595997445822111e-01 -4.026797879684635983e-01 -2.663530604716314309e-01
7.263318418718464065e-01 1.058700528990642736e-01 5.529403391973958248e-01
2.074424421383487260e-01 -6.130779467780362868e-01 -4.205955881886763170e-01
3.310148734007617999e-01 -3.076052831053588954e-01 -2.323414746390933816e-02
-1.919396995647627835e-01 3.929680607079543142e-01 7.525774872620411005e-01
4.158966316267528884e-01 3.655928515988025596e-01 8.209692695419424924e-01
-2.110486889715572356e-01 1.859699076946559337e-01 4.941725628511959290e-01
5.289755298129104055e-01 6.640505087758150071e-02 4.711228900680569653e-01
-3.567607162791965325e-01 -3.924029766396437968e-01 -2.433492124282994051e-01
-4.932720722358696075e-01 -1.880877540510195733e-01 -1.440232854526793740e-02
-3.495041757990760001e-01 -1.840447051685291935e-01 1.474082365726580787e-02
-4.065621439892113109e-01 -3.982366389977906040e-01 -2.589097661162564901e-01
5.789869916317552656e-01 -2.477475167689421054e-01 9.222962347314518639e-02
-2.113199399246686316e-01 -2.700531823723813230e-02 2.315644076143549557e-01
1.638687697096344875e-01 -4.531582231659886939e-01 -2.307636291291368380e-01
6.150298478581147643e-01 -3.347580268568397521e-01 -8.983036306167719448e-03
5.178559175146100202e-01 4.863370179584954045e-02 4.473452711417758021e-01
2.922213609712475679e-01 2.114346747486809952e-01 6.101358184113393479e-01
1.099310129011646514e-01 3.424670479436128789e-02 3.610608358708383148e-01
-6.355409600754511334e-01 -4.128445166427004431e-01 -3.153964133580122731e-01
3.667617510057004093e-01 8.533224216124974532e-03 3.725182775933043589e-01
7.983559525916571475e-01 5.888309779771225966e-02 5.071162692477954037e-01
4.229485885544020385e-01 3.299568442543763247e-01 7.782210866667803595e-01
2.451828698359827530e-01 2.874717194136770515e-01 6.959723377529423161e-01
8.400295134697939314e-01 -2.242298506986740159e-01 -4.342125376243704538e-01
4.910990061481808611e-01 -3.208608210147694678e-02 -2.559659153922185792e-01
-5.967381302529104481e-01 3.602681658250764807e-01 4.494064578668445498e-02
-3.542340002186153969e-01 4.339807113036531216e-01 1.765661847177266708e-01
-6.865038862934291775e-01 4.068896742420993196e-01 8.733287586359590737e-02
-1.994067319223466750e-01 -2.724499089421816289e-01 -6.683265890051899305e-01
-7.557718589361751838e-02 3.493840612203089613e-01 1.190982516757305709e-01
-6.759932726834896877e-02 3.750946644603824764e-01 1.521356932594321865e-01
3.560834317438097973e-01 2.409269187239319598e-01 5.792510683210728983e-02
-1.840454205775853003e-01 4.818529673573496708e-01 2.641830965837976275e-01
6.487180327522587553e-02 1.887887222202196957e-01 -5.528770131372610919e-02
-4.158395252474416104e-01 5.846824224457476404e-01 3.520038152332846670e-01
-6.414826320795852244e-01 5.900942684908795366e-01 3.207586471417307461e-01
-1.998603115751700077e-02 -3.645359855786565184e-01 -7.517033575329487016e-01
2.825438798482648659e-02 1.347064044914925707e-01 -1.281152776099433732e-01
-3.524823458984857050e-01 1.763932864669651435e-01 -1.407013671200727789e-01
2.871619666571812238e-02 1.014116476077741857e-01 -1.690845014526662360e-01
-2.591828678944887998e-01 3.354099438422138979e-01 7.101742449619698194e-02
-7.098423024203808218e-01 1.875667019107829514e-01 -1.869771872084793340e-01
7.516086536501208615e-01 4.324988230655646970e-01 3.605650406067714142e-01
-1.692533310780802713e-01 6.957111681522963886e-01 5.303198924539718195e-01
3.182912344373014513e-01 5.025275678658882583e-01 3.740840361168430994e-01
3.123468613655256410e-01 4.494630763650214050e-02 -1.910354626256802468e-01
8.322275086011335921e-01 8.028349757448399737e-02 -6.010992843733924118e-02
4.661611133561706644e-01 9.226726823661406118e-02 -1.068497468251046884e-01
5.692531184282428880e-01 1.602313099317857481e-01 -5.737954936556373224e-03
3.354949217184441945e-01 3.073406367293970431e-01 1.363423398423597999e-01
-5.831272977439585364e-02 -2.842490371570539631e-01 -6.591634934119573463e-01
5.584428483108376806e-01 2.808318798793761339e-01 1.411256730228297174e-01
6.186661250455803840e-01 3.388352254071274050e-01 2.227539444515506117e-01
1.823438209421757994e-01 6.265024394381425443e-01 5.040795667895553445e-01
8.078256977104666392e-01 2.147614353951233790e-01 1.015782340253200550e-01
-4.327961384706071613e-01 5.289854690965734019e-01 2.804894659629927345e-01
-7.580820494855311509e-02 -9.636628075520839443e-02 -4.304756461022993252e-01
2.546956099183217415e-01 4.551485159193752184e-01 3.049870395836766224e-01
6.089354327886251084e-02 -4.091544648348713342e-02 -3.391427504253939351e-01
1.277414688680879873e-01 -2.578947826536096555e-01 -5.954085941231364032e-01
8.344183821297878056e-01 2.316742515721854911e-01 1.268975212025302834e-01
4.846858584084134947e-01 5.234939359716043183e-01 4.278929846782184021e-01
-4.284511135013899241e-01 5.738082269170390326e-01 3.364785130879983099e-01
7.074762310525685161e-01 2.986654772483279818e-01 1.881550604530795312e-01
9.580739472893331499e-01 5.898958197448826019e-02 -6.521450634709526073e-02
3.641809823036417648e-01 -5.461192294995265151e-02 -3.050637841368373793e-01
1.398326518639105009e-01 4.710731214209303019e-02 -2.173605919746917914e-01
-7.149731608992674348e-01 5.738663279380655791e-01 2.884029835223773097e-01
-7.022431260784948170e-01 2.620701856252431045e-02 -3.846295275420489324e-01
-2.485359822254200046e-01 5.627594771757667980e-01 3.530902005818708500e-01
-3.274204456214175885e-01 6.680556509991211200e-01 4.696469005166841182e-01
-3.065849175000067706e-01 4.035039893731781069e-01 1.470004716833243352e-01
-6.259014844286332757e-02 5.638150909432432245e-01 3.856379282059539948e-01
2.477655939742469948e-01 6.620497487965946171e-01 5.588968839269135014e-01
-4.080779177771838295e-01 -2.492406587449169375e-01 -6.747785948405976564e-01
-1.855641560142437529e-01 4.445375732375197453e-01 2.179242937859439955e-01
1.151712987077480738e-01 -1.782670798683965441e-01 -4.993533423537624416e-01
2.317019636291549889e-01 4.618413375849548252e-01 3.093743093762382768e-01
4.545483552445631625e-01 4.347304203334878547e-01 3.133982182907791292e-01
1.929894182289590143e-01 2.761570110052189997e-01 7.395156117335584256e-02
-5.512044986820942016e-01 5.171904352018562578e-01 2.460508380868987044e-01
6.104087510762772339e-01 -3.644547981131390224e-01 -6.456717421781558164e-01
9.611187389749191734e-01 -8.972006879494077991e-02 -2.480368063208002460e-01
2.397811517986790653e-01 -7.521592424166129165e-02 -3.513691913233202291e-01
1.384305404104734794e-01 3.343588037863917672e-01 1.365364939898277563e-01
-4.368195797812287062e-01 -1.314399990856316980e-01 -5.343799752589513119e-01
5.824549771724514269e-01 3.590323524318353998e-01 2.415686790533943806e-01
8.147243060157611794e-01 -2.280894738324346360e-01 -4.432230892141444389e-01
2.683072747351216703e-01 7.111848553585080612e-01 6.229240162321072471e-01
-6.799088408986031506e-01 -4.929940015305137035e-02 -4.739631686886758843e-01
7.998210335284994255e-02 -4.594920499456086466e-02 -3.421408854450788128e-01
1.924470651068661275e-01 5.664839235895560154e-01 4.317845968198405493e-01
6.917342849130847515e-01 4.983397850122771033e-01 4.316745670816585778e-01
6.036220015812007178e-01 1.563265466633142475e-01 -4.776523877686623433e-03
1.740057285557626288e-01 8.459564551358156326e-02 -1.654013494513516536e-01
-5.572818349244055280e-01 2.545563718709993317e-01 -7.875395221740408291e-02
6.671625403086505202e-01 -1.008979625206258765e-02 -1.992624883116360657e-01
-9.797148156792034879e-02 -2.153372293297772799e-01 -5.808710994911664427e-01
1.131918320784635751e-01 -1.911075790027298438e-01 -5.155161441108088161e-01
6.271514430781722771e-01 -8.538959401721975262e-02 -2.988179172793228866e-01
-3.476494537745526414e-01 4.714943018350532984e-03 -3.515397233386972631e-01
8.968348362061778767e-01 3.795641753343016733e-02 -1.014354735398560747e-01
-3.115547690760375188e-01 -9.791833084173671292e-03 -3.633587843602241185e-01
3.080106771641092367e-01 -8.519933175891697408e-02 -3.522117630227467600e-01
-3.281292897477032233e-01 3.405871146876354172e-01 6.581424880299065194e-02
-2.649623031392893124e-01 1.200200771600713340e-01 -1.954931711611782863e-01
1.518328612481896212e-01 3.011116897563774764e-01 9.780052912835440759e-02
3.998018036139598941e-01 -1.724876230779599229e-01 -4.443989422009929080e-01
2.888645079001319615e-01 1.522315482609673531e-01 -6.271680912333568725e-02
4.554884460134712154e-01 -3.265140114869546362e-01 -6.249299485901335105e-01
4.089825348935342553e-01 2.006216912486576132e-01 1.712471555582336866e-02
5.000507298684541135e-01 -5.790613194030344579e-02 -2.862934395612282135e-01
-2.184921352684827400e-01 -4.002121928684798657e-02 -3.849882820167831454e-01
4.013987233831323165e-01 -1.364937872805373764e-01 -3.997562600819700718e-01
-2.182732337471843254e-01 7.540129528462707897e-01 5.939588677118551319e-01
3.597520339542428780e-01 -3.735430716809333695e-01 -6.989964014627475519e-01
5.113467759116391287e-01 -1.588301232233663984e-01 -4.088175311099424003e-01
-6.331103377077668126e-02 -1.222935365103501315e-01 -4.603395601952200433e-01
-8.930844702320476225e-01 1.165401144714918458e-01 -3.053330135871645812e-01
3.908221403353240309e-01 -4.244280713921025350e-01 -7.565080136823850721e-01
-2.009413092057746597e-01 3.140665780015357011e-01 5.449156027094539945e-02
6.319076555279421470e-01 -1.766810406115328913e-01 -4.105656574831816341e-01
-5.365871080662318882e-01 2.468330372497267999e-01 -8.479798124566167994e-02
8.617793658271664103e-01 2.418871641271249096e-01 1.440860609209375087e-01
7.405561500448822887e-01 2.822750401482236327e-01 1.735071615958508895e-01
-1.909802805488350352e-02 -3.729247079806176646e-01 -7.618960190087491480e-01
-3.437725366808388333e-02 6.916896104153330560e-01 5.480265622491745647e-01
1.840932650107393043e-01 1.069095918130734540e-01 -1.361969034355008656e-01
-2.439386028000361251e-01 -8.034695852071123412e-02 -4.389791487535216197e-01
-1.091009501358907452e-01 -1.089818649424764280e-01 -4.516230482380252376e-01
-1.563329187082285188e-01 4.539808006984198951e-01 2.344782188240104592e-01
6.428611156041579289e-01 1.908236600924834436e-01 4.434634517728341940e-02
5.570592678585851720e-01 1.520766425861458104e-01 -1.784034035245334396e-02
3.780194385471599694e-01 2.642143057791355720e-01 9.032065799511102000e-02
-9.162711541049817221e-01 2.116449910052788930e-01 -1.919810127051232995e-01
-8.570298930352862055e-01 2.366990773479384913e-01 -1.511386448720456188e-01
6.330983910504174306e-01 -2.900242142786805255e-01 -5.500986048368788905e-01
3.810605733920003346e-01 1.048028392507919515e-01 -1.056957923997752652e-01
-5.458450707525531742e-01 3.675725526096000895e-01 6.249779270478274251e-02
-1.981205590559094454e-01 -2.077718519258048013e-01 -5.883733123762683315e-01
-8.658398260356742204e-01 -5.524522448321164507e-03 -4.512399576291041825e-01
-3.832580752333637486e-01 5.558962830727713911e-01 3.219903410271487965e-01
-4.109775525643291627e-01 -2.383070663346358586e-01 -6.617865719142490555e-01
-1.662859625789700480e-02 4.049064738353224113e-01 1.974537523877157585e-01
7.970543649206450754e-01 -2.481000461786589395e-01 -4.708620102920855754e-01
6.358262417451959747e-01 5.242039456798943675e-01 4.541659336179681983e-01
-5.521065904307326244e-02 5.350220978148053641e-01 3.513810675848011988e-01
-9.063011428462089403e-02 5.608969117938628068e-01 3.773284697091299766e-01
3.998869178723520879e-01 -2.142055064328205263e-02 -2.581443891385458711e-01
-6.858073902227619367e-01 2.177681464270291856e-01 -1.457050679731735632e-01
6.390245636215245995e-01 4.197502446178910662e-01 3.259295631671038640e-01
6.395167711587036452e-01 4.674663740686014340e-02 -1.338383351053287762e-01
-1.582161616906173351e-01 -4.290491002730456582e-01 -8.544653476018743143e-01
5.413307960376672057e-01 -3.878554273769548866e-01 -6.861286338174101829e-01
9.011488217301981685e-01 2.160838216226014172e-02 -1.208649250152072502e-01
6.121509598239585070e-01 7.474953560194819158e-02 -1.039140295158739180e-01
-6.654669778334121322e-01 4.179771654148038418e-01 1.045369262206558986e-01
5.597180509616995758e-01 -5.543137178374227259e-02 -2.732159819229426079e-01
4.008023635061135348e-01 2.403370803420717614e-02 -2.019531142776425370e-01
-4.676737234887209937e-01 2.158592337530408634e-01 -1.114032593079054556e-01
-6.075383804606528937e-01 5.947583299783851807e-01 3.322126404854258697e-01
5.318156784655014846e-01 1.974479386607694287e-01 3.385289194388235723e-02
-1.124561683996882222e-01 -2.610328981714954422e-01 -6.396401673975579127e-01
6.148733475463824538e-01 2.043348408802982685e-01 5.630029098909655749e-02
7.384214189998129507e-01 8.760958613897205927e-02 -6.684126860880756915e-02
8.689045954246517045e-01 1.077246395619881059e-01 -2.011640646254797549e-02
5.921770949691962382e-01 -2.590331590200847106e-02 -2.313584465121102940e-01
-6.197773375018371667e-01 1.559116999090301436e-01 -2.108679571878099290e-01
4.659072775221396734e-01 -2.331124062364049732e-01 -5.080307242135905232e-01
-1.245592171885082922e-01 -1.887681216231288650e-01 -5.525836682019474866e-01
-2.144219408715498654e-01 1.981607979851005008e-01 -9.066602520534812470e-02
-4.719972504140745873e-01 4.511593004074175295e-01 1.779555571658961444e-01
4.081911791660116640e-01 1.216701868007846916e-02 -2.153411266876341656e-01
1.580598881749854454e-02 5.795687104704352333e-01 4.182331722391950390e-01
5.164306658728806676e-01 5.633727567538712178e-01 4.823912491545018777e-01
1.123511544790058853e-01 6.394585833928547736e-01 5.082907435177502764e-01
-7.775557484531503416e-02 -2.721670364384744523e-01 -6.475355971909242392e-01
-2.885986153884897987e-01 1.853868835764639622e-01 -1.188787563864450031e-01
-5.485726279155161977e-01 2.173282291761198248e-01 -1.231864854910742213e-01
-3.078015485115958016e-01 3.987262938178436356e-01 1.409059353010646276e-01
-2.715895106247443458e-01 6.018708917055777263e-01 3.974340713178485252e-01
-3.817527327477530652e-01 6.650307081662200082e-01 4.567876593128245011e-01
1.858353528893698092e-01 -8.541696513434025861e-02 -3.730104070264884109e-01
-2.773123446109265200e-01 3.496055165862296255e-01 8.547169734547413467e-02
-1.607651841647100011e-01 -3.447174275278707123e-01 -7.509269399069739004e-01
-7.512067966789367501e-01 4.425823381462402201e-02 -3.706032742694970739e-01
8.416228309782702866e-01 -1.680067417615234981e-01 -3.646311750169867194e-01
-4.343445201903063935e-01 -2.679907519754071710e-01 -7.023081402908388782e-01
-9.154605658741907792e-01 1.880389939049039172e-01 -2.209470190656280530e-01
5.785641093352031916e-01 1.830598472412118538e-01 2.397040440658425309e-02
1.086712569786329602e-01 -3.833602639630564468e-01 -7.532909537313703385e-01
2.535878503080670754e-01 -1.225323582718988447e-01 -4.073823059112808287e-01
4.192275750193720785e-01 2.599644812404153793e-01 9.200595461168686873e-02
-6.993709187240819414e-02 1.006244948756992580e-01 -1.866326245269441797e-01
-6.762156970539988654e-01 1.297611082443699826e-01 -2.525911318503878955e-01
3.857217350992763749e-01 9.460361982136285264e-02 -1.174864502148512957e-01
-5.924652149002308521e-01 2.627496710455424767e-01 -7.456520900936146334e-02
8.713854565686304232e-01 -1.251849820261553559e-01 -3.068378483973308590e-01
3.863659122828758674e-01 7.269184477586400350e-02 -1.443917299111391328e-01
-5.775305573194089437e-01 6.624291718429742293e-02 -3.143153120559210589e-01
3.935469350905716479e-01 4.543461225486186694e-01 3.273303972624587721e-01
7.973091683732307366e-01 4.904717672632948750e-03 -1.589069423026382155e-01
4.320404193418064809e-02 -8.119373999411920451e-02 -3.917716441565932683e-01
8.073867813045700892e-01 7.437932935881914898e-02 -7.156300843919381760e-02
-8.940344534748451144e-01 7.190752028821817410e-02 -3.605171182492594162e-01
-5.620052595820012042e-01 5.768477617139875502e-01 3.177833117569803800e-01
-5.213109165466336403e-01 4.031366729238845537e-01 1.104650803797977560e-01
3.227139827769351377e-01 4.885667791367164781e-01 3.576159340793700347e-01
-3.312990309912224873e-01 -1.289521780143448593e-01 -5.135812403725308339e-01
3.550328687719617182e-01 2.883098485065700434e-01 1.161637402063984692e-01
4.589057901453068022e-01 -2.650425160770125133e-01 -5.485717002504441053e-01
9.806361983598018695e-01 1.561138882810423900e-01 5.831476122578563293e-02
4.005631756690227196e-01 3.250615266079105448e-01 1.691232795896063235e-01
-1.146233531147193146e-01 4.742167360238326856e-01 2.664345924436727353e-01
3.280701746446341160e-01 6.761037364376453196e-01 5.897174629640471455e-01
7.399494991471735617e-01 -2.168139409167369192e-01 -4.418874135343096032e-01
-2.944308367175568208e-01 3.599819143197064975e-01 9.538745664336630015e-02
-6.403918491895964626e-01 -1.838582451907788684e-01 -6.332111214784175157e-01
6.678347598754283965e-01 2.146065703514825895e-01 7.786323750226734064e-02
8.571643968084758508e-03 7.155815221806592907e-01 5.846983962354125319e-01
-8.452171971949772322e-01 1.907148753499980920e-01 -2.058444139648101245e-01
2.456989179406499912e-01 5.094548454116604175e-01 3.704257910965165768e-01
-6.232243775025284593e-01 -1.281460009729920579e-01 -5.616424884916516591e-01
-5.383783275633253762e-01 -1.196308172168654010e-01 -5.368871731450430840e-01
7.818689361986355113e-01 1.041339873859929710e-01 -3.916854588774806162e-02
-4.934928571012875409e-01 -1.437207302305553436e-01 -5.590434240937198762e-01
-1.281161019079136709e-01 3.497928154526594446e-02 -2.773385130225529127e-01
-6.719345015279524005e-03 -2.537540874735308982e-01 -6.128986066481476591e-01
-9.048026853830780647e-01 1.256522248682751808e-01 -2.960684451675083539e-01
-5.753641703632742521e-01 -1.961802226240488278e-01 -6.374747941316527555e-01
9.027576187857896395e-01 9.522543887388196238e-02 -2.983715392893135365e-02
1.512612465784438365e-01 4.360674746504332178e-01 2.640822221626387689e-01
-2.919962213893795289e-01 -2.367555688764485800e-01 -6.398802167367517724e-01
-7.634630495634742164e-01 -1.196409607245310369e-01 -5.747229099532827901e-01
-3.222121640179806401e-01 -3.517588862822291773e-01 -7.867374191235153580e-01
8.251280137882974763e-01 2.786308561720320376e-01 1.832259507411030941e-01
8.351882209081399333e-01 1.630126566432132940e-01 4.237870557296771756e-02
8.070862511568930309e-01 -2.486399161946346859e-01 -4.698418211361245489e-01
3.076597320633143728e-01 1.235776930392743361e-01 -9.488383633531288774e-02
-1.839610935493873889e-01 3.340058139249594271e-01 8.192663411036417431e-02
2.578112257616593239e-01 -2.095839642792445001e-01 -5.139925748622390378e-01
7.152315173070079579e-01 -3.344417857359869295e-01 -5.910563388690782682e-01
3.419219971556470838e-01 -1.255076989300196177e-01 -3.962067316656480154e-01
-1.616885750565751900e-01 -3.397732749586646062e-01 -7.449867993012047052e-01
6.828705162834725062e-01 4.159980286911797442e-01 3.286715859441597942e-01
1.045625463165984204e-01 5.305040089299115635e-01 3.726593109389492731e-01
-7.291383572707016425e-01 -1.177122942328764910e-01 -5.665772685729303371e-01
-5.752534653050523916e-01 -4.498997190197933510e-02 -4.510640827149317578e-01
-4.520213625556235293e-01 2.382112851202605464e-01 -8.121672318410130820e-02
9.670355264745348345e-01 -2.833489493263879541e-02 -1.713649715002539542e-01
8.738213358249564688e-01 -7.925116160111071728e-02 -2.497998610607199410e-01
1.085764294169035971e-01 2.897617785133598245e-01 7.653919083117968758e-02
4.194584160619465041e-01 4.908810848622033318e-02 -1.679302967174310102e-01
-9.013992411148729830e-03 2.734322174248481341e-01 3.664770119163515694e-02
-5.048341611656904232e-02 -3.024994092466011808e-01 -6.803474899199618564e-01
2.845550946628450095e-01 1.617311221036197566e-01 -5.172958864451128458e-02
-7.466122333702683855e-01 -3.301554370219801637e-02 -4.650967535363472738e-01
-3.630259207547999467e-01 1.380689108318180758e-01 -1.897206079570970261e-01
2.083231118231224366e-01 -3.815188305356896348e-01 -7.342752811120811796e-01
-3.814464936869672584e-01 6.399720505607704446e-01 4.259460164521474135e-01
3.604314046580189834e-01 -2.903021062872298552e-01 -5.962601530675153416e-01
9.604664337412828490e-02 -2.828189110015082997e-01 -6.314618432339008658e-01
-2.101167316174445132e-01 3.629430702184815449e-01 1.132062033147357566e-01
9.687013474236200183e-01 1.352427394289131002e-01 3.057861871501837969e-02
-1.856782489746241771e-01 6.085345411197316118e-02 -2.551127590829272429e-01
1.795617155796148945e-01 -1.504634789215570090e-01 -4.542560221927385289e-01
-3.814897430019136282e-01 6.783838164863830178e-01 4.732939851016572108e-01
4.355104472242157243e-01 6.498887785128293348e-01 5.754530971672383588e-01
-3.229476854149357368e-01 1.207681777587282373e-01 -2.043147514739212800e-01
8.119696157716354001e-01 -8.967003296948293511e-02 -2.730381358525842406e-01
6.952803297214815714e-01 1.875385652647195700e-01 4.910490023497618428e-02
4.633627296915890370e-01 5.067331559356690746e-02 -1.585983235444397843e-01
-2.038137099603471447e-01 -3.505128426441339595e-02 -3.763946271498260776e-01
-2.157418457261388034e-01 -3.701342538066265120e-01 -7.914998817669754994e-01
5.926970075556504680e-01 1.832401663322462682e-01 2.656759936391345223e-02
-6.040393471120723001e-01 5.723548548051241580e-01 3.051809073320694288e-01
2.002663066564291591e-02 -3.431457958842287770e-02 -3.378722686406194220e-01
5.707710308155995449e-01 5.644145927919357320e-01 4.928070111648700236e-01
3.219922684061486962e-01 -3.326401570756276072e-01 -6.549151486991255933e-01
5.553319411246833148e-01 5.237635269585733111e-01 4.400967110828366557e-01
-6.593538272740608885e-01 3.777490630007249162e-01 5.596970674123257633e-02
6.574683353440176070e-01 3.575108565026990370e-01 2.522981738981687205e-01
-6.316218092496947989e-01 2.349451888354661955e-01 -1.154233246560104204e-01
-5.856428614249404446e-02 4.560941046373557239e-01 2.535126053538539481e-01
-4.853896727110471043e-01 2.181960738403263267e-01 -1.114993168661062989e-01
7.930967015933411135e-01 -1.329747421025609666e-01 -3.295969508601555020e-01
1.943842955425383739e-02 -1.469755567777739080e-01 -4.768631151364741694e-01
-5.745170641845205317e-01 -2.773575485732160950e-01 -7.374104136066761406e-01
-5.980038337328312803e-01 2.168661228318669032e-02 -3.726860586262740194e-01
1.963625396759767494e-01 -6.027920652794995122e-03 -2.733681014027277145e-01
-2.446878012481827347e-01 2.788311857600913046e-01 3.701098116204494699e-03
-4.706032814097909495e-02 -1.637575655842512731e-02 -3.270300129820142288e-01
-6.004456738302746399e-02 -2.793638943043073031e-01 -6.534319532133022745e-01
-8.576798072164155962e-02 -1.369530912547040347e-01 -4.821859863963015025e-01
3.112228814895432460e-01 1.754985428070392761e-01 -3.027542398348664204e-02
-7.305792171254172906e-01 5.577944606549956053e-01 2.659666374111699927e-01
-3.549902611788036677e-01 5.718629436466993177e-01 3.464246664877403958e-01
-5.137589185987374574e-01 -7.891691221839371162e-02 -4.825567423165506020e-01
-1.049438852785620352e-01 5.700000702901989458e-01 3.861458447987514697e-01
7.165368979554580520e-01 1.703999112969170893e-01 3.154778043701551848e-02
6.506378032094335406e-01 1.561731085260333572e-02 -1.703467725028773583e-01
4.542690537606198231e-01 -2.340108788391600525e-01 -5.110940764261440172e-01
-8.106342170034908090e-01 4.447166115734323411e-01 1.131082590417841482e-01
1.198477737661364090e-01 -4.291770310483110640e-01 -8.078972072976677854e-01
5.445078300988943631e-01 4.842308124474966058e-01 3.895406506857189699e-01
-2.194888468199942544e-01 -1.333412698544442776e-01 -5.002036703849557231e-01
2.030216613158338235e-01 -2.990041099540902136e-01 -6.334393872821929561e-01
-8.124434385881597054e-01 4.009388186455027370e-01 5.883359393009908456e-02
-2.935448201701720133e-02 3.535692189413177644e-01 1.320251081933895010e-01
1.416332270988414355e-01 1.126953417851685874e-01 -1.361990322352792382e-01
1.412226178897614537e-01 8.172572773258281534e-03 -2.651269965303100773e-01
-4.903782144022763023e-01 2.889854153302713335e-01 -2.506625892403431879e-02
-4.678469885245566291e-03 1.869682314707473147e-01 -6.921928603689674053e-02
-3.184948565170594437e-01 1.424411047998529467e-01 -1.768474303428174688e-01
7.583112830623618406e-01 3.905356004974520068e-01 3.099577663013179940e-01
3.175504454945456967e-01 3.186117071951706237e-01 1.472222815438550825e-01
-5.582166198068969631e-01 4.675797304396177023e-01 1.837108802173272326e-01
4.937224348070672897e-01 3.081260051895985327e-02 -1.779815951942712304e-01
-1.919306759552583397e-01 5.616510935055812892e-02 -2.619433560292137031e-01
-7.714177241624031733e-02 5.994047027097622049e-01 4.270686692696797904e-01
-7.500541349410068115e-01 4.600268004226583662e-01 1.421630182418580912e-01
-4.489039626395772142e-01 -2.399245064680029238e-02 -4.039459088431325839e-01
9.361824013862123373e-01 1.913568927703540937e-02 -1.180262968454148798e-01
-1.508747528072591493e-01 -4.882282351443449631e-02 -3.844767538348636271e-01
-4.384133949792229368e-01 -1.501189327134256658e-02 -3.911115597772452102e-01
-2.287865962646501161e-01 -2.555682722994718215e-01 -6.524513667636016034e-01
4.955272975675462099e-01 2.285280804537889454e-01 6.607157208822980743e-02
7.830434096539755640e-01 2.326361614228515673e-01 1.194503447902769272e-01
6.842260416916426946e-01 2.293273875960901917e-02 -1.556839154716387341e-01
-2.851966046505285957e-01 4.273059082550950127e-01 1.799383194273585784e-01
9.585521115858287866e-03 5.433046812404221937e-01 3.724804462469720190e-01
2.496729177823415746e-01 5.622328100011168839e-02 -1.876645823246285705e-01
8.350475459930982725e-01 9.789100232135332369e-02 -3.792896235228340046e-02
4.008190381009416742e-02 -3.397917208219481400e-01 -7.111040332575441214e-01
5.924382071563191188e-01 3.663788508593824322e-01 2.523032557102199425e-01
-1.266601025684507276e-01 2.020937662626484388e-01 -7.106984058035252516e-02
3.045422906514215766e-01 -2.023408077801595872e-01 -4.972102960506168956e-01
1.508247770111214026e-01 4.575503223754647797e-01 2.904936099160987384e-01
-7.070701941743402497e-01 4.144122828919878376e-01 9.315102310690262510e-02
4.884359147103575216e-01 2.525523193353351736e-01 9.449777551854207647e-02
3.669426465590415742e-01 3.938201708923245170e-01 2.482415114676669032e-01
-5.297532744566914031e-01 5.996797618538675101e-01 3.513509443340472882e-01
-8.614316211035376591e-01 2.645537956406421309e-01 -1.175381361083011056e-01
-5.498023395532588564e-01 1.776385356797209603e-01 -1.723238318760514087e-01
-1.586812948776017973e-01 -8.211704440750736134e-02 -4.268347303638403978e-01
-3.139296879052419498e-01 5.779833610885667383e-01 3.608699279041430730e-01
3.946881713040382156e-01 1.887077807763980764e-01 3.484651384847471396e-05
3.722537735422485339e-01 2.939748838793225238e-01 1.260415748947516790e-01
-5.638440235177336612e-01 5.103281679104353374e-01 2.354668731172960272e-01
-1.276642206789266668e-02 6.042578260641036092e-01 4.438693851837115512e-01
4.008396538206285831e-01 -1.462919783354526826e-01 -4.119297250153972079e-01
1.680082907683590199e-01 4.911062220503478043e-02 -2.101562144376352415e-01
-1.226306579994141666e-01 -1.730031233968422344e-01 -5.328240062318058134e-01
-5.586934635247701175e-01 5.719188173215344895e-01 3.122632678208045465e-01
4.973809674462325026e-01 1.698952263323001352e-02 -1.944083417504890998e-01
8.723580244963711205e-01 -3.651377817181215152e-02 -1.973577619423741991e-01
8.091997097388576865e-01 6.819395988825437127e-02 -7.888388251157238407e-02
3.072061552757523462e-01 -3.605554423160753363e-01 -6.918146507050657590e-01
3.355001008153103981e-01 -1.448289749541820971e-02 -2.604109908499968040e-01
-4.021025830266072854e-01 5.275148402793254920e-01 2.838341727436634043e-01
6.607369193440059130e-01 4.429702880918920949e-01 3.582045087171207287e-01
-3.122631405225039791e-01 3.325426749416049432e-01 5.856295717582520044e-02
-8.968707666444337701e-01 2.306685890738663092e-01 -1.652680804707696571e-01
-3.527145878812150137e-01 -1.700532446441927192e-01 -5.678506010386320524e-01
6.778894734599343330e-01 3.711783557569537928e-01 2.725794655383925180e-01
-7.718733664601871158e-01 7.336404263883428145e-02 -3.381935252801294145e-01
-5.175813637376026899e-02 7.082806392496924230e-01 5.655598226226155045e-01
7.559648908962453284e-02 -2.544641797207345402e-01 -5.999416798684978902e-01
-2.549909951114071038e-01 -1.880853030617866406e-01 -5.736596209477714536e-01
4.692259464456825513e-01 -3.304602531963644618e-01 -6.274865505449389591e-01
3.298186876248541677e-01 -3.871670824006630540e-01 -7.208225103184173754e-01
-8.528929392767873319e-01 2.883162960891431648e-01 -8.680813635713682808e-02
-2.867663895570659038e-01 2.446908477012157274e-02 -3.169554057556683291e-01
5.268034572902325491e-02 -2.473816134998174654e-01 -5.950608971080256770e-01
-2.470255556106768224e-01 -2.478858339707584457e-01 -6.460450888574266193e-01
-8.031739639772047523e-01 8.829671575742707723e-02 -3.250438066863883813e-01
-6.016817308127333369e-02 -2.268941872053849285e-01 -5.887664144839924729e-01
-1.239464042231683411e-01 5.231699539026510859e-01 3.252190177799406667e-01
2.661742434336323293e-01 3.151780346268998612e-01 1.343558859010875184e-01
-3.828919761864588711e-01 -1.908889539729904661e-01 -5.986085281526494217e-01
-5.610102402990883030e-01 2.472048236576593339e-01 -8.844369382413923286e-02
4.571548675698990927e-01 7.943568547717054507e-02 -1.241823360039564922e-01
-7.954081148935336909e-01 -6.828122531163487163e-02 -5.167730566727246622e-01
6.353053017911004519e-01 -1.251503526002987199e-01 -3.464660599954599296e-01
1.595454256588384745e-01 7.125881492090981872e-01 6.063777024926232384e-01
-3.289940579799995324e-01 6.324328711048331497e-01 4.254655843922213743e-01
4.695540457232292852e-01 -1.916825292214139054e-01 -4.563418625840422460e-01
4.305639668748974525e-01 6.273361268161303794e-01 5.468182705618789274e-01
-7.225995267786238241e-01 -1.457555166505383748e-01 -6.000510525232294334e-01
1.160036473137020518e-01 -2.911384006362849330e-01 -6.383647979037240239e-01
3.254476358532681357e-01 2.392353898422886205e-01 5.069169824262632906e-02
-1.067199330948632729e-01 -3.866464467177588848e-01 -7.935365941412613200e-01
-4.869273230030428112e-01 4.844271333831390858e-01 2.164603416273858938e-01
-5.434675242778216897e-02 4.422790646802740033e-01 2.371897027375690081e-01
3.135570752700267971e-01 2.166761005615342461e-01 2.088180552956721975e-02
-9.285514320527969989e-01 2.453068306192640879e-01 -1.525452130045421573e-01
2.689097692495562297e-01 5.519822655751946971e-01 4.267552866092335639e-01
4.393122344824957337e-01 -1.585457523020111503e-01 -4.205716323765843478e-01
4.290314753033087070e-01 5.176550234319533539e-01 4.113424279093082503e-01
3.953934209791881010e-02 2.696302282008436468e-01 4.011939021695944130e-02
2.064631256093945322e-01 3.261960679756959469e-01 1.379054099600080241e-01
8.277325724959279374e-02 2.287726381336882830e-01 -2.986109051780391852e-03
6.741712396231885895e-01 -1.695506408117046782e-01 -3.946731040571691551e-01
-8.835224114061152045e-01 2.655471685195907594e-01 -1.200256105999663730e-01
-4.647094217906375668e-01 -4.772849207888005957e-02 -4.358643981810391144e-01
-2.926611704330150943e-01 4.573722316684371569e-01 2.157506855419876468e-01
-2.997278520581703742e-01 -3.645333196909312373e-02 -3.942405260300788084e-01
-4.614275381333177162e-01 1.664116204205876581e-01 -1.713142274003356946e-01
5.817235757149336051e-01 4.450166004629395045e-01 3.474498666654430856e-01
-1.570927869081731598e-01 -2.774137598039726482e-01 -6.673357465126680266e-01
2.092705974081066622e-01 1.448723276930068971e-01 -8.516444720742123720e-02
-3.094492159576970880e-01 -3.802451253562393330e-01 -8.197114674025323122e-01
1.370526476006888872e-01 1.965360206959662626e-02 -2.516735432975037434e-01
4.579428546701909131e-01 -2.401377487813520159e-02 -2.515856794461032164e-01
9.777926232519007499e-02 7.367418402980634440e-01 6.257759498168972145e-01
-7.683805900921703014e-02 3.473801447370596374e-01 1.164158831563897045e-01
8.341060886330244062e-02 4.597129007240992049e-01 2.818314294121777586e-01
4.652380744210395380e-01 -9.806730253930850960e-02 -3.416553149002341527e-01
3.028719375302256767e-01 1.396229836827026505e-01 -7.590723696183029889e-02
2.392599582382404222e-01 -3.641790062834339703e-01 -7.076995720319178007e-01
1.399611177687667407e-01 4.181348078174977334e-01 2.400753916354032846e-01
2.158083664786142053e-01 -3.255667844489749663e-01 -6.640380123497338083e-01
-3.404400941756680621e-01 -3.140175269442047612e-01 -7.432717022107289129e-01
-6.336781763301636561e-01 9.818465239994599025e-02 -2.843715782930831826e-01
-8.886318246204693017e-01 1.786956069325333629e-01 -2.279575400774022931e-01
6.025641167556179401e-01 5.928985449857664403e-01 5.332654350472166849e-01
-7.342392231507881561e-01 -9.793537603378707490e-02 -5.430528095822225731e-01
-2.374259990592954284e-02 8.025217316789604038e-02 -2.039857437438094834e-01
6.840227781410338492e-01 -8.745300009683026855e-04 -1.850684235118157384e-01
-6.863622983155495128e-01 2.619334020586723266e-01 -9.134999491986772746e-02
2.313740198838770135e-01 4.048157302064452068e-02 -2.101464026889572345e-01
-6.901573867939879703e-01 2.326189692683874599e-01 -1.281274786114236508e-01
-2.667032777302059676e-01 5.717452940824195862e-01 3.611153670883524014e-01
5.707019070327119525e-01 -2.865052262748354894e-01 -5.562453892192212868e-01
5.278748671986066565e-01 1.738264284824105332e-01 4.069335508004613515e-03
5.897173431040226427e-02 2.872049240381749358e-01 6.505144817047278649e-02
-3.229696734346812481e-01 5.325819058755003610e-01 3.033785033196991221e-01
-5.505493781981431623e-04 1.269182757523277250e-01 -1.425571093212301410e-01
4.199143642472837334e-01 3.818715704819775070e-01 2.424122663461183991e-01
4.805572908556161871e-02 2.122137687972855402e-01 -2.923433796119914024e-02
1.496688380589484002e-01 2.542355351847176426e-01 3.964648522870513336e-02
-5.242152986331362063e-01 1.048307652704775078e-01 -2.577839012940074115e-01
-3.633890865504262879e-01 5.025879496395286861e-01 2.596089310168908648e-01
-6.150589152264998027e-01 -1.504285984129236087e-01 -5.877410531527755833e-01
7.820450710885299417e-01 2.763903949460462250e-01 1.732241827810589441e-01
8.694519017652345694e-01 -1.791931631069723641e-02 -1.749222678223777416e-01
-8.479680266307894065e-01 4.327207908707338957e-01 9.204586049601130859e-02
4.069138152383049989e-01 -3.399929131759092948e-01 -6.497096434718049318e-01
8.180424020997504320e-01 1.680837502726999916e-02 -1.407477260358103999e-01
-1.181576553943839286e-01 1.380221947196068055e-01 -1.486305433043056123e-01
-5.495861324869363296e-01 -9.249970915988613152e-02 -5.053224468975279215e-01
3.938259263564947155e-01 -3.979742918177860966e-01 -7.233902039268095274e-01
5.104554287492545361e-01 5.966580700395522907e-01 5.224223542415014077e-01
4.565237931643911229e-01 6.169630780866788844e-02 -1.461580458946014349e-01
6.677642364755047577e-01 -1.534628461131305466e-01 -3.759161961230476634e-01
-2.401586303558721214e-01 -2.851854713798456648e-02 -3.744482624226023182e-01
-4.425252366268389026e-01 -1.476587814724841519e-01 -5.553337800557257564e-01
7.835470538242059746e-01 1.806349193842939349e-01 5.542620621559686545e-02
-2.345156449980531077e-01 -3.109555724745591831e-01 -7.216972861548224261e-01
2.989625780259234644e-01 2.028621480304561020e-01 1.399070271342517553e-03
8.650638345136915652e-02 -1.330429110836051920e-01 -4.484164127400196431e-01
1.355288604496438787e-01 -3.779412793773597179e-01 -7.420971075811948481e-01
-1.351207832223167427e-01 2.493788717370441499e-01 -1.419700410490285815e-02
-4.166517475204117860e-01 -2.705101137520208449e-02 -4.022969374580528390e-01
1.419253378145932942e-01 6.440755627221482760e-01 5.189523463171015205e-01
-9.299538137271207150e-01 1.916019379421054492e-01 -2.189899543469785714e-01
-9.183679028728468641e-01 1.528061092762902085e-01 -2.648717790703031261e-01
1.902918511518466582e-01 5.897424279049729989e-01 4.600962522414740463e-01
8.212811185670495506e-01 -2.567226840418493361e-01 -4.774212070132587971e-01
-6.994771978858886907e-01 5.558822825706810633e-01 2.688356265790408095e-01
-2.050293911972821126e-01 2.460674242318755534e-01 -3.002690190461655348e-02
-2.354718309805988452e-01 9.154127166443658259e-02 -2.256471623208397559e-01
-4.093190045533887655e-01 5.127516285863071843e-01 2.644209725337516859e-01
5.886901253328253869e-01 3.350414063153281385e-01 2.130396383346326583e-01
-2.626619930695204067e-02 4.337446547381732520e-01 2.313868685557319560e-01
8.798063313211440528e-01 -1.553262658088796766e-01 -3.425819298814432590e-01
1.281223590643225940e-01 -2.903153722004017112e-01 -6.353137144482813303e-01
-7.537215589022648876e-01 2.898393966140753730e-01 -6.826565349691438023e-02
-2.864537768300621234e-01 2.889406871117742859e-01 9.146056575315858819e-03
3.736661991202631095e-01 -2.241323369687947542e-01 -5.124600003732110443e-01
-5.158330574501173160e-01 1.863490368281846277e-01 -1.558770540007796412e-01
6.204974212519737131e-01 5.045559956825993453e-01 4.273674666590470128e-01
8.368679727162932069e-01 6.198223120344135278e-02 -8.189252322512564908e-02
-1.462554451788966869e-01 2.493258734243933017e-01 -1.613341043818505849e-02
-7.483360430370952221e-01 1.612158063695401655e-01 -2.259318894479462880e-01
9.407814519319408764e-02 4.003672210626115779e-01 2.104607767529464157e-01
4.553500831091846779e-01 3.257303161191508756e-01 1.791541750696331592e-01
7.344591930506667865e-02 -1.732134333409245941e-01 -5.001345793661384764e-01
4.142194838700855586e-01 -2.532130408307750602e-01 -5.414970360419172346e-01
-2.501496654341577308e-01 3.136587215331478884e-01 4.571977089300651581e-02
3.488375927371389212e-02 2.373460858066526458e-01 -4.638425678507508590e-04
-2.324166337497581003e-02 3.358688386100870393e-01 1.112307190843520727e-01
7.898416269808926637e-01 4.336319922448406139e-01 3.683867152730196382e-01
-4.380833102270114132e-01 4.826170951124473807e-01 2.224366161691119781e-01
5.043680994649996085e-01 6.333540704478082262e-01 5.666394259975804371e-01
-8.032182342356560811e-01 -4.697620297166596459e-02 -4.918199656019672239e-01
2.025738418218260839e-01 3.745159800519108351e-01 1.968221660700981979e-01
5.661388152180204525e-01 5.109977815617906538e-01 4.261746844952263857e-01
-2.882125766250906995e-01 -4.444946376768559027e-02 -4.021633828295564372e-01
2.354673405992089852e-01 -2.208175191308845153e-01 -5.315963214638758094e-01
1.855723026299584966e-01 3.395468092328468579e-01 1.508541313490700531e-01
4.087287898314483914e-01 -2.407045055885386198e-01 -5.269987754677507574e-01
-5.707147849465792344e-01 1.673615040535766652e-01 -1.885078073771571938e-01
6.289560774674793908e-01 7.928740148259326437e-02 -9.549567377953174785e-02
6.637486716093468075e-01 5.447715709963665276e-01 4.842144351429323312e-01
7.966237497853190241e-02 7.382142742534263391e-01 6.245468514888160572e-01
3.714217002536215340e-01 5.348793316111911667e-01 4.228963528724890009e-01
-9.112506609758590503e-01 3.064874917624151318e-01 -7.421254357127501922e-02
2.449742996085281510e-01 -1.388478113204969222e-01 -4.289439317653132577e-01
8.963789039671028469e-01 3.517433994971429501e-01 2.853343975622857354e-01
