-6.590175180699560098e-01 6.591772146878169814e-01 4.167861764113671708e-01
-5.224046356908432220e-02 -1.394394796989839591e-01 6.308847466596574638e-02
6.170728762110700982e-01 -8.442094327359838113e-01 -4.328630716932046485e-01
-1.658639156152651728e-01 2.781519761467598495e-01 3.632134791109682403e-01
-2.090459031264523537e-01 1.815517130039803056e-02 1.247697895104975530e-01
6.172972127220305305e-01 -8.145184925121895514e-01 -7.757699519014507050e-01
-5.113715086581548386e-01 5.237653922391611871e-01 2.712492123227037699e-01
-2.956130019499291633e-02 -1.769688112722510032e-01 -1.675662680449873654e-01
2.192841090709574670e-01 -3.531455006611772807e-01 -6.663071937096697039e-02
-3.178834490158073955e-01 3.145133947800810570e-01 4.296298145836274229e-01
-5.521025118803519760e-01 4.715370714689974818e-01 3.462545896319993433e-01
7.963145505907952559e-01 -7.685510400554916854e-01 -6.467778632563782049e-01
2.090399779998487750e-01 -2.892239360077146215e-01 -3.869734114833005556e-01
8.859535486725943210e-02 -2.100060141670256342e-01 -2.946718778605864619e-01
-3.220820604796524878e-01 2.972415148874184565e-01 9.269040734906067169e-02
3.220314567237613779e-01 -3.393259694697393636e-01 -9.833598401430405922e-02
-3.930534892471918007e-01 3.034150107198368418e-01 1.695849863688911330e-01
2.877051038531200922e-01 -5.586225982303421045e-01 -4.802407429662511884e-01
-5.761269717598526130e-01 5.546828702084044549e-01 3.376558835458893237e-01
-2.129125613640738823e-01 1.866839676157468902e-02 1.078853376329460267e-01
3.812524763210606848e-01 -7.428115328578251964e-01 -4.655246042669609619e-01
7.757081290756224767e-01 -8.998410496313181683e-01 -5.249928364219336174e-01
2.977164080548215797e-01 -5.494046168784940676e-01 -2.224666040073884632e-01
1.334264674283583418e-01 -1.065256063381565636e-02 -1.898252427383346208e-01
2.759528713291482527e-01 -5.592298844022235427e-01 -4.626156929793139860e-01
-2.638937038112051381e-01 8.724167299476688620e-02 1.007675421091543122e-01
2.129092363703059473e-02 -2.729536727578211752e-01 -1.816780177027171872e-01
2.974243588978699865e-02 -2.935576984875052919e-01 -1.416009614494559421e-01
-5.332591087827770471e-01 8.106416350274203708e-01 7.215700918976710732e-01
-3.764601346601764154e-01 3.897570717050127809e-01 1.477555343711694780e-01
2.985200733763765935e-01 -2.816249503978564550e-01 -7.070173526201813108e-02
2.558787295614849411e-01 -1.782362408852253832e-01 -3.172566960744270803e-01
3.349749865870025323e-01 -2.810408039198332708e-01 -3.939308437283722264e-01
-6.869369991393873276e-01 6.247481020742893243e-01 5.189556909068433477e-01
1.876586301913599764e-01 6.977346194169851794e-03 -9.306800427109891694e-02
3.850068513176056230e-03 -2.125027791525603560e-01 -2.034860518893094605e-01
-4.444807824154227704e-01 7.952264477586926672e-01 4.507497281770842523e-01
-7.711236064872275531e-01 8.556123808467619440e-01 5.178665986623869344e-01
3.277238483166576288e-01 -6.666520096842352139e-01 -3.778273963291210458e-01
1.196684417964375691e-01 -1.728920454451324806e-01 -3.013098986350736253e-01
-1.774145754062533484e-02 -2.175093414912293022e-01 -3.044168621104997169e-02
7.090936146584397859e-01 -6.622396705784300286e-01 -5.963435303092243789e-01
-1.737984919882703816e-01 3.892183705411424444e-01 1.091473168308442765e-01
-1.192212193182537322e-01 2.079051129431634948e-01 -3.554649015203281692e-02
-4.034515291464070286e-01 6.582059103023891744e-01 5.982998978699027859e-01
-4.039313360745060977e-01 5.589402356260239069e-01 5.821641922643521205e-01
-2.182833327848631988e-01 1.106938932561110644e-01 2.672517953029502902e-01
-2.948814849450496350e-02 -2.307506129294161282e-02 -1.741500325856470410e-01
-6.601503510345390069e-01 6.484586042631907965e-01 6.539476125751400026e-01
-4.946045406508116637e-01 7.499525356387239938e-01 3.658990225214553416e-01
-9.857827290506014639e-02 1.108087155401050738e-01 2.683630721894695315e-01
-6.282207126801754304e-01 7.567178625684647386e-01 7.539765872510190148e-01
-6.497968191528488147e-01 8.102991494242008930e-01 4.287071003949811110e-01
-2.339241226596194823e-01 5.411145943738664421e-01 3.825612177455506857e-01
-4.524954499047886326e-04 -4.584238961381251892e-02 -1.972120786232447187e-01
-2.529518069684648651e-01 5.315975803329229255e-01 2.370355780949722213e-01
-6.233595104611712179e-01 8.065084168008801457e-01 4.171212815757481818e-01
-4.040121583321794330e-02 2.508751712068998940e-01 2.408201807218977586e-01
-5.864879849325120853e-01 7.973921204623700687e-01 7.570837677033011026e-01
3.308661887578519430e-03 2.433992265625733176e-01 1.404843671962981710e-01
-9.319413487130305540e-02 3.689689086540792751e-01 2.210039670951908508e-01
1.361747684677301895e-01 -2.104978515366224268e-01 -3.233813615854356227e-01
-3.702461362813525957e-03 -2.280876779569103729e-01 -2.748529491827215662e-02
-2.855862090591743674e-01 6.160514542722839160e-01 3.828834992089065192e-01
4.848168286074021061e-01 -3.956305099389102464e-01 -4.348461204853504847e-01
-5.652394645937075524e-01 6.453214556658906087e-01 3.300037443250007918e-01
-2.375613765164771019e-01 4.528003565958977350e-01 4.404239469710822807e-01
4.915238555932240905e-01 -6.653095829889915658e-01 -3.030051454099922936e-01
3.340957679241063349e-01 -2.338257685794914165e-01 -1.123380583340602978e-01
-4.708611935723424485e-02 -1.881193400463823107e-01 -2.556695243540238124e-02
-1.578933038042154569e-01 2.778414052280928082e-01 3.580677597961458569e-01
3.813848313950331335e-03 -2.523419298179360171e-01 -7.087999654347308665e-02
-6.529042823341379975e-01 6.845694039474734538e-01 4.057538754748637455e-01
3.778791830109387573e-01 -3.726592904973657916e-01 -1.447519749528459188e-01
1.737834574099215434e-01 -3.345507861974196806e-01 -3.778345276199924219e-01
7.962910087649983648e-01 -8.104828284763998525e-01 -5.587128545405289914e-01
-5.492945066637976437e-01 6.656079251225331950e-01 6.847156082049413728e-01
6.553922862443951891e-02 1.609631255300113528e-01 1.344056144263230425e-02
-3.203368702741074547e-01 4.017687826545012220e-01 4.824239707483136130e-01
8.742001091990700412e-02 -1.719386326969430390e-01 -2.849396122976691204e-01
-3.235636970554771064e-01 5.896189929777427841e-01 5.180054387708101782e-01
-5.936413557088035531e-02 3.254973160123448839e-01 1.555138931947452341e-01
-5.260435238237924915e-01 4.243445562016682771e-01 4.276675981388887715e-01
-4.422477575750626000e-02 -1.201410478005313781e-01 9.299806349808452388e-02
4.513388631940258300e-01 -3.308788728933936829e-01 -3.453872861502795266e-01
-4.600617852419194853e-01 3.388971625356678175e-01 3.613468653996790847e-01
6.194346129609319407e-01 -7.621873289400210583e-01 -7.515928120857314765e-01
-7.976861185322970949e-01 7.868947997521817950e-01 5.781607357692279958e-01
2.524282123203294148e-01 -3.718196993048093479e-01 -8.315631844748321011e-02
6.208113525161849111e-01 -6.402987262967567705e-01 -6.587931888382246859e-01
-2.955779890631791695e-01 6.103784109852097295e-01 4.569939926825322685e-01
-4.090760081173918095e-01 2.679843214489617820e-01 2.696814544012255399e-01
-1.768980856541995939e-01 1.896827100676357070e-01 3.314661804429172576e-01
5.865998923731684522e-01 -9.895787496573315023e-01 -6.012045738547889817e-01
2.769153543077066404e-01 -5.798544546256225729e-01 -2.799854841018172280e-01
-1.302773469667038164e-01 -2.084229064641683615e-02 1.619309443825709405e-01
-2.492860203201343883e-01 3.505581657778206739e-01 7.386423951360225615e-02
1.392865531193821782e-01 -1.121989248157949232e-01 7.350462675117817868e-02
-5.802428000236337785e-02 7.961217658400740471e-02 2.395425559785310243e-01
-2.219733745012762993e-01 9.118668230030337052e-02 4.536300698597817670e-03
-6.231228841119024198e-01 5.940355738139386776e-01 6.092837552512356813e-01
5.585448056759589885e-01 -5.814376349990896253e-01 -3.150214178903090745e-01
6.807105538105349130e-01 -6.207282444062605098e-01 -5.201756067641122305e-01
2.904983337679575284e-01 -4.300547499716243505e-01 -1.250897861812213796e-01
-6.558864628836486022e-01 5.841361675277659815e-01 4.974039122026961413e-01
9.703280097704134605e-03 -1.840493532143832878e-01 -2.210105326032661410e-01
-2.880370987675819755e-02 -2.311401094000294348e-03 -1.677877381316972283e-01
-1.512242832436242468e-01 -5.331986590004500481e-02 7.830260478744084651e-02
2.691497261029625609e-01 -1.708235405014386366e-01 -4.432323136778767991e-02
-4.696221895148738890e-01 7.100318773642209091e-01 6.597701232822313910e-01
1.090554249283375299e-01 -3.559297843722639132e-01 -1.052455634326707190e-01
-4.211977758159096696e-01 2.868120845347211789e-01 3.145248361155095762e-01
6.566541525173101856e-01 -5.967282941435441135e-01 -4.672433341065261869e-01
-5.716365972565019549e-01 5.732256105244682987e-01 6.136305767024872182e-01
4.105783979760261881e-01 -3.047662500504870753e-01 -3.720075267689125775e-01
3.907858286733539299e-01 -7.455609652193141423e-01 -5.329787395915397408e-01
4.893392677040774852e-01 -5.028028714596450843e-01 -5.629175129714577563e-01
4.427792919917115100e-01 -3.741087156162488658e-01 -4.453836703840203248e-01
-4.891412393453812846e-01 3.795404498737011134e-01 4.004996628621887433e-01
3.004972881249743932e-01 -5.287314742970934400e-01 -2.006698709324917229e-01
-6.002409017008603076e-01 6.446554261943975295e-01 6.731450288728746401e-01
-3.506219357616066623e-01 4.652966211644375405e-01 5.221282453561532089e-01
1.862759561972347211e-01 -9.225473100981901320e-02 3.815193851454772717e-02
-2.441766836917117212e-01 4.697722124518133313e-01 4.459000448949277939e-01
-5.431610316098952618e-01 6.856277587113768224e-01 3.324549319296433159e-01
-3.561508850038275775e-01 5.761513746908850653e-01 2.373014029438620387e-01
3.273478785748737963e-01 -4.562791572260771478e-01 -1.477102343948294150e-01
-6.229211606555903336e-01 9.594678286050061233e-01 5.307247254645076628e-01
-5.441695514209518025e-01 8.128969644306726083e-01 7.312711862907108618e-01
3.081575758006894761e-01 -2.319257631714098378e-01 -7.924375089346204215e-02
-5.801813172651510975e-01 4.937369511745994255e-01 3.962261964187037133e-01
2.223482275533979480e-01 -3.592211378798525478e-01 -7.098315978186994779e-02
8.766409314166966060e-02 9.123306972015472749e-02 1.170707939318098856e-01
1.487871471816789304e-01 -3.329439550912606793e-01 -3.557579187900843931e-01
1.410267161080870080e-01 -3.687504410107594888e-01 -9.656961632651722693e-02
3.216171474567288552e-02 -1.210807731334296450e-01 -2.376904039149555503e-01
5.823070267484206086e-01 -8.395348024718637392e-01 -7.630564595950173334e-01
-5.043686891935428296e-01 8.945445637866752397e-01 6.153759305712671601e-01
-3.127843229776194889e-01 5.617349202948440645e-01 2.353271844076022523e-01
-2.253617190188256236e-01 5.571655629686379785e-02 1.832911765290661243e-01
2.241269559081108739e-02 9.924915152941193863e-02 -1.155742290901823344e-01
-4.830922091976323496e-01 4.255806247019390809e-01 4.906064650785459391e-01
3.826250656982274623e-02 6.666067951742439546e-02 -1.412378652270430412e-01
3.303170204115053465e-01 -6.370433477158650160e-01 -3.121482776527245151e-01
6.523153762537989842e-01 -5.982611007256393165e-01 -4.492782039663403837e-01
-3.489583372765296398e-01 2.748580478620359924e-01 1.195574198933598981e-01
-1.213377524430546556e-01 9.815033626930704316e-03 1.986717794625301181e-01
-4.238565416312233269e-01 7.611210046990535272e-01 5.925873219907012990e-01
-5.378960447541464296e-01 9.380907592178060472e-01 6.117526018494947593e-01
3.126417806409245714e-01 -1.496015201126560112e-01 -1.724140578411889058e-01
-4.114073421273118369e-01 4.885602307627249230e-01 5.534546273372679126e-01
1.525188502057438777e-01 -2.019820300627364340e-01 3.408086408422850849e-02
-4.244273692986328395e-01 5.298412873932731859e-01 2.180405702307527394e-01
-3.817347023410698759e-01 7.229218112243716021e-01 5.356817856078320839e-01
8.299054852154540141e-02 -2.347968800684008261e-01 1.998799296882622020e-02
-7.982852399913731301e-02 2.090020988282493553e-01 -3.629831368596368041e-02
-3.530146574089169098e-01 6.904466111396041494e-01 3.917613510997395299e-01
-3.799681177409168220e-01 6.191811954140248320e-01 2.710090168127805565e-01
2.335775289915916278e-02 1.836353943365562902e-01 -1.646651039439238351e-02
-7.778186096141519457e-01 8.167884093689778968e-01 5.281801828110136432e-01
1.381323321426984052e-01 -3.386782130577934979e-01 -3.444014008339469912e-01
6.589604553420166377e-01 -6.890640116533351955e-01 -6.949619692582617025e-01
2.419234648115785591e-01 -6.311374256064063160e-02 -1.475018111152879285e-01
6.712782383781031870e-01 -6.392895983856319297e-01 -6.211674117194602163e-01
4.121714251220298664e-01 -7.818762278506009578e-01 -5.238509589329756189e-01
-1.253594285709100364e-01 -7.058208085943133703e-02 -6.338346963526780842e-02
-1.575913778666330756e-01 -2.779875771468195110e-03 -5.177501158184589364e-02
8.961102573867187060e-02 -1.460635988124783791e-01 8.132826232891524065e-02
-5.829193213724018913e-02 -1.117234255111166086e-01 -1.529993716969370865e-01
-1.409475422251689203e-01 -7.001704637817429688e-02 -1.619394634759426660e-02
-7.560912315583603882e-02 5.604558803054873750e-02 -1.238894852248043771e-01
1.843684386917368301e-01 5.959861456526781981e-03 -1.488791760734899973e-02
-8.851430922024658421e-02 3.412632759799122950e-01 1.158710571240756659e-01
-4.449648165061244609e-01 4.364832171223730906e-01 2.081105636574009932e-01
5.583828802034307426e-01 -5.118919367183256686e-01 -5.411261158709019803e-01
-1.966813770354274848e-01 4.794718338513476730e-01 3.682818515346376054e-01
-2.777484019216633349e-01 5.404237544054408815e-01 2.291328360011616050e-01
5.478791248735433994e-01 -7.911268522732117781e-01 -3.907851830592390940e-01
1.560031672495720279e-01 -2.638585346903295908e-02 6.319236159474841963e-02
-1.062083678361768896e-01 2.502629148312606744e-01 -5.122781314776840740e-03
4.698425452070122965e-01 -6.626419721763739945e-01 -6.484439438511321319e-01
4.899648438486008950e-01 -3.986852969318079865e-01 -4.327557872836393926e-01
6.452619411557846130e-01 -5.856712680457869524e-01 -5.523697477658388033e-01
-5.287217459577450152e-01 9.094552831402651361e-01 6.774103979729070302e-01
4.066913366556598186e-01 -4.569557681256121162e-01 -5.296990037409288199e-01
2.179807178032813486e-01 -4.735890811814234547e-01 -1.776689993311501015e-01
-4.908228249666007903e-01 6.627513548497698803e-01 6.621277684499329297e-01
3.359633245161736115e-01 -6.732506252380004996e-01 -4.849490060134604708e-01
-5.222949657871853724e-01 6.204346249180119344e-01 6.529660152881796575e-01
-1.052456913695389157e-01 2.310479390181535420e-01 3.120749127443734894e-01
7.695266294722920009e-01 -7.509512068260434381e-01 -5.565786498312681463e-01
3.529414532402441185e-01 -3.954714072823865001e-01 -4.833454216430585482e-01
6.219134217856669977e-01 -5.578875814813893941e-01 -5.359145014554360653e-01
3.944009251987211084e-01 -7.601345269540191740e-01 -4.855573554672271142e-01
5.840516320920471349e-01 -5.275274342649129977e-01 -5.380963894426558092e-01
-1.417510109759944070e-01 -4.564458395434227433e-02 1.147390883385561722e-01
-5.126847749697065471e-01 8.321095571887866527e-01 4.413974867597898477e-01
6.091345818443714283e-02 -3.303205820853987729e-01 -1.441482281521697939e-01
2.595427754550723720e-01 -8.143302414876872619e-02 -1.288552321710414728e-01
5.193245701338500275e-01 -4.504689121498521298e-01 -2.994379720357409069e-01
5.341037678742617534e-02 -2.480503113712385355e-01 -3.119100618145026569e-03
7.181885770141430148e-02 -1.241927746766862684e-01 9.773391297134099986e-02
2.420225653003933997e-01 -5.368837745817859330e-01 -2.499035509468528760e-01
1.717813535594712726e-01 1.602334663727083414e-02 -1.138608984769791527e-01
-4.057201827305735864e-01 3.949298640140829209e-01 1.712838431070669576e-01
5.053334325054108511e-01 -9.006013882351207034e-01 -6.154907673452371109e-01
-2.129510203528321710e-01 6.032867295072912028e-02 4.950435384429307389e-03
-5.286341506672996848e-01 9.024546920975258235e-01 5.297503884560131882e-01
-6.547586861541792036e-01 8.112545676630633640e-01 4.312617558602894752e-01
-7.091301692200399076e-01 6.983664847747900195e-01 4.743178440962404485e-01
-5.720537452783582832e-01 8.345610159008300943e-01 7.562228811209886770e-01
-2.850321253855639392e-01 1.629675610239506300e-01 6.798677720943940850e-02
-5.634597965414069876e-01 6.219079381954845109e-01 6.577054269045977675e-01
-2.485444771154164956e-01 5.282672660753044980e-01 4.323127673391143899e-01
7.589187931136583479e-03 2.037077159986097064e-01 -1.666946992292400904e-03
4.013024367011078786e-01 -7.332683777414432669e-01 -5.733004726879623592e-01
-3.789366429154082394e-01 3.123421123566759161e-01 1.481840615439127817e-01
6.642788785790391115e-01 -6.997665378864250663e-01 -7.039524871024189778e-01
-1.223140285024429119e-01 -9.436481681278779954e-02 -3.232012148746992580e-02
1.715385944857976130e-01 -1.431817018031570909e-01 4.538982954741586917e-02
-7.544692175913055021e-02 3.240893723563872952e-01 2.534313538410812305e-01
3.245740805969697385e-01 -5.919022426424049854e-01 -5.190136330574991463e-01
-1.481124969615843223e-01 6.127491093107664127e-02 2.397153897279633850e-01
2.156975517658105412e-01 -4.948617359729884924e-01 -3.977111161955642071e-01
-4.313083421982821242e-01 2.987110701729762119e-01 3.187019618734327486e-01
1.297616233970076416e-01 -7.428342873916449207e-02 -2.469767876748142355e-01
-4.970685316712030177e-01 3.887494998417288516e-01 4.051099286776549402e-01
5.915766460444259189e-02 1.548165509536652551e-01 -1.908669728315674774e-02
-1.978187638071931820e-01 4.208257342345164687e-01 1.329153329901342773e-01
6.581079408566175015e-01 -8.130323208615645170e-01 -7.890624632612235345e-01
-2.435811641789530357e-01 5.624040360403563810e-01 3.476285398311089181e-01
5.500190074057500350e-02 1.473359861976852314e-01 1.387094028297675419e-01
-9.114771196474098780e-02 4.014241897298950063e-02 2.254630708076688084e-01
7.525219236768726505e-01 -7.140617249560827773e-01 -6.196700846151694808e-01
-2.180139240137544954e-01 2.341691346331147838e-01 9.907016155279238512e-03
-6.708718560148043686e-01 6.038445569724564255e-01 5.361833312069522739e-01
-4.844083882194967494e-02 -1.201975273268816452e-01 -1.634938133264544069e-01
5.394318999069539489e-01 -7.466865789103511730e-01 -7.130311288604709308e-01
-6.298399018277039962e-01 7.056835501894185292e-01 3.868783287674002480e-01
-1.873346238575590850e-01 9.869157731926730959e-02 -3.661850436537246456e-02
6.361234941909826857e-01 -5.746592744162084543e-01 -4.388104279142992503e-01
2.260327016710703407e-01 -1.655035475684185631e-01 -3.125972026624846967e-01
4.703699534579364738e-01 -3.533323614386961742e-01 -3.073177229691097523e-01
-7.937445146991740641e-01 7.821829180594929154e-01 5.740379818955114732e-01
2.303386054911382430e-01 -4.561430746224741095e-01 -4.320148144811518098e-01
2.967565854953565715e-02 -1.079908806721294710e-02 1.651674719352563270e-01
2.608617707384766060e-01 -8.930553773472493795e-02 -9.385314455273360834e-02
6.233784862502317337e-01 -5.511642219487064009e-01 -4.442800970088192081e-01
3.907225928395945402e-01 -2.560539007262156996e-01 -2.156623230109871170e-01
-3.701520880316891415e-01 2.334727394488097796e-01 3.042015570945236225e-01
-5.903266761616826619e-01 6.940234257300439413e-01 7.093300985116008928e-01
1.733717940853515549e-01 -4.324464431399598907e-01 -3.628001693077939072e-01
-4.147349142971856195e-01 7.401983923629090745e-01 3.930681867974074595e-01
-2.295118359862893531e-01 1.663951807177441455e-01 3.178341361912976892e-01
2.137081502710822256e-01 -1.173624682976093930e-01 -2.702111425593677896e-01
5.893692491054756122e-01 -5.620726644505082970e-01 -3.540861386376029651e-01
7.569033388941759366e-01 -7.216040201529074771e-01 -6.341790331797874103e-01
-6.444946472948264171e-01 5.950245425042455238e-01 5.870771449731073677e-01
1.965852324630451217e-02 9.311070790167122468e-02 1.960394587475409178e-01
-3.039409623061218868e-01 2.566213102544164792e-01 7.422542184294415868e-02
6.817578383410612952e-01 -6.551183906348414521e-01 -4.560852914308929362e-01
4.486125431255911788e-01 -3.771426506241684073e-01 -2.224685832879450820e-01
4.818941734096419682e-01 -6.046334911575074189e-01 -6.307343409247470056e-01
-3.436205809683805512e-01 6.821749919727662093e-01 4.852103370756429279e-01
-3.410600669360631110e-01 6.868417890956904914e-01 4.318516323830899339e-01
1.493401799776523653e-01 -4.460682638369669606e-01 -2.698052866001872108e-01
-4.531391304389457697e-01 8.302861340836151793e-01 5.557454646830580769e-01
6.574092938936605401e-01 -6.784276678278624573e-01 -6.844183507961844048e-01
-1.202656931482093128e-01 1.118727246500235556e-01 2.746713416891762294e-01
1.805228355473680601e-01 -4.813582925896523479e-01 -3.215508516199167555e-01
-4.594741870772909853e-01 3.413273997982732566e-01 2.767929901192706099e-01
-4.450238494009854939e-01 7.388404869974127820e-01 6.347069672284221253e-01
-2.455406766768335469e-01 3.141190106925518255e-01 5.410384912094096804e-02
2.457505974352115763e-01 -9.896821882482224886e-02 -4.070860446768737734e-02
-5.174002028824471744e-02 -1.803601114342501810e-01 -1.533200143739338328e-02
3.232688880219725669e-01 -1.678242920363282320e-01 -2.273089039776587661e-01
-4.723128533405315105e-02 -6.111158703687597643e-02 1.496642512510476253e-01
7.180038156438857400e-02 1.587374152928577864e-01 5.337418266904283420e-02
-2.630074369764522912e-01 4.701571812049807342e-01 4.650604704081643948e-01
5.606867423614965151e-01 -6.476663029029192664e-01 -3.256593753173603889e-01
-4.238031906284775441e-01 2.905323658518746965e-01 2.570696496125733921e-01
7.943557496336521861e-01 -8.663758344133594136e-01 -5.395018678064954498e-01
-3.629567005008244029e-01 6.771544383806052947e-01 3.489871693717199741e-01
4.822166039013602301e-01 -5.664366210986708783e-01 -6.095370083553747209e-01
-1.678874345117966627e-01 3.122847257650766123e-02 2.024069499190521981e-01
-1.070931398607059964e-01 2.666582641873886939e-01 8.897021160595711825e-03
-2.674480116950701536e-01 5.098557989118018829e-01 1.989487194803353232e-01
-2.927839787328518906e-01 2.604746957162136223e-01 6.494977089009638938e-02
1.521830018386130523e-01 5.453106816327479150e-02 -4.725369141034475862e-02
4.443317649978957284e-01 -3.979328633291134287e-01 -4.734767045691247178e-01
6.836591731811124673e-01 -9.317330283556624071e-01 -4.975098678264082142e-01
6.001033501309029905e-01 -9.964384836768825915e-01 -5.923711926612108547e-01
-6.914314093511559900e-01 8.590210515189069529e-01 4.664124998132213595e-01
-3.894366126785853144e-01 4.147976950383342465e-01 1.618071957154596507e-01
2.892615795013611102e-01 -5.531744079082996368e-01 -2.309495169441695139e-01
-4.668838280488300518e-01 5.634457207108216625e-01 6.082955876798024075e-01
-1.773079472705350046e-01 3.547388129908068954e-01 7.398548204669018469e-02
-4.992571915306798572e-03 -1.217545732551222060e-01 1.039229464468160308e-01
-6.605889677545143668e-01 7.643089218170311394e-01 4.198354694459523473e-01
4.431323516285347042e-01 -6.791010237233887636e-01 -6.335712839316188782e-01
-1.494170676390864094e-01 4.181259120524350448e-01 3.243376235864164903e-01
-6.811295888022940170e-01 6.351069074203331555e-01 4.706767355488477023e-01
-3.586771224177132816e-02 -4.994750798712007528e-02 -1.763534726813376918e-01
1.456501770846662380e-01 -4.399298932872183210e-01 -2.310156097852246460e-01
-4.506444064327402299e-01 6.892805892088761377e-01 6.421173318501106619e-01
-4.681712717676616009e-01 4.383312636930804529e-01 2.311655562544522591e-01
-3.021145474090369265e-01 6.274282298919288126e-01 3.493809924711617776e-01
-7.209338159515253641e-02 3.354078395349726072e-01 2.257587381205226063e-01
-2.689783746774864204e-01 5.495471930915429848e-01 4.546507340592759738e-01
-3.812669234195513734e-01 7.198467198399685074e-01 5.385978609072299417e-01
3.295555325621252751e-01 -5.919156693551469450e-01 -5.249698135885316752e-01
2.695893649590992980e-01 -5.466493268927997695e-01 -4.586917901251155172e-01
5.979940700233892237e-01 -6.473686516752759079e-01 -3.531309995363542398e-01
5.564521350236713015e-01 -5.822773733318231670e-01 -6.209818819345086505e-01
-2.868346444296854258e-01 3.103716374066071704e-01 7.143431029401157983e-02
2.177307170979996542e-01 -2.813833210538258314e-02 -8.241842554359077311e-02
-3.735734097662785635e-01 5.756718971386832751e-01 5.670525276960843852e-01
3.334297577858506001e-01 -6.360593015580010556e-01 -3.075917226247392722e-01
-1.593513239649659574e-01 -6.722965470553020177e-03 1.584363208833784453e-01
7.230423962580924124e-01 -8.145317956717071928e-01 -4.725093270315176563e-01
-2.406380895538962894e-01 5.566981947566945754e-01 3.669348786552188990e-01
-1.031584309364688562e-01 2.474255489921592943e-01 3.124293613641896949e-01
2.334679065661296182e-01 -5.536978795430488320e-01 -3.252359326388721272e-01
2.912719453271770953e-01 -6.206279260205780357e-01 -4.332449704042786731e-01
-4.004832129071242246e-03 -2.047806239835951447e-01 -1.947623219988959820e-01
3.013465415306156719e-02 1.816354136299452027e-01 -1.156207500206753516e-02
1.077834895235463691e-01 1.065412015515189159e-01 -2.800074254016709716e-02
-6.590104109921922360e-02 2.956801671847296697e-01 6.478868289471657882e-02
4.384228127959015620e-01 -3.675700243729307370e-01 -2.113001013694064956e-01
-7.882245075387895872e-01 7.531532360053873054e-01 6.334727030830258343e-01
8.149459234206034575e-01 -7.937514387039643626e-01 -6.776637516980514864e-01
-5.956426887927329661e-01 7.527646593627899119e-01 7.432063613321274742e-01
-2.553618742473961686e-02 2.229755415291315712e-01 -3.603334888546853854e-03
-6.205381968455291330e-01 9.665408682939734542e-01 5.396609037149238119e-01
-3.465420287059911564e-01 1.894061352592397163e-01 1.941035993032378115e-01
9.571415504481448067e-02 -1.575137637870706042e-01 -2.845209814039036944e-01
5.751813365377831389e-01 -4.854117432418710298e-01 -4.251061846168027736e-01
-4.133860748953536168e-01 4.361300669847460454e-01 5.198747329954593877e-01
2.020480782235943018e-01 -1.559995993197033082e-02 -3.408206685106307532e-02
4.559310916333118024e-01 -8.275425735718443532e-01 -4.901960567876501584e-01
-1.994670982231703527e-01 1.555109029492202609e-02 1.766710490758957239e-02
-4.317552668385819525e-01 7.711086901339824218e-01 4.242016087197437169e-01
-3.194320096828403566e-01 5.610760900938813744e-01 2.321197781194967169e-01
-6.948229106037827341e-02 1.584997731351432682e-01 -7.351702783866798097e-02
-1.611406080272690666e-01 3.860618104212668600e-01 3.626574433879380388e-01
-3.657250664339902757e-01 7.187106375024264748e-01 4.640174018816538570e-01
-5.512270682000233735e-02 3.173251368371258763e-01 1.991847408846089962e-01
3.740871439614969485e-01 -4.360265935993991593e-01 -5.116559536356702909e-01
7.486341588828662186e-01 -9.524030736308548573e-01 -5.262861880985556517e-01
-3.367201303302338466e-01 6.651313000165741673e-01 4.932049998011076575e-01
7.501384809244290297e-01 -7.541754646224454461e-01 -5.132594895835377313e-01
4.035818549407228506e-01 -4.980342154575516100e-01 -1.932718034389294959e-01
3.606557833008581793e-01 -5.190331633715893345e-01 -5.436202428946306231e-01
-5.911523665719381482e-01 8.683704685057778150e-01 4.533031123609506663e-01
-5.477630971861536802e-01 8.063285212743530606e-01 4.068319508908534443e-01
4.529061398809080402e-02 -3.095067232197507012e-01 -1.254763340714306619e-01
5.085158396367704947e-01 -8.969538001657827442e-01 -6.432608869793104978e-01
-8.581699563898861904e-02 3.511409171461859491e-01 2.428712942179598877e-01
5.761764194630463187e-01 -4.869107702002105631e-01 -4.215741531277151233e-01
6.180743858934776430e-02 7.591250361047678641e-02 1.556208770472920222e-01
-7.109633076562791310e-01 8.122889359950723476e-01 4.643717840191631807e-01
-2.028179249159517417e-01 4.962079335392261537e-01 3.624150005465053281e-01
-6.475330078605929796e-01 6.584264196004147029e-01 6.731265939041409796e-01
4.012499675555616929e-01 -7.680289285455754733e-01 -4.809434279790094080e-01
-3.079488400718868313e-01 3.390793447673581262e-01 4.451924024152942305e-01
6.261691371579146681e-01 -9.456893534886720021e-01 -5.100924255480856484e-01
-3.189229035198624940e-02 -1.065296389207359695e-01 1.119450084657816202e-01
5.067262396973684080e-01 -8.186091451301251709e-01 -6.932017194767123858e-01
4.631976469899670157e-01 -4.587177530924972380e-01 -5.286026300535403566e-01
-6.606119509786745336e-01 6.334085489174521300e-01 6.324066718199808923e-01
1.200353700145577740e-01 -2.890459643837161099e-02 1.011173074301459363e-01
2.047890989394617334e-01 -5.070399069874738096e-01 -3.573619320510854624e-01
1.902846287499527778e-01 -4.577631249810659719e-02 -1.985816791491983035e-01
3.431478803269981670e-01 -1.898117310205608144e-01 -1.905368702375208334e-01
3.891029624918809215e-01 -2.529782904787933329e-01 -2.168236449371582775e-01
-3.681173476739417749e-01 7.209382252954077419e-01 4.515278723506402914e-01
1.520398768334605966e-01 -8.573626518635778238e-02 6.946309443635545477e-02
4.046319086609813653e-01 -5.674923210722023770e-01 -5.829270254634719706e-01
2.533187034878328081e-01 -5.178968385648012873e-01 -4.464540004904199999e-01
-4.825055296076891098e-01 3.913554801561191510e-01 4.400097462729650744e-01
5.018792169844591422e-01 -5.870717668488637520e-01 -2.737982087712066415e-01
7.372248893634911204e-02 -3.495807768868872678e-01 -1.774454662963952378e-01
4.740066587482891225e-01 -7.549733961418850781e-01 -3.694304373808938169e-01
-2.699217181417654099e-01 5.425276348783552027e-01 4.597140871647123483e-01
-6.355128612389246978e-01 9.017269389554157799e-01 4.772245734505817238e-01
-5.168999653282526641e-01 4.193056767184895617e-01 3.228844193718535815e-01
-1.556459297356742669e-02 2.325166308619730782e-01 1.899130218733159625e-02
2.181329929329122452e-01 -4.613738422063393130e-01 -4.165986980327684996e-01
3.713372797416280569e-01 -3.421227738967037024e-01 -1.372662217063682355e-01
-7.487451809082009690e-01 8.092927912333857110e-01 4.966513123785176731e-01
3.890260530042712328e-01 -7.334553095401156186e-01 -5.465770332806749732e-01
-4.180829559463454803e-01 2.837471076827230987e-01 2.497618472024651093e-01
1.071421386304985679e-01 -2.771580204988781104e-01 -1.321275071339081050e-02
9.853951419147616297e-02 -1.696455439913566177e-01 -2.902323799078639355e-01
1.479510874882274396e-01 4.146783789584812530e-02 3.754118593782757030e-02
2.950806249826995464e-01 -2.300310682552458019e-01 -6.524794833470355659e-02
6.474430716462146185e-01 -6.995329467187429984e-01 -3.995081249162931725e-01
-2.766034325425791862e-01 1.387535475015129471e-01 6.727037280778075390e-02
-4.192946577249126450e-02 -5.501745801812445158e-02 -1.725776184313793926e-01
-4.794924091063117455e-01 6.897302760747854311e-01 6.635112308750172883e-01
2.205144965261351397e-01 -3.345794218291471278e-01 -4.089702473122034942e-01
-3.369087002882774629e-01 4.557965328863174403e-01 5.122899847132139639e-01
3.303442962318930420e-01 -6.623623717584202764e-01 -4.855093771095472799e-01
5.815956648965495690e-01 -8.451416576496479927e-01 -7.634959433280943397e-01
1.187733974444213636e-01 -3.979632293051136860e-01 -1.754241580186977900e-01
-4.531821694847505688e-02 -1.434900435272206363e-02 -1.622753853340775654e-01
6.622580541740356042e-01 -7.321286534450894834e-01 -7.339636580382635778e-01
3.739183568557145620e-01 -5.235522550180979895e-01 -1.963165064618881128e-01
2.818139431827236807e-01 -4.999268828061679826e-01 -1.783715610213532088e-01
-7.665292904714689215e-02 -1.203094707940467051e-01 6.782814284503754787e-02
-5.480347841722454927e-01 4.619443264613612987e-01 4.751070396108830196e-01
6.856943414947221926e-01 -6.770810948123532347e-01 -6.652610131143581462e-01
6.585488052143731452e-02 1.032012588039526724e-01 -9.400559363740684793e-02
-6.035786820021745713e-01 7.912589652466642809e-01 7.632274835533753299e-01
9.014644675530718299e-02 -1.282786470393653955e-01 9.036000207492320135e-02
-6.392124020518107352e-01 9.106350365537998481e-01 4.838359593745562015e-01
5.347401095661159509e-01 -9.260394756015853934e-01 -5.588192327840231233e-01
-1.808410320441518337e-01 1.342840419479094383e-01 2.959097616725570035e-01
-3.065025802544544264e-01 3.042355384995114043e-01 8.212036219499135870e-02
4.411619230766807842e-01 -6.343792597579224202e-01 -6.235465706170681965e-01
-2.255885586908738250e-01 4.079361385254069716e-02 5.751109672693587721e-02
1.656204980827368223e-01 3.396015536504660287e-02 -7.462572728469057427e-03
-5.233172088058209992e-01 4.666813797196789348e-01 5.150237075406095544e-01
-2.192346353733418962e-01 2.867509729277436040e-02 6.310306661259754146e-02
-2.496545701204888057e-01 5.425233457029138284e-01 2.592789100915482425e-01
-6.301322128280089085e-01 9.425805092353582992e-01 5.115518409575765535e-01
6.859575291242139272e-01 -8.665467993728815932e-01 -4.643434277113907549e-01
-3.374102871714169671e-01 5.684035437932568602e-01 2.339904840657489882e-01
-5.367585394289532408e-01 4.540251324272366884e-01 3.292362398859227657e-01
8.006706032269385043e-01 -7.739177288500965757e-01 -6.452384119060339263e-01
5.084450044591249940e-01 -5.253190031187401354e-01 -2.676570791744988798e-01
-7.752875448509062573e-02 2.294901519550459831e-02 -1.326687668970074618e-01
4.470320748726004378e-01 -6.811892531851004851e-01 -3.095075889830653515e-01
1.958694829993684328e-01 -2.788596368095345723e-01 -3.770433755080875304e-01
3.883120430303348969e-01 -3.371834040607241123e-01 -4.322234035953103071e-01
3.151607020814958249e-01 -6.411913206619986871e-01 -3.410937093344337256e-01
-3.531490945785249469e-01 2.942046008972119542e-01 4.067549186195755229e-01
-2.356993945003609536e-01 4.549088612852088542e-01 4.382825620816753753e-01
-1.843480801066428032e-01 4.722505539359007076e-01 2.255142010140417097e-01
-3.743054076424284227e-01 2.309880071033907911e-01 1.989965909890964724e-01
-7.087648533320810573e-01 6.756734758710082334e-01 6.449996222130486290e-01
-6.548995221795543553e-02 2.849307055749159545e-01 2.636843515479083688e-01
-4.925932400716366844e-01 3.764269983110464235e-01 3.724956301687095683e-01
1.214959970018327784e-01 -1.787758212631891663e-01 5.535114193360583801e-02
1.341922021170391562e-03 1.299625694149951771e-01 2.140350627329906941e-01
2.462301986400655673e-01 -5.525262404453088472e-01 -4.086888302179826904e-01
7.225288511884947473e-03 1.821347062961171104e-01 -3.329835880607397852e-02
4.779260501595867239e-01 -4.678905771141050884e-01 -5.334867096603854719e-01
-1.993371940536519116e-01 3.673266323547829670e-01 4.034609493995234275e-01
3.353431321749671401e-01 -2.220033360647502840e-01 -1.201975816597568164e-01
5.625414099956572711e-01 -7.371676682066128361e-01 -3.603603209878568636e-01
5.876598180563860074e-01 -9.908617855800435636e-01 -6.020402082588020010e-01
-5.273180672353997567e-01 8.186613743067154836e-01 7.158369630672413164e-01
-1.139183418946558696e-01 5.134116522946181871e-02 -1.019894771990333265e-01
5.254299622203740389e-02 -1.953182531653330223e-02 -2.033443760407215306e-01
1.346004669917537193e-02 1.100554471770676113e-01 2.024178334593443318e-01
3.362593371065926706e-01 -1.849294547913226394e-01 -1.678799150980648247e-01
4.481211848436749134e-01 -8.215829271070450579e-01 -4.949559751332159308e-01
-2.290727260714338909e-01 3.507867684084667870e-01 7.021616755176841862e-02
-5.368740998456257296e-01 7.316636917054274436e-01 3.544763611627109734e-01
5.207653441393620408e-01 -8.059891034293070744e-01 -7.089772937841897216e-01
2.508025164321294742e-01 -5.271404515736186625e-01 -4.386868057392280251e-01
7.282409599876755735e-01 -6.824859574465044210e-01 -5.931092283649748165e-01
7.169442850545295620e-01 -7.608465226854397301e-01 -7.475291377289327022e-01
4.658996539582765384e-01 -6.246970435487887441e-01 -2.744053091542414946e-01
-1.607394094164105447e-01 4.514817922565469432e-01 3.027810033843135740e-01
2.734116595725474275e-01 -5.721790869422055392e-01 -4.499085064137430812e-01
-4.815484945704234243e-01 3.994489206861187580e-01 4.548989177201564482e-01
6.343246086375029513e-01 -6.070990057458682809e-01 -6.103509205663948389e-01
-5.900843757648078780e-01 5.187964165983027787e-01 5.219367062739039831e-01
-6.039620480791986212e-01 7.253887987039239205e-01 7.307741108893337501e-01
4.564595657116748972e-01 -3.551567450283479310e-01 -2.532167868554685008e-01
-3.670160396653479595e-01 7.203449185149216616e-01 4.676565700124991620e-01
-7.649321039856679660e-02 3.690827289061595490e-02 2.217046678425602935e-01
8.368880501047119835e-02 -1.414427405922204506e-01 -2.728508721911195867e-01
-1.182238280823442456e-01 2.701510465013304274e-01 3.270046482047674341e-01
-1.648937340154714992e-01 4.039837300216295168e-01 1.322302313706373855e-01
-4.314297561793902225e-01 5.459762425097017813e-01 2.278470288181797254e-01
-2.976656601926412349e-01 5.213403870460052714e-01 1.998171971185840889e-01
4.728911497853787171e-01 -4.996351534944436512e-01 -2.355826450082476042e-01
-4.274324763146890027e-01 7.915206276284247888e-01 4.804667416528426438e-01
1.707410751020729464e-02 5.393763352861683435e-04 1.752964454276044470e-01
-3.898437257519027366e-02 -1.563576686523108217e-01 5.056641721099971315e-02
-4.767913472190383750e-01 5.307908363477258362e-01 5.896896218398494094e-01
-5.023969905266383318e-01 4.014442029387348398e-01 3.079853676892921333e-01
-5.382115861407092972e-01 7.497141541753347127e-01 7.154429776049301415e-01
4.946151028378922843e-01 -8.831530015038111525e-01 -5.465499090414225325e-01
1.025917695560033954e-01 -2.932648140972057282e-01 -3.106469896454329693e-01
1.088772413264115640e-01 1.089940209457394421e-01 -1.214338463022472149e-02
-6.010195736633769902e-03 1.770973877790387729e-01 -4.728883815912655886e-02
7.006689010685978047e-01 -9.469998456926635999e-01 -5.097086350696129475e-01
-2.967563198372422800e-02 -4.483187741475248844e-02 -1.796276883295823412e-01
2.646980537394422531e-02 -1.439029011501963273e-01 8.911094697784653629e-02
-4.351719052279065525e-01 6.487969053450216572e-01 2.895479419915243380e-01
-2.108472849663456938e-01 2.479719102560790922e-01 3.716706834271052973e-01
4.638571160562434126e-01 -6.652426887891081941e-01 -2.982738163525198716e-01
-6.049675115819671545e-01 8.611288606299700721e-01 4.471152492917097043e-01
2.224696908628567560e-01 -3.761636017557761225e-01 -8.286048543028726177e-02
-2.229958770562512349e-01 7.970113069823715757e-02 1.092639565257501680e-02
4.902171510867497917e-02 -3.080991960080690095e-01 -2.086917599926459699e-01
2.076690960402471364e-01 -3.811050000043505470e-01 -8.723307200082817958e-02
-2.641271178623107452e-01 5.582325676685140348e-01 4.396507552532732954e-01
5.496785718681207467e-01 -6.768704994949145126e-01 -6.875238729023843698e-01
4.183666259332476378e-01 -7.041417668152154530e-01 -6.095340192837180870e-01
-1.682877869007123606e-01 7.629249542051586008e-02 -5.470675312201105089e-02
-4.713251351918507637e-01 6.326026106225118850e-01 2.835338708206324720e-01
3.647613314096162518e-02 8.028858487058944393e-02 1.805523790277455964e-01
6.816824732260681197e-01 -6.312467555189684720e-01 -4.854002260937403390e-01
-1.612200955995475860e-01 4.565747777733714652e-01 2.804849711222905939e-01
-3.250134566171357098e-01 6.429274284120618521e-01 4.909690694305561820e-01
1.812388642130871030e-01 -4.582276783857130442e-01 -1.905957297548060980e-01
-2.469408053500581623e-01 3.862200385828650218e-01 9.540762770213068178e-02
3.281006014895336831e-01 -3.987178793093947293e-01 -1.205168290402092723e-01
5.214564865655861858e-01 -8.896717049981448522e-01 -5.067228821722481458e-01
-2.873710326997874209e-01 5.834367158162574452e-01 4.653662027618721275e-01
-5.916981178824695098e-01 5.090971685669773983e-01 4.056172703411133895e-01
2.794680798601234528e-01 -6.019348393048943313e-01 -4.295393852520408839e-01
-4.254672671509461268e-01 2.893695451236247274e-01 2.774192190040433159e-01
-7.906471467599033298e-01 7.771733448136770583e-01 5.723101406493070753e-01
3.399622126790066146e-01 -4.266010302002701260e-01 -4.977516512687030770e-01
7.937895897902112752e-02 1.135389926442326447e-01 1.175579952580839138e-01
2.332363653457828478e-01 -2.735710362271946416e-01 -3.879449618836642300e-01
-7.592369450762519456e-01 8.287357311674896643e-01 5.064331025245580875e-01
-6.697077091721101993e-01 8.228751320674909664e-01 4.425922527078564039e-01
-5.323392901086817508e-01 4.810219725007871538e-01 3.021116019695403443e-01
-3.314385258743691304e-02 -1.294240482964235939e-01 -1.802891289380956219e-01
-1.307244726815856017e-01 4.154040623619723038e-01 2.656749862158121478e-01
-3.158493520694078960e-01 1.706388784026917904e-01 2.674296025314968350e-01
-7.507068486575883826e-02 -1.593716741713671892e-01 -4.006431802714491980e-02
7.181445222437076170e-01 -9.086649966401826317e-01 -4.952990207033601822e-01
3.942618070513581041e-01 -6.772487315652070405e-01 -3.188423708519331767e-01
8.072379377557149516e-01 -7.897302506005026146e-01 -6.094833550321034910e-01
1.899629821022995046e-01 -1.724983361653074226e-02 -1.528258038441965561e-01
-2.025600628702828032e-01 4.081118783341565193e-01 4.071822750181421369e-01
-6.948687081250600750e-01 6.478294402588795631e-01 6.096330760925350312e-01
-5.248429112589813039e-01 8.539522197060227526e-01 4.604544749146727289e-01
3.657626280208496616e-02 5.633963479800008223e-02 -1.497695578433069219e-01
4.317170147644379674e-01 -3.094737049449126087e-01 -3.406869009648119673e-01
5.411943166233988967e-01 -4.681453849112836019e-01 -4.890827279672311789e-01
7.712248830041693592e-01 -7.417817906982583365e-01 -5.801993848980320223e-01
4.467253560354490505e-01 -7.784063608586521132e-01 -4.113348070065507844e-01
-2.381245267156852641e-01 8.827146009075599598e-02 2.242846755123597824e-01
-6.577086764762162252e-01 6.915928225138893159e-01 7.035407774930283464e-01
5.502444861306880763e-02 1.449270796092829716e-01 -4.354820320805103534e-02
-1.032297040667537608e-01 -1.207802265171260964e-01 9.088186580941329598e-03
7.754969871501966594e-01 -7.691849989908057239e-01 -5.501618965548736861e-01
2.956241008192162512e-01 -5.632044097663074789e-01 -2.392467340704780288e-01
5.338220881708448662e-01 -8.774368965134603515e-01 -7.125833827465914982e-01
2.836220169121340118e-01 -5.789456355724381664e-01 -4.641582515335577752e-01
5.561447727845421074e-01 -5.274866762125697273e-01 -3.197161850962143004e-01
-2.882348065995898878e-01 1.770624361380812861e-01 3.066475760425259045e-01
-3.034203868553356775e-01 3.481569769240688839e-01 9.262823896177709015e-02
-1.038530578101500984e-01 -1.017619771342553880e-01 6.381634697558861979e-02
-5.182570148446680180e-01 7.279251526933750993e-01 6.975085124008731929e-01
-6.988976544237193167e-01 8.815807759811787880e-01 4.788731829294149978e-01
-6.012016911935705865e-01 6.246766551396352174e-01 3.564110098972175233e-01
7.776186274324857761e-01 -8.194380577062013726e-01 -5.276142988893506303e-01
-2.030051866396606897e-01 1.049919451525866548e-02 3.959058923059266544e-02
2.587782986963524379e-01 -5.237046152838787938e-01 -4.520586293423602409e-01
-5.992599481106671844e-01 5.796674153071841307e-01 3.609206272443202246e-01
2.536519123341639537e-01 -5.701858206849903521e-01 -3.023743236927974865e-01
6.942035013660835530e-02 -2.119499963313217078e-02 1.402557748267017623e-01
-2.211013838261051967e-01 3.951869382298253686e-02 1.544977238067326564e-01
2.269981804724972574e-01 -3.854384738679880185e-01 -4.257899645835631630e-01
3.650105487542004701e-01 -7.098596683586372302e-01 -4.002842389051769478e-01
4.052422497627209963e-01 -3.852578507538850228e-01 -1.694576121046393047e-01
4.569706522006606875e-01 -4.512714114524589148e-01 -5.231682910280538445e-01
-8.062725407926069066e-02 1.072328191324457419e-01 2.604300080116463412e-01
-2.330681149643089589e-01 4.285538230532425635e-02 1.109702635980671648e-01
5.651022857223257922e-01 -8.067928887762596535e-01 -7.445651922072263895e-01
3.380250176399883788e-01 -6.737492698458935614e-01 -4.904499963147280206e-01
-7.636988615924045209e-03 2.198424158158080177e-01 7.453642285163081423e-03
-4.334639582208048292e-02 -1.816773691668982504e-01 -1.341030001945645311e-01
-1.439483519783738008e-01 4.155586624111604621e-01 3.140178060887695577e-01
-2.654020950900838338e-01 2.915118086327099789e-01 4.089334522528536020e-01
5.632847942571701516e-01 -9.369619336040432289e-01 -5.361706773224181877e-01
-7.210735193092201456e-01 7.003390417671236934e-01 6.730324936993602458e-01
2.207693177367550663e-01 -1.138852241267314658e-01 2.664886232401921049e-03
3.262639163066181069e-01 -2.681372719490791590e-01 -3.839202313870165861e-01
4.281258528546082465e-01 -3.012670667009508252e-01 -2.590088166882228982e-01
6.116304873650333374e-01 -7.527238373955773554e-01 -3.863698221949630751e-01
7.635994497419386073e-01 -7.309867108406814529e-01 -5.761359859249751691e-01
3.799093719897637111e-01 -7.155500696246072101e-01 -3.849750483120495947e-01
3.479051447203825309e-01 -4.422101009271688921e-01 -1.469398966474827761e-01
2.749620536556811046e-01 -6.050385505524765728e-01 -4.007427184671906173e-01
1.086400431847358572e-01 9.425637545020695840e-02 7.165598424095238894e-02
5.042127796998251421e-01 -8.312108859666623717e-01 -6.872075429493966769e-01
1.977665903765097599e-01 -1.582192161370310768e-01 2.411583380932329559e-02
4.820314678025709454e-01 -5.688268081902511097e-01 -2.571334285864114166e-01
-1.858517503503293034e-01 2.914625911868828911e-01 3.787591099483215151e-01
-6.363724430653922015e-01 7.414281841604920542e-01 3.987937227378057226e-01
1.834339556133878502e-01 -1.141450352958041717e-02 -1.514315046735928982e-01
-3.331580518348356557e-01 1.975750708556997248e-01 2.932852834189625946e-01
4.769016819262973383e-01 -3.952795134764702789e-01 -4.446915619068859682e-01
-7.310625861331575548e-01 6.800487936494744590e-01 5.743936814374484001e-01
-2.793482476779242663e-01 2.989381458751108056e-01 4.158486174549078096e-01
3.910030710844949464e-01 -5.266652515426545333e-01 -5.615837888644772402e-01
-1.164295095405830094e-01 -5.262240057255207493e-02 -9.218009301905388808e-02
4.887639509867072046e-02 1.567890386555185478e-01 -3.088312105998129720e-02
3.793626899155783661e-01 -3.368490463301946347e-01 -4.350956426567831326e-01
-4.829630075373441134e-01 5.440287913035852796e-01 5.991789595607046603e-01
-3.072020552595091658e-01 5.110012340194535208e-01 1.886859492423787754e-01
6.750363960007874642e-01 -6.303753248786673202e-01 -5.973801081583189898e-01
4.061681360610177038e-01 -3.207857852438378843e-01 -4.018269569269755093e-01
8.153238573175235204e-02 -1.988616744972229178e-01 -2.875899052333919514e-01
6.196321664757193926e-01 -6.221252383652093876e-01 -6.397742258412512095e-01
-6.642504624507684641e-01 6.195547503017951874e-01 6.043868754972249180e-01
1.336126429263312376e-01 -1.821183201359687365e-01 -3.108970634412311917e-01
5.437676625668915742e-01 -7.564481326480039236e-01 -3.670065842709114290e-01
-2.238169107863356710e-01 1.369108475741658282e-01 -1.748275263378609810e-03
9.970851000569323774e-02 2.329466924810098122e-02 -1.672888207779815728e-01
3.248755334440609488e-01 -1.988075337992633307e-01 -2.971060407614207199e-01
-2.236320509167878112e-01 1.762313173915689979e-01 3.266543268416579604e-01
-1.569564474359647355e-01 4.217079574785571050e-01 1.672568536247487081e-01
-4.546446299141421177e-01 3.347516836924276928e-01 2.730743502815028978e-01
3.120867769280325499e-01 -5.406602331521637161e-01 -2.089584735030252938e-01
-2.874302521217630968e-01 2.375398502705126091e-01 3.702377464456813594e-01
-3.495654197828509391e-01 2.211532316274641696e-01 1.448708041470435359e-01
1.439318414167890629e-02 1.047796349000721938e-01 2.013518737291334071e-01
4.253170462591091550e-01 -7.044638555917718259e-01 -6.172832136517026891e-01
-7.303355370922877121e-01 7.052581214420110545e-01 6.693197472300637108e-01
-7.117031260248100066e-01 8.344394724378511041e-01 4.694801892212279726e-01
1.924309566896043600e-01 -4.485494711823267977e-01 -3.851388833167022074e-01
-5.670961719585543293e-01 6.011628160898455642e-01 6.407557596826585211e-01
-6.122909207733190362e-01 6.895857134337561867e-01 7.079452998193034308e-01
-1.750084870805667381e-01 -2.307358508879323727e-02 1.002922845344667580e-01
-3.219053364328746669e-01 3.600362294408082642e-01 4.603258482212826963e-01
