-8.809635616441691131e-02 -6.520666752005982447e-01 2.558191687247087787e-01
2.420293621623897939e-01 1.733120267329407160e-01 -4.959266903489333855e-01
-4.973654100188459881e-01 -2.709854044658757677e-01 1.141418537801297262e-01
-3.149441197517111046e-02 -1.160896092766813131e-01 -1.746463089071480790e-01
-3.869719886940839459e-01 -4.746129263325627456e-01 2.294492654283833144e-01
4.756769894043714197e-01 1.571401023352530790e-01 -5.690067540956218473e-01
-2.513186950916718732e-01 1.056777679572901418e-01 -2.638036823975666301e-01
6.766634008922581822e-01 1.863390260779620444e-01 -6.648297859892244865e-01
3.749102231829923859e-01 2.535175799466487523e-01 -6.058395409562769007e-01
2.187717508945842826e-01 -8.372564447141489508e-01 2.851806210576888767e-01
5.596935047762534587e-01 -1.991071927157663513e-01 -3.273722128208407800e-01
-3.240602765924455730e-01 -1.676118871488903317e-01 -2.826639160136373494e-02
5.064701605353525427e-01 -7.940868456351168891e-02 -3.994208573393997486e-01
4.726865087238094620e-01 -3.839112612617809339e-01 -1.542673279170943268e-01
-3.304047148327630135e-01 -2.265783411342801590e-01 1.913490796168752089e-02
-3.933431938628309532e-01 2.844292509818747150e-01 -3.485254689432936148e-01
-4.423909325580859253e-01 -6.198122626650605094e-01 3.607238451552871039e-01
-2.663240822506334204e-01 4.710866558760037348e-01 -5.376795169898529458e-01
-1.323664047369570718e-01 -1.760380348086481306e-01 -9.192597927730022933e-02
4.359949333270302652e-01 -4.969620326225683282e-01 -5.441955464720480556e-02
-1.124763239374989773e-02 -4.483643368950936126e-02 -2.365251030046475467e-01
5.739468616141801816e-01 -4.173369776084904226e-01 -1.657430673715803993e-01
8.147482836004650217e-03 9.862562701463650772e-02 -3.532977487383978099e-01
-2.663965790954104240e-01 -2.013565361970753587e-01 -2.355520399139998666e-02
-2.657125623275449211e-01 6.677233805790092069e-02 -2.287958435958925285e-01
-8.389833213407590362e-01 -2.131271992934045956e-01 1.948360623497485677e-01
-1.180314799487694744e-01 -3.650521331789676194e-01 4.733729392611014247e-02
-8.995917705547041843e-01 -4.235202778685923097e-02 8.643886964055229327e-02
6.348546943802979570e-02 9.203986643844398741e-02 -3.684996346659334954e-01
1.801592091299679954e-01 4.851110637869265330e-01 -7.116783707719661622e-01
4.936971258897768222e-01 3.341136727062968964e-02 -4.810032605167288700e-01
5.416504680253361181e-01 -7.758131626965398819e-01 1.201306046291966828e-01
2.585645682191861638e-01 -1.086641099565467533e-01 -2.863965005308298784e-01
4.458825204806114439e-01 -4.607687252046043236e-01 -8.570598953693227273e-02
6.711568217193965014e-01 1.078746727578242803e-01 -6.028283092032202806e-01
1.054449608410580885e-01 1.389712016372156855e-01 -4.197240785606473068e-01
8.010402259411714132e-01 -4.131533623672769551e-01 -2.519885309245099014e-01
-1.189317792032201920e-01 -3.069493033118717018e-01 3.245621347191220835e-03
3.923322493777076092e-02 -5.352773526406870985e-01 1.199672889040150486e-01
-2.337360941936577896e-01 6.271426106926103472e-01 -6.689050481206747500e-01
-3.702006862181614899e-01 -4.979710733497929587e-01 2.411739011986461789e-01
1.328767218470495726e-01 4.151480244172809919e-01 -6.408990808754709834e-01
-7.612217644610671519e-01 2.258283937902573757e-01 -1.691923106424340351e-01
4.945641802827674960e-01 8.463470723336058432e-02 -5.204817228822253838e-01
-7.315338091814308497e-01 1.003792821783552336e-01 -8.414041841371937280e-02
6.090396946469477379e-01 -4.367465709392348572e-01 -1.637372881292113724e-01
3.216863722990396246e-01 -4.497548163773961577e-02 -3.581712285334917034e-01
-8.303224424115157598e-01 1.297659038207482074e-01 -7.048059755941341042e-02
-5.709425515337707147e-01 -2.160345832861246540e-01 9.903754825873924139e-02
-1.174162565857321538e-01 2.282779665397250413e-01 -4.065017700474745643e-01
-7.422839994662200347e-02 -1.696214954215430337e-01 -1.180923669401821308e-01
-1.701928173394991542e-02 2.949992698895483878e-01 -4.942264037973449486e-01
-5.066175675365356401e-01 4.736135703224088611e-01 -4.517371794965674980e-01
-3.282438887868567301e-01 -9.813282196453712580e-02 -7.985475711661728371e-02
3.051692855633758028e-01 -8.668066291998518524e-01 2.761772152653447776e-01
3.229442577142597748e-01 3.560020303398426234e-01 -6.651874724387664140e-01
-5.201029142547324291e-01 -2.523359834018163439e-01 1.081989563846022934e-01
-3.533721711663235232e-01 6.254153845734353179e-02 -1.935045881802762990e-01
-2.064717173307308029e-01 -4.450985085756357651e-01 1.408767183403738521e-01
-4.740546811813403649e-01 -1.049070120090993541e-01 -2.135340327857956216e-02
-2.928998091019938133e-01 -2.824262382862245402e-01 4.811649839244928201e-02
4.444953183555835352e-01 8.765736451329096679e-02 -5.044826597091748299e-01
6.876526785131252817e-01 -4.151028161761636803e-01 -2.090328266476942087e-01
-3.421499996045569425e-01 3.059881251921596768e-01 -3.837288237261673451e-01
-1.111969768763053784e-01 -3.209684300789563127e-01 1.113497452738744856e-02
6.270015879365764544e-01 -7.745824114646568392e-02 -4.449898021685920746e-01
1.424870899879384679e-02 -8.647193528846863764e-01 3.809697598081645542e-01
3.045340648400849948e-01 5.647023072972559565e-02 -4.294562159068840423e-01
-7.224390359930515926e-01 1.092390000138627609e-01 -9.423978670910512778e-02
-5.355586249551991251e-01 -2.485198941060963451e-01 1.109335532586455675e-01
5.169147693919865505e-01 -1.715355810168639472e-01 -3.328073378815548655e-01
5.861460547080833416e-01 3.302910635300256859e-01 -7.417825493894044664e-01
-2.578608722087310512e-01 6.221173090419328533e-01 -6.562407729419156288e-01
-1.152571223203474049e-01 -7.431591955355764112e-01 3.353939968876853417e-01
8.421841281920154909e-01 -3.671117122698500101e-01 -3.022345335452521486e-01
7.084296522807629337e-01 -4.207370785746168407e-01 -2.123233510529994872e-01
5.473828612296214313e-01 -7.826806395233949498e-01 1.232846338890229432e-01
-8.760122510273329333e-01 -2.619352830110311392e-01 2.456922386067190434e-01
3.241836453053916767e-01 -7.711118884626310122e-01 1.960629903480710923e-01
1.853146110969583760e-01 -2.385123936338537365e-01 -1.603374232017778234e-01
3.524705966963685277e-03 -2.228515000608294327e-01 -1.058307949314142710e-01
3.473608364901675793e-01 -7.315331337050992033e-01 1.573283586123743749e-01
-9.030163615784575493e-02 9.434350382211195707e-02 -3.140215811662501189e-01
-3.006359286550578866e-02 3.545199894371232202e-02 -2.910264884350095005e-01
6.412957934434964091e-01 2.370632894223676235e-01 -6.906758443576096473e-01
-6.125827864208658324e-01 -5.611016777513045950e-01 3.780766714367413961e-01
-5.750278556933187124e-01 2.568775778626055661e-01 -2.610203577232828587e-01
1.554498398925775182e-01 -7.243709797790373051e-01 2.220336991746650612e-01
1.676492848802605129e-01 -6.244385305474106085e-01 1.411718346152409653e-01
-4.115163527966838458e-02 -7.744349349180581488e-01 3.322049614110532678e-01
-7.265652916203613199e-01 5.341508565341617637e-02 -5.005220785616126128e-02
6.330657180745635770e-02 -3.482524308338456609e-01 -3.182094239496559285e-02
5.255576708442707412e-01 2.092752304397851315e-01 -6.271063562804929381e-01
-2.660719056423280215e-02 2.992085707779671422e-01 -4.939382540410009459e-01
-6.050859871988848587e-02 -7.922679156561696079e-03 -2.467319824149648011e-01
7.493130938633438265e-02 3.249546507539105566e-01 -5.507538671294001098e-01
-1.559775847913164731e-02 -6.272573814089624777e-01 2.103395079367677001e-01
-4.132496952192216133e-01 -3.745401597358298251e-01 1.625510420565770553e-01
-3.418133503327252520e-01 3.983865673999269497e-01 -4.544926023618218736e-01
-2.059516219084792654e-01 -4.629591783740003019e-02 -1.642069434244328163e-01
-4.422404832006767705e-01 2.681798733284829206e-01 -3.182209444106827712e-01
-3.052974590860527693e-01 5.043326282941665850e-01 -5.488444193152677286e-01
7.122373448079722946e-01 -5.858842373427572969e-01 -8.745712458026196068e-02
-2.990076489276787333e-02 -1.152279536938575072e-01 -1.758878531882106522e-01
5.799849976033019106e-01 -3.439802331868306307e-01 -2.240340512431905073e-01
-2.002564292923328382e-01 -5.157720278565889327e-01 1.926352961322088664e-01
7.512855604565752410e-01 -5.891012963869762808e-01 -9.927736373160769845e-02
1.254389947534219688e-02 -1.362009898581197642e-01 -1.753753178981937999e-01
-6.616730550428489011e-01 -4.243154591680228793e-01 2.914526449068742808e-01
-2.183531302565424326e-01 -1.176348994440368917e-01 -1.051315282389608391e-01
-1.492770460635188812e-01 5.192405652490932055e-02 -2.600239331317477642e-01
5.375611508593206578e-01 -6.544436294537931964e-01 2.883633699425392286e-02
-3.639812843419412136e-01 1.960414350036492059e-01 -2.916885294584956045e-01
7.842964383309661280e-02 4.661707440800805236e-01 -6.599960413137310189e-01
-1.808421516666653128e-01 6.318380730440477100e-01 -6.918379046510679808e-01
4.444217569498744025e-01 -2.401452457749800318e-01 -2.538433601892604585e-01
-1.184931291265583775e-01 4.162743872771585418e-01 -5.498354146193354941e-01
-3.784532142085053064e-01 -5.685006638440687210e-01 2.981132558556806589e-01
-4.560908032116687272e-01 -7.510089109289280751e-02 -5.071015411399498046e-02
-1.624191584409099276e-01 -4.863410909756561984e-01 1.562977736841814624e-01
7.587964583034825794e-02 -5.479869546260821567e-01 1.162826355796679340e-01
4.498397863243655537e-01 -6.905509959180397561e-02 -3.866269369119382793e-01
-3.344953743912602584e-01 6.523469328161947134e-01 -6.513271095977952729e-01
-1.751450379707042981e-01 3.050563516070978753e-01 -4.440894066851388544e-01
3.520582744662766883e-01 -3.603227904568179207e-01 -1.281880501533290695e-01
-1.973117487426125360e-01 -6.827223800033740408e-01 3.191957036169406625e-01
-5.012250111713566492e-01 3.018990448542430705e-01 -3.224296322716057595e-01
4.815518958119640591e-01 3.892918738156771474e-01 -7.486403815326789779e-01
-4.359941416267260061e-02 5.375270281236910197e-01 -6.699240461733088070e-01
-5.059346602417799099e-01 -3.813114508337294151e-01 2.016223094106781577e-01
6.773450592300532813e-01 -7.074546200528875062e-02 -4.685322467540121161e-01
8.436919845969809151e-01 -4.123066543597516675e-01 -2.682334095871733992e-01
5.552531372356446504e-02 -4.596814118538849470e-01 5.621456625587363531e-02
7.512820146932150944e-01 -1.245073600467801189e-01 -4.544684817612452132e-01
6.463689930088308833e-01 -7.418705619219368996e-01 5.588564829009531887e-02
-2.225033466714220753e-01 3.173533893827397701e-01 -4.361720508385887318e-01
4.627971531567913188e-01 -5.057494230404964430e-02 -4.054938781858269392e-01
-3.940715003202794331e-01 -6.854404819873222143e-01 3.932278872826223681e-01
-7.639958058514515482e-01 3.513493452398858130e-01 -2.641414202712047965e-01
-4.420399883743328928e-01 5.894861563583515540e-01 -5.639400759811665775e-01
-4.034895758862818704e-01 -6.891196658285837773e-02 -7.467775113655415742e-02
3.909053321460334018e-01 -4.609012185188992583e-01 -6.549979110201435695e-02
-2.464587681386447571e-01 -6.811794235020277588e-01 3.359889174362440389e-01
-5.525377056054344704e-01 4.572718246302521772e-01 -4.224507680357320605e-01
-8.867206395587734491e-02 -4.014235934064302458e-01 6.440748247474252508e-02
-1.694097370563640292e-01 -3.164810051111902611e-01 2.899237622051285476e-02
3.755482369042240642e-01 -7.375826139426441275e-01 1.516453186308155676e-01
4.749718279192025050e-02 -8.534868046144277187e-01 3.602234128134478297e-01
1.046825892952465975e-01 -2.937829368958319032e-01 -8.859510286210299512e-02
-5.234377045800903128e-01 3.462024405524436604e-02 -1.099659549560506600e-01
-3.972272925354797951e-02 -7.876324904617058031e-01 3.417722422964880602e-01
-8.874873961652945953e-01 -1.237492691162755815e-01 1.442423601133063782e-01
2.751820000683264378e-01 -3.591070677325253757e-01 -1.010041980912025628e-01
3.172628998443992043e-01 -4.992455301514891336e-02 -3.527699097228405023e-01
6.100944763325437670e-01 -1.122686309640999885e-01 -4.121936308599056242e-01
-5.481784066869814787e-01 -4.641176298435110703e-01 2.803778213883200143e-01
-2.174874705122833707e-01 6.362274674808131580e-01 -6.817926703091387042e-01
2.121352426703959626e-02 9.455662792793859128e-02 -3.549650994067155008e-01
-6.182177872738900959e-01 -4.724173438837011574e-01 3.123362162942063813e-01
-4.157381954594619455e-01 -3.899809810366776652e-01 1.752659270030122729e-01
4.064501313610806021e-01 3.647892214736975780e-01 -7.024431888781479394e-01
6.025648743694647091e-01 -7.395098935354571523e-01 7.009982897855013273e-02
2.037143929270097010e-03 2.121290593373655886e-01 -4.378391286423339301e-01
-1.509493106700074694e-01 -3.534546912912685523e-01 5.050869018429548357e-02
2.303022847206071810e-01 1.621433593776450827e-02 -3.715334677033619304e-01
4.733990221289512412e-01 -6.178205855317290274e-01 2.430099872351206003e-02
-4.842338074627881017e-01 -3.988484916229770305e-01 2.070938659632728940e-01
-7.525540829176493585e-01 -4.390121992632898262e-01 3.359234030857709552e-01
-2.961505152070385005e-01 -1.380460580829696859e-01 -6.107659768131877553e-02
-6.012740973860954963e-01 -5.134723181390145053e-01 3.375274294614905024e-01
-1.309223593259966345e-01 2.404917090236931010e-01 -4.109003287652481240e-01
-2.406555295759875979e-01 -3.368171631157901996e-02 -1.611597224553428798e-01
3.659240914244823450e-01 -8.606850267012551292e-01 2.492793613355663018e-01
8.053244449281403705e-01 -5.547396447182685320e-01 -1.453093828988271663e-01
-9.490453295952543111e-02 -2.873328886390998926e-01 -2.053821788307228294e-02
-1.821869411350687529e-01 1.242341408171914741e-01 -3.032716065973313779e-01
-7.757964899614954168e-01 1.462391878938217316e-01 -1.030146796916783930e-01
4.157151041985500672e-01 -6.399853866806971547e-01 6.234122587650256508e-02
-2.283944930433476073e-01 2.445034455089069858e-01 -3.783222807018785105e-01
-8.517527116345028348e-01 -2.399647525514870816e-01 2.200236768779192942e-01
3.838373278241585806e-01 -7.481630720142621316e-01 1.567030322022556210e-01
-4.795317504064824377e-01 -6.893720840120939330e-01 4.274861041285497598e-01
-2.773089886887227240e-01 5.262217062630529518e-02 -2.137369656886639047e-01
-1.457194463257997508e-01 -3.096212674570004986e-02 -1.979565972819744002e-01
5.907726390161310154e-02 5.561194071797939120e-01 -7.216867220256389936e-01
8.573246689140912036e-02 3.896223805991736455e-01 -6.041437207929908348e-01
-2.362365665942325194e-02 -1.467997500483015638e-01 -1.540460210542420050e-01
-1.996271867710611853e-02 4.772043433205408469e-01 -6.324498403344221975e-01
-7.246137683809290575e-01 -3.866554533009687877e-01 2.856778601488547675e-01
-8.430193818975606490e-01 -3.020766868447843367e-01 2.643158959673769237e-01
-1.398476853403933517e-01 2.850041112510633412e-01 -4.416671013488904229e-01
-7.903931710281762724e-02 -4.725094061892140540e-01 1.152315188989413569e-01
5.908082979040764071e-01 -6.115446503530795885e-01 -2.343312446465050172e-02
1.181457338730083073e-01 -5.497103735648947165e-01 1.021437141909543600e-01
1.000476560240130680e-01 5.970714325170425330e-01 -7.679781412748575287e-01
2.356310611599910232e-01 4.988772695987316319e-01 -7.424887423804409359e-01
-2.086343914706609293e-01 -1.983351823863896413e-01 -4.698846203707676694e-02
8.247318271619574759e-01 -2.097439877284322240e-01 -4.161634388073844892e-01
2.848123759857806164e-02 -7.724794672107888616e-01 3.052455421609300279e-01
4.990517064827778015e-01 1.917195613400440035e-01 -6.039915471612583575e-01
6.662799953890481408e-01 -6.699681895804898701e-01 -6.366679014411948286e-03
5.208686620322041660e-01 -5.115046238047747940e-01 -7.433935104728649212e-02
2.499558399887992499e-01 -8.548990529833110363e-01 2.872649104951471299e-01
-1.556200645717846220e-01 -3.990168053313872809e-01 8.705001458578631723e-02
-2.426537975317275553e-01 8.616213365057079354e-02 -2.520522582896697061e-01
3.668981806895154629e-01 -8.386087530138491841e-02 -3.449762286913917730e-01
3.494508600647944774e-01 -7.961584888060956322e-01 2.059715703438467771e-01
-6.277272979628366611e-01 2.324797794327427558e-01 -2.230957541737857153e-01
-4.991839148325595832e-01 2.531661339130559796e-01 -2.859186556924735445e-01
-3.774352010053753093e-01 2.116433830802226246e-01 -2.986965310430376719e-01
-1.863010927892241042e-01 5.604685502762634525e-02 -2.496363812190146858e-01
-6.233367708935054485e-02 -2.205936492788342640e-01 -8.347286506047391086e-02
-5.585429041846308174e-01 -6.346075688053594011e-01 4.145114269094883896e-01
-6.873895424193372516e-01 -3.935367227667762036e-01 2.773260161176772098e-01
-9.190498052495327252e-01 2.377843754504690710e-01 -1.206159380077251875e-01
1.322470420755591514e-01 -2.894890938042722905e-01 -1.019580348824617178e-01
-7.407285184037468717e-01 4.126957578561544215e-01 -3.195508591745295224e-01
1.268246336174553568e-01 -5.339993234980051628e-01 8.695843276997160254e-02
4.492812133334689317e-01 2.451902380123446579e-01 -6.266702307968676777e-01
-3.128023701846153193e-01 -5.271816620841476148e-02 -1.202221653756028186e-01
7.436132723163442204e-01 -3.654579243294337476e-01 -2.674519836597862854e-01
-1.801270958805710476e-02 4.567790671577188349e-02 -3.032513752060172485e-01
8.812718838146219036e-02 4.935784031668384864e-01 -6.844961546201868696e-01
7.206936953685541547e-02 -8.104800615602563152e-01 3.183578642093816136e-01
1.145460872161528920e-01 -3.377316315630803784e-02 -2.909854031855219070e-01
-1.115570364645280810e-01 -6.613408394471857743e-02 -1.835598882386865194e-01
1.526087254369125623e-01 -5.578008672213113917e-01 9.572611968367876478e-02
-4.617583515405763173e-01 -6.570371200677899148e-01 3.962656537900010045e-01
-5.066577442617022919e-01 -1.630798429975130748e-01 3.504381188175514222e-02
-3.530090601599095157e-01 -6.730142751809367052e-01 3.687114302640540076e-01
4.834283418180347347e-01 3.962408843047369178e-01 -7.546392625182880565e-01
-6.691629200531704624e-01 2.294285106069073599e-01 -2.056101751875820671e-01
-4.090277196334262677e-01 -1.343411384272511500e-01 -2.263041797123540450e-02
7.153397685696163411e-01 -3.399905547701001507e-01 -2.765828650706111391e-01
-1.078017319128140861e-01 -8.434132778871160641e-01 4.093140744320167834e-01
5.077983893893294187e-01 -1.117535878039992436e-01 -3.751781853914596954e-01
-6.391081408756870141e-01 -5.210043968523783153e-01 3.571216067395568405e-01
8.757293555209779701e-01 -3.287465538267296816e-01 -3.438328868858757104e-01
-5.208892663203368301e-01 5.992252380919986798e-01 -5.425510034651841451e-01
-1.423955708861030234e-01 -3.114125892831844933e-01 1.523850336359864124e-02
-4.361456952421968042e-02 -2.476017976313937552e-01 -6.967002529578135428e-02
-1.166387357475190817e-01 -9.516565934909450297e-02 -1.595062480650885628e-01
-8.900116735824988856e-01 7.131317977538347008e-03 4.510435209729184852e-02
-8.862271218474791767e-02 -4.743994612237442121e-01 1.201811114847449180e-01
-8.499567371510176050e-01 3.458015657804502374e-01 -2.284645029590522958e-01
6.680507353258936520e-01 1.697889282061124661e-01 -6.490272553623878116e-01
-2.312400611262643013e-01 6.628622944014272989e-01 -6.971263298769133643e-01
3.821419602962238260e-01 8.688863573102680038e-02 -4.810926138184822842e-01
-5.266272929878376141e-01 -4.698225064277622987e-01 2.768581836968400656e-01
-2.822863095877378714e-01 -5.397018200303937974e-01 2.409281044534700433e-01
-1.938520517681364963e-01 -6.875201044407979190e-01 3.215984755992092325e-01
-3.713250807781686147e-01 1.825996678203614942e-01 -2.787264064831708743e-01
-5.844712501173907754e-02 -2.624498463011701865e-01 -5.289416413050200549e-02
-8.560233129286718909e-03 4.192686201332776474e-01 -5.923265256504175458e-01
1.436408338828713827e-01 1.091444545765614810e-01 -4.108889206423585461e-01
-9.183499217260198133e-01 -1.160592941069614054e-01 1.496494862289536321e-01
-3.182670504872489037e-01 3.587814133226655544e-01 -4.328243530455286314e-01
-3.048816710955079556e-01 2.233765185103981643e-01 -3.341992659102645535e-01
-6.013680406152610569e-01 -3.935420606793652576e-01 2.458724303962112612e-01
-2.974119387259256952e-01 -2.374655894665541334e-01 1.539314572643237303e-02
-1.501775639871151258e-01 -9.936494117170498186e-02 -1.440308086762553397e-01
-2.083269451626152680e-01 4.235767244730279102e-01 -5.225664016738085227e-01
5.445801021982251688e-01 2.198609466993725892e-01 -6.421557876508210416e-01
6.715607172410640313e-01 3.862513127437133820e-02 -5.500331947069246885e-01
8.936104550893299303e-02 -2.628945368595695387e-01 -1.066069548965187797e-01
3.655908775348530315e-01 1.090089534978873481e-01 -4.919514348845558938e-01
-5.511095839788067163e-01 4.147597610049936212e-01 -3.904716057929832895e-01
2.470098106302730523e-01 2.673308181240990344e-01 -5.696274779933024890e-01
-2.027244487813743001e-01 2.436890476287326968e-01 -3.870870722339198045e-01
-1.502218296260840816e-02 -2.799704424109664691e-01 -5.537957920578961274e-02
-2.729789697886711441e-01 -6.937012846274985545e-02 -1.220546032046179175e-01
2.390294702832922447e-01 -6.912730416112058407e-01 1.661649025242510902e-01
-6.864282380492380264e-01 -5.139156231648254192e-01 3.690068227334228901e-01
2.491360865551562609e-01 -5.241342076008476125e-01 3.468759737095460094e-02
1.195082316602416594e-01 -8.810321359767523397e-01 3.549483236830803801e-01
8.535638065741741887e-01 -3.414782727413342989e-01 -3.259933650616709255e-01
1.110473615464963593e-01 -7.858431881552737641e-01 2.852683536231881978e-01
-3.378130303122828804e-01 -5.249188917332221482e-01 2.499320922378824583e-01
7.446647701327138158e-01 8.246508643931885207e-02 -6.102836322636884248e-01
5.229498410044834955e-01 2.530062089609232956e-01 -6.595859922610776138e-01
7.107132400612962142e-01 -1.478290875616757316e-01 -4.218026876353470622e-01
-9.340112934376171294e-02 1.279956464530078719e-01 -3.386159235500849074e-01
7.971158839427320286e-01 -1.138032582687992372e-01 -4.794132407429523290e-01
9.905462326811659626e-03 -5.874422374882160014e-02 -2.336278768916986992e-01
-1.291569334493033183e-01 6.083489093837354637e-03 -2.323356305153039814e-01
3.614151078816928847e-02 -3.422969305206893798e-01 -2.643991747146490906e-02
-7.268694156477774060e-01 3.328032179601810858e-01 -2.635394425446861977e-01
2.271885791873213267e-01 5.208820036319550262e-02 -3.978211685054034441e-01
8.900554085824333161e-02 -2.349645766506729128e-01 -1.278300252965004213e-01
4.229970604029886228e-01 1.997336427383894220e-01 -5.823056574498480797e-01
-1.118717061760668013e-01 -8.000266608797312884e-01 3.776324099760708375e-01
5.138778432227495419e-01 -1.852173540610298208e-01 -3.212367276818289819e-01
-4.536025008720458995e-01 -4.331612058780660024e-01 2.221249728220766329e-01
-5.045177585335619552e-01 3.720461943393556514e-01 -3.748545482810763385e-01
1.856952549823497611e-01 2.087635792884103281e-01 -5.024290687670220912e-01
-4.384035702136286905e-01 5.585401076453586633e-01 -5.416109536729679652e-01
-4.979261189849465974e-01 -2.970312798348276884e-01 1.342595544419214193e-01
-2.948270641717906093e-01 4.317068832528522804e-01 -4.971493944069941828e-01
-8.777389891384890230e-01 -1.510919015854265413e-01 1.615814642713052363e-01
5.177259365746295083e-01 2.901230418760890606e-01 -6.860522801557112915e-01
-8.140946580619511097e-02 -2.906105016585545098e-01 -2.296749355949422727e-02
-5.433294957440815143e-01 3.045050377734836999e-01 -3.090245559971926959e-01
-3.236524819374236861e-01 -1.358599612551342761e-01 -5.269057495185094919e-02
-8.128735590031932468e-01 1.332056729518422133e-01 -7.949135392029706149e-02
4.333478159262044160e-01 -3.964269318577546830e-01 -1.303128403028512294e-01
-5.233712959655232311e-01 -2.196735224899268868e-01 8.442300947839992409e-02
-7.876204964992180590e-01 3.823221839423060486e-01 -2.791814050150125404e-01
-5.337960181611595134e-01 -2.046651246187834450e-01 7.676102779607349436e-02
8.549329367239485999e-02 2.001335269666240646e-01 -4.591878061561648905e-01
-7.446350336766360822e-01 -8.821913221324610699e-02 6.483832844714687571e-02
-2.125532278075678017e-01 3.422414432588992139e-01 -4.588382350918777108e-01
3.231742076475785930e-01 -3.918139340323079645e-01 -9.354959923238083397e-02
-6.334689427494359926e-01 1.609434856638660427e-01 -1.663049708488093525e-01
-8.234034602614069831e-01 1.809033774958113405e-01 -1.121065753181072211e-01
3.030254067732906509e-01 -5.248473027288190831e-03 -3.817191825958140550e-01
3.841449735290285994e-01 -4.612330534349362021e-01 -6.277386393311734647e-02
-4.289196954978291010e-01 2.045568205892520641e-01 -2.744510538353731599e-01
-3.812369243064036017e-01 6.179102156564506010e-02 -1.827407895217585121e-01
-2.828888947232198192e-01 3.712321640098453224e-01 -4.552808578069879597e-01
5.193172510934992436e-01 -5.146470831255341993e-01 -7.136952705917723461e-02
-3.487955266025392076e-01 -9.059258253518231302e-03 -1.404378417701281079e-01
3.035124578997671074e-01 -6.161214865388450201e-01 8.512873309921799303e-02
4.092033716331748283e-01 1.949783918007156891e-01 -5.736258737709976074e-01
-4.406842944865901890e-01 -4.873729488790393138e-01 2.588469295664123648e-01
-4.749409966984386444e-01 -2.414124433927859192e-01 8.333216162324681708e-02
-4.532509173244617662e-01 -7.519307701681943179e-02 -5.167820909927443168e-02
-3.954190158592489346e-01 -1.896871326591479112e-01 1.470618739628505069e-02
6.732493929718055825e-02 1.861191383457257986e-01 -4.418294103946631135e-01
-4.600556126484218744e-01 1.998882155564052632e-01 -2.594955399050841161e-01
-1.056785008660025837e-02 5.711279373681933391e-01 -7.076921805784399666e-01
-2.495744280607745391e-01 -7.800982821249372035e-02 -1.240082932895114204e-01
7.487412555227933586e-01 -2.165056682654281292e-02 -5.321756477370200855e-01
2.596959375475696996e-01 -7.139365924770273431e-01 1.759340602548594978e-01
-1.650667506305659726e-01 -3.245637359509695452e-01 3.358359390113712512e-02
-6.141798754644994807e-01 3.167556650930738460e-01 -2.924807762430515767e-01
-1.552117278296337444e-01 -5.032066534034307370e-01 1.665561477461180162e-01
-2.314090762016241254e-01 5.455425357648428786e-02 -2.319994725583205963e-01
1.580753342097935277e-01 2.970956901400009786e-01 -5.598604576966740298e-01
-4.297325074531643807e-01 9.365275619901969328e-02 -1.893651842688910125e-01
8.455615767946457195e-01 -2.509331108283735512e-01 -3.922907799948264773e-01
1.675474412758541087e-01 -2.970715448141004744e-01 -1.090702754237967281e-01
-5.353188394779489351e-02 2.474749992668955900e-01 -4.445405498293164004e-01
3.586850945578597405e-01 -1.976849595511663282e-01 -2.549516927361067942e-01
-6.125589867721504822e-01 5.721827610649543594e-01 -4.883532331200515220e-01
1.050608061190922149e-01 2.871992230895296649e-01 -5.329072196195017153e-01
-2.285255040376944213e-01 6.153314969342458252e-01 -6.617806773214383043e-01
-2.030197462647075346e-01 6.270182052620776325e-01 -6.800427642412889551e-01
4.908634580378132828e-01 -3.447437414313842541e-01 -1.908589959869604058e-01
6.520094858458761466e-01 -4.918872126816085655e-01 -1.372948936396245767e-01
4.399704794385816409e-01 2.696049629946607462e-01 -6.419309394991471462e-01
1.522334189795788439e-01 -2.115693263297024340e-01 -1.688383589395233420e-01
-8.578764132258778208e-01 2.097003800697312126e-01 -1.215159253459810601e-01
4.054227240695695844e-01 -3.257254825506262774e-01 -1.741535960417573692e-01
-7.102947287804164400e-01 1.856629176571956141e-01 -1.571086915088026614e-01
-3.858199102772010836e-01 6.487026034552618725e-01 -6.297717924302120851e-01
6.126424527485676563e-01 2.251604140171236668e-01 -6.710974363261681397e-01
-4.701125350167520422e-01 -6.997572136838484114e-02 -4.950077786365530280e-02
-2.926793571446026920e-01 4.247182117581090044e-02 -2.003559245099551522e-01
-2.484080668132414571e-01 -2.610511342440961086e-02 -1.641171370258536766e-01
3.050735075982676237e-01 4.571103308969355350e-01 -7.359517697983071205e-01
2.466587890505023695e-01 -4.805892145667832738e-01 2.302416365439311028e-03
3.731824057984934884e-01 7.825719877523135137e-02 -4.712172201931980053e-01
8.441140550381819041e-02 6.087171729070297577e-01 -7.711634645139250344e-01
1.025418229464066383e-01 -2.839004105225646502e-01 -9.536764605500006042e-02
-8.411195484248232823e-01 1.703093152560992973e-01 -9.752848694294051490e-02
7.191683847161851606e-01 -3.580881630206864119e-01 -2.641469476548896633e-01
4.719601893187950203e-01 2.933907158277903604e-01 -6.718141668859373139e-01
-5.354371548977052697e-01 4.378070974508155300e-02 -1.125811913885842591e-01
3.007249842830314046e-01 -2.982903037055218975e-01 -1.568409206657225552e-01
1.073277730965655624e-01 2.663419786422975832e-01 -5.177904109490488738e-01
3.663081810345023004e-02 -1.105266798280571568e-02 -2.798624731730549042e-01
-3.277038355443969153e-01 -5.119862072820986487e-01 2.363478809306287787e-01
2.121711427728753818e-01 -6.808536542800476266e-01 1.680210153444011423e-01
-2.131523291514683949e-01 -1.717717009968154074e-01 -6.564464636539436848e-02
6.142912326746645668e-01 -5.483741886975346952e-02 -4.576358064247078583e-01
-6.244705757302653204e-01 -3.479177462890554184e-01 2.194401162075824974e-01
-1.837564503753918443e-01 6.044036589914520974e-01 -6.697979383118535246e-01
-5.104979254966851565e-01 3.904991777375626527e-01 -3.867753456987477190e-01
1.917176443493867066e-01 3.060719570260925920e-02 1.784700712820280755e-01
-7.164948725895268211e-01 3.866546745889329895e-01 2.383929723755239261e-01
-1.911234180237916802e-01 6.265610996871454619e-01 -1.371467534397732280e-01
9.103288025783594639e-01 -3.455213519962350155e-01 2.032359375386547928e-01
-2.086528337883590545e-01 7.245058469920212518e-01 -2.056172682582393663e-01
6.140723762014479448e-01 -9.339909824927937476e-02 1.188224671581838421e-01
-2.103798654068753105e-01 6.854513790490163183e-01 -1.751276899465848969e-01
-2.513779030549059823e-01 7.601312102676972549e-01 -2.172292912752205873e-01
-6.194106317966273367e-02 7.664735556070978451e-01 -2.913543346751651941e-01
7.779981253514939299e-01 3.991181965219761096e-01 -3.176648679585731272e-01
-1.144924040131659604e-01 3.542491877638288544e-01 4.301816129825491997e-02
8.129806583529708419e-01 3.799362310347462746e-01 -3.157927790607438223e-01
-6.763650311489038947e-01 2.602951502238525783e-01 3.203223458016165592e-01
-4.740951106595536202e-01 7.125420804734436397e-02 3.908791800930211391e-01
3.739341174477104901e-01 4.876824459887437180e-01 -2.376098646698021899e-01
6.449387755467801409e-01 6.186254528955759113e-01 -4.368238648494859322e-01
-7.214816149523128885e-02 -3.837866114579776000e-01 5.917778776986474254e-01
8.978422400905891054e-01 2.786726274627490119e-01 -2.694079874013532994e-01
7.094216880341260856e-01 -5.386512997601976549e-01 4.243588908756151801e-01
-5.644981072549521972e-01 3.101239996143977939e-01 2.413178619474615205e-01
3.224515682535756406e-02 7.996333624941142082e-01 -3.511492122682507433e-01
5.254917301906636418e-01 4.415488478844066256e-01 -2.577636214821912852e-01
6.369135232346072595e-01 -4.442899646395367941e-01 3.787334495896869102e-01
6.057779163533271172e-01 2.324320545052902809e-01 -1.272494623582017259e-01
-7.145756554393134508e-02 4.888426678873024622e-01 -7.561919482073113652e-02
2.114412495260080405e-01 -2.791534104647253045e-01 4.080761241464310185e-01
2.273379170308525432e-01 3.072996131171816248e-01 -4.609361559041264683e-02
7.483411230833372230e-01 -4.384680902407236402e-01 3.335339372958363580e-01
1.390431651648965095e-01 2.729837297571755320e-02 2.002625541947830323e-01
-2.038236295321887437e-01 5.597528317872700887e-01 -8.142593545096080132e-02
-3.514882785279530575e-01 -4.060384185241495969e-02 4.315603979223492370e-01
-4.755398082924893188e-01 3.669480246356060515e-01 1.653429890180445894e-01
-1.653440117821245933e-02 5.837903882196291416e-01 -1.682939903174019147e-01
5.047651211633341628e-01 -1.619565069642444344e-01 2.112092927552547961e-01
2.066543538317175688e-01 1.026173917800557792e-02 1.885623402538239846e-01
6.516694987280273743e-01 1.925123642136752633e-01 -1.135123099141017444e-01
7.218928736544500957e-01 2.689604261499786708e-01 -1.976389208982578805e-01
-1.481482413347001148e-01 -2.077102508363057598e-01 4.849564561780314587e-01
-9.135968438398152369e-02 -5.008765116044723298e-01 6.883212802861584656e-01
7.181737909147979382e-01 -5.085154945789681635e-01 3.981187927611090083e-01
6.078748891893415163e-01 -1.934725813767248781e-01 1.975972669086460409e-01
6.948795211052939680e-02 -2.753617570279409676e-01 4.570889871220190082e-01
-1.627457804983920564e-01 -2.191502981873233447e-01 4.990408800243523180e-01
2.334871987817089059e-02 4.875385228165752260e-01 -1.092923684082780789e-01
1.280670772961712001e-01 -4.154444958908679042e-01 5.427632457422282286e-01
8.583236866794839992e-01 -3.618911366120406981e-01 2.347690337236471858e-01
-1.642912738145044516e-01 -4.573934710524839575e-01 6.817482731159928422e-01
4.305222691890083775e-01 1.046191966910623439e-01 3.455649718322315045e-02
6.403159342574239465e-01 -5.198371703888252614e-03 4.179389854569900281e-02
-3.082268757705864948e-01 -2.028503342347314220e-01 5.397809603606438245e-01
-2.373915636193445200e-01 1.805326545714813768e-01 2.207719771713062828e-01
1.187710876135331661e-01 -5.187443963739818420e-01 6.251378215835970975e-01
8.325991328501683997e-01 1.855840036283033789e-01 -1.743805570576241748e-01
-2.774349191201919140e-01 4.702283273468853553e-01 1.393685192297693803e-02
8.093399606129029200e-01 -3.018428099913298412e-01 2.067738730681897286e-01
-5.714201957209196214e-01 4.406437743158789222e-02 4.472577463075685378e-01
-3.755060947721926556e-01 4.002602244182133506e-01 1.032932022380055603e-01
3.647604780999431917e-02 -3.182430453642414170e-01 5.019449886046869480e-01
4.427866849296331342e-01 -8.600462046507108271e-02 1.758076118744223981e-01
5.944677704642746530e-02 6.646169361438108991e-02 1.994293552917197343e-01
-3.331953669115896299e-01 2.111657528058004107e-01 2.323873003526627790e-01
-2.291445387720061622e-01 -3.947840345929801847e-02 3.859594335398004450e-01
5.467970947480185195e-01 6.593106942073585497e-01 -4.320386779684231016e-01
1.407276115350687140e-01 -4.442960572595077706e-01 5.601910081629035698e-01
-6.408806239697811824e-01 5.952957817216295577e-01 5.123041564211020665e-02
-7.266204034266663357e-03 -3.572406757292681534e-01 5.477558856798109277e-01
7.466926509430757974e-01 3.111470727969778416e-01 -2.389607163413789703e-01
6.272249440109372021e-01 3.472948435833474873e-02 1.605547784836612590e-02
-2.738501021703024230e-01 1.793249726111341147e-01 2.350279964194685600e-01
3.881334954315719954e-01 2.069468440818623967e-02 1.142200356822677398e-01
2.276749244798466909e-01 4.424429916181067957e-01 -1.495369812907858531e-01
-1.530254807003654238e-01 5.196642958649825284e-01 -6.935400549608035370e-02
3.765453720991072672e-01 3.800759911597584306e-01 -1.562972564521428187e-01
-5.806702413394676521e-01 7.443617723060558244e-01 -8.475251447254820991e-02
-1.190215187322143098e-01 3.816777874738026544e-01 2.370466213198097263e-02
1.312970820136347139e-01 7.966604029704644763e-01 -3.850991509194479079e-01
-7.503021627972709107e-01 4.201522575211981692e-01 2.251464941411026877e-01
8.262201792150151158e-01 2.139869691224016712e-01 -1.937625030087057054e-01
3.171009236860991565e-01 7.200828636033799190e-01 -3.945015244508969232e-01
6.783879593639327021e-01 4.002269932277108255e-01 -2.820855892157229095e-01
8.010801019800206646e-02 9.260551968960469005e-02 1.718861000960037189e-01
-2.857365900060276909e-02 -4.847643122525291393e-01 6.530425848724632498e-01
-2.962513091671009624e-01 -2.469852404006229185e-01 5.691436698726425325e-01
-7.485060180642948424e-01 5.294012118736987071e-01 1.409663928076252126e-01
6.629999117818756726e-01 2.225855339971702374e-01 -1.406473980166673410e-01
5.120372596892573958e-01 6.306779373353655904e-01 -3.974367860025839194e-01
2.419181045485555709e-02 -5.306847548284250315e-01 6.688536973057780388e-01
6.278514391353394730e-01 -4.883754421596571416e-02 7.971522654640597616e-02
-1.667053749326015966e-01 2.063650142478715976e-01 1.751729493383590019e-01
1.276738960646904564e-01 2.506667748229837733e-01 3.365012401324094654e-02
1.354704201698609112e-01 6.215685487729417646e-01 -2.527636981609653888e-01
7.201681812427550566e-01 -4.924225210515463802e-01 3.850860166258226469e-01
-5.791634107755238015e-01 2.061140958180483485e-01 3.261987844589609997e-01
1.850393752607136788e-01 -3.195165941537855825e-01 4.485897210136846058e-01
7.025156793468712024e-02 -4.859225842413723018e-01 6.177881796788399216e-01
-3.464140830533691262e-01 4.416623918646179758e-01 6.100150827549163934e-02
2.762561544126520552e-01 8.276041522757654478e-01 -4.617672011930593623e-01
-3.171900105409988235e-01 -4.136475516194348945e-01 7.042179063245955772e-01
5.288265062532646610e-01 -7.286016974115898381e-02 1.342940204214545796e-01
5.745203073111719849e-01 4.498404928920228252e-01 -2.820322934592063846e-01
-8.958286597636773430e-02 6.751563690627032654e-01 -2.114318313078207834e-01
-6.490599716945625319e-01 1.226021233195387500e-01 4.156063980639213007e-01
1.479679307162580504e-01 -4.531668108613375878e-01 5.643251455681806972e-01
1.605350104929010591e-01 7.699356755159719734e-02 1.544100020516415428e-01
-4.138671003102195045e-01 2.444636893972422509e-01 2.364315670364458277e-01
-2.977447516917708370e-01 8.271551332839652826e-01 -2.515144307925377687e-01
4.436461119209844650e-02 -2.744453719043288831e-01 4.655758802417657161e-01
-3.789062418429184342e-01 2.178419582740131477e-01 2.439994487856225192e-01
9.336451517664547950e-01 -5.504983589094937513e-02 -2.736268915398135798e-02
1.144288549080213491e-01 3.448677746208017592e-01 -3.352498847605237670e-02
-4.111366668728165807e-01 4.788121660880443331e-01 5.626842879723207430e-02
4.607533739412598695e-01 3.379479777937641205e-01 -1.548839297911918655e-01
-1.532909165597715062e-01 1.019031836029908877e-01 2.501307405091992009e-01
-6.757378103461167962e-01 -6.024955657257351910e-02 5.651565435849689178e-01
9.617477744963861541e-01 -1.685314133774786990e-02 -6.684191268469871772e-02
6.159142160974377944e-01 -4.149398568564731105e-01 3.639739881378891151e-01
-1.974993568289644952e-01 1.360307545488040337e-01 2.402062750344172160e-01
-4.210505103916724057e-01 3.984133077428675951e-01 1.213605940274451178e-01
2.712943445223263139e-01 -5.299473412910166159e-01 5.779256705935633676e-01
8.296180139252147256e-01 -3.430097781037068638e-01 2.308313467003743624e-01
-4.150139239877974617e-01 5.529061504460360821e-01 1.039822120804475289e-03
-2.076321757159652059e-01 3.412288400609416184e-01 8.703329235170956246e-02
9.025067677968315882e-01 -1.911174971309529194e-02 -4.345099319830426909e-02
-2.759145402596816510e-01 4.134696441044759530e-01 5.677413420846866288e-02
-4.931893800964867736e-01 -5.282336423612228604e-02 4.927219346559366664e-01
6.268599350056787145e-01 1.777417820395441883e-01 -9.314712769032096329e-02
-5.410838040625808310e-01 1.414396840817322420e-01 3.617182764293174757e-01
-6.464221729098647007e-01 2.184812553452552542e-01 3.413400347493681930e-01
6.399729334530179781e-01 -4.930819489100202180e-01 4.149171963534890595e-01
2.396338715851887846e-01 -1.990167844058197619e-02 1.995624873971033886e-01
-5.368085227093252199e-01 7.574754759207369403e-01 -1.108182613498252256e-01
-6.148417867326320119e-01 -1.645930029230954425e-02 5.094085219641594220e-01
5.618805121297940630e-01 5.551230670988986926e-01 -3.579008521261020648e-01
-1.371924217868855655e-01 -2.130950113155435643e-01 4.850667328224061992e-01
-5.675539894098309279e-01 -1.802347245275825668e-02 4.933114369305729441e-01
-2.899831642139688026e-01 -4.470981505717879223e-01 7.198422161606176095e-01
-3.477749954898114448e-01 -3.109154458152869616e-01 6.368617107473248939e-01
-8.068354776969919318e-01 3.697712200259912207e-01 2.843378923664408586e-01
-2.267327091990126442e-01 1.710306099297803084e-01 2.241386080622032595e-01
-3.742384106668458221e-01 1.340516969297069760e-01 3.063519659449191468e-01
8.246416364301156765e-01 -4.010078514078223022e-01 2.769920041505611330e-01
5.303920199292845306e-01 -2.801167250070512801e-02 9.943384399774851667e-02
4.446455070904991036e-01 -1.917302632209098301e-01 2.559574584541330355e-01
8.113886457600578694e-01 -2.150371669577949840e-01 1.396598303717425382e-01
3.799652068604682520e-01 -1.077335132961141917e-01 2.153933594670825180e-01
-7.166472471335043337e-02 -4.234369923886029952e-01 6.219146866608898927e-01
6.551704496940931322e-02 -3.433978467514058330e-01 5.105562358813098278e-01
-7.726139703166311490e-01 4.493403266116164363e-01 2.109908902192855762e-01
5.377423461739139210e-01 -3.914269068748651992e-01 3.745849065286657731e-01
-4.555772809356781750e-01 -1.840684404356875137e-01 5.793071480469585977e-01
9.102182543618244637e-01 1.640176067547278738e-01 -1.862775211191982083e-01
-4.668804833442217750e-01 -2.338125639582857851e-01 6.214711677110830168e-01
-7.566736263626079595e-02 -4.794740532456447935e-01 6.662200143343685044e-01
-6.283414871410982760e-01 4.695339142100352081e-01 1.427926605800435567e-01
-1.187946033570676518e-01 4.796563202668093218e-01 -5.128509089089158812e-02
-9.810405290390768196e-02 -2.364941260521774835e-01 4.886614410172516187e-01
3.735240979238331760e-01 4.443675791027053568e-01 -2.043447417036683977e-01
8.120545469448917641e-01 5.576231150763958505e-02 -6.761592086298201520e-02
-8.095743102472523489e-01 9.332125947846604819e-02 4.966916244808042835e-01
-4.252781158915305282e-01 3.370198840119855710e-01 1.698432500545289936e-01
4.292307881305228753e-04 5.502875479140694193e-01 -1.488838445296694346e-01
4.180571863867032500e-01 -4.474472923062954854e-01 4.611820504492978312e-01
-6.589404814469242977e-01 6.116678744942288803e-01 4.531799260340314134e-02
7.361203037508210478e-01 -4.455641657666735145e-01 3.434281424193063037e-01
6.458051006983518416e-01 8.426943648963318434e-02 -2.861359687356487824e-02
-6.331451663659334317e-01 5.779587105226613453e-01 6.165617162691617442e-02
9.594869852412392375e-02 2.352104621133324358e-01 5.706857791651763490e-02
-7.288806258867526200e-01 -8.255517483252862443e-02 6.016437683457576124e-01
-2.695120560246935804e-01 8.581111339903195467e-02 3.049350216394281499e-01
-6.441915583556611091e-01 2.094443662950307428e-01 3.474332122949039259e-01
2.087840266511347687e-01 4.189159128408044830e-01 -1.246416911678508710e-01
-4.683371517388238425e-01 1.116094013904529586e-01 3.579210767020600814e-01
1.995140226115767190e-02 -3.525565404700483074e-01 5.342214067628845431e-01
-5.842573423135039024e-01 -7.511220735456099196e-02 5.430653857624919700e-01
2.378518837487683391e-01 8.399700594101509044e-01 -4.571769479400073499e-01
2.111946705084396525e-01 -5.315802256225711231e-01 6.011522207870390044e-01
-6.504898987844865976e-01 7.778853221214128422e-02 4.503903045817372885e-01
4.761559759738443476e-01 4.328881540172948572e-01 -2.331004701821879077e-01
-5.922329752641087852e-01 4.519912661944252563e-01 1.429996894652740824e-01
3.736134850506802607e-01 -4.590995703740176626e-01 4.863433333305981487e-01
6.409640955933659789e-01 -3.905217328549549505e-01 3.361451628855519624e-01
-6.511630705363012916e-01 4.207817744527081461e-01 1.884105053861876988e-01
-4.013562828504368962e-02 3.578392020674304175e-01 1.308158526398116132e-02
-4.563339686414205620e-01 -1.203840016482234515e-01 5.308956930182616718e-01
-2.194964603093173816e-01 4.820772336967692473e-01 -1.630972826205722911e-02
6.235282040479124266e-01 8.469366061956190572e-02 -2.079136725712133274e-02
8.732480155282003331e-02 -4.658094880360708068e-02 2.756581087670413877e-01
-3.268856888272089756e-01 2.435835627574158280e-01 2.052957422410959243e-01
6.456225904738951415e-01 -3.592222972445583973e-01 3.105124569594884809e-01
1.875156115816955238e-01 8.080113256837907487e-01 -4.143360413243991625e-01
-3.490667767485072792e-01 -3.654874364806184328e-01 6.790556118341475322e-01
3.990950156069026367e-01 -2.533262400477092613e-01 3.197065597528314096e-01
1.036629477841996133e-01 3.097694857910134880e-01 -2.754522127840457971e-03
3.014051374405984918e-01 -5.251823211291710702e-01 5.632713283554109385e-01
-9.706312411388516581e-02 -5.539834768270365251e-01 7.310084599500997760e-01
-4.237446525137695819e-01 -1.545994486761794462e-01 5.451364018532045552e-01
-5.556125085998400159e-01 5.703155433016415810e-01 3.914620770314121423e-02
-7.587260551557453714e-02 -1.745234525384507518e-01 4.331535426851212955e-01
-4.875390562933816785e-01 5.814374522162057968e-01 5.749112851847231441e-03
5.469845187513354690e-01 -5.386256869905410305e-01 4.837418333591624320e-01
7.126188323373985334e-01 6.329544230741478150e-02 -3.701198472383873672e-02
8.980886558642017237e-01 -2.883905976104914060e-01 1.640343682638998879e-01
5.540278069650987902e-01 3.563498515585405424e-01 -2.030626024346097180e-01
5.018697373304633474e-02 5.559209882529322355e-01 -1.713869123978540021e-01
2.595741096024596975e-02 -1.539981416928627445e-01 3.802227176573072520e-01
2.052790375346593144e-01 4.234207835275158316e-01 -1.268040068058685355e-01
2.503547416247738910e-01 1.743411919563032098e-01 4.713891282291593487e-02
-6.034946578925657334e-01 -5.682559222921165082e-02 5.361198587329061294e-01
-1.578620918540377671e-01 2.324242133594399684e-01 1.520161632059411905e-01
1.461945514946882685e-01 1.669364009018588571e-02 2.057548797263754337e-01
5.269129699409267342e-01 4.208021121524921915e-01 -2.424220206381226539e-01
-1.829973743120654195e-01 2.849566701839179039e-01 1.210457865576089198e-01
8.758141335698204147e-03 8.282813769907881873e-01 -3.644621642842909015e-01
-2.029199625764405712e-01 4.870013347237278079e-01 -2.613626200567742419e-02
5.091940485783600367e-01 4.039274917925836372e-01 -2.230412695719876104e-01
-1.144432641611427548e-01 3.552562209587565301e-01 4.223029176837306969e-02
3.890412959927852521e-01 -3.771849680039146557e-01 4.180759155562900897e-01
-8.476099861564860213e-03 4.488622825713824149e-02 2.407633622018848785e-01
6.305009177401481590e-01 1.389822507025046672e-01 -6.484609308844975495e-02
5.693632011139897892e-02 -2.512613608390951159e-01 4.432537712821442710e-01
7.006277382105059459e-01 -3.792407146069268764e-01 3.057018540406388207e-01
6.247723138236966900e-01 -5.263532658877431158e-01 4.459126559394253619e-01
-2.679132787061107024e-01 3.131813735677284605e-01 1.305207268202547288e-01
-6.045046374258824518e-01 -3.070352299819428810e-02 5.165182997098950457e-01
-6.979185640737008978e-01 1.028070418527223806e-01 4.486075408547601784e-01
-8.033476886538440387e-02 -4.568019988679470345e-01 6.505935726101512717e-01
8.380865286979692907e-01 -3.646594349670219115e-01 2.442860948752060557e-01
8.350542369100135698e-01 1.037299549594631609e-01 -1.126991335179158837e-01
7.636227038648715215e-01 -4.954604804086245040e-01 3.715174856252549951e-01
-5.790624217823855391e-01 6.768707190737348611e-01 -3.374207289038250873e-02
-4.445662107234039651e-01 4.151663756187761178e-01 1.171520836167828511e-01
-4.877311711241663628e-01 6.514890012724980917e-01 -4.773660152366167309e-02
2.480172657205486075e-01 -1.700832172725298963e-01 3.113138510345399568e-01
6.053788212529639390e-01 5.377355081881667331e-01 -3.605148071046925806e-01
2.103310306156468829e-02 1.119982838857721229e-02 2.557259858976232425e-01
3.704443724452861630e-01 -2.386476181402892027e-01 3.189618344224561808e-01
7.199149699924903834e-01 -2.169944115224246295e-01 1.746076890055030528e-01
6.938849452371072257e-02 -1.288847910805362706e-01 3.451404545772731591e-01
1.894653434663100267e-01 6.595000070294700922e-01 -3.015088375947338473e-01
-3.811498057628533859e-02 -6.002839364896571661e-01 7.448491285009216645e-01
1.522556713081569257e-01 6.741973290841238864e-01 -2.991378621549858896e-01
-5.140747700083464489e-01 6.213401964949164524e-01 -1.505343593155455614e-02
4.920364233767403062e-01 -4.032463362944216922e-01 4.003355689121459449e-01
-4.504905589055683418e-02 -4.890789365724727555e-01 6.623661879832504207e-01
2.477878711050271743e-01 -5.208302149494286049e-01 5.795516333616730353e-01
-2.633243243982598125e-01 1.471446700987457668e-01 2.557813262025559475e-01
-8.953789441282471173e-02 4.284005283787889473e-01 -2.279793969579555629e-02
1.312863505256501029e-01 6.017187490529226634e-01 -2.360579890735651776e-01
