5.450123942595994780e-02 1.058218708479051334e-01 -2.504008977116379819e-01
3.087931897938640535e-01 3.175719240461688520e-01 -4.580435980485869085e-01
6.066112891489275905e-01 2.677440988932993648e-01 -6.208984993773467576e-01
2.352985643377922542e-01 2.658479968605559907e-01 -3.179014350575005143e-01
1.339757846287103205e-01 2.037113820555231380e-01 -1.821611578058979219e-01
3.960695944392412238e-01 3.256252689223804730e-01 -6.929249736304501361e-01
-3.129241983342113120e-01 -1.443487921419076558e-01 2.289936381128644116e-01
2.824816334645144367e-01 1.596323133259706928e-01 -1.904224977714146783e-01
-1.080384712992475682e-01 2.495366036534210977e-02 2.157103547751039740e-01
5.654799960355166855e-01 3.362321055290738436e-01 -5.638651009676064474e-01
3.466996964777681045e-01 7.930489757356655456e-02 -4.035222649065078326e-01
2.318643377320416255e-01 2.415768914693478542e-01 -4.663573359415030817e-01
1.717072944916760713e-01 2.186159384323183297e-01 -3.699401461503734612e-01
5.811257180302659142e-01 3.176360423786698250e-01 -5.735414315772702221e-01
1.218289708573611352e-01 -3.563270120681402697e-02 4.229556547448135202e-03
-2.592406618553594888e-01 -3.513357540794224965e-02 3.353032925340048154e-01
4.187837541463578644e-02 1.372272725880026023e-01 -2.041810163695585434e-01
4.147822708458083762e-01 2.796144251799325131e-01 -3.905210328925283747e-01
-1.981038417798137719e-01 -1.483832865397059775e-02 3.036308958404286273e-01
-3.222229614056626446e-01 -1.387350807358181670e-01 2.408050157850611106e-01
4.065749967875676441e-01 2.724941119228034836e-01 -3.779202573763918438e-01
-2.828348007872412851e-03 1.293825950987456952e-01 -6.132941906327778886e-02
4.870171686675089373e-01 3.048402494931895523e-01 -4.707982093410735813e-01
4.555579157798927969e-01 2.033646349126019826e-01 -4.085507692504613542e-01
2.482901627712700843e-01 1.636024575590665497e-01 -1.603340030348576473e-01
-5.003103754894627775e-01 -4.358484558758733418e-01 7.443203937826922134e-01
-4.573743307997272800e-01 -3.423153935467240783e-01 4.933046122649898391e-01
-5.933722291051942710e-01 -2.910870521258707710e-01 5.976334584859173127e-01
-5.577449284489427450e-01 -2.185437838810950217e-01 7.355835695652528372e-01
5.216913161516387731e-01 2.820680421042424113e-01 -4.957577944494237498e-01
-6.670318210104582146e-01 -3.973181863721597096e-01 7.049926380685552774e-01
5.648736646761570723e-01 2.202965961854262411e-01 -7.323542929654908162e-01
1.272625880067929614e-02 1.258690645719896806e-01 -1.547518461703527026e-01
-5.088270842440140163e-01 -3.602240372802979484e-01 5.447211362002383206e-01
-6.442475530652936877e-01 -3.113993874726891375e-01 6.674639853362569486e-01
1.475622552135370247e-01 5.598523183667781372e-02 -5.594465981744946477e-03
4.690870502623998850e-01 2.251863364711484405e-01 -4.242464342724863724e-01
-5.893143200728009345e-01 -3.084829981195046367e-01 5.909473355813819051e-01
-3.263801588705944612e-01 -9.712055158996069082e-02 4.818113502899509792e-01
-1.024289501193807600e-01 -1.087393015117883721e-01 3.244184068625248218e-01
-6.844245170952100166e-01 -2.904701759781915249e-01 7.747506301892214120e-01
4.778763753314782536e-01 3.922216212634797583e-01 -7.872080386856710188e-01
-4.375830785963032432e-01 -2.506048366180168019e-01 4.006952283947027849e-01
6.405634517049371146e-01 3.954881858831410524e-01 -6.704178752744498482e-01
-1.616457314804651269e-01 -2.238405626504541834e-01 2.349612425928331305e-01
6.360955021877063853e-01 2.527671945005122156e-01 -7.573831548511823497e-01
-5.781301765441286822e-01 -4.473872440905150571e-01 7.020933924823160588e-01
2.124089945302239379e-01 2.477538276030985531e-01 -4.145825787600150303e-01
2.369766208745824332e-01 1.459278216847808285e-01 -1.383240665507037281e-01
-1.764701473707598056e-01 -2.035673983650084784e-01 1.749010933820973612e-01
-6.023943538186590230e-01 -4.882860175067092467e-01 8.018045722061297731e-01
5.578579370380841729e-01 3.640106112813722428e-01 -5.760488052574578299e-01
1.402609979013416941e-01 -6.495077829595404667e-03 -3.417673766257233858e-03
-2.782131112137421480e-01 -2.840267408402125104e-01 5.197949827696213276e-01
-1.404731842394127683e-01 4.591120412866970396e-02 1.034879288859214264e-01
-4.641926054833322435e-01 -3.344788242586581584e-01 4.876956989889815741e-01
-4.997101264417641575e-01 -3.136001593745427751e-01 4.961730662684945004e-01
4.203882947901207284e-02 9.169624549176705330e-02 -2.355652781172203336e-01
2.878379754295097293e-01 1.542108249698164457e-01 -5.291090445222665917e-01
5.709782257696577323e-02 -7.656532588238125492e-02 -9.913702833406184967e-02
-3.925996598099826262e-01 -3.326933693498991262e-01 6.927208513682482360e-01
9.459174010613997929e-02 1.749305745508562271e-01 -2.631758185022753382e-01
1.382547554590962680e-01 1.130605675587561948e-01 -2.901115339534857812e-02
6.361676235688875636e-01 4.948333838457513734e-01 -7.996010579834751386e-01
3.589566177914707001e-01 1.089544018129664643e-01 -3.054332008064873927e-01
-1.043793628847297372e-01 6.400238220084457363e-02 2.577983477819376437e-02
7.126329137953479886e-01 4.977186512232908977e-01 -8.217560261734138116e-01
9.821918118698196032e-02 1.337274376725341475e-02 6.139813202407069098e-02
-2.649309470797819865e-01 -9.716156736939354777e-02 4.626399486035707720e-01
4.046475772236741708e-01 3.494536503278657946e-01 -4.840552274811905087e-01
-1.812016146448539311e-01 -1.036500264115946873e-03 2.729402832357955000e-01
-1.866026300407933880e-01 -3.187293692254862532e-02 6.859242684103956933e-02
4.691670905639694356e-01 3.029645008081546798e-01 -4.539088555946194092e-01
3.783450122859249309e-01 3.551166646426653362e-01 -6.127743472762458010e-01
6.872543773148690471e-01 3.972179309044149287e-01 -7.175322361721523379e-01
5.368490422108260773e-01 4.398151992715016445e-01 -8.486336411345112296e-01
5.523986195977281799e-01 4.624100989673597950e-01 -8.331750597362969080e-01
2.375563928718546769e-01 5.068972541579633284e-02 -3.740359869695685235e-01
3.610008658426943490e-02 7.671771776791724839e-02 7.868362819748621340e-02
-5.166540670271708713e-01 -4.317738229324640797e-01 6.738626039827086966e-01
-6.139374290959491720e-01 -2.409037446331551979e-01 7.373282795241846710e-01
7.179083882911022618e-01 3.440395634170719807e-01 -7.601758549116300889e-01
5.179820924982567742e-01 2.381256524225110194e-01 -7.702749566601595488e-01
2.801362442658545393e-01 6.441310277605710732e-02 -1.983913435506070855e-01
2.188852177816930922e-01 1.578820969191435386e-01 -4.636710832496408474e-01
4.438495343123500803e-01 3.657096629586977787e-01 -5.195227215584220515e-01
4.616634312900073089e-01 1.602145890486825486e-01 -4.575617524307512007e-01
-5.653675580802213219e-01 -3.877944791859335161e-01 6.115960256600849743e-01
-2.918275617460319160e-01 -1.129118991719172405e-01 4.971756700028632237e-01
1.553357542517931622e-01 2.152091707247704988e-01 -2.046571753629947144e-01
-6.837321258277280489e-02 -1.729806859222592919e-01 1.932224004225223113e-01
-6.277790586043041632e-01 -2.979904364155421259e-01 6.473490132694320609e-01
-5.559902327446847314e-01 -3.065219346260884548e-01 5.503290942886110981e-01
-4.976570872422198533e-01 -4.322151234786502094e-01 7.016738618590335763e-01
-1.746008579789652404e-01 -6.106178036619946264e-02 4.776726436769831302e-02
-3.545439048168517737e-01 -2.064280747290266338e-01 6.329871575491268221e-01
-4.369345209581822487e-01 -2.181637049539730533e-01 3.913923365590004644e-01
5.311994231671709477e-01 2.069373504554166687e-01 -7.103266971353052739e-01
1.016502460745424136e-01 1.452162066349090008e-01 -3.080755005498815868e-01
-6.132068143081162992e-01 -2.681820681939077189e-01 6.436042463959996685e-01
6.233879510990267825e-01 2.889930585782020667e-01 -6.349690208302102290e-01
5.653345430448565301e-01 4.468486055519440558e-01 -6.946815659298150036e-01
6.657882176847598199e-01 2.804533727638801599e-01 -8.609622081700906149e-01
-5.217750023681223537e-01 -1.855248677758506992e-01 5.968598194704581861e-01
2.793700254856489318e-01 1.676210974164457079e-01 -1.915186280201746083e-01
-2.674983820132310619e-01 -1.078136824824542511e-01 1.690312099279279445e-01
-3.137618894212050868e-01 -1.225785718139453945e-01 5.210965937031362127e-01
1.859016284307797306e-01 6.757088083079834662e-02 -5.364049953572554846e-02
1.697912404537803011e-01 6.016991639709171752e-02 -3.543891634197595675e-01
-7.008481410295965830e-01 -5.083566927790109657e-01 8.391745902467977469e-01
-2.833393249682189530e-01 -2.383467140015375352e-01 5.610802421078506796e-01
2.952496060374628639e-01 2.989485686993128000e-01 -5.209050856820569564e-01
3.817343753258463646e-01 3.096448327789047550e-01 -6.774454293239693392e-01
1.156437945413208435e-01 1.708652778348954682e-01 -9.772659495120200601e-02
1.488739847135949479e-01 -2.840547732925265134e-02 -4.573594174402750845e-02
-4.332637207996328788e-01 -1.879602129698048074e-01 3.893921511411327918e-01
6.146287887483650181e-01 4.747578256950292230e-01 -7.549115968742061700e-01
-6.969699407051578588e-02 8.859636419027189236e-02 6.640246047578072380e-03
2.677570897769961933e-01 2.773750483534239142e-01 -3.325386973785970923e-01
-2.978062043500685485e-01 -7.506502949188359475e-02 4.338461031463597961e-01
-6.669890213452582817e-01 -2.854116012472008856e-01 7.374355964769719884e-01
2.563270871430608500e-01 4.841169613267989891e-02 -3.705230803356338587e-01
2.670807551426061521e-01 2.921270686692962193e-01 -4.014142591296938622e-01
3.739167502119463693e-01 1.132677757192346868e-01 -5.087034807187691410e-01
-5.406945365740709053e-02 -5.162848864876347366e-02 2.538639871216791244e-01
3.838768388310517254e-01 3.115906002055591206e-01 -6.800029720756244345e-01
4.472515570932899531e-01 2.226728861912054824e-01 -7.121284965194881744e-01
-4.514569819246956328e-01 -3.275262623112584204e-01 7.822882357596321334e-01
4.886190090287826360e-01 2.042037897071947994e-01 -4.602327921707381475e-01
-6.125078473181174710e-01 -5.014860899492188384e-01 9.152587981740846201e-01
-6.529206818288436631e-01 -3.529917925784357702e-01 6.748907692468205655e-01
-7.370340601833121064e-02 9.666307069945465069e-03 2.231861104221855852e-01
1.990724748874364569e-01 7.821983981204323755e-02 -3.930722339819465727e-01
4.706094962291031969e-01 4.065587370801468925e-01 -6.189042404519516927e-01
6.735882663525122327e-01 2.754920674390100577e-01 -8.066693657211289059e-01
-5.873835620893786968e-01 -2.248068088200143033e-01 6.931002828682952810e-01
-8.355490007276282494e-02 -1.763231661956709273e-01 2.414259107818919614e-01
-2.467724206320136282e-01 -2.620274861159994639e-01 4.831867690413942373e-01
-9.295797187930179839e-02 -1.050493993887178928e-01 -3.772490285282291585e-03
4.959281749076815959e-02 -9.943129035784363523e-02 5.193693996146153680e-02
4.015937654839932258e-01 3.743619421950060144e-01 -6.081906099699850854e-01
-1.105234595653751539e-01 1.517393629271220241e-02 -3.069451048900289844e-02
-1.742402409722515755e-01 1.606276866521971422e-02 2.251045336395265661e-01
-2.332364649843867987e-01 -2.710316958790213726e-01 4.215799732327868421e-01
-3.297863370655551019e-01 -1.273525296482267977e-01 2.531575011640939676e-01
3.271615487897356345e-01 2.417717801785088938e-01 -6.096864172726165210e-01
-5.952146820196651221e-03 -1.357244167566945825e-01 1.055659597770820801e-01
-7.434360756562716221e-02 -1.699182909994048640e-01 1.162259474211298493e-01
-2.498410485746050125e-01 -2.244673127571449045e-01 2.320786720992356889e-01
-2.772660197549974281e-01 -7.043464543592908855e-02 1.977261402970844351e-01
-1.888786874015546124e-01 9.313706575105003271e-03 1.236305292004221956e-01
-4.646920924100845229e-01 -1.572744837329329570e-01 5.948615257208446083e-01
3.011805880788318013e-01 1.467839512882608277e-01 -2.063705223739501493e-01
2.037406320006925897e-01 -1.399345551786411240e-03 -2.481973056681149592e-01
-2.851159719274163340e-01 -2.581631832098977841e-01 2.971864972517360703e-01
1.165226456403631039e-01 -5.557383227302818002e-02 -1.282225571832680266e-01
2.473697169043369004e-01 2.182805330719120029e-01 -5.042535966438245199e-01
-7.067848699422826231e-01 -3.130353673290188210e-01 7.826862606915336862e-01
-6.071544331330106514e-01 -4.543351933178220725e-01 7.209221702924745179e-01
1.309387926038051986e-01 2.085566587001610739e-01 -2.131296432969119747e-01
1.268803108164693050e-01 1.993478395273072801e-01 -2.940595854828885747e-01
1.690258559411479400e-01 1.581633675305685327e-02 -3.830933112846971605e-02
6.119519298788433925e-01 4.991412649829015113e-01 -8.369395016681391297e-01
2.740249642749065795e-01 8.055002956233628386e-02 -1.753606300133148665e-01
-5.839102155141304706e-01 -4.725583843467543455e-01 9.144998065046012758e-01
-5.227412046400932155e-01 -4.390205640923753316e-01 8.266037538358069758e-01
-5.891305424331092500e-01 -4.834222004699689768e-01 7.975219934964894453e-01
1.441444890451684668e-01 1.941332259888526035e-01 -1.485787310999609756e-01
-4.556112874932269907e-01 -1.500727769041382831e-01 5.749811909348633288e-01
-1.904807621334467516e-01 1.544931293082984353e-02 1.895860172589528547e-01
-2.792918185290199640e-01 -2.894970055367819262e-01 5.120923804997609130e-01
-2.444137236935925717e-01 -2.389403067773340494e-01 2.531776774862390944e-01
5.869300173717100222e-01 4.818240401851048293e-01 -8.849875239166238305e-01
1.240552977313109755e-02 -1.040099917052253881e-01 -3.964579456962246534e-02
6.292994726449205878e-01 2.523117729697487710e-01 -7.856546005114822817e-01
-3.818086805816761631e-01 -1.657908180026710365e-01 3.198125064571289422e-01
1.736671545336993805e-01 1.038987799006601013e-03 -5.763454150802396758e-02
-2.511376985508128601e-01 -6.294304313153231689e-02 4.053612110676310665e-01
3.510095182879784947e-01 2.283946600410394767e-01 -2.968104185251130289e-01
3.499890723317085617e-01 1.015194614852316657e-01 -2.962605396466423957e-01
1.123533676092624556e-01 7.340630404767051198e-02 2.312529519941474571e-02
-3.500507489893348728e-02 -1.413046476626537429e-01 1.922545975595883472e-01
3.112209354480146017e-01 3.169136479017174990e-01 -4.429565927873068687e-01
7.326589253624048448e-01 4.059364961509444036e-01 -7.713535753945340856e-01
-2.730415557061099396e-01 -2.904583151756816028e-01 4.919152528663194857e-01
1.030564998516241837e-01 4.979383020181486069e-02 4.524649381101303325e-02
4.211581994771713133e-01 1.425087890267986435e-01 -5.722420839738556753e-01
5.136458683729305807e-02 1.407460722920102492e-01 -3.397465074117855810e-02
-2.822996212381653214e-01 -9.147823570011752448e-02 1.933320795059456088e-01
-6.603024389609539746e-01 -2.981242744720074556e-01 9.165154710021516937e-01
-1.055106837668493974e-01 -9.369793633171530356e-03 -4.326320465945277666e-02
-4.951824110355330655e-01 -3.517786275959844389e-01 5.266413448680992149e-01
-6.282238631376299010e-01 -2.833819500608913411e-01 6.574634710389380965e-01
-8.033414787805194524e-02 -1.534732760437902965e-01 2.746426543201322956e-01
1.380924049783481267e-01 1.575223622576358423e-02 -2.834082697389123107e-01
-2.028790446671195902e-01 -2.532206113822710880e-01 3.127635325451211812e-01
-1.643920944416434604e-01 -1.988180104498992254e-02 3.075577917955932827e-01
-2.995641038517312116e-01 -1.344463629816069206e-01 2.113186815105030369e-01
-5.152067200234129452e-01 -2.588206078316150904e-01 8.028886377075014069e-01
-4.171452782253505798e-01 -1.723828728402679034e-01 6.377487213495938168e-01
-3.426170917516798142e-01 -2.505988147031469881e-01 3.174016621099476354e-01
3.754079620334709322e-01 1.299753698827841031e-01 -3.159167794330731693e-01
-2.558567111921996717e-03 1.158075201227097423e-01 -1.363509108159461358e-01
-4.156679015076081840e-01 -1.407717098412783197e-01 3.943979922463985988e-01
3.170146796977239001e-01 1.201750606324460263e-01 -5.124033281549257302e-01
1.433156869691557811e-01 3.740851524276617851e-02 2.596020242634020612e-03
-4.280362973922662712e-02 -1.049242471435277019e-01 -3.053261180152420234e-02
1.799110577897574670e-01 1.941030960062594957e-01 -4.099081753449103638e-01
3.672000353284851637e-01 1.343758238666535321e-01 -5.530425347124613422e-01
2.202160017804903613e-01 1.460482000961130233e-02 -1.396793358642405558e-01
-5.125688633206170186e-01 -4.399168982084553092e-01 7.122204455870904116e-01
-9.583715407395780594e-02 5.536523336078882224e-02 -2.117369778859899687e-02
8.628730019822281050e-02 1.827526130100449731e-01 -1.667387225138401430e-01
3.651716456112234777e-02 1.090183277863732564e-01 -2.209997110688353972e-01
-1.833831416116436797e-01 3.704868681125792970e-03 2.595008950129929493e-01
2.004398031359064247e-01 4.015273632572533002e-02 -3.457090861083845779e-01
-4.684037378629096748e-01 -3.873983703305952098e-01 5.716749518976151911e-01
-3.422611816840488430e-01 -2.404067072506506642e-01 3.073730713864141206e-01
-5.629636755385317715e-01 -3.028265509900239238e-01 8.815566836864991984e-01
1.943687255518961876e-01 2.394431786984830279e-01 -2.579657481591391410e-01
4.903661521911267807e-01 4.038635505091450750e-01 -6.021185746611511513e-01
-5.314486530533305553e-01 -2.551995251155773081e-01 8.073358355801394382e-01
-5.885657238428487759e-01 -2.291411814844657446e-01 6.616681683250476009e-01
5.648535148271739414e-01 4.493186259381008463e-01 -8.962250390539013845e-01
-5.261191868859945719e-01 -2.799265827343809243e-01 8.327076307291468860e-01
3.088981023006275861e-01 2.819512273569537708e-01 -3.387915031197224480e-01
1.255334389278074669e-01 1.850926716102335168e-01 -1.296607073508282970e-01
5.255112477584761299e-01 1.892992337376826484e-01 -5.702493649052261526e-01
2.471417938222660871e-01 1.612720808316653875e-01 -4.953159072716686318e-01
5.913153983427118510e-01 2.855943059908330750e-01 -5.864822570710495064e-01
-6.487304274614156263e-01 -3.599071174997559019e-01 9.988166415465673520e-01
4.054898195846370901e-01 2.010884307691084005e-01 -3.414833180703390481e-01
-3.605251907987928606e-01 -1.421809378617040209e-01 2.946197996650151696e-01
-2.003969347423985303e-01 -5.062336166173913438e-02 8.314048201459714460e-02
-2.505180975136486743e-01 -1.234997163875049264e-01 4.813422943246934427e-01
7.131062768812949093e-01 3.001068740510574040e-01 -8.715313430436877340e-01
5.286324698914164344e-01 3.582815642039781645e-01 -8.728615999565195738e-01
4.773853154063590343e-01 3.573930591284493197e-01 -5.164682130478029931e-01
-3.918562836395462212e-01 -2.379101288164046368e-01 6.874537411968653089e-01
-4.010126412733160395e-01 -2.016276339172369536e-01 3.449278828937630825e-01
2.648281218936624493e-01 2.744274227979436875e-01 -4.930406540610017818e-01
2.242119970790476535e-01 1.944040716894898935e-01 -4.752373059876814909e-01
7.647314245116716425e-01 3.388988042392488964e-01 -8.668679250312499862e-01
-4.724159940466507446e-01 -1.992520072391043562e-01 4.460837460113560859e-01
9.908839879228505121e-02 4.682311109313164882e-02 5.070849312361784544e-02
1.814739587632225037e-01 1.871125558206671868e-01 -4.154209083614988085e-01
-4.067184083223450708e-01 -1.478071740692077363e-01 3.683253543216578607e-01
-5.991087679543493083e-01 -2.800794995613736238e-01 8.720776126659366412e-01
-5.275195552730416876e-02 9.491863541084047395e-02 4.254914648086562806e-02
3.316195957861031718e-01 9.142525419782508711e-02 -2.708202240840463237e-01
1.874133431740569455e-01 -9.506161627401305339e-03 -1.062558396524425075e-01
7.154295558390563192e-01 3.285284453514150105e-01 -7.685340853419404539e-01
-2.186429266887404965e-01 -2.524033642995881510e-01 2.872364998424535298e-01
-6.366606358508102304e-01 -3.481107284916318823e-01 9.787494631971747072e-01
6.478934938048355185e-01 5.202694565080189237e-01 -8.799498559775627005e-01
2.706902194131916017e-01 2.497007951971572937e-01 -2.722917084794405640e-01
1.070653759772688118e-01 1.830082243876303139e-01 -1.312429204337799693e-01
-9.823706684437343364e-03 8.236427743270365032e-02 -1.594410156523233257e-01
-3.839671318084755813e-02 -1.486642637835426384e-01 1.831586488411081903e-01
6.410328852238146302e-01 2.797217981064094028e-01 -8.703843396357141549e-01
-2.377552543528457796e-01 -1.507336805717293150e-02 2.715550808056094167e-01
6.343541165419779304e-01 4.499361342768435357e-01 -7.187086618924423131e-01
-4.273535019761234843e-01 -2.371567518977905076e-01 7.185353484006852254e-01
-2.156656195384962227e-01 -2.620015551083442751e-01 3.882748592725215331e-01
5.006193752218319748e-01 1.756314134207013766e-01 -6.241259119078595985e-01
3.010549501443743892e-01 5.071948815084365014e-02 -3.352981377642313965e-01
1.779292883269258385e-01 2.381947319684425690e-01 -3.239880930196165076e-01
3.625424592250412470e-01 3.285866442985216351e-01 -4.399312065225821633e-01
3.981672430432882659e-01 3.502030165029012543e-01 -4.866874855205792216e-01
-1.832742978521862964e-01 -2.364960502751211613e-01 3.729309945296856998e-01
3.056988135353697067e-01 6.090341975347849518e-02 -2.647284967675026524e-01
-4.534618057840676952e-01 -3.452560504168052380e-01 4.952846243465014453e-01
5.116637828350447670e-01 1.881564725029290508e-01 -6.629969579675182301e-01
4.392593862155008133e-01 3.900169191765428534e-01 -5.875656019588443302e-01
3.647566386463446664e-01 1.231053607463734739e-01 -5.318276056815142150e-01
6.322123638476767615e-01 2.984858610597412865e-01 -6.443726865695822426e-01
5.062058000900245824e-01 2.969169934978511116e-01 -8.227694092561902428e-01
4.641371883736490622e-02 1.588012640012684551e-01 -1.173758155785262491e-01
6.595039908819428920e-01 4.765473282286153967e-01 -7.677924459235253574e-01
-1.088062783294414665e-01 -1.560921035213798033e-02 -3.888208813210592557e-02
4.045341193425705528e-01 3.763462525483819432e-01 -5.992540668451284969e-01
4.963319231114592944e-01 1.729833439301326214e-01 -5.260570231829020393e-01
-2.063598304282140139e-01 -1.789027028568902083e-02 3.098484355363130271e-01
2.134652095323498755e-01 2.058843706164601994e-01 -4.575651789310584694e-01
3.211633508585876595e-01 8.889240341862834904e-02 -2.525812214473600048e-01
-7.401303218074282986e-02 -1.748891266006752654e-01 1.422421202542250296e-01
9.153560889405992773e-02 1.667461494260045682e-02 -2.557162249763558215e-01
3.937669037213118450e-01 3.036821806980475325e-01 -6.967275183660391891e-01
-2.996017495048629575e-01 -6.615265447287102529e-02 2.492572241788969800e-01
-1.545462326846234191e-01 1.883219927748544173e-02 5.424111032136646332e-02
-3.711450345005598006e-01 -1.261533851051255817e-01 5.444591437046804039e-01
5.515403361648198999e-01 2.245293773358775502e-01 -5.592668867582242243e-01
-3.315256022998063767e-01 -2.334252313311377947e-01 6.220478442211799797e-01
-5.679251068460675761e-02 6.865544197489234501e-02 1.232872957149862975e-01
6.714304150415453809e-02 3.513586079582105282e-02 -2.501325877742481829e-01
3.010080839482514592e-01 5.824603476435175758e-02 -3.784985475176358416e-01
-4.143529676942254714e-01 -1.754170222169646465e-01 3.649574507330785034e-01
-3.221973323780609189e-01 -2.568957633717285360e-01 3.116901032162945895e-01
4.302871140810830553e-01 2.429121945085239154e-01 -3.813347293977658037e-01
4.465809531287946998e-01 1.785840495352478685e-01 -4.052316200499576637e-01
-3.400742929688810312e-01 -9.810017357487951783e-02 4.830902361513443877e-01
5.537495585201056558e-01 2.376405760537551037e-01 -7.795194406077091687e-01
-5.002135961087736393e-02 -7.470798044478584032e-02 -6.460658226828021322e-02
-7.185453394360612478e-01 -4.267578063852826564e-01 7.716208397134586283e-01
4.268135127578007171e-01 2.347182386091970496e-01 -3.744515764246539313e-01
-4.924933589148394186e-01 -2.193832870649391475e-01 7.385985449993214269e-01
2.067519242343726082e-01 6.564820179942418288e-02 -3.839932553102770596e-01
1.355780632273471398e-01 -4.792474845525604432e-02 -1.320833452026381749e-01
-5.234102173414278969e-02 -1.538543703020236464e-01 7.692579936656608608e-02
3.380448448952561025e-01 1.623927961595987013e-01 -5.751582635064604876e-01
5.712280776542639771e-01 2.136381424723808597e-01 -6.573932224836899207e-01
-3.603388323896187240e-01 -3.475023134156076110e-01 5.117549518758492955e-01
-3.523148264207600633e-01 -2.458152497089285682e-01 3.199330601098608340e-01
2.292971598423068635e-01 7.515278469558331689e-03 -2.441074674246544174e-01
4.323462028062848850e-01 1.359276946350497783e-01 -5.426035550068816216e-01
-3.775655573859373337e-01 -1.326647163773275184e-01 5.581482145131890782e-01
-5.409612351431208888e-01 -3.475594426249177249e-01 5.567101268244060153e-01
1.908946629100484738e-01 1.405423536126307882e-01 -9.420716064030414116e-02
3.607911489677123607e-01 3.327988836101505310e-01 -4.516955455854418933e-01
5.985105441004293647e-01 3.787114617074097689e-01 -9.577860601388482609e-01
-1.793497475218921167e-01 2.187747798278671246e-02 1.800001949088997355e-01
1.200447134832961643e-01 1.321640201437922768e-01 -3.386547409716786361e-01
-4.471037725882099911e-01 -3.593712905053846884e-01 5.146117085452367457e-01
-4.271665180730064293e-01 -1.377699714833306999e-01 5.586431041870753011e-01
-1.834815017585209040e-01 1.969691835519754228e-02 1.567326675697586769e-01
-3.321051040541286303e-01 -1.955091927361609083e-01 6.053417412612057680e-01
5.541391773340182958e-01 2.937086709785855509e-01 -5.366619851043965550e-01
-5.750125246925771316e-01 -4.655436606152238976e-01 9.059049729790348282e-01
-1.282160162825001122e-02 1.005628683441364968e-01 -1.374479278357245426e-01
-6.687218154019167748e-01 -3.882214626095142340e-01 7.025922921761069695e-01
5.880136509970119718e-01 2.469746002316813016e-01 -7.994047390864800207e-01
-7.473370740679077251e-01 -3.228468187647700050e-01 9.303409506592835720e-01
2.342044323703419972e-01 1.042286499198864617e-02 -2.030306868782709995e-01
3.270350753430849022e-01 3.039794071183443136e-01 -3.859322420801340470e-01
-6.750045329861997789e-01 -2.868470217999411487e-01 8.792325015041917435e-01
-3.188259072666990157e-01 -6.856606675713562693e-02 2.967315669200501493e-01
5.527788716701236282e-01 3.067328536088689273e-01 -8.697989580654382769e-01
-3.927325446740930759e-01 -1.536187248859849364e-01 5.993078112909838717e-01
-4.902605049483264588e-01 -4.136494528771803569e-01 6.328308161651264863e-01
-4.010060464621287984e-02 1.620877751813623591e-02 -1.279400439753956009e-01
-4.866123175971489578e-01 -3.738331376825899666e-01 8.243240298920854192e-01
-7.788804808762482823e-01 -4.421672951884790259e-01 8.425982540388649022e-01
-2.175251067366739399e-01 -4.982209151216175635e-02 1.094709120167003114e-01
4.049392934219984141e-01 3.411262857945288607e-01 -6.979010091492277024e-01
6.479699291643201131e-02 -4.155981236610438445e-02 -1.687060828608658858e-01
3.405613568464511687e-01 1.394601616563384550e-01 -5.501010787115420131e-01
-3.308786883555085434e-01 -6.944073464731946588e-02 3.691248498789597710e-01
-4.468652915404978110e-01 -3.052873409064850718e-01 4.458220226951754017e-01
7.101388317055019536e-03 9.666635064899457841e-02 -1.790117586295971175e-01
-5.783206690785879234e-01 -3.244069231392858743e-01 5.808624336263306098e-01
-6.009984235230304561e-01 -3.773582445851698663e-01 6.305578884168318021e-01
4.664730553562406734e-01 4.106304247258311113e-01 -6.440542420866945950e-01
7.632557023033034183e-01 3.537907430909584261e-01 -8.355199646250988099e-01
3.374551511781230251e-01 2.670386338482031996e-01 -6.232783875174425781e-01
-7.845963361555803317e-01 -3.580598327502572120e-01 8.887021367527817572e-01
3.481502859093488222e-01 2.273193266641181376e-01 -2.935533587130541022e-01
-6.538100023138924133e-01 -4.740230401143746830e-01 7.684426633058949463e-01
1.256239374911660434e-01 4.144106213773389447e-02 2.346486449254515938e-02
4.294391283618909649e-01 2.878870532464389287e-01 -4.092011035320519130e-01
-1.975290634009287949e-01 2.524993701410194798e-03 1.304916328273768023e-01
-3.487471206033510573e-01 -1.774978421576722531e-01 6.050978473794514922e-01
-4.107243165125815665e-01 -3.765997310294243450e-01 5.699309092640524321e-01
-1.017893896463674674e-01 -3.880788767067098327e-02 -4.261441067725740828e-02
-1.035105378102344070e-01 6.819777671756202531e-02 5.259796982691507250e-02
3.539866436825778867e-02 1.390872773323297840e-01 -3.574382887455066632e-02
5.974435492170359074e-01 4.884708626321997982e-01 -8.070100821033918681e-01
-4.636065223061079377e-01 -2.241846310572453704e-01 4.261083685568283763e-01
3.533402273078941058e-01 3.028597068115016500e-01 -6.351499172327642606e-01
-6.563701450154441064e-01 -4.620936667589410352e-01 7.530470334657233256e-01
-4.600438143170193506e-01 -1.905739437316492924e-01 4.305513063151608089e-01
4.061914352378634963e-01 1.166499412025391452e-01 -4.905100394410429887e-01
-5.075335165481303923e-01 -3.045949251935469171e-01 4.980245890660665586e-01
-2.450122822157706493e-01 -2.346285542437451521e-01 2.459056308419311776e-01
-2.740861836151369246e-01 -2.953587962722523108e-01 4.772832481075451327e-01
-2.009130293188622352e-01 -2.169625949121813391e-01 2.042182106150880472e-01
4.246879427518470695e-01 1.302525713445234767e-01 -4.295437901279123838e-01
-7.677901157859001735e-01 -3.845461474013941450e-01 8.300844639408894166e-01
-3.458437521577249485e-01 -2.108968056686373327e-01 6.276561926060097996e-01
-4.010857870701283190e-01 -1.265481316295071490e-01 5.397934077601276304e-01
5.533558760458522352e-01 2.300316473652857796e-01 -7.634848747557585469e-01
5.780262287362619711e-01 2.378058246670715636e-01 -5.977962609055962329e-01
-3.967535251379590289e-01 -3.602616302149856398e-01 6.669278221196814904e-01
3.914164418673469759e-01 3.143000354025020093e-01 -4.167770657725015093e-01
3.436865109409953378e-01 3.315732931905723269e-01 -4.601153061124568788e-01
1.041076025904309338e-01 1.210884956204577867e-01 -3.178638523645371805e-01
-4.932440172733978945e-01 -1.970867120963968600e-01 6.980153049759197925e-01
6.496250412664660301e-01 3.523453521810583911e-01 -6.619281141450166217e-01
-1.105362292048726464e-01 3.225014011597092389e-02 2.019441344356542045e-01
9.314588084804287238e-02 3.795491010026220968e-02 -2.752725106775697483e-01
-3.014771815237936581e-01 -3.119490725409797549e-01 4.353192941217953749e-01
2.907621090635977845e-01 2.873392794986040499e-01 -5.314364965166067378e-01
3.494538059805158969e-01 1.581390157890542603e-01 -2.673723530483222977e-01
3.051163398331158128e-01 2.515644426268880962e-01 -5.802703067524258573e-01
-4.566028882056540339e-01 -1.695055058469462916e-01 4.427240391777643169e-01
6.616760731633300474e-02 -8.910735105102574050e-02 3.159481987754253485e-02
-3.581834699907882613e-01 -3.495802345873686434e-01 5.397566675728929786e-01
3.392411602607443566e-01 2.362506598549923287e-01 -2.936524201354165364e-01
2.041734917537815497e-01 1.501592410062311533e-01 -1.129338622732163760e-01
-3.135371593895532327e-01 -3.050876744092119730e-01 5.666634386716815630e-01
2.897885215293352079e-01 3.015827189033366551e-01 -4.962061788609079538e-01
6.441462594794751528e-02 -8.996535294254040527e-02 -4.566021419713096885e-02
1.560856190190131887e-01 3.398996401343579946e-03 -2.710426014670204165e-01
-3.804456508269832282e-01 -3.632337746180472893e-01 5.730778379441139325e-01
4.168297568790390595e-01 1.211594427959823833e-01 -4.418533023197656062e-01
6.538931996664270052e-01 4.958211129573738551e-01 -8.005409717750351373e-01
-2.148770457856915561e-01 -1.119943580983100290e-01 1.073192633500761467e-01
3.149803696893978544e-01 6.745992374598915042e-02 -3.997092974965101853e-01
-2.253313166232903397e-01 -1.065303898972813114e-02 2.738588770905810987e-01
-4.559108739321821591e-01 -3.518724154656857617e-01 5.057876067304806211e-01
5.745902784942771291e-01 4.718276959174730334e-01 -8.774635968483719406e-01
-3.153535380929762266e-01 -5.996371428698465261e-02 3.464020893541136514e-01
-6.163830319453523776e-01 -4.850970448835579818e-01 7.844974815545019409e-01
-3.020742093328574462e-01 -1.110351170243766283e-01 4.995609636507785112e-01
5.495502931168153582e-01 3.279992410315629159e-01 -8.826851624162479482e-01
-3.333764734574192201e-01 -1.000498428741643658e-01 4.881635333845144031e-01
4.694489715633617943e-01 4.122642357176325434e-01 -7.238597922444610644e-01
1.356026073041141089e-01 1.062426031713907815e-01 -3.541388361466384915e-01
4.267555555434323494e-02 1.276258910335301144e-01 -2.177154969571956367e-01
-2.446505559036129540e-01 -2.593498023370888750e-01 4.823762672483627445e-01
-5.188495248310915492e-02 -1.387060170829641781e-01 3.418946379922134515e-02
1.463400259385881641e-02 7.295385913043929416e-02 -1.999904202105646234e-01
-5.774921456728278057e-01 -4.240940132822481612e-01 6.630103120617570900e-01
-3.045551747227704179e-02 -7.838170987831552528e-02 2.303949180532741670e-01
5.627604816699872670e-01 2.084440780881851307e-01 -6.651582642939281032e-01
3.785999434237152239e-01 3.297720737102382005e-01 -6.593691770763038251e-01
-4.762831086036591888e-01 -3.629493830273337607e-01 8.122720785071761984e-01
2.919715618299499257e-02 1.486651944546206472e-01 -1.204645721085283033e-01
-3.431062658321583636e-01 -3.332820545773861332e-01 5.826382469800155395e-01
-1.119780438147311569e-02 -1.366991538783913183e-02 1.921363748938434979e-01
-1.414523092307989893e-01 -2.091282570698330123e-01 3.239072543849508268e-01
-2.873090390229646185e-01 -2.917936961285418351e-01 5.277340090601143618e-01
-1.970514974890065774e-01 -1.937781011544652265e-01 1.647596102797908024e-01
-2.553946606829507471e-01 -2.664614106571188135e-01 3.117329317436718927e-01
4.123614250339502352e-02 1.196860506924151135e-01 1.210748268425495405e-02
1.271598888287008566e-01 -4.924224216436780960e-02 -3.675131036599670054e-02
5.010098352409640965e-01 3.160622193507723887e-01 -8.284584423334847569e-01
3.605595723540360731e-01 8.948498499072513046e-02 -3.533538503005989040e-01
1.870253935529727352e-01 -1.548433273122730956e-02 -1.250162262796361279e-01
-2.126039613555192609e-01 -9.079325696400984691e-02 4.226697848941342595e-01
-7.428046821087560536e-01 -3.919478387453200208e-01 7.920926877892461304e-01
6.483483530720989263e-01 3.758934106212374338e-01 -6.674677419667498501e-01
-6.033300796331199090e-01 -3.421729266337388276e-01 9.478418747811586664e-01
-7.589944010251299666e-02 -1.531508895778904700e-01 2.661952437656970871e-01
2.130394529498298717e-01 2.481196583821257406e-01 -4.154445272958670610e-01
-4.760836803474386425e-01 -3.215671337291942655e-01 8.116417474967572154e-01
2.764344883733168001e-01 1.123401864379395126e-01 -1.716599127303904404e-01
-6.417817223916686409e-01 -2.926302606166739650e-01 6.743753992137754283e-01
2.616522817957201985e-01 1.099133982919281854e-01 -1.525534321138137528e-01
3.475953850919810684e-01 1.878334972365017230e-01 -2.710319121602021153e-01
-4.991689217265502521e-01 -4.192543314283445621e-01 6.451109775371192123e-01
-2.401134919387351019e-01 -4.338863262114321662e-02 3.656267997373083278e-01
1.507203267617616693e-01 1.188195883512109668e-01 -4.378283833631746447e-02
-4.963982715130082352e-02 -1.421620315383873845e-01 2.254055941772615812e-01
4.737911449275997167e-01 3.970255296038374682e-01 -5.883084419591845249e-01
2.814393572290488366e-01 6.383261025406290756e-02 -2.016297007145455011e-01
-7.407078237966850942e-01 -3.179987801166430650e-01 8.869612778253671559e-01
-2.743684180246822035e-01 -1.792905243575684537e-01 2.023983946890194341e-01
-1.015865119059334160e-01 -1.919145961295899983e-01 1.805800577380123617e-01
4.118823925098174521e-01 2.673624206266843051e-01 -3.781526466924043373e-01
1.459882870376564001e-01 1.372453469946085039e-02 -3.387003933444139234e-03
-1.418963776093761509e-01 3.607796231927477143e-03 1.443309628882967315e-02
4.202892082761538473e-01 3.435340269143344338e-01 -7.228301542677115776e-01
-6.777172423184212313e-01 -3.179171553332841849e-01 9.579606315931867844e-01
3.216350467546166270e-01 3.217163886680270424e-01 -5.345735458874701918e-01
6.160129377772617376e-01 2.677157066106752303e-01 -6.388530627756389135e-01
3.710026008377000362e-01 2.442829984275356470e-01 -6.609945005565206477e-01
5.583449905164398208e-01 3.551817823250883466e-01 -5.693899653746559153e-01
-6.837262121874937426e-02 -1.723870438844070374e-01 1.416589298195880808e-01
-2.771592984188782638e-01 -5.573633467623798771e-02 3.897330205643046996e-01
7.024732511534840240e-01 4.777916577595261449e-01 -7.914436233560123712e-01
-5.026867475206585334e-02 1.004836128639350207e-01 4.588957630901535287e-03
-1.469340603461414263e-01 -6.346463180179290342e-02 3.479349742723283900e-01
-8.778300395251238675e-02 5.569316334975909361e-02 1.502190197682114758e-01
-1.341891261191418237e-02 1.118286394309027515e-01 2.048247064183976798e-02
-6.108100688666499856e-02 -3.405611783865566261e-02 2.519066503851968841e-01
-1.357572630288531867e-01 -1.489379488081253033e-01 3.676578824854494498e-01
-4.230507842623072445e-01 -3.303768578582525484e-01 4.604274768434172826e-01
-4.709228952669645141e-01 -1.784758647752146821e-01 4.611294797592167538e-01
5.891528812820072680e-01 2.743984874310435029e-01 -5.870259852827359737e-01
-3.424190634749270101e-01 -2.589265908668897942e-01 3.261275617343147859e-01
-9.267056266265009945e-02 1.517237174774287850e-02 2.261130191580379700e-01
-1.308586127179060532e-01 -4.140546974292698412e-02 3.156843075680726973e-01
-4.663246882980699448e-01 -2.495031239095053810e-01 7.598873897540356914e-01
-3.781675862142538924e-01 -1.036707533854252516e-01 3.774953242464408332e-01
-5.707320459001947732e-01 -2.198792028947915977e-01 7.260594139371268074e-01
1.372720291602197162e-01 -1.134648008809895081e-02 -1.550113567248784067e-03
-9.552893132131724807e-02 -1.447049320068085898e-01 5.111473503832950072e-02
-8.845776995417312105e-02 -3.663157211986000500e-02 -5.786257184030466766e-02
-8.708741522840599686e-03 7.153082761560274061e-02 -1.662878999394387103e-01
3.251741931242174699e-01 2.288495536496524263e-01 -6.048612509189140729e-01
-5.912458552959514169e-01 -4.885030363360697292e-01 8.212065603194447228e-01
-6.252510989620281290e-01 -4.747131453377742005e-01 7.614727130775554853e-01
4.958406055383173805e-01 3.669896934725127569e-01 -8.302578701306922992e-01
4.886164738574750310e-01 2.907774603160059868e-01 -4.637277644732810122e-01
-3.337715413701287104e-01 -7.656421548036504432e-02 4.169339792612186679e-01
3.064784738867253333e-01 2.409522136726914565e-01 -2.761151947578728838e-01
2.456060826046613244e-01 8.478976476711740096e-02 -1.317830841636646322e-01
-4.680161929847606039e-01 -3.812062588579004929e-01 5.588587850368640364e-01
-7.702389963969401288e-02 7.922763010580086140e-02 -1.569232954139140185e-02
-4.612216132355273501e-01 -2.197949919433155319e-01 4.231636536065345178e-01
-5.090285320351689569e-01 -4.330185215944373778e-01 6.845704597742062747e-01
-2.930565736632702034e-01 -2.255257508337911443e-01 5.743732382846856721e-01
-4.737537563508869010e-01 -4.173810906360995721e-01 6.677939544458337817e-01
-6.040405648783859771e-01 -4.832760207797402452e-01 9.436927179947964817e-01
-7.730197466387995764e-01 -3.778282966023189249e-01 8.422336311384818197e-01
9.153860365006376287e-02 1.769958678352447357e-01 -2.502392044627215206e-01
5.172812392134494841e-01 4.381364429969639707e-01 -7.990454814029985808e-01
-4.157659918373623475e-01 -3.523173518534362114e-01 7.185830416750295102e-01
-4.311111099655771106e-01 -1.312509707764548117e-01 4.707755531244866565e-01
5.977917634727202278e-01 4.681718386309409730e-01 -7.410313814115351283e-01
3.265027290638695262e-02 1.027080673277684791e-01 -2.179781322270251120e-01
-5.312360961824679206e-01 -2.415028723876969652e-01 7.872391161705218909e-01
2.781037704961092372e-01 2.126243414433949264e-01 -5.454623176119435257e-01
-1.435794295421140010e-01 -1.523373659468081343e-01 3.781093614414921533e-01
1.431418382132045863e-01 2.157199775785562379e-01 -2.895221729574842806e-01
-5.178731649101910861e-01 -4.395364842856572807e-01 8.106139394977259771e-01
6.751117494964542498e-01 4.116775192824246310e-01 -7.126744083261168372e-01
3.128063993483848337e-01 1.843826369859729586e-01 -5.723241806855864366e-01
-3.275777949388317123e-01 -2.371941360001515453e-01 6.182884233857778300e-01
-3.793706939835358311e-02 -1.433313789370434244e-01 5.185928126466745475e-02
-3.720300812509697019e-01 -1.294207424077707669e-01 3.206293849697597897e-01
3.869879052778519846e-01 2.356399287624908190e-01 -3.342002026974205675e-01
3.728975009588907097e-02 1.385551693178025956e-01 -3.301939729415331870e-02
1.995881560780146113e-01 7.489859909316363973e-02 -7.146417592648345030e-02
3.215215647863808313e-01 3.204860884594708526e-01 -5.390289465993335360e-01
-2.122728720002564351e-01 -1.583774894236578482e-02 3.031220299520298034e-01
2.800762995181760306e-01 7.444656444350243596e-02 -1.892503333669480203e-01
4.952827416555649065e-01 1.887904430724173521e-01 -4.877459877410238454e-01
-2.436243399871482196e-01 -2.248986912767891866e-01 5.064525901105743078e-01
-6.787325986079865148e-01 -3.666298042014764502e-01 7.084765091764108069e-01
2.489850515216810167e-01 1.992277486102468909e-01 -5.076883182092728486e-01
4.271064137571976560e-01 1.786654778371421504e-01 -6.445620066545340032e-01
-2.983582288393333282e-01 -6.329737308142308061e-02 4.020525153618265124e-01
-4.445339419578780982e-01 -2.182762031638084965e-01 4.010860773360028775e-01
5.437003816409504697e-01 1.970222388485157461e-01 -6.200200659960938276e-01
2.941513307980916925e-01 1.573659929439024663e-01 -5.368628678146358801e-01
4.948009084998399865e-01 1.839302107610963632e-01 -6.599340368318586947e-01
-2.375926317302304580e-01 -1.141169941464205140e-01 4.630397130695725894e-01
-2.940662907003118165e-01 -4.778777500271265410e-02 2.952319625967256278e-01
-4.446655424995373251e-01 -3.411368784911364971e-01 4.854390721531371411e-01
-2.001394850006758541e-01 -2.177515924229871114e-01 2.056120151736242352e-01
5.087223215608638327e-01 3.349757718810900675e-01 -8.439805370188455669e-01
-1.380342576834424524e-03 -2.589451025392148706e-02 1.871163356242300513e-01
-2.155794967864319289e-01 5.617401158819892515e-04 2.113797151877916947e-01
-6.834598993109449738e-01 -5.065591308578011320e-01 8.313632374060009322e-01
6.229390905903372522e-01 3.189945159693791665e-01 -9.308061268638513353e-01
-1.079528993362707939e-01 -8.362127871949238955e-02 -1.193885948836040205e-02
3.256150803584220155e-01 1.658054838698159450e-01 -5.692419105441458571e-01
-2.673657078368603113e-01 -6.565692640268482039e-02 4.132804366849009425e-01
1.641661509124882345e-01 2.296461961535076757e-01 -2.653049787075846266e-01
-1.993431710442387234e-02 -7.379828083192556398e-02 -8.434765834546172070e-02
5.989050855266759843e-01 4.696531556762795212e-01 -9.412228200265037037e-01
-4.649896949328869988e-01 -3.095398370269157318e-01 4.636231246576271170e-01
-5.695314599630841856e-01 -2.202091707831824174e-01 7.295596977490999002e-01
-3.428944168424212791e-01 -7.659566839570858265e-02 3.785354668226598163e-01
9.015172719111821942e-02 -6.971488972829460729e-02 -1.014504019698599518e-01
3.187373236361958351e-01 6.053090084921557840e-02 -3.286348161285926883e-01
-7.658453252388132126e-01 -3.570698687402283356e-01 8.478160799356599941e-01
-6.723471025045051341e-01 -3.008905366349581834e-01 7.246871489692661150e-01
-2.748557989654618755e-02 -8.753287572491727508e-02 -6.239765815814859312e-02
-5.648867096758780626e-01 -2.884412231857604314e-01 8.674324257588948983e-01
-4.449340541263530069e-02 2.637775028544011788e-02 1.860579213732269921e-01
-4.300283127084855161e-01 -2.363151792991591837e-01 7.200293440136156242e-01
3.902375333099824539e-01 3.517431852535647385e-01 -4.934770146245248679e-01
4.246801273838333723e-01 1.297869820023505594e-01 -5.254954898129234886e-01
7.191810329710685012e-02 1.641473960575760282e-01 -2.269205290255834895e-01
4.987634794323354548e-01 2.001741206236808679e-01 -4.815847084591760585e-01
1.517407712271907072e-01 -3.752550855226339382e-02 -1.572054392935150202e-01
-6.686202003007428729e-01 -3.110065939207115049e-01 7.078988801011372178e-01
4.390013187235605185e-01 1.864805836910975456e-01 -6.610865760064564833e-01
-4.121507764447744915e-01 -1.961890511602778497e-01 6.676202305096838874e-01
-2.211003982359577638e-02 -4.064902518041350714e-03 1.966989602695179973e-01
-5.907076306761280815e-01 -4.053664775224347094e-01 9.644174688583173616e-01
-2.331545423639819550e-02 -1.459856372181791984e-01 9.123797515077321230e-02
2.951422525826699061e-01 3.100364812510679191e-01 -4.629319018673175301e-01
-1.193048490874804579e-01 -1.917500153611892133e-01 3.040812129887819348e-01
-2.388341284535267783e-01 -2.307404215421415550e-01 4.965380140391957298e-01
-3.874899272479713774e-01 -3.588757452283881100e-01 5.233402739707623263e-01
-4.829165410767455868e-01 -2.918338422347169225e-01 8.060507431456830352e-01
-1.396230320564426086e-01 -1.631956892349575305e-01 9.574274538274295254e-02
-2.389938050039996653e-01 -4.059462031309867686e-02 1.540465347085776260e-01
-1.462336291094112062e-01 4.168504459637414894e-02 1.398527626772637922e-01
-2.741534422697327611e-01 -9.694904203950800714e-02 1.794209199784335962e-01
-4.923780560872629830e-01 -4.224910216819901532e-01 6.610035990996965261e-01
1.561002163199278758e-01 6.533702956343264735e-03 -2.214470092743880958e-02
-5.330656414714625146e-01 -3.964045482473813053e-01 6.036884473281449726e-01
-1.695275226572461325e-01 5.853786458558401899e-03 6.826671631580776001e-02
-7.022502451810520574e-01 -4.138555006279570625e-01 7.488314908903959122e-01
-4.419886096431813738e-01 -3.865012849229900738e-01 5.759341981537660082e-01
-5.318614542530312184e-01 -2.089261906955604264e-01 5.501874078206259178e-01
7.306140112967823841e-01 3.109195931424525994e-01 -8.969142264789488062e-01
-4.315827499386872823e-01 -1.644869477956504844e-01 3.995191797582307580e-01
3.328251241647366965e-01 3.325348895732218035e-01 -5.208865122154152649e-01
6.805572010298160945e-01 4.190552189867235433e-01 -7.223929286959502871e-01
6.121248841800355084e-02 5.281683675368881170e-03 1.071481808483220055e-01
5.624042526203518744e-01 4.720405256589479959e-01 -8.091415888770674414e-01
-1.904011628314983551e-01 -5.042250537679569128e-02 3.629076714995504993e-01
-7.629113602425744434e-01 -3.548816952075903863e-01 8.444832985843002682e-01
1.637149840295269443e-01 4.163653469083904851e-02 -2.396999030345436932e-02
5.336816270534411322e-01 4.461779912734932241e-01 -7.069407919478259972e-01
4.114199922427814182e-01 2.367529014471089488e-01 -6.966870660160616735e-01
-1.862634286371163683e-01 -1.198382746802161836e-01 4.216121757672769421e-01
2.907020822934450743e-01 2.671588721083526519e-01 -3.078851453835982910e-01
1.193528877545371736e-01 2.029444214070573460e-01 -2.121081534297332705e-01
-4.720569574231908150e-01 -2.510906073114823056e-01 7.656412550330351507e-01
-5.567347973600075273e-01 -4.667165417452461829e-01 7.703099486070471569e-01
-2.702886824101210506e-01 -4.602685403696178679e-02 3.644364572450447537e-01
-6.780101998468205382e-01 -4.122675750750563473e-01 7.239126900971645240e-01
1.377536689406810011e-01 2.093977156342921031e-01 -2.020549463552107072e-01
-1.312198525599133359e-01 -2.024626796602843615e-01 3.117044754100491977e-01
-5.414214898166825884e-01 -3.013248342033170157e-01 8.639151218725679149e-01
-6.282485744990323751e-01 -2.568220651867911819e-01 6.998705514369428782e-01
-5.431966704273331059e-01 -4.072078803542519276e-01 8.988071020251513499e-01
3.096102144526352018e-01 1.070598711735584324e-01 -2.198061962990640050e-01
-1.669862156915244422e-01 -2.318317822665131589e-01 2.683882543377011376e-01
6.596433253305812594e-02 1.539680324448218784e-01 -2.323189956056387617e-01
4.193830582959122144e-01 1.619531999538505185e-01 -3.696831577869772456e-01
1.604165331498309532e-01 3.559197139241862540e-02 -3.208279524283512707e-01
3.476949891029815221e-01 1.978045639126110866e-01 -2.752570777044171524e-01
-4.999242753556545349e-01 -3.577537322126259078e-01 5.363830346723008624e-01
5.249718538457608386e-01 3.848226694885307775e-01 -8.684041619469259343e-01
-1.764251770752796045e-01 -1.319419346045342112e-01 8.316534683831285080e-02
-5.578528747398866505e-01 -4.171413021119216302e-01 9.176412264042806965e-01
3.170039410296102700e-01 1.763533160162931990e-01 -2.337555824108769331e-01
6.606122274866814414e-02 -8.546857545243811971e-02 -6.509965293078115445e-02
1.850933855178827081e-01 8.278199849784895203e-02 -5.589368658066947576e-02
-2.465063854561563572e-01 -1.745442312664340911e-01 1.751201514190329211e-01
