-1.697143443822354270e-01 -2.482401952322496053e-01 -1.105777433378758168e-01
-6.081556901813286453e-01 -2.922965446183727889e-01 3.468716697990932851e-01
-3.373822830791085164e-02 -7.543189943385376628e-01 -6.606223266536973560e-01
5.414838434484227081e-01 6.150032775881324465e-01 -2.307944445940789957e-01
-4.163311548037175180e-01 -4.088623352344251671e-01 4.004963488770649921e-02
-6.120761058046196856e-01 -5.887503991760445476e-01 1.184549053278176056e-01
-2.442863168190399226e-01 3.435898088338106282e-01 4.378986473713515348e-01
-3.574933626937518150e-01 5.495594414675227801e-01 7.267030634375559739e-01
-4.821795639295989866e-01 3.831270436768123289e-01 7.359286446835264783e-01
4.141806021555518580e-01 -3.235991116735114637e-01 -8.250463924803981275e-01
4.247138077751190788e-01 9.937606828437945961e-01 1.977054285022838420e-01
-3.518690548397472861e-01 -2.124377434924412389e-01 1.219656290318337916e-01
1.596939676132161090e-01 1.891178718475262921e-01 -1.367880670437043866e-01
9.705554088130260992e-02 8.579138228721084891e-01 4.587399852036281311e-01
3.580788113407815110e-01 1.303073352290777809e-01 -4.056151198540504099e-01
6.387794830240749455e-01 3.865908245443471225e-01 -5.193672068311355750e-01
1.714382842132441687e-01 9.505473742539307658e-01 4.480112990104478388e-01
5.097466015516144422e-01 -8.537936601978680928e-02 -7.452139702504485541e-01
-7.083788437395285298e-01 -7.637255342107035494e-01 8.911770610806842019e-02
-3.762747493027552292e-01 4.967539016985437206e-01 7.063106016720286373e-01
2.078675900895427808e-01 3.861678273942576456e-01 -3.610091927365842446e-02
-3.933317429780419650e-01 2.386578923062840085e-01 5.227604729207763201e-01
-2.445066718281821427e-01 -3.545832993830065338e-01 -1.101560288754045158e-01
-6.454116687831349397e-01 2.323230564893534467e-02 6.364796917604025328e-01
-3.585889783917910467e-01 -4.487751654482483032e-01 -5.609761056582569794e-02
3.110445008241330966e-01 9.363963978201047533e-01 2.802224548736975129e-01
-4.296410185562010708e-01 -1.871931754903876088e-01 2.290721112558501693e-01
5.627678534193891746e-01 4.461064778057484137e-01 -3.873219001406501549e-01
4.324327821717492970e-01 -2.433909842001626411e-01 -7.825397218781871000e-01
-5.002506292477748584e-02 -3.722038915610464405e-01 -3.422545729079106147e-01
-5.235812120875622533e-01 -9.229502843395702705e-01 -2.433199700983159908e-01
-1.196368928639510998e-01 -4.612499118452919600e-01 -3.340627035253210808e-01
-6.003291611473708933e-01 -2.828155795896233338e-01 3.455339728315649506e-01
-6.648610022609124925e-01 -8.104418098092972533e-01 3.590966611528011512e-03
-4.176053957290830065e-01 5.545592353933078700e-01 7.980913831998244223e-01
-6.561274608546241449e-01 -1.957887113748441044e-01 4.765001195143307999e-01
2.343145276618037176e-01 4.604294911172558957e-01 -7.460944898427557780e-03
5.901172806019767264e-02 -3.215849110694976032e-01 -4.248700213562881522e-01
-4.602342919573245150e-01 2.507262000403261415e-01 6.073207426675313325e-01
-7.633853274731162708e-01 -2.819316959581601445e-01 5.292207832011140978e-01
-5.060420022993855627e-01 -8.506314148628831839e-01 -2.062088913028536918e-01
3.672652701952346388e-01 -4.850516970370899114e-03 -5.220694024704179981e-01
4.553759210132098945e-01 2.031640297128377570e-01 -4.575913785319551397e-01
6.287076405935437817e-01 1.037366740048000641e-01 -7.302000575876158583e-01
-2.664716703407336573e-01 7.048581244942699886e-01 7.465143410286052550e-01
1.889013797332811384e-02 7.359036217224992349e-01 4.506432242931377452e-01
-7.693720822546916693e-01 -2.579353617053919412e-01 5.547847611269102197e-01
-4.641127756679491179e-01 -6.527790862259196247e-01 -9.788372580248326515e-02
7.117329794460708348e-02 4.374282338180276453e-01 1.575634170981983218e-01
-4.297418716407339634e-01 -5.546234812241924717e-01 -5.937173923256543889e-02
-2.312341844655412815e-01 1.520799735485354742e-01 2.728506825367272293e-01
4.950428438890563942e-01 5.111884879404023918e-01 -2.602049268211085731e-01
-3.834171986462561049e-02 3.775076229825654606e-01 2.334106389295704242e-01
-2.473373216746709014e-01 -2.344913101790795651e-01 -1.266646208001945446e-02
7.146232604452527060e-01 2.942253207658774850e-01 -6.770223791054307272e-01
-5.049438251733124883e-01 -5.522402322796724494e-01 2.689663777058993663e-02
-3.848291038069934222e-01 -8.218004962739028363e-01 -3.196001875899289191e-01
1.627343930284115558e-01 6.513658031444610197e-01 2.228206946258076693e-01
-6.559604281879022336e-01 -1.665027362667219346e-01 4.993120575134112893e-01
3.923075016658847947e-01 5.282788600514120025e-01 -1.314866531950095452e-01
5.322109720022549784e-01 3.364641889336733582e-01 -4.391351719550829480e-01
3.512547512241150360e-01 4.081287986545115709e-01 -1.797729051809136003e-01
6.333264374270941577e-01 1.188136979703101684e-02 -8.075210581147125311e-01
-2.682790810436492812e-01 -4.449538710062633240e-01 -1.544484797861324643e-01
-1.795393306966378000e-01 -9.471986947939768642e-02 2.101388891334588296e-02
-1.344071611137267475e-01 -2.971663592413311683e-01 -1.886254362918034222e-01
-2.493497056824957869e-01 -2.917379013268353027e-01 -5.536596026847323548e-02
-3.904472197683669377e-01 4.067070258512464620e-01 6.514986605687735910e-01
3.945859258256791402e-01 5.719544297503573738e-01 -9.974356407385399914e-02
-8.823287462727971708e-02 -4.293790574309893082e-01 -3.442770200247947110e-01
1.455518681809325199e-01 6.464174946704217550e-01 2.382179912464277571e-01
6.538031611571887280e-01 8.530796233737721890e-01 -1.698763471529183278e-01
-7.478305239646789726e-01 -6.417183001990033331e-01 2.292099859138366225e-01
-5.713622201562307268e-01 -1.147188456634416071e-02 5.261218656897799217e-01
-2.165224123760541020e-01 -2.135825988624170391e-01 -3.082862979110774504e-02
-4.826478447162632635e-01 -5.742874515589408979e-01 -1.543994241390242092e-02
6.717013103016601649e-02 3.316142829510356216e-01 7.895631001216511791e-02
-2.854355637933511103e-01 3.988551887287837272e-01 5.274811275549562417e-01
-3.881505383506013707e-01 1.756593241082306245e-01 4.674705958352853852e-01
-4.920238873374556399e-02 -5.446553824996152038e-01 -4.786105675099532886e-01
4.068138959789222575e-01 5.260946766128778984e-01 -1.494820330192587476e-01
-9.053121060557312028e-02 -5.897901297332004411e-01 -4.676746058012980489e-01
-6.001280230750360989e-01 -4.150362969522707890e-01 2.414702692008838525e-01
-7.340966413179206285e-01 -1.748428467194614866e-01 5.804519960048040161e-01
-6.521869902448058642e-01 -1.547697909035917752e-01 5.042915796731874956e-01
-3.350501096985527560e-01 -7.404423083771315417e-01 -3.115718546643600484e-01
-5.002840433793582786e-01 -6.541907066981257346e-01 -5.839848109684767086e-02
-5.362015698525519625e-01 -2.761358522174715141e-02 4.739855115720075229e-01
4.031300309439631024e-01 9.555223082391470779e-01 1.918981491291954222e-01
2.933163449966892933e-01 9.997554532079690193e-02 -3.567550096677305493e-01
5.461373711358317173e-01 5.350652372858903938e-01 -2.987953405088758507e-01
2.403920315340944136e-01 7.749729776412666027e-01 2.327414671915435385e-01
-6.865745938967128259e-01 -3.714791979746487338e-01 3.726935115773341578e-01
-4.659396801211471151e-01 2.551328253105980548e-01 6.171844062273164067e-01
-2.626314478637318817e-01 -8.222615874100309696e-01 -4.571007778953631306e-01
-2.502067010882900733e-01 4.198694053635513845e-01 5.044481800174165365e-01
1.354256291393005351e-01 9.347647491183599389e-01 4.760324397409274599e-01
4.504539708054502434e-01 -1.107743552458859485e-02 -6.203196278176075218e-01
4.051939116908851446e-01 8.990026382119799264e-02 -4.902240879458807377e-01
6.732316973403038585e-01 7.770608824371735279e-01 -2.513807820410114413e-01
-5.427007051526040460e-01 -8.228949925570983037e-01 -1.432855440599260788e-01
-3.751399539934459071e-01 4.429298896737619007e-01 6.627670078428411493e-01
-1.635258621667816936e-01 -4.632707365117970655e-01 -2.863945631771089295e-01
5.243550422257565735e-01 3.855801117620534235e-01 -3.917461082848272547e-01
3.957800150027044328e-01 3.672775970069959151e-01 -2.618241758526430596e-01
-8.861159921032482623e-02 4.820921862109434075e-01 3.719611458378279667e-01
4.634555470865789339e-01 7.960735342774007961e-01 -1.024431267012536123e-03
2.880687354975145498e-01 -3.811276861257580917e-01 -7.286945064508351111e-01
3.266758942062512050e-01 9.727255714235674144e-01 2.912105333414294894e-01
3.260811361269105313e-01 -1.083055069054968469e-02 -4.805461291346349584e-01
-3.711105909063224795e-01 4.805430600113139161e-03 3.141691340694947043e-01
-7.813413182882732455e-01 -3.292267123026395570e-01 5.122296306693877588e-01
2.019470852110192283e-01 -8.880639973996969083e-03 -3.397031585600054360e-01
-2.775929129231217152e-01 -9.446923512295121728e-02 1.312530862789555441e-01
1.823229302437907873e-01 6.354653757411534709e-01 1.883499005710767837e-01
2.131436000654153822e-03 -2.891490589757383933e-01 -3.355619969667384406e-01
-5.039596924199849504e-01 -4.442498101107466568e-01 1.106011752057649705e-01
2.285549782255797135e-01 -2.184582508681337520e-01 -5.341536286188374172e-01
-8.228674045908475065e-01 -4.082257659769779057e-01 4.967920442751503907e-01
-7.106015429051862897e-01 -2.057937795972171746e-01 5.297772585944932056e-01
5.184636859251599006e-01 8.030503623842959460e-01 -5.727911748522353935e-02
1.820775384782023498e-01 1.764896113418193760e-02 -2.965695010526394615e-01
8.981401056699701846e-02 -5.779588982452842361e-01 -6.607786984431687216e-01
5.482590781701383031e-01 7.281108768269409781e-01 -1.495703592887399347e-01
1.064770021886771861e-01 2.279569068501932083e-01 -4.656261189185820215e-02
3.412120453654237662e-01 1.306595671853630070e-01 -3.864094726172200289e-01
3.102117296109747121e-03 3.019417202609926409e-01 1.275547747708177526e-01
5.731425205842470838e-01 -7.228660481800382176e-02 -8.060789154004811552e-01
2.905497239277916588e-01 1.186089677292077871e-01 -3.390165829190512903e-01
7.550790974333790873e-01 3.990316104788020346e-01 -6.401162796408091937e-01
-2.906718666602843837e-01 4.946489845871958058e-01 6.085881828616530598e-01
-2.538868807897829219e-02 -5.756903946077309570e-02 -1.228084287145768255e-01
-1.403068183590276963e-01 1.190897059257389062e-01 1.448973242368261083e-01
-1.086649472803133121e-01 1.005595335306485316e-01 9.483422429409014975e-02
-4.693135234694023605e-01 -6.560885939797143560e-03 4.154527078233912207e-01
6.850707850605808336e-01 2.198790547488125302e-01 -7.022435502239875449e-01
4.963361054832035602e-02 -1.031185324634489170e-01 -2.427752828530169160e-01
-4.662019675715591283e-01 -3.982705795272640237e-01 1.043361451978081361e-01
-2.787284222673253042e-01 -7.725219743781123194e-01 -3.999732486174417123e-01
2.535699828892667984e-01 7.247415729338825274e-01 1.785036403284981088e-01
-6.123233397617321438e-01 1.172121911181454867e-02 5.903056347074578936e-01
2.098380757725333556e-01 8.937857712338659333e-02 -2.713922508383378451e-01
-6.236896184762197315e-01 -6.320718708525429053e-01 9.746637086548592954e-02
-2.015560725187307833e-01 -2.008154626843010881e-01 -3.759835001690642331e-02
-1.013529216659868198e-01 -7.101926481333878383e-02 -4.811920078565891379e-02
-1.617633656683776233e-01 1.979020110139782795e-01 2.308716229217616100e-01
5.125668724222590678e-01 -1.444348602326135378e-01 -7.947576013161720132e-01
-1.638371074478410239e-01 -6.129585569103833675e-01 -4.036008178319150375e-01
-3.170540989176994229e-01 6.192463665285041774e-01 7.360471858002722856e-01
-5.425457604907031328e-01 1.873292751192220107e-01 6.499082187533671284e-01
-2.082788593294479518e-01 2.592100575577316879e-01 3.312220048530097882e-01
-9.140398679035782736e-02 1.371283291766313694e-01 1.041816766211508816e-01
-2.186819421118263163e-01 -7.012074664615328690e-01 -4.113554682727159073e-01
-5.384833464468238295e-01 -8.653155203652888039e-01 -1.813330079715721743e-01
-6.787722015493323768e-01 -3.939999618298857809e-01 3.462507240408939646e-01
8.876621093927336559e-02 -2.607356342387273096e-01 -4.104752571643228709e-01
-2.591110306527786844e-01 5.532803414403779652e-01 6.192139181878264509e-01
-3.411765130020232295e-01 -8.815260979946735187e-01 -4.154948719398813273e-01
4.452220663962974667e-01 -2.594387696758755912e-01 -8.094956600790313983e-01
-2.616462123675009077e-01 -6.279561329464782293e-01 -3.056109907032880102e-01
3.093620981532178571e-01 9.257312048008008443e-01 2.737347780890397875e-01
-7.709740221426164553e-01 -6.694683111469366121e-01 2.333900434286900472e-01
1.620386754093859905e-01 -5.705755033481267890e-01 -7.360356426683219988e-01
-1.218966643281068629e-01 5.599517698351462736e-01 4.704619990618855163e-01
-5.997654385723080184e-01 -7.265746832714868875e-01 -3.599626004160334704e-03
-2.980301810928810413e-01 -5.206149914510324050e-01 -1.804793462033551510e-01
-3.811868583762961227e-01 3.986585735565399691e-02 3.530116937257630205e-01
1.587713214467018075e-01 -4.212409141252049238e-01 -6.150906477170126063e-01
3.214304523470837283e-02 -7.364027366237306804e-01 -7.204884290002476765e-01
5.791172364270505968e-01 8.718941535466046000e-01 -7.128298067195527887e-02
-7.815990423586162139e-01 -3.204227971624959426e-01 5.194329164427308188e-01
-8.488102924622577261e-02 4.360700189289510309e-01 3.316314843274839053e-01
-2.307563416660072531e-01 -3.745967874899033823e-01 -1.413049354025565085e-01
5.591927091393521509e-01 9.323741245204603123e-01 -1.425099780525850750e-03
-1.768830264048731893e-01 -6.124490281194078234e-01 -3.885596524474513314e-01
9.372191810127518397e-02 6.405326363512139354e-01 2.917634645185144815e-01
-2.129223574052087065e-01 1.680058084241845273e-01 2.648070767786541158e-01
-3.980935683723017537e-01 -5.298598193634413978e-01 -7.544175833857515168e-02
6.573412068009634179e-01 5.963494204657762143e-01 -3.754670026345890976e-01
3.352547115293390001e-01 5.132617447446413683e-01 -7.925166517461601501e-02
6.123853619003754023e-01 4.505738388124492788e-01 -4.394976364583167427e-01
3.035291234466344079e-01 5.837338774832219190e-01 1.169739042742442246e-02
-1.657851770340167397e-01 -5.332970234017565536e-01 -3.388533213920120191e-01
2.101279445500844334e-01 -5.100439352062051679e-01 -7.424669249713529151e-01
4.523275911896195156e-01 -5.435049487506354166e-02 -6.564063155384697312e-01
1.850653776067522349e-01 7.990752275557323481e-01 3.137611980693051361e-01
2.634055997197227161e-01 -4.335491806359293432e-01 -7.421844659270279143e-01
5.079668591511924403e-01 1.677113417775261128e-01 -5.444548359800041037e-01
-3.940893128003479240e-01 -8.188661316935009760e-01 -3.069032860416547881e-01
-6.716185560431416901e-01 3.866261783112065475e-02 6.780088466418332516e-01
6.248493976927734783e-01 5.163017825845629405e-01 -4.018669593648856453e-01
2.534442182019277512e-01 9.871836638719666546e-01 3.847505667820069197e-01
6.091838953682779945e-01 -2.043009883265567428e-02 -8.058020926710262044e-01
2.778731841326168711e-02 -6.712100799621234515e-01 -6.644018576000769727e-01
-1.166533761717917644e-01 1.203427868300457060e-01 1.193359231669810228e-01
-5.824391558574564254e-01 2.456884528393814826e-01 7.405109747317553115e-01
3.446491609944173917e-01 9.072307705446640280e-02 -4.216304854128738455e-01
1.980211212763638151e-01 2.263371957548782065e-01 -1.505716374547672876e-01
2.575462107461834460e-01 6.182195995976924596e-01 9.038547946205231776e-02
2.193658994548925989e-01 8.865739050644320107e-01 3.439828806163835462e-01
-2.539804959813758423e-01 -7.553101141674122276e-01 -4.142299156661649606e-01
5.712009886148039506e-01 1.639935484648015473e-01 -6.183401796236818182e-01
-1.545444884429159615e-01 3.213982965714153872e-01 3.197564542311516766e-01
1.967285400234837223e-01 9.022260105416358700e-01 3.816802525758517528e-01
1.291739039063540539e-01 2.666526403814366564e-01 -4.164537517368353120e-02
6.292254979838696194e-01 3.285667340049244767e-01 -5.542136099780657910e-01
-7.033338702168776546e-01 -3.549413506060332124e-01 4.044897078301327720e-01
2.198503838474972216e-01 7.400423158210849284e-01 2.283623129997371382e-01
2.058735997245349225e-01 -1.461899441174930592e-01 -4.519439930078892331e-01
-2.669565850846585264e-01 -4.605244468161258653e-01 -1.681608413561161697e-01
3.114156946288193506e-01 -4.685625392373805043e-01 -8.235619690627036249e-01
7.168198314602730603e-01 2.709460456377293380e-01 -6.977696224678174852e-01
-8.263145149731065953e-02 -6.785169650424137666e-01 -5.462208182343831764e-01
5.721427882518950181e-01 -1.106762615757421325e-01 -8.351058099486837749e-01
-6.837838244370980645e-01 -5.391476122920144665e-01 2.378851198163085268e-01
6.010853336935536584e-01 2.134559225869147869e-01 -6.130337246272520302e-01
-1.025760922107947920e-01 -9.139440389300952997e-03 1.850110476996704584e-03
-8.348354669581901089e-01 -5.393476194309576588e-01 4.072484205347044472e-01
2.427467765508374009e-01 8.569134881303328566e-01 2.944498214934245239e-01
3.135612739394048609e-01 -4.830621128199200087e-02 -4.959265584109132652e-01
6.703809453032968935e-02 6.940716230346896110e-01 3.637560653325510041e-01
-2.861116839033729375e-01 4.967038620317978936e-01 6.050842108530100072e-01
4.865324124284017837e-01 -2.936626995666864470e-01 -8.827342832159297270e-01
-6.161470968131964598e-01 -2.707323234053045646e-01 3.727753725309839172e-01
4.443531912542866835e-01 5.330052857266849298e-01 -1.861840052849978722e-01
-1.323007579223922925e-01 4.902602416804174301e-01 4.274067614446169783e-01
-2.604735940893748158e-01 -1.606080835608101817e-02 1.736177567397188259e-01
4.778613789835521319e-01 -1.830127627325729978e-01 -7.861054466554624476e-01
6.488260695881388207e-01 5.194051851674739151e-01 -4.263379824897827186e-01
-1.680565963603646929e-03 2.251209538104169683e-01 7.259194733352057616e-02
-7.296422091893491890e-01 -4.680647174956264478e-01 3.451746108599547114e-01
-5.070080766083989027e-02 3.265739748270753418e-01 2.072807067666580239e-01
4.718691011783912592e-01 2.912986562249385292e-02 -6.127768088598025686e-01
-3.289187291821921155e-02 4.709859928816695351e-01 3.007065815237669471e-01
7.006514114800491688e-01 8.186749069943687340e-01 -2.494719597256856436e-01
3.171608918652722986e-01 -1.316244198025027790e-01 -5.653992605174561481e-01
-1.243963423637814564e-01 1.651712565912806518e-01 1.632311110215455552e-01
1.537200719809258577e-02 -1.133387610098399167e-01 -2.123509286316488665e-01
-6.146781212260526983e-01 -5.587240467880870698e-01 1.449559029749208916e-01
-1.336981116106857048e-01 -4.986731098949540586e-01 -3.476721173416750799e-01
8.631548411469389115e-02 7.784506188887715394e-01 4.083877184241487823e-01
-3.607736269336244139e-01 -5.910017891274774726e-01 -1.653418429304695236e-01
-8.190491446845478418e-02 -1.151820237054885232e-01 -1.046277695244158396e-01
-8.291178150582528827e-01 -5.493772626687813965e-01 3.929550232816935162e-01
5.198063384633719863e-01 6.982731250062191863e-01 -1.410714942310152265e-01
-4.061628359495572660e-01 -6.688591222232328493e-01 -1.755473349014555484e-01
-7.662866893638414778e-01 -3.310487217293827111e-01 4.939034139351467512e-01
-2.789294111091308870e-01 6.611413367299612265e-01 7.261627996571106136e-01
-7.946320624111148367e-01 -2.223906527498107633e-01 6.110478358309923141e-01
4.492425814142864127e-01 -2.099530713367276924e-01 -7.751447475480190974e-01
-5.724201581807382144e-01 -7.867001721812725279e-01 -8.150718985798702243e-02
5.079387900070144735e-01 7.025748729262215608e-01 -1.243746016199245019e-01
1.395205376877443615e-01 -5.814302695475602814e-03 -2.672357512870873752e-01
-8.069585701509357500e-01 -6.438461262721336675e-01 2.938964171871550901e-01
2.343435688369890219e-02 -4.111707209514845474e-01 -4.552978418566671626e-01
-3.512214500868687805e-01 1.037577834880408639e-01 3.695592517080057426e-01
-4.129921546173421221e-01 -6.144424164017029399e-01 -1.251474965999635480e-01
-4.218148959834840395e-01 2.157707512585095577e-01 5.367520496097240024e-01
7.724417932051466096e-01 4.898141456409957351e-01 -5.883068839170905173e-01
1.993695510122808212e-01 1.474202671399729436e-01 -2.140614108550091543e-01
3.254688831966345286e-01 7.875847924448786674e-01 1.471670068795024322e-01
-2.849295111856490204e-01 6.941263558883304929e-01 7.588009117037348705e-01
-7.322157329106995238e-01 -5.186007899622706308e-02 6.749241719656446925e-01
5.962220941161732596e-02 2.239442746218900104e-01 2.869733782437647405e-03
-4.883115705842611676e-01 -4.611155953531470564e-01 7.979444957885264977e-02
-2.082402029809630462e-01 3.541954032860370472e-01 4.057742372794473917e-01
1.270599264032477860e-01 -4.827240010890980759e-01 -6.277869879402423470e-01
-4.746917201733765745e-01 -5.672228716133590476e-01 -1.882075960877431856e-02
7.507847965544439672e-01 6.820040102427507023e-01 -4.130679051691738546e-01
-4.363164781003003867e-01 -4.651507584234355619e-01 1.827307113221944557e-02
-5.957480280392781768e-01 -1.950122111440008854e-01 4.093480497623825931e-01
-7.585592989101658246e-01 8.677592576648457748e-03 7.520312469168717318e-01
-7.292504420611218841e-01 -2.896738894873643333e-01 4.848320651954872718e-01
-6.916107571534023668e-01 -5.035950077931343749e-01 2.745898497695029028e-01
-3.309653900651705893e-02 4.609528105669328246e-01 2.930568308711467007e-01
-5.815597002874214327e-01 -1.552706374217745766e-01 4.246355221021336779e-01
2.866784287431156097e-01 1.356908292129671845e-01 -3.212569161093726255e-01
-9.356282735997174804e-02 -4.988537379134469485e-01 -3.928565031035676780e-01
1.825162720431147689e-01 -1.644266554287390769e-01 -4.400528044682363027e-01
4.737239638599453628e-01 -1.622802277628710710e-01 -7.651801089009717671e-01
-3.052866425665145544e-01 4.315013424265768949e-01 5.753976211316155220e-01
2.175309183513751132e-01 -1.264548048998707652e-01 -4.495278671282151861e-01
-3.383677733198586779e-01 -4.195536104233623109e-01 -5.584241332851739431e-02
-2.706005520159414646e-01 -8.318579951546819506e-01 -4.556937350513046159e-01
6.563228936817780967e-01 8.025007786386337827e-01 -2.124256575763267541e-01
2.899979652419404919e-01 4.066404934411502747e-01 -1.121952179445893510e-01
1.496971780822091425e-01 -5.762854245344177784e-01 -7.266693982074226010e-01
8.740124650558468711e-02 -1.838303356504367853e-02 -2.186146599205771313e-01
-5.366712675723641635e-01 3.449838925003433365e-01 7.671276500417333333e-01
-4.145396215018052888e-01 -8.818581153910447501e-01 -3.334225734863948687e-01
-6.124162921784407354e-01 -7.126581881928548690e-01 2.152717234351837761e-02
2.167468890625685596e-01 3.448179734738850144e-02 -3.222583237725844540e-01
3.145564440642344972e-01 -4.872336111338482767e-01 -8.417498355583103997e-01
-4.446194737284369092e-01 -2.403254374802761828e-01 2.041551550886483435e-01
-1.525705627411707010e-01 -4.420102304843452901e-01 -2.819926551080287891e-01
3.433392054203499022e-01 3.871872356391026782e-01 -1.873357523321086959e-01
6.410345039145776136e-01 1.621763023166756523e-01 -6.981392284073948407e-01
6.556883084524478544e-01 -2.865124823803034265e-02 -8.644488739179033709e-01
4.585935679719388425e-01 -2.755451923734614783e-01 -8.371510520333075300e-01
2.757551255656059963e-02 6.955096025108989943e-01 4.091729451428645081e-01
5.885735852602759222e-01 2.657725622518362085e-01 -5.579059412079278024e-01
-2.812257039658744850e-01 -4.840992755140901549e-01 -1.706612828792526404e-01
-1.165910692525571751e-01 -1.264079583728646150e-01 -7.451677433647924120e-02
-1.316648737314190798e-01 7.438173159003605983e-01 6.258211714450465646e-01
-5.894579573318624310e-02 1.631200851520017148e-01 8.816721579219437277e-02
-5.611274042641650750e-01 -8.337516856539333165e-01 -1.311320307130510177e-01
-9.039296814555862480e-03 -3.619154749107856284e-01 -3.801716868414480310e-01
7.492758699900944896e-02 6.206482888217963456e-01 2.972397979768338083e-01
5.808697381060030640e-01 7.112540403928957478e-01 -1.994065650795774636e-01
3.595439080694378120e-01 -2.803748183821884177e-01 -7.297837111515731445e-01
-6.371683946989059599e-01 -8.146215206130075215e-01 -3.077003770785152401e-02
9.103405792919147532e-02 -4.500833771599593858e-01 -5.617223936529891493e-01
-3.362055547511765274e-01 -8.648817189355940682e-01 -4.080021518711193229e-01
6.133089330313822307e-01 3.615691952625605388e-01 -5.104328721168058802e-01
-2.575981794857429841e-01 6.138602426894689268e-01 6.650918015014527507e-01
-3.709403103996926077e-01 -2.964179087822287895e-01 7.741585524568520005e-02
-2.326113943700347797e-01 -2.568078447179523160e-01 -4.671891994522645725e-02
-1.150989203737085714e-01 3.360913123561862781e-01 2.870269544676080087e-01
5.228844896235657069e-01 -1.118578668392447850e-01 -7.807527739135542433e-01
-3.786650958112670051e-01 -2.882570981513843944e-01 9.249412800309887717e-02
-2.581922340487867104e-02 2.982987169111519510e-01 1.571512707388642294e-01
8.493166048816826186e-02 6.132782690390520264e-01 2.802245921311978805e-01
1.766370228011626686e-01 -4.102037193203230542e-02 -3.365390514204995576e-01
-5.387994799558828429e-01 -4.726523285218975912e-01 1.273951610519942212e-01
6.037669333668418403e-01 2.638283425347252853e-02 -7.629588293592345360e-01
-2.489304265313649622e-01 3.168888601610025252e-02 1.981628894448707878e-01
4.986559780251385021e-01 1.847816771841186700e-01 -5.205995496323275740e-01
-2.990742905714890640e-02 -5.417472257409641223e-01 -4.979807903942661262e-01
-1.453080013117908909e-01 -6.304129753351735976e-01 -4.381030550701993653e-01
6.552055972495961500e-01 1.383419214037123202e-01 -7.327610367052661555e-01
-1.994414389845053093e-01 -5.885911795922733614e-01 -3.445065969634431013e-01
-7.482363907892037869e-01 -2.049640335226951826e-01 5.726652626467128027e-01
6.642904326759141442e-01 7.923937345500898788e-01 -2.293048162026969095e-01
3.183396534972671166e-01 1.979389724497480074e-01 -3.079034435187706920e-01
-1.654582960097138733e-01 2.616596025346447085e-01 2.850895924045650509e-01
-8.746234363654842303e-02 -5.098412757926650690e-02 -4.797378983254972640e-02
1.933919103740681378e-01 3.469962433710667149e-01 -5.061827114374450876e-02
6.788145462756997595e-02 6.967437216032736913e-01 3.649080904990861796e-01
-8.115978068588564076e-01 -1.220363060595285321e-01 7.089000386668850018e-01
5.291435175769887422e-01 5.323058977337435937e-01 -2.818907027824469891e-01
3.197567793134969416e-01 -4.118555625374328844e-01 -7.883887468066133053e-01
-5.186398834113308265e-01 -2.439910827767935164e-01 2.843470962547537950e-01
-3.810170666293811736e-01 6.080118705646750943e-01 7.990078779210580961e-01
-3.365034881029186908e-01 3.930014452327896396e-03 2.746432039646387602e-01
-6.558768214258211549e-01 -3.118985047925520449e-01 3.850333852337187723e-01
-2.497507609431529052e-01 2.325074207296940754e-01 3.567939797197333673e-01
-2.625930263741209011e-02 3.535672476171125012e-01 2.010496428008057002e-01
3.806775894610564537e-01 5.057441534027934393e-01 -1.361321435083540643e-01
-7.922331683242136435e-01 -3.156427313562254477e-01 5.351212201581524441e-01
7.005132410067463899e-01 3.668363464442305211e-01 -6.041629523576649285e-01
1.874852111191517845e-01 9.798919490439542690e-01 4.530477657670007874e-01
-1.315279515895165785e-01 6.182009020750414141e-01 5.270161467642094921e-01
-1.774120759704715666e-01 6.416289718915587637e-01 5.969093727209251465e-01
8.400339483297251941e-02 6.905184231269716477e-01 3.419259939739367482e-01
1.926541267216724529e-01 -4.118577570369981733e-01 -6.457472732534642601e-01
-9.338113033776025695e-02 6.177331517209578848e-01 4.838378606041991437e-01
-3.907299131664046521e-01 2.443311296252411724e-01 5.242959331276757506e-01
-4.417650610863217975e-01 -6.017915844600754127e-01 -8.292141319140290678e-02
2.167977007008337342e-01 9.076916463247123312e-01 3.634496547755476925e-01
-3.019310911057209723e-01 -5.387435828067649313e-01 -1.903385553397829999e-01
-5.100790179265000113e-01 -1.283627492399296299e-01 3.655468546924361961e-01
-4.165324670350019076e-01 -2.458142792681567435e-01 1.683234188790726227e-01
-1.141813294893439246e-01 2.814706919810296415e-01 2.431015152169475613e-01
-3.153674300606679193e-01 -7.816536600307834037e-01 -3.660259360092953385e-01
-2.573889637559014995e-02 6.935604009383365964e-01 4.674751999511677081e-01
7.465919032808671085e-01 5.812563021801826491e-01 -4.874833747723197885e-01
-4.531956003711161418e-02 -1.994308988524845783e-01 -2.118501850770390937e-01
-2.947088350967319581e-01 -8.585834607367621718e-01 -4.496263160806596715e-01
-1.021461174374771741e-01 5.620382144717169792e-01 4.499351635057525778e-01
-6.926453535515847415e-01 -4.543975933701951408e-01 3.143875500234791787e-01
2.141701115973793645e-01 8.539241100410178698e-01 3.241728158650358238e-01
2.960161878283565362e-01 9.246629104947144961e-01 2.878734894211639195e-01
-2.647042630361103877e-01 3.470652322362504649e-01 4.635424307376539987e-01
-5.311884895891196834e-01 -1.490935937982507398e-01 3.729566091323691657e-01
1.186566624673926623e-01 6.987633636974418527e-01 3.095108185969517867e-01
2.034631707368934617e-01 5.546619015510204642e-01 1.011668417493902378e-01
-1.196448386769501798e-01 -4.881017768892371711e-01 -3.551415800740472251e-01
7.122328761265659391e-01 5.907859515157485308e-01 -4.414393525103522120e-01
-3.642791875059293860e-02 2.459414477768666063e-01 1.279389058715600935e-01
-2.922304603134036061e-01 -6.530290380579250042e-01 -2.909779869989562728e-01
-3.676669445440030604e-01 -7.790850673800541193e-01 -3.053146682891361152e-01
4.553460402284053021e-01 8.977844260731907000e-03 -6.100596629198701271e-01
-5.411863385491300082e-01 -5.156260563787173901e-01 9.632494755936649167e-02
-5.686836024368535636e-01 -7.958763185207978763e-01 -9.290698328564007957e-02
-3.837374448159087681e-01 -1.076696981373585632e-01 2.400088349692839906e-01
4.310735589734976947e-01 9.004290485090954421e-02 -5.191559577980983109e-01
-5.592896254873920281e-01 4.551210643536324207e-02 5.573248848516063614e-01
4.182176889795776176e-01 -3.932149228285324871e-01 -8.842490364590637197e-01
-5.873572231558890078e-01 -8.299746518309507604e-01 -9.872890441018532248e-02
-1.014397197635980991e-01 -2.872435950036153485e-01 -2.178310044171554161e-01
-7.792251363186171176e-01 -6.356774029122390646e-01 2.691872912418592501e-01
6.956099389226032548e-01 7.651491700207585511e-01 -2.858498810701915471e-01
4.596030099413754844e-01 1.840889100131818112e-01 -4.773157228642636030e-01
-3.607017446904087210e-01 -4.710595670203437391e-01 -7.122731185622722949e-02
4.067615697843562916e-01 -3.357508830846762660e-01 -8.262635019700180772e-01
-1.629428547537674354e-01 -9.657378499407723305e-02 9.322500599943991245e-04
2.873253340110042409e-01 7.346676962454501414e-01 1.484164645533643800e-01
-9.958081268395849173e-02 2.007743966187447715e-01 1.633419484414995737e-01
-3.099428835464980159e-01 1.585518590735185418e-01 3.662655289405502557e-01
7.826943367703066423e-01 5.362618882884316873e-01 -5.633357979908520941e-01
-4.547412104088739970e-01 -1.006349207605624491e-01 3.252187441110082622e-01
-7.278263788590948469e-01 -8.357736085868816556e-02 6.450893505533003003e-01
1.336381832157328697e-01 -2.481719548319195889e-01 -4.509668839806619256e-01
-3.101289532230415702e-01 -4.242655438396034651e-01 -9.123438903237494901e-02
2.143499072041192832e-01 -2.894506106314584937e-01 -5.739647448612185121e-01
-4.954117007912647308e-01 -8.890110241787657630e-01 -2.482799061188895318e-01
6.916028847855698602e-01 6.267650898881910182e-01 -3.900311905449490024e-01
-2.646732485465811968e-01 -6.343828951389461901e-01 -3.072610273798113134e-01
-1.902821287736843892e-01 -2.844516933084070831e-01 -1.159334547200363136e-01
-2.216197004657432523e-01 -3.106019691889368439e-01 -1.013011204961188211e-01
-8.187949247221734117e-01 -3.171432177179843714e-01 5.637522312796762192e-01
-4.329575149623751673e-01 -4.980889331110591178e-01 -1.136418958300551736e-02
4.171773832133094384e-01 1.444137391003384729e-01 -4.608612389929749309e-01
-2.068290466088666332e-02 1.792793975859975075e-01 5.791653486912221038e-02
-1.997947869006549693e-01 -4.864570510814498761e-01 -2.639002190188471375e-01
-1.346550558456524084e-02 -8.116609748451256712e-01 -7.284065924112826940e-01
-1.965717890733409412e-01 1.643459550706201089e-01 2.435831402134017165e-01
-6.898943507230077543e-01 -2.934482065305614729e-01 4.376998813716013736e-01
4.702779345301400515e-01 7.757965398554091951e-01 -2.460527326556767938e-02
5.739994351107955417e-01 -1.196803837131382164e-01 -8.442607452562124193e-01
-2.212719867097564241e-01 1.571973644856474728e-01 2.656893124404926532e-01
-7.425116751154560157e-01 -1.035906795691595994e-01 6.458529610868855020e-01
-1.678605743475926337e-01 3.735612323250896427e-01 3.756662100408432736e-01
1.582503261491519791e-02 -1.469616850130000818e-01 -2.392647091667928771e-01
-6.797749517891532589e-01 -1.434498881756712252e-01 5.441426082300020450e-01
-8.862853234118614476e-02 4.206575531246996569e-01 3.237331885693404687e-01
2.563755742993438780e-01 9.155240622977209863e-01 3.251837820664315593e-01
-1.611793648454460104e-01 -6.393108375471819871e-01 -4.272789675993283187e-01
7.545131121653062545e-01 5.033439835388998640e-01 -5.575606071388279350e-01
-4.835588253684180438e-01 4.165214579151564345e-01 7.637024525203671699e-01
-9.995933350164735998e-02 8.252874420936945343e-01 6.542206666446085395e-01
-4.880830722950437739e-01 -8.023281945318440078e-01 -1.884292562797341974e-01
1.649293481885366064e-01 1.999338100204594779e-02 -2.754834792495264861e-01
7.615665058882369332e-01 4.983066901685656025e-01 -5.694323814638000414e-01
4.329116073464837067e-01 2.432556213168243497e-01 -4.008949495441483934e-01
1.551244123154292033e-02 7.397549881345430456e-02 -6.540349990426246041e-02
6.656826609006981643e-01 7.115685096030576196e-01 -2.943424011318931943e-01
-1.918942702344368645e-01 8.784373756900885899e-02 1.782536025091350507e-01
7.190415531975167251e-01 4.384869480497804450e-01 -5.686867274548860207e-01
-9.326956580880026160e-02 9.774694790002193268e-02 7.534765471669901959e-02
-4.084961899601053381e-01 -2.788797943862139639e-01 1.333369546819050955e-01
-7.206465102147746604e-01 -3.926436271436770653e-01 3.943100879631020184e-01
1.096977012361278064e-01 1.481021140320298579e-01 -1.128901131316673301e-01
4.804010710894471847e-01 -2.640063452277744971e-01 -8.525630107982610228e-01
-7.815709491941219555e-01 -7.655241942020674095e-01 1.698462829989225709e-01
5.615619659197176317e-01 5.427531524854021239e-01 -3.100682514008047397e-01
8.496717884667018272e-02 -2.171815707360944814e-01 -3.720070588641959941e-01
3.318827916485697083e-01 2.527893663249546341e-01 -2.800263629644653696e-01
-3.548457968811850050e-01 -2.713806365700217604e-01 7.901622807018691963e-02
-6.653552724653619688e-01 -7.428778065693927291e-01 5.720625903801935391e-02
1.862060809479088030e-01 5.941025762338956184e-01 1.515081818741984276e-01
-4.434275340821930422e-01 -4.123364774603189287e-01 6.773064874553022530e-02
-7.697472543738759221e-01 -4.473249315530625769e-01 4.064709512381830536e-01
-2.685221037997705951e-01 -2.121962686304649237e-01 2.861768042978737187e-02
-2.650657889073128604e-01 -2.184930798250761530e-01 1.979364396867586140e-02
-4.913128981813463803e-01 2.281104096550388705e-01 6.244382146022647850e-01
-5.065837160068088485e-01 3.340678788737078686e-01 7.247886019490530352e-01
-1.033212479534861006e-01 -7.527408899283531962e-01 -5.812922081714111400e-01
-4.622402500076050469e-01 9.601651289050028293e-02 4.880725458351303225e-01
5.611350385360349691e-01 -1.487087662407862720e-01 -8.526205450475025094e-01
-2.166099082650008445e-01 6.853076083015652298e-01 6.752023316782725937e-01
9.808872366240428686e-02 3.658834199187365188e-01 7.117023374285441628e-02
3.666946843618021923e-01 -1.693529805496480356e-01 -6.506191120006272754e-01
-3.121501539919247503e-01 5.061597732663836169e-01 6.417324316324918287e-01
-2.074403824831520526e-01 7.846238484836477456e-01 7.429085012135618893e-01
1.517550135272697776e-01 6.593963488788878724e-01 2.414491910964068622e-01
5.095198182993841973e-01 -2.816628764160430953e-01 -8.991083866469218311e-01
6.971671961467491574e-01 7.717475244572027382e-01 -2.824156010651786008e-01
-3.645667967422825395e-01 2.634380411233853136e-01 5.099393000112201202e-01
-1.732441128948565556e-01 7.461445251179569249e-01 6.743118532099057205e-01
-2.004279591306867836e-01 5.549838240985902615e-01 5.546936145210519253e-01
-5.627667100989944826e-01 -9.065751544826020636e-01 -1.864833386906208923e-01
2.698193183358989500e-01 -8.391506619927625865e-02 -4.748013681478168158e-01
-1.907307187603197451e-01 4.829288115964122663e-01 4.872231653848725363e-01
-3.461844084684465583e-01 5.366852087841059715e-01 7.039007637887925162e-01
-8.223616216342822804e-01 -2.114778647791499544e-01 6.507380521358229197e-01
2.884723319431723998e-01 7.131213013030293091e-01 1.302080200327775106e-01
-6.512961920511297631e-01 -2.970511605612107253e-01 3.915528787806722977e-01
-6.435789107831817457e-01 2.406973459900085544e-01 8.052064380593882964e-01
-2.947645590889310108e-01 -6.911044437316090638e-01 -3.180361183403307979e-01
-5.184388320063355593e-01 -3.540533847910846688e-01 1.976853386891515019e-01
-7.776558022814292759e-01 -2.811479162378151542e-01 5.458516077359718555e-01
-2.036308746610834830e-01 -8.048427018369724850e-01 -5.096354980616587538e-01
-3.968751899613591205e-01 -7.127142366646155303e-02 2.833378548667401242e-01
4.749484446017712136e-01 2.831267089212318178e-01 -4.167592467110554089e-01
-3.644262666675108231e-01 -6.421370960650562010e-01 -2.014011105534318224e-01
-8.207726519088559547e-01 -5.612246935719598095e-01 3.742852771246137911e-01
3.028123174521227812e-01 1.873042368413317671e-02 -4.312169255893135711e-01
-1.485653203915023868e-01 4.807896317514017692e-01 4.382223227366537355e-01
6.683758426815494813e-01 4.611333117080533839e-01 -4.940411856616199748e-01
-6.346917843440345042e-01 9.544882348308338094e-02 6.811634982344795253e-01
-2.431022520607848125e-01 -4.349417917722086385e-02 1.325779887595776863e-01
7.003634742912978606e-01 6.578867414668225777e-01 -3.754218967488789915e-01
-4.591667757418922968e-01 3.771637490116720448e-01 7.054189338791837516e-01
-8.406243748754935741e-01 -2.745353786870966539e-01 6.217122785615796232e-01
-6.556977385216322674e-01 -5.986429068341516668e-01 1.596410895534497998e-01
-2.702255209736892927e-01 6.540540398543384093e-01 7.108287806296316180e-01
1.628852947502884285e-01 -3.704383480759791403e-01 -5.798104339534696505e-01
5.393453992195367253e-01 4.675362488895672408e-01 -3.442060205208926638e-01
-2.591617003173558587e-01 6.187396340798817507e-01 6.706784625545735290e-01
-2.129467769702493019e-01 3.629657472999184287e-01 4.179439587715650384e-01
4.642488254790522878e-02 -6.069735914844067576e-02 -2.058592656255145426e-01
6.299464823429041793e-01 6.388760266477395700e-01 -3.113250232155920783e-01
-1.071166630565654060e-01 8.308395414596143613e-01 6.666133815784217598e-01
-9.566300878167746657e-02 8.606779742375554321e-01 6.771925751954570583e-01
-9.906903790162818746e-02 -5.595325346581478954e-01 -4.343304347264776988e-01
-4.265174033893599503e-01 -1.650489932489708211e-01 2.429572499595137880e-01
-8.854579912579990664e-02 2.241014568316000155e-01 1.692773397473489039e-01
7.282651756815180510e-01 5.472552745530721019e-01 -4.936181849632594321e-01
3.837122339367240453e-01 4.898305306597559028e-01 -1.520354018361725068e-01
-4.878569534852354450e-01 4.590109396196892511e-01 8.018947134552675271e-01
3.181321360227679085e-01 -3.434083505302440616e-03 -4.658164955415666775e-01
2.957114016799917283e-02 3.151631594078009579e-02 -1.145259390211319922e-01
4.538823235742417417e-02 -5.131877608739014995e-01 -5.600538392637172125e-01
-3.872615987371567092e-01 -6.335393635591951567e-01 -1.690216284857269102e-01
6.895402683886516781e-01 2.933229038116104692e-01 -6.495812506675479048e-01
-8.791567051172041736e-02 5.932580490277145069e-02 3.916556198771606323e-02
7.416058162642944485e-01 2.029132107874642987e-01 -7.790149120329222798e-01
-5.734534464385054875e-01 -2.735578148731244719e-01 3.226427030416719743e-01
5.850733697100888309e-01 8.310163039745970259e-01 -1.100702910021543884e-01
3.506430444682414604e-01 -1.630621957190832305e-01 -6.276644823102418558e-01
-7.263753654843989604e-01 -6.759456019057845655e-01 1.782515497078298594e-01
2.559764914124021962e-01 -1.516044249593136162e-01 -5.124250465475621574e-01
-4.606287237544546276e-01 2.112732832815926998e-01 5.767795202652054032e-01
6.645767275039791144e-01 6.774228370181801795e-01 -3.199171470028782105e-01
-4.257484331038459135e-01 -6.230631796614038292e-02 3.227820014709184560e-01
3.438304580307368630e-01 7.360068370032600837e-01 8.605426934964585661e-02
8.210156430867983357e-03 6.619873557135610431e-01 4.045797590102754859e-01
-1.156282130903042576e-01 -5.468267122300889405e-01 -4.057682408606225755e-01
7.699975273163603973e-01 5.886257476416474343e-01 -5.079632431498132261e-01
-2.097351804030461175e-01 -1.637418674925794626e-01 6.961067482697813613e-04
1.011867668683887472e-01 -2.316295427220982917e-01 -4.015563215353389892e-01
2.007483884938720542e-01 3.091349126151800991e-02 -3.071060507977785292e-01
-5.094587871559620035e-02 -6.525199112480659647e-01 -5.613640339770646914e-01
-6.621062886063504571e-01 -5.441746246168014389e-01 2.096092177912633192e-01
2.814593748700447984e-01 6.946818813755687438e-01 1.235972551462302255e-01
-3.145079498730965484e-01 -6.374682779637157459e-01 -2.537562223732793276e-01
4.430077794529102553e-01 3.407095831713546352e-01 -3.356912434214807672e-01
7.460423854716419223e-01 5.569454602779981833e-01 -5.059589001820882226e-01
-4.048273908172339564e-01 -3.206128881759857108e-01 9.644498958602754080e-02
5.548316532363705561e-02 7.362843193779633477e-01 4.098750293705808456e-01
-3.978019921604445397e-01 -3.791920676994518791e-02 3.105707431475282498e-01
3.833977536915602613e-01 8.978406176066174860e-01 1.687434139116045229e-01
-6.549475391804379654e-02 -1.664111705622081383e-01 -1.632765652182054938e-01
4.467988592705513518e-01 -3.272349327905975103e-01 -8.645081566984756938e-01
5.475706249222493938e-01 7.089162290877025763e-01 -1.638720195160463799e-01
3.137316058223862392e-01 9.820502063885618860e-01 3.130604811487975869e-01
-5.456970515237093977e-01 -6.648811486330701293e-01 -1.582854238015778472e-02
-3.527906050294236651e-01 -6.230208549104928606e-01 -1.994467239922423085e-01
5.087541871825110862e-01 3.085223887034024282e-01 -4.347541424118346876e-01
3.388164834166408901e-01 6.670561272992696633e-01 3.753166848501284653e-02
3.712572380641572245e-01 5.438274597042321856e-01 -9.565171463652029360e-02
6.517753254700195953e-01 4.073535827088831107e-01 -5.176462345934486065e-01
2.996918057775136979e-01 -1.016253075192942307e-01 -5.222348229005615572e-01
6.471612946085443518e-02 -2.958531213379166358e-01 -4.110637305792662066e-01
4.721570065281659456e-01 7.916729822587341703e-01 -1.424571918389650957e-02
2.488073278527163645e-01 -2.896836708751620026e-01 -6.128182249298932405e-01
-1.784084303978032138e-01 -2.711791816529550703e-01 -1.188355127759281038e-01
4.671686071656983019e-01 -3.157451878465242917e-02 -6.551750650566507961e-01
-2.391599953960767966e-01 3.258861751241758919e-01 4.182422037509682111e-01
-4.467308063870850110e-01 1.090402475367975438e-01 4.808948343828060024e-01
-3.163188766266836205e-01 -4.965611755182939291e-01 -1.410641554143772791e-01
7.180701466134722377e-01 3.550581300904818161e-01 -6.331163823753181985e-01
-6.394653097960301125e-01 -5.653252743928802726e-01 1.675895673411653963e-01
2.248830538473123863e-01 7.693610641381535276e-01 2.457394416075910915e-01
-7.271322108947116947e-01 -5.415790612652671143e-01 2.846241025865037244e-01
3.414402171468246538e-01 4.419757634388403744e-01 -1.421770584210133581e-01
-6.867574045495855595e-02 7.364847346026406893e-02 2.882134858605685940e-02
5.473084795045273232e-01 9.365234283819922068e-01 1.517079344368834140e-02
3.394554961405320537e-01 -7.303866947795044362e-02 -5.444101495001931745e-01
-2.069351626113206666e-01 -1.600712269349314210e-01 4.364313684919344854e-04
-5.639793110877857618e-01 1.202478258000223010e-01 6.212807785492191481e-01
-4.995478524431787304e-01 -3.521236665610970040e-01 1.780000845240497509e-01
-2.970476225568234319e-01 5.847716923839170189e-01 6.865202876805098775e-01
-2.320866148661741846e-01 -9.601048600646605591e-02 7.897243636433838587e-02
4.333414683913340559e-02 2.321578411669971038e-03 -1.528994573724572759e-01
-4.367495647541002474e-02 4.383829906454910219e-01 2.872037062245493266e-01
-1.037709294689639905e-01 -1.198816959273431154e-01 -8.377907981866192233e-02
-1.701796574505063109e-01 6.120812199926527475e-01 5.655876866264976099e-01
-3.832255717428632025e-01 -6.179014806621266898e-01 -1.612701051285402032e-01
6.289570514084363850e-01 4.390881317715330523e-01 -4.671156715855845909e-01
3.681281618279581558e-01 8.974687811137064264e-01 1.855879657168827690e-01
-1.027497179479010397e-01 -8.304237379931390661e-01 -6.429409215965952162e-01
2.680956845316470050e-01 -4.987493385646726146e-02 -4.461339752827542249e-01
2.563760148782731618e-01 7.832167923657176178e-01 2.212773417085453775e-01
6.334655409941233328e-01 2.143140519738103711e-01 -6.486990624846725728e-01
-3.816050960644268852e-01 5.582056311171404994e-01 7.605530646547208340e-01
4.797330051207047141e-01 7.702496807155659320e-02 -5.839883630631026445e-01
-2.444819258698242015e-01 -2.371030198674191070e-01 -1.792205570029856837e-02
-4.341170954075015964e-01 -8.536966499406265507e-01 -2.893351345532787500e-01
-2.383348335192005674e-01 4.732556889196776750e-01 5.330510518217208560e-01
4.090509458703823209e-01 -7.404172434970658634e-02 -6.233026095264480038e-01
-5.162588311092233262e-01 4.193035182423429652e-01 8.025854696629077800e-01
4.580872128872839205e-02 -6.191669739378702353e-01 -6.437552589680519688e-01
3.968134510845031104e-01 -3.920106678997380967e-01 -8.592820050711315050e-01
-5.484187320454309011e-01 -6.710020226666955079e-01 -1.758104419769197443e-02
1.546595008332061205e-01 -9.662282800354611567e-02 -3.555411188839492920e-01
7.412688730387477776e-01 5.449401761304589753e-01 -5.100299491163506893e-01
-1.079160040791487807e-01 6.268564016544655310e-03 1.994341448896341101e-02
4.459004864865331319e-01 4.636528070312332939e-01 -2.423856316455368642e-01
-5.342717140328481218e-01 -3.398558953688715634e-01 2.266039002145573966e-01
-5.930805773429799199e-01 -7.649753848743540141e-02 4.994285492556451156e-01
6.623098074372578414e-02 -6.062468691963672773e-01 -6.565278492864178306e-01
-5.697692995848575859e-02 8.029945576279187147e-01 5.884754525106452583e-01
6.311946865092266101e-01 6.513564332084214037e-01 -3.029245030546121598e-01
5.630797328995725826e-01 3.053860632931759134e-01 -4.981850216633791906e-01
7.049347244221877418e-01 7.489117296122003165e-01 -3.090666676341060626e-01
1.268475092779756674e-01 -2.298763906320761274e-01 -4.289777257588631154e-01
-6.023365874641265494e-01 -5.640887084308906507e-01 1.268923252911754451e-01
6.489762586866357763e-01 7.703661068978701065e-01 -2.294173501723658082e-01
-2.258371281343991011e-01 2.331702203590691469e-01 3.304770047275963352e-01
2.787864893167609215e-01 5.871770146591336337e-01 4.216927558872050896e-02
7.118783635164935841e-01 4.070908443884849182e-01 -5.853042691096935757e-01
6.531132596637525545e-01 1.459265861086993521e-01 -7.244563473828237177e-01
3.461606029715981470e-02 -4.525994741405836019e-01 -5.003822861933663324e-01
-7.378734939302920015e-01 -2.773322799362965083e-03 7.198233962523316043e-01
-1.772105775992589283e-01 6.618354326518031128e-01 6.125521420208073220e-01
3.537102296130790330e-02 -5.578996958458820599e-01 -5.839258371384915547e-01
-7.175942853670488897e-02 3.419606741056874233e-01 2.429978778841474785e-01
-1.640660148758411596e-01 -5.411356787655744460e-01 -3.469386765518859272e-01
-1.589076666184028042e-01 7.866280904416825814e-01 6.900158112268729438e-01
-6.788508717956411864e-01 -1.538273821249674933e-01 5.349557012888972451e-01
-2.309380347761604835e-01 -6.560368366507901561e-01 -3.621266331774408154e-01
1.073056736110711284e-01 8.478400247890287567e-01 4.393252547945911135e-01
-2.857419899542208430e-01 -4.799446492879323456e-01 -1.623300147016616957e-01
-1.063883394492727147e-01 -8.685823533412943831e-02 -5.490706195828960051e-02
